x y z intensity
2.592247 -0.591180 -0.661838 30.000000
2.599880 -0.623255 -0.664957 30.000000
2.597692 -0.653192 -0.665489 30.000000
2.609219 -0.686855 -0.669633 30.000000
2.620386 -0.720764 -0.673767 30.000000
2.617018 -0.751241 -0.674371 30.000000
2.613451 -0.781480 -0.674716 30.000000
2.637234 -0.820473 -0.682425 30.000000
2.637355 -0.852719 -0.684039 30.000000
2.632635 -0.883451 -0.684452 30.000000
2.632030 -0.915706 -0.686057 30.000000
2.635662 -0.949810 -0.688762 30.000000
2.620723 -0.977168 -0.686602 30.000000
2.646250 -1.020057 -0.695157 30.000000
2.639623 -1.050993 -0.695277 30.000000
2.632422 -1.082297 -0.695660 30.000000
2.638507 -1.118854 -0.699239 30.000000
2.661691 -1.163771 -0.707807 30.000000
2.662389 -1.198955 -0.710074 30.000000
2.644684 -1.226532 -0.707886 30.000000
2.648675 -1.264293 -0.711499 30.000000
2.656569 -1.304403 -0.716274 30.000000
2.664233 -1.344437 -0.720749 30.000000
2.662281 -1.380756 -0.723047 30.000000
2.664285 -1.419461 -0.726408 30.000000
2.657275 -1.453597 -0.727511 30.000000
2.662503 -1.494969 -0.732009 30.000000
2.696582 -1.553613 -0.744531 30.000000
2.687963 -1.588445 -0.745389 30.000000
2.695584 -1.633348 -0.750872 30.000000
2.690083 -1.670909 -0.752758 30.000000
2.683619 -1.709146 -0.754930 30.000000
2.607910 -1.701562 -0.737207 30.000000
2.504392 -1.673593 -0.711412 30.000000
2.433949 -1.665538 -0.694899 30.000000
2.300217 -1.611367 -0.660148 30.000000
2.226795 -1.597698 -0.642842 30.000000
2.142727 -1.573199 -0.621931 30.000000
2.063357 -1.550066 -0.602170 30.000000
2.007367 -1.543671 -0.589539 30.000000
1.933203 -1.520563 -0.571069 30.000000
1.867447 -1.502141 -0.554866 30.000000
1.805493 -1.486084 -0.540088 30.000000
1.774541 -1.493383 -0.534135 30.000000
1.743064 -1.500712 -0.528350 30.000000
1.712296 -1.506918 -0.522372 30.000000
1.691892 -1.523009 -0.519974 30.000000
1.675502 -1.541465 -0.518406 30.000000
1.647676 -1.550395 -0.513730 30.000000
1.631038 -1.568379 -0.512173 30.000000
1.610072 -1.583367 -0.509656 30.000000
1.610392 -1.618176 -0.513517 30.000000
1.588994 -1.632890 -0.510995 30.000000
1.574973 -1.653668 -0.510375 30.000000
1.556548 -1.671449 -0.508876 30.000000
1.542127 -1.691910 -0.508246 30.000000
1.520057 -1.705655 -0.505662 30.000000
1.494718 -1.715431 -0.501937 30.000000
1.489261 -1.746507 -0.504452 30.000000
1.469897 -1.763289 -0.502803 30.000000
1.451323 -1.779138 -0.501010 30.000000
1.443785 -1.810770 -0.503610 30.000000
1.420747 -1.823189 -0.500816 30.000000
1.410438 -1.850151 -0.502104 30.000000
1.387108 -1.862064 -0.499310 30.000000
1.372277 -1.885626 -0.499665 30.000000
1.355315 -1.904385 -0.498743 30.000000
1.328654 -1.911597 -0.494841 30.000000
1.310338 -1.930607 -0.494061 30.000000
1.309110 -1.973192 -0.499317 30.000000
1.295229 -2.000285 -0.500480 30.000000
1.270470 -2.010786 -0.497598 30.000000
1.257271 -2.036853 -0.498506 30.000000
1.232286 -2.046836 -0.495551 30.000000
1.222119 -2.081875 -0.498672 30.000000
1.218558 -2.129724 -0.504700 30.000000
1.011259 1.783401 -0.406035 30.000000
1.017313 1.751229 -0.402879 30.000000
1.043999 1.752207 -0.407393 30.000000
1.065788 1.744457 -0.409899 30.000000
1.084941 1.732240 -0.411490 30.000000
1.108174 1.728720 -0.415126 30.000000
1.132478 1.724252 -0.418649 30.000000
1.156899 1.719406 -0.422187 30.000000
1.185822 1.723025 -0.427808 30.000000
1.199074 1.701466 -0.427361 30.000000
1.203424 1.667990 -0.423743 30.000000
1.253685 1.697536 -0.436353 30.000000
1.274326 1.687829 -0.439014 30.000000
1.292783 1.673328 -0.440464 30.000000
1.320280 1.670146 -0.444983 30.000000
1.343887 1.663355 -0.448629 30.000000
1.365208 1.651857 -0.451126 30.000000
1.370753 1.621341 -0.448397 30.000000
1.400496 1.621247 -0.454067 30.000000
1.431226 1.619934 -0.459630 30.000000
1.458119 1.615176 -0.464311 30.000000
1.475841 1.598608 -0.465601 30.000000
1.496784 1.585391 -0.468009 30.000000
1.523637 1.579543 -0.472664 30.000000
1.561632 1.583086 -0.480299 30.000000
1.564489 1.552171 -0.477591 30.000000
1.599089 1.551357 -0.484138 30.000000
1.619681 1.536559 -0.486455 30.000000
1.650318 1.532001 -0.492190 30.000000
1.667130 1.513289 -0.493386 30.000000
1.705146 1.514315 -0.501233 30.000000
1.747629 1.517341 -0.509975 30.000000
1.771200 1.504423 -0.513507 30.000000
1.791516 1.487422 -0.515823 30.000000
1.807383 1.467625 -0.517133 30.000000
1.853606 1.471888 -0.527213 30.000000
1.889165 1.465828 -0.533769 30.000000
1.908679 1.447842 -0.536132 30.000000
1.936396 1.434904 -0.540539 30.000000
1.971528 1.427727 -0.547304 30.000000
2.002682 1.417143 -0.552996 30.000000
2.026365 1.399969 -0.556197 30.000000
2.073730 1.399290 -0.566260 30.000000
2.113110 1.392373 -0.574150 30.000000
2.140378 1.376845 -0.578664 30.000000
2.184417 1.370770 -0.587392 30.000000
2.207504 1.351564 -0.590828 30.000000
2.251299 1.344507 -0.599766 30.000000
2.295227 1.336720 -0.608734 30.000000
2.335041 1.325625 -0.616529 30.000000
2.383444 1.318515 -0.626674 30.000000
2.401892 1.294299 -0.628821 30.000000
2.402878 1.260763 -0.626557 30.000000
2.425154 1.238422 -0.629830 30.000000
2.407925 1.196298 -0.622870 30.000000
2.420812 1.169429 -0.623881 30.000000
2.420221 1.136266 -0.621411 30.000000
2.432451 1.109292 -0.622249 30.000000
2.453167 1.086513 -0.625609 30.000000
2.446960 1.051499 -0.621902 30.000000
2.458145 1.024457 -0.622820 30.000000
2.473760 0.998903 -0.624711 30.000000
2.461711 0.962695 -0.619923 30.000000
2.472068 0.935270 -0.620586 30.000000
2.477440 0.906255 -0.620270 30.000000
2.436640 0.861044 -0.608491 30.000000
2.482644 0.846629 -0.618399 30.000000
2.473199 0.812998 -0.614463 30.000000
2.486573 0.787119 -0.616266 30.000000
2.485606 0.756641 -0.614618 30.000000
2.484415 0.726370 -0.612884 30.000000
2.482757 0.696143 -0.611066 30.000000
2.499513 0.671251 -0.614021 30.000000
2.511369 0.644860 -0.615744 30.000000
2.522925 0.618203 -0.617470 30.000000
2.524788 0.589231 -0.616802 30.000000
2.511975 0.557042 -0.612657 30.000000
2.527468 0.531194 -0.615379 30.000000
2.528288 0.502293 -0.614705 30.000000
2.538325 0.475288 -0.616270 30.000000
2.543349 0.447172 -0.616675 30.000000
2.581638 0.424499 -0.625133 30.000000
2.566925 0.392987 -0.620729 30.000000
2.580628 0.365997 -0.623381 30.000000
2.570007 0.335484 -0.620136 30.000000
2.539626 0.303066 -0.612313 30.000000
2.552505 0.276020 -0.614963 30.000000
2.560164 0.248292 -0.616289 30.000000
2.572436 0.220791 -0.618782 30.000000
2.613413 0.195249 -0.628269 30.000000
2.595978 0.165065 -0.623688 30.000000
2.602466 0.136666 -0.624935 30.000000
2.603856 0.107877 -0.625017 30.000000
2.599978 0.078941 -0.623933 30.000000
2.610435 0.050311 -0.626347 30.000000
2.615624 0.021508 -0.627513 30.000000
2.615706 -0.007388 -0.627513 30.000000
2.576649 -0.035745 -0.618101 30.000000
2.551781 -0.063686 -0.612190 30.000000
2.555839 -0.092060 -0.613196 30.000000
2.554715 -0.120312 -0.613115 30.000000
2.577541 -0.149895 -0.618782 30.000000
2.600012 -0.180095 -0.624445 30.000000
2.612426 -0.209971 -0.627693 30.000000
2.619643 -0.239725 -0.629857 30.000000
2.592733 -0.266217 -0.623790 30.000000
2.584875 -0.294292 -0.622382 30.000000
2.586354 -0.323468 -0.623136 30.000000
2.597211 -0.353982 -0.626295 30.000000
2.607614 -0.384815 -0.629450 30.000000
2.627329 -0.417411 -0.634923 30.000000
2.593888 -0.441560 -0.627545 30.000000
2.608076 -0.473682 -0.631770 30.000000
2.612305 -0.504299 -0.633587 30.000000
2.621010 -0.536018 -0.636559 30.000000
2.624561 -0.567111 -0.638368 30.000000
2.622987 -0.597165 -0.639018 30.000000
2.616405 -0.626108 -0.638427 30.000000
2.637798 -0.662072 -0.644757 30.000000
2.606935 -0.684977 -0.638314 30.000000
2.632255 -0.722650 -0.645694 30.000000
2.633564 -0.754435 -0.647395 30.000000
2.643883 -0.789125 -0.651303 30.000000
2.663030 -0.827027 -0.657495 30.000000
2.667832 -0.860889 -0.660234 30.000000
2.658340 -0.890420 -0.659443 30.000000
2.671486 -0.927671 -0.664281 30.000000
2.633896 -0.947220 -0.656544 30.000000
2.664518 -0.991542 -0.665929 30.000000
2.667188 -1.026372 -0.668544 30.000000
2.651467 -1.053863 -0.666421 30.000000
2.671287 -1.096221 -0.673477 30.000000
2.699704 -1.142621 -0.682596 30.000000
2.678192 -1.168671 -0.679413 30.000000
2.692121 -1.209947 -0.685005 30.000000
2.678806 -1.239814 -0.683895 30.000000
2.682712 -1.277876 -0.687386 30.000000
2.673032 -1.309712 -0.687394 30.000000
2.680337 -1.350226 -0.691891 30.000000
2.691543 -1.393369 -0.697396 30.000000
2.693378 -1.432323 -0.700639 30.000000
2.703377 -1.476139 -0.706101 30.000000
2.708436 -1.517852 -0.710327 30.000000
2.708718 -1.557508 -0.713418 30.000000
2.729492 -1.609726 -0.722046 30.000000
2.728526 -1.649969 -0.724992 30.000000
2.727041 -1.690282 -0.727921 30.000000
2.716397 -1.726236 -0.728824 30.000000
2.668954 -1.737520 -0.719500 30.000000
2.564800 -1.710091 -0.694818 30.000000
2.457555 -1.677835 -0.669142 30.000000
2.342891 -1.638379 -0.641563 30.000000
2.265581 -1.621533 -0.623573 30.000000
2.192864 -1.606083 -0.606839 30.000000
2.120265 -1.589743 -0.590343 30.000000
2.041064 -1.565496 -0.571501 30.000000
1.942899 -1.525196 -0.547492 30.000000
1.892188 -1.518999 -0.536313 30.000000
1.853162 -1.521114 -0.528415 30.000000
1.780061 -1.494836 -0.511038 30.000000
1.741774 -1.495213 -0.503162 30.000000
1.721465 -1.511569 -0.500874 30.000000
1.690606 -1.517338 -0.495113 30.000000
1.662921 -1.526441 -0.490649 30.000000
1.639438 -1.537802 -0.487051 30.000000
1.629435 -1.563029 -0.487900 30.000000
1.601555 -1.571089 -0.483401 30.000000
1.602080 -1.605762 -0.487109 30.000000
1.567167 -1.606318 -0.480460 30.000000
1.560209 -1.633877 -0.481978 30.000000
1.548767 -1.658579 -0.482649 30.000000
1.527061 -1.672384 -0.480196 30.000000
1.509328 -1.688845 -0.478500 30.000000
1.490606 -1.705801 -0.477017 30.000000
1.475771 -1.725557 -0.476348 30.000000
1.450447 -1.734615 -0.472814 30.000000
1.443593 -1.766059 -0.475343 30.000000
1.431150 -1.789206 -0.475598 30.000000
1.417401 -1.812988 -0.476053 30.000000
1.400365 -1.832801 -0.475413 30.000000
1.384037 -1.851672 -0.474622 30.000000
1.369433 -1.875141 -0.474897 30.000000
1.348675 -1.890546 -0.473233 30.000000
1.302633 -1.869479 -0.462545 30.000000
1.294158 -1.899587 -0.464663 30.000000
1.289478 -1.938602 -0.468868 30.000000
1.286711 -1.981881 -0.473939 30.000000
1.263491 -1.991420 -0.470974 30.000000
1.251871 -2.022338 -0.473115 30.000000
1.234591 -2.044796 -0.473208 30.000000
1.212075 -2.058693 -0.471276 30.000000
1.215199 -2.114085 -0.478830 30.000000
1.010483 1.776582 -0.385874 30.000000
1.017529 1.743878 -0.382741 30.000000
1.037984 1.737119 -0.385307 30.000000
1.064729 1.737800 -0.389632 30.000000
1.086401 1.729863 -0.392031 30.000000
1.105317 1.717485 -0.393491 30.000000
1.136590 1.726051 -0.399827 30.000000
1.152731 1.709006 -0.400287 30.000000
1.185390 1.716122 -0.406544 30.000000
1.192863 1.686608 -0.404131 30.000000
1.227586 1.697549 -0.411454 30.000000
1.231563 1.663892 -0.408053 30.000000
1.270517 1.677287 -0.416196 30.000000
1.294000 1.671296 -0.419715 30.000000
1.309238 1.652786 -0.420119 30.000000
1.345868 1.660813 -0.427378 30.000000
1.366358 1.649952 -0.429825 30.000000
1.371757 1.619455 -0.427278 30.000000
1.395948 1.611337 -0.430579 30.000000
1.420103 1.602876 -0.433826 30.000000
1.450059 1.601936 -0.439277 30.000000
1.467622 1.585517 -0.440556 30.000000
1.494408 1.580178 -0.445043 30.000000
1.518561 1.570283 -0.448273 30.000000
1.552996 1.570476 -0.454537 30.000000
1.569581 1.553478 -0.455982 30.000000
1.590166 1.539059 -0.458235 30.000000
1.617105 1.531779 -0.462665 30.000000
1.630385 1.510124 -0.462826 30.000000
1.661452 1.504769 -0.468022 30.000000
1.710419 1.515741 -0.478572 30.000000
1.727093 1.496358 -0.479784 30.000000
1.765378 1.496313 -0.487247 30.000000
1.781834 1.476321 -0.488402 30.000000
1.820370 1.475240 -0.495913 30.000000
1.848098 1.463666 -0.500049 30.000000
1.879156 1.455271 -0.505533 30.000000
1.895174 1.434062 -0.506571 30.000000
1.926175 1.424780 -0.512012 30.000000
1.957276 1.414928 -0.517397 30.000000
1.992772 1.406864 -0.523624 30.000000
2.003824 1.382084 -0.523791 30.000000
2.071727 1.394926 -0.538477 30.000000
2.103032 1.382742 -0.543871 30.000000
2.134254 1.370041 -0.549283 30.000000
2.161406 1.354224 -0.553574 30.000000
2.197066 1.342509 -0.559841 30.000000
2.240916 1.335733 -0.568336 30.000000
2.276374 1.323156 -0.574809 30.000000
2.324516 1.317170 -0.584426 30.000000
2.368634 1.307905 -0.592919 30.000000
2.408728 1.295068 -0.600195 30.000000
2.431309 1.272938 -0.603368 30.000000
2.427627 1.237058 -0.600095 30.000000
2.436535 1.207983 -0.600040 30.000000
2.458334 1.185197 -0.603132 30.000000
2.439932 1.143739 -0.596591 30.000000
2.403362 1.094366 -0.585610 30.000000
2.477666 1.095332 -0.601611 30.000000
2.493923 1.069733 -0.603459 30.000000
2.478424 1.030746 -0.597702 30.000000
2.489334 1.003471 -0.598625 30.000000
2.481977 0.968680 -0.595021 30.000000
2.483179 0.937905 -0.593672 30.000000
2.470307 0.901980 -0.588873 30.000000
2.443122 0.861692 -0.580862 30.000000
2.479987 0.844143 -0.588163 30.000000
2.507540 0.822859 -0.593205 30.000000
2.497686 0.789243 -0.589474 30.000000
2.492125 0.757375 -0.586751 30.000000
2.504874 0.731200 -0.588422 30.000000
2.503317 0.700815 -0.586791 30.000000
2.515510 0.674344 -0.588381 30.000000
2.489531 0.638164 -0.581231 30.000000
2.562601 0.626885 -0.597250 30.000000
2.559872 0.596275 -0.595371 30.000000
2.537557 0.561660 -0.589231 30.000000
2.548266 0.534766 -0.590907 30.000000
2.553888 0.506573 -0.591233 30.000000
2.554473 0.477485 -0.590532 30.000000
2.564318 0.450106 -0.592048 30.000000
2.549800 0.418591 -0.587936 30.000000
2.583082 0.394868 -0.594838 30.000000
2.587253 0.366324 -0.595247 30.000000
2.591016 0.337781 -0.595492 30.000000
2.584851 0.308002 -0.593514 30.000000
2.607497 0.281494 -0.598124 30.000000
2.600666 0.251823 -0.596064 30.000000
2.583775 0.221450 -0.591860 30.000000
2.600631 0.193964 -0.595361 30.000000
2.607455 0.165619 -0.596555 30.000000
2.623694 0.137513 -0.599976 30.000000
2.620222 0.108362 -0.598945 30.000000
2.621207 0.079465 -0.599027 30.000000
2.631693 0.050674 -0.601254 30.000000
2.627230 0.021630 -0.600223 30.000000
2.627312 -0.007402 -0.600223 30.000000
2.612444 -0.036150 -0.596801 30.000000
2.606998 -0.064899 -0.595605 30.000000
2.581825 -0.092760 -0.589877 30.000000
2.585562 -0.121536 -0.590909 30.000000
2.569424 -0.149209 -0.587490 30.000000
2.630870 -0.181940 -0.601790 30.000000
2.599651 -0.208576 -0.594871 30.000000
2.611766 -0.238560 -0.597878 30.000000
2.613906 -0.267872 -0.598825 30.000000
2.601176 -0.295638 -0.596357 30.000000
2.626842 -0.327941 -0.602772 30.000000
2.642437 -0.359570 -0.606878 30.000000
2.628783 -0.387278 -0.604243 30.000000
2.638822 -0.418593 -0.607235 30.000000
2.571651 -0.437071 -0.592503 30.000000
2.633920 -0.477577 -0.607505 30.000000
2.619066 -0.504716 -0.604875 30.000000
2.613390 -0.533595 -0.604458 30.000000
2.631383 -0.567447 -0.609309 30.000000
2.629821 -0.597503 -0.609907 30.000000
2.642129 -0.631146 -0.613893 30.000000
2.644622 -0.662584 -0.615500 30.000000
2.618415 -0.686721 -0.610419 30.000000
2.657835 -0.728493 -0.620900 30.000000
2.659197 -0.760574 -0.622492 30.000000
2.674180 -0.796782 -0.627283 30.000000
2.670025 -0.827727 -0.627681 30.000000
2.670219 -0.860184 -0.629169 30.000000
2.669998 -0.892582 -0.630565 30.000000
2.697020 -0.934772 -0.638416 30.000000
2.654693 -0.952867 -0.629983 30.000000
2.685281 -0.997531 -0.638986 30.000000
2.674354 -1.026999 -0.638090 30.000000
2.699271 -1.070956 -0.645969 30.000000
2.696684 -1.104253 -0.647048 30.000000
2.693471 -1.137840 -0.648301 30.000000
2.707803 -1.179333 -0.653872 30.000000
2.699241 -1.211242 -0.654028 30.000000
2.672629 -1.234965 -0.649778 30.000000
2.712209 -1.289195 -0.661489 30.000000
2.689264 -1.314841 -0.658215 30.000000
2.705310 -1.359940 -0.664597 30.000000
2.699136 -1.394223 -0.665601 30.000000
2.714060 -1.439955 -0.671844 30.000000
2.723671 -1.484406 -0.677284 30.000000
2.720184 -1.521597 -0.679218 30.000000
2.720487 -1.561309 -0.682105 30.000000
2.762395 -1.625886 -0.695579 30.000000
2.765597 -1.668940 -0.699468 30.000000
2.771873 -1.715335 -0.704596 30.000000
2.749018 -1.743250 -0.702015 30.000000
2.717717 -1.765444 -0.697336 30.000000
2.604980 -1.733008 -0.671582 30.000000
2.508883 -1.709892 -0.650413 30.000000
2.374016 -1.656238 -0.618503 30.000000
2.311730 -1.651616 -0.605858 30.000000
2.210913 -1.616357 -0.582507 30.000000
2.150311 -1.608315 -0.569641 30.000000
2.050818 -1.569997 -0.546643 30.000000
1.979970 -1.550172 -0.530737 30.000000
1.916816 -1.535659 -0.517121 30.000000
1.862417 -1.525563 -0.505468 30.000000
1.789187 -1.499359 -0.488893 30.000000
1.758233 -1.506056 -0.483422 30.000000
1.700918 -1.490348 -0.470981 30.000000
1.688563 -1.512083 -0.470658 30.000000
1.660986 -1.521097 -0.466345 30.000000
1.633348 -1.529656 -0.462118 30.000000
1.613423 -1.543982 -0.459646 30.000000
1.578803 -1.544945 -0.453367 30.000000
1.569284 -1.568938 -0.453926 30.000000
1.545014 -1.579560 -0.450615 30.000000
1.547856 -1.618077 -0.455285 30.000000
1.537331 -1.641967 -0.455736 30.000000
1.522430 -1.662741 -0.455325 30.000000
1.504883 -1.679166 -0.453781 30.000000
1.486282 -1.695941 -0.452377 30.000000
1.454780 -1.697684 -0.446982 30.000000
1.458108 -1.740277 -0.452431 30.000000
1.427301 -1.740720 -0.446841 30.000000
1.429585 -1.783480 -0.452163 30.000000
1.409889 -1.799478 -0.450598 30.000000
1.382091 -1.802871 -0.446002 30.000000
1.373936 -1.833981 -0.448288 30.000000
1.356597 -1.853333 -0.447676 30.000000
1.334388 -1.863767 -0.444938 30.000000
1.308238 -1.870615 -0.441472 30.000000
1.293129 -1.893411 -0.441732 30.000000
1.288596 -1.932389 -0.445747 30.000000
1.281941 -1.966601 -0.448563 30.000000
1.260279 -1.980969 -0.446885 30.000000
1.246243 -2.007567 -0.447928 30.000000
1.224078 -2.021586 -0.446167 30.000000
1.210665 -2.047192 -0.447029 30.000000
1.217598 -2.111875 -0.456221 30.000000
1.011980 1.773958 -0.366772 30.000000
1.026387 1.753939 -0.366454 30.000000
1.041882 1.738691 -0.367076 30.000000
1.068655 1.739446 -0.371205 30.000000
1.087716 1.727288 -0.372598 30.000000
1.103920 1.710807 -0.373090 30.000000
1.125330 1.702402 -0.375321 30.000000
1.151197 1.702526 -0.379565 30.000000
1.175418 1.697534 -0.382791 30.000000
1.188318 1.676248 -0.382308 30.000000
1.197963 1.650856 -0.380830 30.000000
1.223844 1.649778 -0.385050 30.000000
1.250807 1.647679 -0.389163 30.000000
1.283928 1.652947 -0.395085 30.000000
1.285882 1.619863 -0.391861 30.000000
1.322126 1.628159 -0.398749 30.000000
1.358807 1.635907 -0.405673 30.000000
1.357635 1.598123 -0.401290 30.000000
1.400063 1.613063 -0.410202 30.000000
1.420978 1.600938 -0.412409 30.000000
1.445141 1.592108 -0.415571 30.000000
1.468524 1.583667 -0.418811 30.000000
1.492600 1.574139 -0.421929 30.000000
1.526945 1.574895 -0.427929 30.000000
1.540067 1.554834 -0.428333 30.000000
1.560639 1.540859 -0.430453 30.000000
1.591603 1.536824 -0.435475 30.000000
1.600782 1.512744 -0.434845 30.000000
1.649781 1.524617 -0.444680 30.000000
1.665925 1.506586 -0.446008 30.000000
1.693438 1.497462 -0.450055 30.000000
1.724735 1.491156 -0.455024 30.000000
1.744300 1.475449 -0.457282 30.000000
1.768068 1.462000 -0.460316 30.000000
1.795069 1.451824 -0.464489 30.000000
1.826405 1.443714 -0.469448 30.000000
1.853402 1.432629 -0.473580 30.000000
1.888709 1.426463 -0.479566 30.000000
1.923600 1.420305 -0.485721 30.000000
1.959031 1.412892 -0.491676 30.000000
1.978156 1.394124 -0.493879 30.000000
2.013634 1.385697 -0.499792 30.000000
2.056937 1.382667 -0.507961 30.000000
2.071685 1.359968 -0.509042 30.000000
2.119576 1.357783 -0.518031 30.000000
2.159076 1.349988 -0.525189 30.000000
2.194416 1.338936 -0.531281 30.000000
2.242738 1.334208 -0.540271 30.000000
2.248583 1.304570 -0.539297 30.000000
2.296688 1.298975 -0.548491 30.000000
2.327735 1.283013 -0.553556 30.000000
2.380551 1.277747 -0.563573 30.000000
2.420305 1.264985 -0.570635 30.000000
2.438289 1.240469 -0.572682 30.000000
2.447210 1.211259 -0.572594 30.000000
2.469055 1.188428 -0.575500 30.000000
2.450765 1.146570 -0.569235 30.000000
2.480901 1.127582 -0.574202 30.000000
2.488579 1.098154 -0.573935 30.000000
2.486880 1.064805 -0.571682 30.000000
2.470998 1.026293 -0.566314 30.000000
2.482099 0.998833 -0.567065 30.000000
2.483668 0.967821 -0.565657 30.000000
2.503133 0.943996 -0.568567 30.000000
2.462773 0.897777 -0.557788 30.000000
2.509160 0.883701 -0.566860 30.000000
2.518706 0.855811 -0.567441 30.000000
2.518461 0.825042 -0.566017 30.000000
2.522647 0.795782 -0.565633 30.000000
2.526389 0.766544 -0.565164 30.000000
2.529852 0.737325 -0.564693 30.000000
2.542456 0.710678 -0.566235 30.000000
2.564204 0.686373 -0.569878 30.000000
2.595173 0.664095 -0.575627 30.000000
2.568957 0.627463 -0.568770 30.000000
2.570883 0.597876 -0.568130 30.000000
2.567683 0.567504 -0.566519 30.000000
2.573675 0.539182 -0.566929 30.000000
2.579340 0.510860 -0.567422 30.000000
2.579953 0.481478 -0.566695 30.000000
2.585033 0.453045 -0.567023 30.000000
2.570495 0.421367 -0.563124 30.000000
2.579718 0.393802 -0.564507 30.000000
2.579035 0.364599 -0.563694 30.000000
2.548936 0.331800 -0.556531 30.000000
2.537830 0.301897 -0.553597 30.000000
2.584668 0.278680 -0.563285 30.000000
2.592373 0.250657 -0.564588 30.000000
2.575501 0.220363 -0.560432 30.000000
2.626490 0.195661 -0.571273 30.000000
2.633341 0.166937 -0.572415 30.000000
2.630109 0.137678 -0.571520 30.000000
2.641189 0.109131 -0.573723 30.000000
2.632411 0.079695 -0.571602 30.000000
2.642922 0.050851 -0.573723 30.000000
2.648221 0.021751 -0.574866 30.000000
2.643418 -0.007430 -0.573723 30.000000
2.657827 -0.036689 -0.576821 30.000000
2.662214 -0.066113 -0.577798 30.000000
2.646650 -0.094943 -0.574618 30.000000
2.645492 -0.124137 -0.574453 30.000000
2.687907 -0.155793 -0.583823 30.000000
2.690933 -0.185724 -0.584714 30.000000
2.659517 -0.213031 -0.578109 30.000000
2.686300 -0.245021 -0.584293 30.000000
2.688298 -0.275082 -0.585099 30.000000
2.660897 -0.301945 -0.579557 30.000000
2.672017 -0.333025 -0.582478 30.000000
2.673076 -0.363109 -0.583198 30.000000
2.688374 -0.395434 -0.587170 30.000000
2.688704 -0.425807 -0.587886 30.000000
2.659852 -0.451296 -0.582187 30.000000
2.674036 -0.484006 -0.585982 30.000000
2.673491 -0.514368 -0.586611 30.000000
2.682165 -0.546619 -0.589258 30.000000
2.676013 -0.576184 -0.588745 30.000000
2.674457 -0.606660 -0.589283 30.000000
2.677205 -0.638461 -0.590954 30.000000
2.679646 -0.670213 -0.592450 30.000000
2.676875 -0.700936 -0.592980 30.000000
2.683250 -0.734345 -0.595516 30.000000
2.698683 -0.770577 -0.600135 30.000000
2.708934 -0.805845 -0.603700 30.000000
2.704698 -0.837013 -0.604038 30.000000
2.732753 -0.878762 -0.611578 30.000000
2.713802 -0.905582 -0.608780 30.000000
2.713048 -0.938863 -0.610145 30.000000
2.702747 -0.968511 -0.609339 30.000000
2.714929 -1.006931 -0.613806 30.000000
2.735972 -1.048817 -0.620059 30.000000
2.719816 -1.077269 -0.618293 30.000000
2.721539 -1.112844 -0.620478 30.000000
2.740991 -1.155771 -0.626685 30.000000
2.737256 -1.189917 -0.627815 30.000000
2.737529 -1.226075 -0.629967 30.000000
2.741835 -1.264391 -0.633043 30.000000
2.750008 -1.305103 -0.637129 30.000000
2.757667 -1.346114 -0.641198 30.000000
2.760432 -1.385223 -0.644229 30.000000
2.762719 -1.424525 -0.647150 30.000000
2.764424 -1.464115 -0.650057 30.000000
2.773846 -1.508963 -0.655078 30.000000
2.765960 -1.544246 -0.655925 30.000000
2.778821 -1.591690 -0.661724 30.000000
2.791014 -1.639489 -0.667395 30.000000
2.785242 -1.678237 -0.669309 30.000000
2.787840 -1.721703 -0.672920 30.000000
2.818727 -1.783656 -0.683432 30.000000
2.782439 -1.804479 -0.678178 30.000000
2.713840 -1.802428 -0.664635 30.000000
2.645738 -1.798998 -0.651147 30.000000
2.440652 -1.699870 -0.604073 30.000000
2.354382 -1.678101 -0.585715 30.000000
2.272404 -1.658255 -0.568605 30.000000
2.171969 -1.621467 -0.546452 30.000000
2.126647 -1.624937 -0.538285 30.000000
2.043482 -1.596783 -0.520153 30.000000
1.937649 -1.549208 -0.496457 30.000000
1.883008 -1.539253 -0.485283 30.000000
1.835808 -1.535127 -0.476265 30.000000
1.759629 -1.504097 -0.459353 30.000000
1.731842 -1.514074 -0.455288 30.000000
1.689427 -1.510580 -0.447365 30.000000
1.644309 -1.502365 -0.438302 30.000000
1.627614 -1.520792 -0.437125 30.000000
1.597137 -1.524834 -0.431900 30.000000
1.594293 -1.556330 -0.434561 30.000000
1.566622 -1.563732 -0.430451 30.000000
1.546600 -1.577087 -0.428123 30.000000
1.539354 -1.605020 -0.429733 30.000000
1.514872 -1.615069 -0.426529 30.000000
1.501057 -1.634927 -0.426026 30.000000
1.486268 -1.655341 -0.425655 30.000000
1.471260 -1.675552 -0.425279 30.000000
1.488744 -1.732327 -0.434022 30.000000
1.453854 -1.730054 -0.427951 30.000000
1.425405 -1.734879 -0.423765 30.000000
1.412453 -1.758440 -0.424219 30.000000
1.394033 -1.773498 -0.422608 30.000000
1.386400 -1.804638 -0.424808 30.000000
1.357693 -1.808246 -0.420581 30.000000
1.344633 -1.830630 -0.420788 30.000000
1.338877 -1.865549 -0.423775 30.000000
1.318283 -1.880442 -0.422207 30.000000
1.291990 -1.887005 -0.418909 30.000000
1.269670 -1.896611 -0.416238 30.000000
1.275698 -1.951952 -0.423617 30.000000
1.254217 -1.966128 -0.422026 30.000000
1.232591 -1.980159 -0.420363 30.000000
1.220966 -2.010727 -0.422232 30.000000
1.207711 -2.036338 -0.423047 30.000000
1.190328 -2.058292 -0.423111 30.000000
1.008563 1.762580 -0.346016 30.000000
1.017759 1.734137 -0.343964 30.000000
1.038102 1.727528 -0.346304 30.000000
1.059596 1.719928 -0.348465 30.000000
1.086318 1.720413 -0.352338 30.000000
1.102422 1.703989 -0.352805 30.000000
1.126472 1.699752 -0.355781 30.000000
1.155087 1.703993 -0.360686 30.000000
1.168032 1.682891 -0.360229 30.000000
1.177884 1.657647 -0.358892 30.000000
1.201762 1.652313 -0.361897 30.000000
1.224797 1.647359 -0.365040 30.000000
1.242741 1.633551 -0.366249 30.000000
1.269690 1.631204 -0.370166 30.000000
1.296703 1.628398 -0.374036 30.000000
1.317560 1.617626 -0.376085 30.000000
1.350182 1.622366 -0.381895 30.000000
1.351979 1.588447 -0.378673 30.000000
1.385465 1.591730 -0.384317 30.000000
1.405426 1.580415 -0.386525 30.000000
1.429299 1.571880 -0.389443 30.000000
1.449852 1.559397 -0.391534 30.000000
1.500776 1.578715 -0.401726 30.000000
1.524187 1.569478 -0.404829 30.000000
1.537971 1.548810 -0.405071 30.000000
1.554908 1.531534 -0.406155 30.000000
1.578109 1.521420 -0.409210 30.000000
1.598358 1.507029 -0.411219 30.000000
1.636540 1.509009 -0.417844 30.000000
1.663451 1.501051 -0.421794 30.000000
1.683625 1.485585 -0.423765 30.000000
1.714189 1.480017 -0.428741 30.000000
1.741699 1.470249 -0.432522 30.000000
1.765419 1.456890 -0.435382 30.000000
1.792313 1.446804 -0.439401 30.000000
1.823622 1.438790 -0.444087 30.000000
1.838923 1.418870 -0.445242 30.000000
1.878037 1.415892 -0.451840 30.000000
1.904950 1.404019 -0.455773 30.000000
1.944226 1.399828 -0.462415 30.000000
1.987296 1.398230 -0.470180 30.000000
1.998583 1.373093 -0.470135 30.000000
2.029508 1.362099 -0.475006 30.000000
2.056794 1.347370 -0.478708 30.000000
2.091836 1.337963 -0.484567 30.000000
2.131484 1.330078 -0.491172 30.000000
2.162466 1.316770 -0.496033 30.000000
2.197651 1.305521 -0.501793 30.000000
2.258581 1.307920 -0.513281 30.000000
2.285440 1.290234 -0.517155 30.000000
2.307832 1.269819 -0.519989 30.000000
2.360590 1.264774 -0.529537 30.000000
2.387215 1.245587 -0.533368 30.000000
2.426770 1.232609 -0.540129 30.000000
2.475238 1.223144 -0.548774 30.000000
2.488296 1.195825 -0.549719 30.000000
2.478884 1.158044 -0.545688 30.000000
2.486850 1.128601 -0.545475 30.000000
2.512463 1.107080 -0.549268 30.000000
2.519833 1.077382 -0.549054 30.000000
2.499734 1.036432 -0.542853 30.000000
2.501755 1.005150 -0.541641 30.000000
2.517065 0.979232 -0.543299 30.000000
2.513813 0.946223 -0.541010 30.000000
2.528452 0.920305 -0.542751 30.000000
2.538337 0.892326 -0.543337 30.000000
2.538522 0.861365 -0.542025 30.000000
2.561760 0.837807 -0.545502 30.000000
2.565982 0.808220 -0.545180 30.000000
2.565231 0.777148 -0.543778 30.000000
2.587608 0.752960 -0.547348 30.000000
2.567266 0.716606 -0.541875 30.000000
2.579636 0.689566 -0.543370 30.000000
2.591784 0.662338 -0.544867 30.000000
2.613061 0.637244 -0.548280 30.000000
2.624535 0.609619 -0.549782 30.000000
2.592810 0.572220 -0.542116 30.000000
2.598848 0.543687 -0.542529 30.000000
2.594943 0.513171 -0.540939 30.000000
2.605197 0.485477 -0.542271 30.000000
2.610315 0.456832 -0.542601 30.000000
2.600602 0.425731 -0.540003 30.000000
2.575982 0.392652 -0.534224 30.000000
2.575272 0.363555 -0.533463 30.000000
2.569366 0.333934 -0.531696 30.000000
2.558246 0.303949 -0.528841 30.000000
2.575985 0.277350 -0.532100 30.000000
2.622766 0.253255 -0.541317 30.000000
2.630191 0.224775 -0.542487 30.000000
2.652030 0.197278 -0.546679 30.000000
2.654018 0.168113 -0.546844 30.000000
2.665457 0.139377 -0.548859 30.000000
2.661895 0.109819 -0.547935 30.000000
2.658078 0.080370 -0.547010 30.000000
2.663721 0.051216 -0.548018 30.000000
2.664053 0.021914 -0.548018 30.000000
2.669033 -0.007401 -0.549025 30.000000
2.673764 -0.036908 -0.549949 30.000000
2.697660 -0.066924 -0.554901 30.000000
2.667453 -0.095551 -0.548775 30.000000
2.705343 -0.126740 -0.556746 30.000000
2.718492 -0.157291 -0.559682 30.000000
2.721511 -0.187576 -0.560519 30.000000
2.680329 -0.214369 -0.552217 30.000000
2.707082 -0.246522 -0.558083 30.000000
2.704287 -0.276247 -0.557744 30.000000
2.696202 -0.305420 -0.556570 30.000000
2.717039 -0.338116 -0.561252 30.000000
2.713286 -0.367970 -0.560996 30.000000
2.718799 -0.399247 -0.562746 30.000000
2.709424 -0.428357 -0.561401 30.000000
2.641852 -0.447542 -0.547951 30.000000
2.709239 -0.489572 -0.562549 30.000000
2.684506 -0.515632 -0.558119 30.000000
2.693118 -0.548108 -0.560692 30.000000
2.730148 -0.586908 -0.569252 30.000000
2.709290 -0.613754 -0.565823 30.000000
2.702542 -0.643429 -0.565218 30.000000
2.719130 -0.679040 -0.569766 30.000000
2.673699 -0.699062 -0.561280 30.000000
2.732129 -0.746489 -0.574596 30.000000
2.733264 -0.779163 -0.575964 30.000000
2.743470 -0.814745 -0.579313 30.000000
2.743924 -0.847758 -0.580581 30.000000
2.739291 -0.879300 -0.580856 30.000000
2.743479 -0.914133 -0.583194 30.000000
2.747384 -0.948912 -0.585345 30.000000
2.718427 -0.972619 -0.580768 30.000000
2.749198 -1.017593 -0.588729 30.000000
2.751710 -1.053144 -0.590949 30.000000
2.749182 -1.087012 -0.592088 30.000000
2.778074 -1.133959 -0.600084 30.000000
2.761042 -1.162593 -0.598265 30.000000
2.775257 -1.204607 -0.603198 30.000000
2.761983 -1.235205 -0.602351 30.000000
2.743971 -1.263469 -0.600341 30.000000
2.752314 -1.304047 -0.604266 30.000000
2.773278 -1.351463 -0.610995 30.000000
2.789196 -1.397267 -0.616727 30.000000
2.800031 -1.441306 -0.621467 30.000000
2.806042 -1.483531 -0.625123 30.000000
2.811014 -1.526434 -0.628959 30.000000
2.807257 -1.564440 -0.630653 30.000000
2.828505 -1.617041 -0.638002 30.000000
2.823168 -1.655999 -0.639765 30.000000
2.821976 -1.696953 -0.642270 30.000000
2.828615 -1.743325 -0.646671 30.000000
2.821643 -1.782696 -0.648291 30.000000
2.794101 -1.808179 -0.644936 30.000000
2.728923 -1.809478 -0.633251 30.000000
2.664600 -1.808865 -0.621306 30.000000
2.616261 -1.818974 -0.613488 30.000000
2.392511 -1.702314 -0.563910 30.000000
2.306145 -1.679808 -0.546638 30.000000
2.224963 -1.657946 -0.530291 30.000000
2.132313 -1.626186 -0.511292 30.000000
2.072211 -1.616119 -0.499685 30.000000
2.000495 -1.596326 -0.485496 30.000000
1.910995 -1.559022 -0.466489 30.000000
1.837099 -1.533096 -0.451435 30.000000
1.797658 -1.534465 -0.444772 30.000000
1.740483 -1.518378 -0.433310 30.000000
1.708961 -1.524654 -0.428556 30.000000
1.645457 -1.500092 -0.415287 30.000000
1.618080 -1.508354 -0.411438 30.000000
1.597767 -1.523021 -0.409427 30.000000
1.578076 -1.536719 -0.407217 30.000000
1.561055 -1.554287 -0.406055 30.000000
1.550720 -1.578735 -0.406700 30.000000
1.530557 -1.591807 -0.404426 30.000000
1.509648 -1.605215 -0.402363 30.000000
1.495273 -1.625652 -0.402028 30.000000
1.483904 -1.649547 -0.402580 30.000000
1.466493 -1.665444 -0.401135 30.000000
1.444908 -1.678024 -0.398941 30.000000
1.439048 -1.709081 -0.401240 30.000000
1.427366 -1.731987 -0.401477 30.000000
1.405212 -1.744018 -0.399277 30.000000
1.389097 -1.763507 -0.398763 30.000000
1.369684 -1.778884 -0.397441 30.000000
1.361975 -1.809860 -0.399524 30.000000
1.340174 -1.820283 -0.397045 30.000000
1.320143 -1.835131 -0.395644 30.000000
1.311231 -1.865960 -0.397608 30.000000
1.282379 -1.868329 -0.393558 30.000000
1.257515 -1.873624 -0.390239 30.000000
1.263906 -1.928815 -0.397260 30.000000
1.248007 -1.951186 -0.397452 30.000000
1.231783 -1.973389 -0.397559 30.000000
1.210033 -1.987145 -0.396046 30.000000
1.202108 -2.021005 -0.398495 30.000000
1.187402 -2.047119 -0.399316 30.000000
1.009815 1.759619 -0.326989 30.000000
1.005368 1.710536 -0.321239 30.000000
1.036752 1.720385 -0.326477 30.000000
1.058101 1.712845 -0.328524 30.000000
1.082118 1.709230 -0.331386 30.000000
1.103446 1.701233 -0.333448 30.000000
1.122010 1.688753 -0.334640 30.000000
1.147761 1.689077 -0.338472 30.000000
1.168961 1.680175 -0.340493 30.000000
1.173019 1.646982 -0.337579 30.000000
1.202594 1.649721 -0.342073 30.000000
1.220598 1.636202 -0.343210 30.000000
1.243506 1.630967 -0.346201 30.000000
1.264311 1.620889 -0.348179 30.000000
1.288149 1.614406 -0.350999 30.000000
1.312028 1.607594 -0.353831 30.000000
1.335042 1.601031 -0.356803 30.000000
1.352534 1.586056 -0.357900 30.000000
1.379547 1.582029 -0.361544 30.000000
1.400116 1.570236 -0.363500 30.000000
1.423236 1.562404 -0.366446 30.000000
1.443613 1.550037 -0.368416 30.000000
1.470731 1.544531 -0.372043 30.000000
1.522001 1.563303 -0.381717 30.000000
1.545373 1.553792 -0.384663 30.000000
1.558837 1.532957 -0.384814 30.000000
1.575639 1.515478 -0.385898 30.000000
1.609551 1.515279 -0.391409 30.000000
1.633375 1.503861 -0.394185 30.000000
1.660797 1.495368 -0.397776 30.000000
1.680839 1.479986 -0.399625 30.000000
1.700259 1.464939 -0.401686 30.000000
1.731317 1.458557 -0.406192 30.000000
1.758222 1.449065 -0.409901 30.000000
1.785613 1.438545 -0.413552 30.000000
1.805193 1.421537 -0.415366 30.000000
1.831993 1.410875 -0.419110 30.000000
1.859204 1.399167 -0.422651 30.000000
1.897918 1.396304 -0.429109 30.000000
1.925176 1.383646 -0.432679 30.000000
1.972456 1.384705 -0.440683 30.000000
2.007539 1.377006 -0.446237 30.000000
2.022569 1.354497 -0.447068 30.000000
2.049417 1.340366 -0.450765 30.000000
2.084730 1.330644 -0.456135 30.000000
2.123966 1.323450 -0.462586 30.000000
2.163305 1.315397 -0.468982 30.000000
2.198828 1.303729 -0.474329 30.000000
2.225559 1.286991 -0.478023 30.000000
2.273862 1.281397 -0.486145 30.000000
2.309095 1.268273 -0.491622 30.000000
2.335672 1.249875 -0.495279 30.000000
2.371118 1.235073 -0.500620 30.000000
2.406231 1.220121 -0.506059 30.000000
2.454553 1.211043 -0.514283 30.000000
2.489707 1.194644 -0.519757 30.000000
2.511390 1.171443 -0.522468 30.000000
2.524127 1.143387 -0.523070 30.000000
2.536348 1.115590 -0.523845 30.000000
2.543792 1.085778 -0.523689 30.000000
2.541772 1.052051 -0.521582 30.000000
2.557611 1.025938 -0.523198 30.000000
2.532024 0.983462 -0.516412 30.000000
2.537805 0.954056 -0.516237 30.000000
2.543465 0.924415 -0.515890 30.000000
2.562654 0.899587 -0.518353 30.000000
2.567538 0.869912 -0.518090 30.000000
2.576803 0.841611 -0.518679 30.000000
2.590500 0.814615 -0.520125 30.000000
2.603891 0.787600 -0.521573 30.000000
2.593399 0.753548 -0.518394 30.000000
2.596642 0.723696 -0.517955 30.000000
2.604349 0.695213 -0.518457 30.000000
2.625993 0.670206 -0.521796 30.000000
2.614071 0.636585 -0.518433 30.000000
2.606496 0.604493 -0.515927 30.000000
2.641665 0.582226 -0.522111 30.000000
2.623776 0.548116 -0.517707 30.000000
2.619976 0.517388 -0.516143 30.000000
2.620545 0.487686 -0.515525 30.000000
2.606340 0.455472 -0.512057 30.000000
2.591733 0.423683 -0.508583 30.000000
2.581664 0.392977 -0.505975 30.000000
2.590665 0.365250 -0.507170 30.000000
2.604223 0.338049 -0.509318 30.000000
2.612525 0.309973 -0.510515 30.000000
2.601156 0.279692 -0.507820 30.000000
2.604003 0.251064 -0.507983 30.000000
2.631058 0.224522 -0.512913 30.000000
2.687198 0.199626 -0.523483 30.000000
2.689209 0.170055 -0.523567 30.000000
2.676180 0.139716 -0.520790 30.000000
2.687320 0.110710 -0.522781 30.000000
2.698219 0.081490 -0.524773 30.000000
2.689160 0.051676 -0.522864 30.000000
2.679679 0.021995 -0.520956 30.000000
2.689578 -0.007442 -0.522864 30.000000
2.689411 -0.037043 -0.522781 30.000000
2.654479 -0.065710 -0.516020 30.000000
2.673191 -0.095551 -0.519753 30.000000
2.672027 -0.124907 -0.519669 30.000000
2.729331 -0.157659 -0.530942 30.000000
2.747047 -0.189009 -0.534583 30.000000
2.720358 -0.217272 -0.529734 30.000000
2.722786 -0.247580 -0.530432 30.000000
2.739429 -0.279490 -0.534070 30.000000
2.736262 -0.309536 -0.533813 30.000000
2.747366 -0.341398 -0.536409 30.000000
2.733764 -0.370287 -0.534250 30.000000
2.729562 -0.400302 -0.533907 30.000000
2.739650 -0.432526 -0.536412 30.000000
2.700939 -0.456798 -0.529341 30.000000
2.734481 -0.493402 -0.536584 30.000000
2.724132 -0.522532 -0.535291 30.000000
2.727978 -0.554317 -0.536754 30.000000
2.726549 -0.585369 -0.537267 30.000000
2.729626 -0.617349 -0.538637 30.000000
2.737173 -0.650763 -0.541035 30.000000
2.758502 -0.687881 -0.546258 30.000000
2.722397 -0.710742 -0.540073 30.000000
2.752427 -0.750896 -0.546992 30.000000
2.758263 -0.785071 -0.549193 30.000000
2.768452 -0.820864 -0.552327 30.000000
2.768866 -0.853995 -0.553575 30.000000
2.773444 -0.889011 -0.555757 30.000000
2.772902 -0.922606 -0.556995 30.000000
2.799971 -0.965650 -0.563748 30.000000
2.780047 -0.993169 -0.561237 30.000000
2.755311 -1.018597 -0.557705 30.000000
2.790068 -1.066060 -0.566104 30.000000
2.796658 -1.103890 -0.569081 30.000000
2.789068 -1.136467 -0.569169 30.000000
2.799181 -1.176573 -0.572963 30.000000
2.808805 -1.216987 -0.576743 30.000000
2.786521 -1.243781 -0.573944 30.000000
2.790546 -1.282883 -0.576878 30.000000
2.794201 -1.321902 -0.579610 30.000000
2.815063 -1.369624 -0.586010 30.000000
2.817677 -1.409230 -0.588614 30.000000
2.828552 -1.453519 -0.593037 30.000000
2.842788 -1.500979 -0.598555 30.000000
2.839387 -1.539042 -0.600098 30.000000
2.826942 -1.572509 -0.599907 30.000000
2.839360 -1.620897 -0.605274 30.000000
2.855649 -1.671820 -0.611221 30.000000
2.841278 -1.706083 -0.611100 30.000000
2.814389 -1.731885 -0.607954 30.000000
2.795522 -1.762544 -0.606621 30.000000
2.776040 -1.793613 -0.605391 30.000000
2.744251 -1.815618 -0.601361 30.000000
2.703680 -1.832343 -0.595651 30.000000
2.522241 -1.749573 -0.558435 30.000000
2.418588 -1.717744 -0.538445 30.000000
2.347720 -1.707089 -0.525757 30.000000
2.254342 -1.676772 -0.507519 30.000000
2.173050 -1.654177 -0.492197 30.000000
2.089249 -1.626248 -0.475807 30.000000
2.028841 -1.615755 -0.464953 30.000000
1.934593 -1.576174 -0.446302 30.000000
1.864698 -1.552962 -0.432699 30.000000
1.806323 -1.538611 -0.422015 30.000000
1.752715 -1.525703 -0.412035 30.000000
1.695337 -1.509210 -0.401377 30.000000
1.656818 -1.508173 -0.395112 30.000000
1.618458 -1.506441 -0.388874 30.000000
1.598857 -1.520449 -0.386777 30.000000
1.571447 -1.527854 -0.383101 30.000000
1.561526 -1.552250 -0.383731 30.000000
1.541632 -1.565451 -0.381648 30.000000
1.517510 -1.575504 -0.378785 30.000000
1.503477 -1.595891 -0.378551 30.000000
1.485891 -1.612595 -0.377397 30.000000
1.475449 -1.635735 -0.377729 30.000000
1.463964 -1.659497 -0.378255 30.000000
1.432792 -1.660738 -0.373663 30.000000
1.427241 -1.691697 -0.375788 30.000000
1.406357 -1.703037 -0.373584 30.000000
1.393822 -1.726295 -0.373947 30.000000
1.377857 -1.745547 -0.373539 30.000000
1.361669 -1.764728 -0.373057 30.000000
1.352239 -1.790882 -0.374075 30.000000
1.323736 -1.793972 -0.370298 30.000000
1.321320 -1.832601 -0.373886 30.000000
1.315399 -1.867373 -0.376555 30.000000
1.294911 -1.881927 -0.375142 30.000000
1.280921 -1.903750 -0.375201 30.000000
1.251861 -1.905496 -0.371371 30.000000
1.241581 -1.936002 -0.373164 30.000000
1.222939 -1.953981 -0.372540 30.000000
1.204063 -1.971733 -0.371838 30.000000
1.197585 -2.010464 -0.375086 30.000000
1.181865 -2.031512 -0.374998 30.000000
1.004934 1.748580 -0.306672 30.000000
1.016455 1.724476 -0.305592 30.000000
1.035303 1.713043 -0.306766 30.000000
1.061774 1.714028 -0.310221 30.000000
1.067210 1.681216 -0.307588 30.000000
1.099003 1.689998 -0.312587 30.000000
1.121907 1.686520 -0.315370 30.000000
1.143018 1.677966 -0.317331 30.000000
1.164156 1.669224 -0.319235 30.000000
1.173716 1.644150 -0.318033 30.000000
1.191627 1.630982 -0.319094 30.000000
1.221178 1.633447 -0.323349 30.000000
1.238130 1.620402 -0.324547 30.000000
1.261857 1.614318 -0.327258 30.000000
1.288710 1.611764 -0.330708 30.000000
1.309375 1.601171 -0.332586 30.000000
1.336329 1.597890 -0.335998 30.000000
1.336976 1.564832 -0.333226 30.000000
1.373511 1.572115 -0.339053 30.000000
1.393903 1.560433 -0.340890 30.000000
1.420966 1.555772 -0.344344 30.000000
1.457450 1.562106 -0.350306 30.000000
1.474497 1.545787 -0.351363 30.000000
1.515454 1.554059 -0.358051 30.000000
1.528957 1.533579 -0.358242 30.000000
1.527503 1.499756 -0.355287 30.000000
1.565204 1.503168 -0.361139 30.000000
1.588842 1.492397 -0.363725 30.000000
1.634216 1.501282 -0.371269 30.000000
1.646342 1.480269 -0.371540 30.000000
1.677391 1.474863 -0.375818 30.000000
1.700973 1.462490 -0.378380 30.000000
1.720228 1.447196 -0.380255 30.000000
1.747444 1.437387 -0.383667 30.000000
1.767044 1.420865 -0.385416 30.000000
1.797632 1.413821 -0.389758 30.000000
1.832604 1.408732 -0.394817 30.000000
1.855870 1.394185 -0.397363 30.000000
1.890534 1.388503 -0.402598 30.000000
1.925732 1.381730 -0.407635 30.000000
1.956622 1.371981 -0.411987 30.000000
1.959375 1.341798 -0.410247 30.000000
2.014966 1.347264 -0.419584 30.000000
2.041754 1.333349 -0.423125 30.000000
2.081180 1.326424 -0.429018 30.000000
2.099505 1.306245 -0.430793 30.000000
2.151649 1.305804 -0.439297 30.000000
2.186795 1.294803 -0.444461 30.000000
2.222216 1.282705 -0.449483 30.000000
2.257427 1.270455 -0.454680 30.000000
2.288504 1.254803 -0.458865 30.000000
2.323645 1.241253 -0.464092 30.000000
2.358710 1.227145 -0.469254 30.000000
2.385236 1.207532 -0.472523 30.000000
2.446743 1.205366 -0.482941 30.000000
2.495196 1.195502 -0.490687 30.000000
2.521361 1.174296 -0.494082 30.000000
2.538605 1.148306 -0.495561 30.000000
2.541855 1.116451 -0.494584 30.000000
2.544762 1.084707 -0.493602 30.000000
2.556339 1.056666 -0.494288 30.000000
2.563089 1.026794 -0.494008 30.000000
2.555693 0.991425 -0.491166 30.000000
2.589354 0.972026 -0.496175 30.000000
2.562808 0.930040 -0.489704 30.000000
2.577342 0.903518 -0.491180 30.000000
2.563606 0.867432 -0.487427 30.000000
2.591634 0.845337 -0.491479 30.000000
2.619457 0.822662 -0.495453 30.000000
2.632936 0.795391 -0.496938 30.000000
2.641381 0.766390 -0.497365 30.000000
2.649569 0.737389 -0.497876 30.000000
2.624055 0.699518 -0.492147 30.000000
2.602948 0.663421 -0.487214 30.000000
2.600386 0.632437 -0.485845 30.000000
2.587940 0.599442 -0.482684 30.000000
2.613501 0.575244 -0.486592 30.000000
2.653352 0.553556 -0.493189 30.000000
2.644675 0.521610 -0.490839 30.000000
2.621177 0.487201 -0.485795 30.000000
2.577849 0.449963 -0.477157 30.000000
2.616538 0.427180 -0.483682 30.000000
2.606473 0.396259 -0.481317 30.000000
2.600822 0.366261 -0.479766 30.000000
2.614407 0.338926 -0.481726 30.000000
2.632576 0.311955 -0.484587 30.000000
2.616305 0.280986 -0.481236 30.000000
2.643640 0.254608 -0.485815 30.000000
2.602172 0.221844 -0.477881 30.000000
2.687822 0.199429 -0.493347 30.000000
2.694737 0.170222 -0.494331 30.000000
2.696413 0.140651 -0.494415 30.000000
2.702667 0.111282 -0.495316 30.000000
2.698842 0.081425 -0.494499 30.000000
2.704514 0.051949 -0.495399 30.000000
2.695014 0.022159 -0.493682 30.000000
2.670507 -0.007374 -0.489094 30.000000
2.690012 -0.036975 -0.492614 30.000000
2.684511 -0.066317 -0.491630 30.000000
2.688509 -0.095985 -0.492530 30.000000
2.692254 -0.125678 -0.493347 30.000000
2.734940 -0.157744 -0.501280 30.000000
2.757604 -0.189517 -0.505608 30.000000
2.745569 -0.218921 -0.503638 30.000000
2.733294 -0.248195 -0.501669 30.000000
2.749972 -0.280160 -0.505093 30.000000
2.756574 -0.311364 -0.506633 30.000000
2.757927 -0.342262 -0.507272 30.000000
2.763796 -0.373841 -0.508808 30.000000
2.735222 -0.400559 -0.503979 30.000000
2.730763 -0.430487 -0.503636 30.000000
2.754977 -0.465331 -0.508752 30.000000
2.720730 -0.490258 -0.503035 30.000000
2.768474 -0.530280 -0.512444 30.000000
2.757707 -0.559554 -0.511113 30.000000
2.751511 -0.589840 -0.510764 30.000000
2.783355 -0.628711 -0.517465 30.000000
2.757217 -0.654609 -0.513457 30.000000
2.769018 -0.689600 -0.516492 30.000000
2.766169 -0.721108 -0.516850 30.000000
2.758190 -0.751339 -0.516318 30.000000
2.792543 -0.793587 -0.523776 30.000000
2.797875 -0.828477 -0.525897 30.000000
2.807638 -0.864765 -0.528806 30.000000
2.812134 -0.900146 -0.530823 30.000000
2.802155 -0.931000 -0.530273 30.000000
2.819912 -0.971102 -0.534744 30.000000
2.818457 -1.005293 -0.535859 30.000000
2.788947 -1.029369 -0.531689 30.000000
2.814401 -1.074007 -0.537984 30.000000
2.802541 -1.104824 -0.537237 30.000000
2.813198 -1.144730 -0.540873 30.000000
2.823373 -1.185042 -0.544402 30.000000
2.828443 -1.223707 -0.547043 30.000000
2.828561 -1.260668 -0.548801 30.000000
2.810074 -1.289903 -0.547162 30.000000
2.835960 -1.339492 -0.554129 30.000000
2.856814 -1.387711 -0.560104 30.000000
2.846063 -1.421011 -0.559888 30.000000
2.856579 -1.466045 -0.564292 30.000000
2.862345 -1.508666 -0.567517 30.000000
2.880557 -1.558594 -0.573311 30.000000
2.880530 -1.600022 -0.575739 30.000000
2.858794 -1.629025 -0.573757 30.000000
2.836501 -1.658137 -0.571880 30.000000
2.818486 -1.689077 -0.570659 30.000000
2.787167 -1.712483 -0.567079 30.000000
2.776863 -1.748026 -0.567466 30.000000
2.749172 -1.773476 -0.564647 30.000000
2.734134 -1.806081 -0.564178 30.000000
2.693738 -1.822513 -0.558829 30.000000
2.576277 -1.785062 -0.537440 30.000000
2.472537 -1.753054 -0.518381 30.000000
2.397269 -1.740017 -0.505480 30.000000
2.279619 -1.692422 -0.483223 30.000000
2.213710 -1.681948 -0.472037 30.000000
2.125064 -1.652013 -0.455889 30.000000
2.026188 -1.610584 -0.437233 30.000000
1.958672 -1.592578 -0.425312 30.000000
1.895523 -1.576462 -0.414352 30.000000
1.826059 -1.552121 -0.401564 30.000000
1.790245 -1.556189 -0.396479 30.000000
1.710405 -1.520376 -0.381404 30.000000
1.664912 -1.512184 -0.373715 30.000000
1.622911 -1.507126 -0.367019 30.000000
1.595531 -1.514886 -0.363546 30.000000
1.585869 -1.539453 -0.364150 30.000000
1.552014 -1.539036 -0.358869 30.000000
1.535047 -1.556205 -0.357856 30.000000
1.517878 -1.573172 -0.356774 30.000000
1.487024 -1.575647 -0.352481 30.000000
1.477043 -1.598706 -0.352875 30.000000
1.462722 -1.618720 -0.352596 30.000000
1.448186 -1.638538 -0.352245 30.000000
1.433434 -1.658293 -0.351956 30.000000
1.425590 -1.684776 -0.353038 30.000000
1.394447 -1.685247 -0.348662 30.000000
1.382137 -1.708337 -0.349082 30.000000
1.372588 -1.735234 -0.350273 30.000000
1.359558 -1.758156 -0.350601 30.000000
1.341225 -1.772438 -0.349228 30.000000
1.324730 -1.791241 -0.348765 30.000000
1.313799 -1.817843 -0.349769 30.000000
1.305247 -1.848465 -0.351593 30.000000
1.293397 -1.875064 -0.352559 30.000000
1.272857 -1.889343 -0.351223 30.000000
1.245076 -1.890326 -0.347539 30.000000
1.237686 -1.924810 -0.349921 30.000000
1.219260 -1.942632 -0.349331 30.000000
1.203113 -1.964515 -0.349486 30.000000
1.196781 -2.003278 -0.352545 30.000000
1.172325 -2.012257 -0.350361 30.000000
1.013426 1.758215 -0.289970 30.000000
1.019977 1.725526 -0.287547 30.000000
1.041329 1.718326 -0.289372 30.000000
1.054816 1.698210 -0.289056 30.000000
1.080224 1.699580 -0.292382 30.000000
1.106830 1.699971 -0.295663 30.000000
1.128093 1.691637 -0.297451 30.000000
1.146531 1.679032 -0.298580 30.000000
1.164780 1.666238 -0.299646 30.000000
1.171392 1.637166 -0.297785 30.000000
1.200903 1.640024 -0.301715 30.000000
1.217836 1.627230 -0.302907 30.000000
1.244603 1.625400 -0.306129 30.000000
1.265340 1.615395 -0.307881 30.000000
1.289063 1.609054 -0.310383 30.000000
1.309758 1.598434 -0.312148 30.000000
1.333520 1.591406 -0.314667 30.000000
