x y z intensity
2.121414 -1.578598 0.755142 30.000000
2.107867 -1.605346 0.754665 30.000000
2.094089 -1.632012 0.754266 30.000000
2.072472 -1.652428 0.751050 30.000000
2.080495 -1.697006 0.758633 30.000000
2.050932 -1.711086 0.752692 30.000000
1.988360 -1.696544 0.734429 30.000000
2.005486 -1.751077 0.746266 30.000000
1.972047 -1.760694 0.738858 30.000000
1.970734 -1.798962 0.743474 30.000000
1.954729 -1.824227 0.742699 30.000000
1.927264 -1.840099 0.738166 30.000000
1.910800 -1.864982 0.737303 30.000000
1.880442 -1.875986 0.731124 30.000000
1.879586 -1.918342 0.737131 30.000000
1.852258 -1.932287 0.732113 30.000000
1.848010 -1.970459 0.736401 30.000000
1.822618 -1.988179 0.732954 30.000000
1.807739 -2.015494 0.733179 30.000000
1.792621 -2.042782 0.733302 30.000000
1.775970 -2.070730 0.733752 30.000000
1.760109 -2.097786 0.733840 30.000000
1.706033 -2.080676 0.718603 30.000000
1.653620 -2.061850 0.703197 30.000000
1.594812 -2.035230 0.685567 30.000000
1.543774 -2.014412 0.670269 30.000000
1.469105 -1.962521 0.645200 30.000000
1.422662 -1.943565 0.631315 30.000000
1.350366 -1.889136 0.606445 30.000000
1.310970 -1.876237 0.595292 30.000000
1.254584 -1.839410 0.576895 30.000000
1.221785 -1.833025 0.568333 30.000000
1.177542 -1.810582 0.555118 30.000000
1.127316 -1.774449 0.537931 30.000000
1.092205 -1.762783 0.528535 30.000000
1.052499 -1.742203 0.516733 30.000000
1.009673 -1.711983 0.502240 30.000000
0.968785 -1.685845 0.489318 30.000000
0.958218 -1.709183 0.490883 30.000000
0.799772 1.455091 0.429064 30.000000
0.817325 1.450305 0.432205 30.000000
0.838286 1.448970 0.436460 30.000000
0.851919 1.434885 0.436935 30.000000
0.869382 1.429436 0.440050 30.000000
0.885273 1.419141 0.441739 30.000000
0.887102 1.388799 0.437177 30.000000
0.918436 1.402592 0.446510 30.000000
0.938534 1.400292 0.450895 30.000000
0.945883 1.377274 0.448603 30.000000
0.965900 1.374509 0.453001 30.000000
0.983959 1.367062 0.455900 30.000000
0.978313 1.328840 0.448426 30.000000
1.013408 1.344270 0.459202 30.000000
1.015796 1.317597 0.455624 30.000000
1.051338 1.332139 0.466372 30.000000
1.068437 1.324073 0.469421 30.000000
1.082441 1.312062 0.471090 30.000000
1.100146 1.303031 0.473883 30.000000
1.120268 1.297899 0.478245 30.000000
1.134011 1.285296 0.479874 30.000000
1.148352 1.271987 0.481287 30.000000
1.171669 1.269614 0.486931 30.000000
1.181898 1.252913 0.487159 30.000000
1.202509 1.245959 0.491254 30.000000
1.222612 1.239238 0.495529 30.000000
1.239282 1.228758 0.498394 30.000000
1.252964 1.214247 0.499723 30.000000
1.265980 1.200067 0.501219 30.000000
1.289399 1.195520 0.506813 30.000000
1.302300 1.180888 0.508265 30.000000
1.325756 1.175703 0.513839 30.000000
1.342052 1.163759 0.516643 30.000000
1.347712 1.141858 0.515029 30.000000
1.389633 1.151018 0.527603 30.000000
1.402025 1.135240 0.528922 30.000000
1.425587 1.128221 0.534530 30.000000
1.445377 1.117839 0.538630 30.000000
1.465120 1.107168 0.542743 30.000000
1.480957 1.093359 0.545449 30.000000
1.496739 1.079288 0.548103 30.000000
1.519828 1.070884 0.553795 30.000000
1.543333 1.061683 0.559270 30.000000
1.558824 1.046753 0.561897 30.000000
1.574255 1.031613 0.564470 30.000000
1.593537 1.018781 0.568488 30.000000
1.608387 1.003475 0.571256 30.000000
1.639770 0.997544 0.579509 30.000000
1.654778 0.981261 0.581997 30.000000
1.673491 0.967465 0.586187 30.000000
1.709042 0.962439 0.595894 30.000000
1.744526 0.957036 0.605757 30.000000
1.775773 0.948689 0.614258 30.000000
1.786179 0.928389 0.615157 30.000000
1.804669 0.912597 0.619242 30.000000
1.840152 0.904922 0.629073 30.000000
1.849840 0.884171 0.630120 30.000000
1.876668 0.871338 0.637052 30.000000
1.903473 0.857983 0.643938 30.000000
1.934627 0.846016 0.652249 30.000000
1.965719 0.833487 0.660583 30.000000
1.979072 0.813066 0.662949 30.000000
2.001202 0.795939 0.668214 30.000000
2.049701 0.788940 0.682602 30.000000
2.062739 0.767372 0.684860 30.000000
2.106836 0.757144 0.697746 30.000000
2.132888 0.739712 0.704563 30.000000
2.149879 0.718777 0.708412 30.000000
2.171116 0.698955 0.713762 30.000000
2.192302 0.678681 0.718975 30.000000
2.222432 0.660745 0.727190 30.000000
2.234065 0.636988 0.729356 30.000000
2.245429 0.613202 0.731672 30.000000
2.302667 0.601288 0.748926 30.000000
2.350709 0.585778 0.763132 30.000000
2.352271 0.558167 0.762326 30.000000
2.409392 0.543246 0.779498 30.000000
2.475775 0.529088 0.799546 30.000000
2.514076 0.507905 0.810826 30.000000
2.510046 0.477882 0.808384 30.000000
2.604188 0.465605 0.837632 30.000000
2.670300 0.446523 0.857686 30.000000
2.703150 0.420936 0.867359 30.000000
2.698095 0.389270 0.864860 30.000000
2.650232 0.351995 0.848571 30.000000
2.620798 0.318185 0.838321 30.000000
2.609801 0.287203 0.834201 30.000000
2.593860 0.255989 0.828479 30.000000
2.501513 0.218565 0.798429 30.000000
2.551193 0.194115 0.813907 30.000000
2.548404 0.165210 0.812637 30.000000
2.545283 0.136330 0.811284 30.000000
2.508509 0.106146 0.799313 30.000000
2.480983 0.077034 0.790372 30.000000
2.472092 0.049021 0.787338 30.000000
2.453433 0.021139 0.781427 30.000000
2.434454 -0.006394 0.775358 30.000000
2.396111 -0.033157 0.763142 30.000000
2.395651 -0.060097 0.763142 30.000000
2.394807 -0.086960 0.763065 30.000000
2.388973 -0.113596 0.761395 30.000000
2.378082 -0.139847 0.758286 30.000000
2.352640 -0.164884 0.750476 30.000000
2.293764 -0.186608 0.732062 30.000000
2.286808 -0.211890 0.730325 30.000000
2.284381 -0.237558 0.730105 30.000000
2.305328 -0.265882 0.737307 30.000000
2.307009 -0.292341 0.738597 30.000000
2.317895 -0.320211 0.742838 30.000000
2.323651 -0.347619 0.745413 30.000000
2.319814 -0.373647 0.744961 30.000000
2.320298 -0.400486 0.746096 30.000000
2.334527 -0.429944 0.751681 30.000000
2.334418 -0.457000 0.752657 30.000000
2.343320 -0.486098 0.756570 30.000000
2.384453 -0.522578 0.771172 30.000000
2.392531 -0.552594 0.775140 30.000000
2.395669 -0.581720 0.777520 30.000000
2.403064 -0.612073 0.781317 30.000000
2.442403 -0.651259 0.795534 30.000000
2.545479 -0.709322 0.830713 30.000000
2.652130 -0.771193 0.867404 30.000000
2.661823 -0.806589 0.872596 30.000000
2.639188 -0.832086 0.867221 30.000000
2.625449 -0.860248 0.864754 30.000000
2.606960 -0.886595 0.860710 30.000000
2.601688 -0.917324 0.861144 30.000000
2.573698 -0.939879 0.854046 30.000000
2.554257 -0.965494 0.850110 30.000000
2.548231 -0.995773 0.850372 30.000000
2.523843 -1.019087 0.844876 30.000000
2.512624 -1.047528 0.843745 30.000000
2.479031 -1.066358 0.835223 30.000000
2.467306 -1.094205 0.834103 30.000000
2.455236 -1.121965 0.832809 30.000000
2.421289 -1.139294 0.824158 30.000000
2.408728 -1.166467 0.822791 30.000000
2.391717 -1.191338 0.819956 30.000000
2.361646 -1.209405 0.812734 30.000000
2.348096 -1.236250 0.811464 30.000000
2.330425 -1.260144 0.808565 30.000000
2.312548 -1.283858 0.805502 30.000000
2.310756 -1.317208 0.808514 30.000000
2.288158 -1.338084 0.804000 30.000000
2.256866 -1.354271 0.796768 30.000000
2.266301 -1.394836 0.804018 30.000000
2.235088 -1.409817 0.796465 30.000000
2.215401 -1.432570 0.793509 30.000000
2.191610 -1.452333 0.789037 30.000000
2.171564 -1.474439 0.786011 30.000000
2.170990 -1.509965 0.790064 30.000000
2.139287 -1.522770 0.782332 30.000000
2.118607 -1.544113 0.779235 30.000000
2.109347 -1.573801 0.780241 30.000000
2.072954 -1.583042 0.771392 30.000000
2.051827 -1.603497 0.768151 30.000000
2.052993 -1.641592 0.773301 30.000000
2.023875 -1.655557 0.767155 30.000000
2.027911 -1.696820 0.773667 30.000000
2.012303 -1.723400 0.773302 30.000000
1.993520 -1.746057 0.771281 30.000000
1.978062 -1.771581 0.770568 30.000000
1.955281 -1.790614 0.766985 30.000000
1.935824 -1.812513 0.764879 30.000000
1.930084 -1.847451 0.768131 30.000000
1.912648 -1.873127 0.767558 30.000000
1.895817 -1.897946 0.766637 30.000000
1.861855 -1.905389 0.758859 30.000000
1.833739 -1.919989 0.754014 30.000000
1.836095 -1.964978 0.761187 30.000000
1.805201 -1.974794 0.754642 30.000000
1.786265 -1.999339 0.753874 30.000000
1.774353 -2.030102 0.755371 30.000000
1.749519 -2.046095 0.751463 30.000000
1.745020 -2.088576 0.757201 30.000000
1.707532 -2.089233 0.747937 30.000000
1.661155 -2.078086 0.734641 30.000000
1.623072 -2.078293 0.725650 30.000000
1.542498 -2.019593 0.696544 30.000000
1.476562 -1.979453 0.674453 30.000000
1.424352 -1.952979 0.657517 30.000000
1.357698 -1.906520 0.634372 30.000000
1.326537 -1.905695 0.626718 30.000000
1.250910 -1.841228 0.598549 30.000000
1.220740 -1.838920 0.590984 30.000000
1.176602 -1.816582 0.577227 30.000000
1.131625 -1.788732 0.562070 30.000000
1.098886 -1.781328 0.553605 30.000000
1.050252 -1.743717 0.536014 30.000000
1.013648 -1.726727 0.525081 30.000000
0.987175 -1.725942 0.519269 30.000000
0.952546 -1.707272 0.508206 30.000000
0.792534 1.449179 0.442477 30.000000
0.799202 1.422843 0.439055 30.000000
0.821333 1.426314 0.444878 30.000000
0.832292 1.408224 0.443975 30.000000
0.849481 1.402936 0.447205 30.000000
0.860008 1.384626 0.446224 30.000000
0.882315 1.387134 0.452058 30.000000
0.902981 1.384697 0.456384 30.000000
0.912233 1.366477 0.455544 30.000000
0.919268 1.343727 0.453187 30.000000
0.952677 1.360975 0.464362 30.000000
0.964246 1.346269 0.464801 30.000000
0.976411 1.330946 0.465072 30.000000
1.004876 1.339197 0.473604 30.000000
1.016813 1.323488 0.473832 30.000000
1.039757 1.323341 0.479691 30.000000
1.045458 1.299820 0.477114 30.000000
1.074487 1.306572 0.485708 30.000000
1.072885 1.275994 0.480450 30.000000
1.090208 1.266980 0.483322 30.000000
1.129068 1.283503 0.496116 30.000000
1.149122 1.277822 0.500542 30.000000
1.166629 1.267806 0.503419 30.000000
1.176872 1.251110 0.503656 30.000000
1.193581 1.241184 0.506651 30.000000
1.206892 1.227599 0.508240 30.000000
1.236976 1.230811 0.516874 30.000000
1.254186 1.219600 0.519630 30.000000
1.267274 1.205342 0.521190 30.000000
1.287266 1.197387 0.525558 30.000000
1.303689 1.185994 0.528450 30.000000
1.316492 1.171113 0.529910 30.000000
1.336349 1.162347 0.534257 30.000000
1.341592 1.140903 0.532773 30.000000
1.376021 1.143925 0.542887 30.000000
1.403253 1.140298 0.550077 30.000000
1.419342 1.127180 0.552920 30.000000
1.439156 1.116850 0.557175 30.000000
1.451249 1.100398 0.558454 30.000000
1.467065 1.086616 0.561261 30.000000
1.486582 1.075430 0.565430 30.000000
1.494399 1.055623 0.565184 30.000000
1.529503 1.054768 0.575285 30.000000
1.556504 1.048344 0.582640 30.000000
1.563909 1.027851 0.582294 30.000000
1.587209 1.017636 0.587895 30.000000
1.614179 1.009920 0.595188 30.000000
1.617053 0.986442 0.593295 30.000000
1.648031 0.980464 0.602117 30.000000
1.667018 0.966293 0.606099 30.000000
1.685678 0.952182 0.610338 30.000000
1.733684 0.953532 0.624881 30.000000
1.752283 0.938466 0.629101 30.000000
1.783468 0.929693 0.637804 30.000000
1.797698 0.911694 0.640412 30.000000
1.811782 0.893404 0.643026 30.000000
1.838540 0.881130 0.650203 30.000000
1.856645 0.864317 0.654225 30.000000
1.887659 0.853061 0.662828 30.000000
1.918689 0.841248 0.671454 30.000000
1.945278 0.826877 0.678506 30.000000
1.971826 0.812041 0.685508 30.000000
1.989281 0.793419 0.689598 30.000000
2.028942 0.782819 0.701162 30.000000
2.050613 0.764935 0.706747 30.000000
2.067707 0.745068 0.710807 30.000000
2.098137 0.729545 0.719426 30.000000
2.137470 0.716396 0.731078 30.000000
2.158713 0.696620 0.736506 30.000000
2.166210 0.672237 0.737306 30.000000
2.209867 0.658572 0.750338 30.000000
2.267102 0.648154 0.768264 30.000000
2.283159 0.625160 0.772198 30.000000
2.294367 0.600603 0.774510 30.000000
2.314596 0.578170 0.779856 30.000000
2.348461 0.558648 0.789874 30.000000
2.400777 0.542613 0.805976 30.000000
2.420405 0.518567 0.811439 30.000000
2.486421 0.503558 0.832338 30.000000
2.524380 0.481845 0.843827 30.000000
2.557552 0.458393 0.853686 30.000000
2.651398 0.444433 0.883857 30.000000
2.679525 0.418300 0.892275 30.000000
2.655679 0.383989 0.883330 30.000000
2.631401 0.350313 0.874376 30.000000
2.606785 0.317273 0.865497 30.000000
2.572317 0.283743 0.853226 30.000000
2.537426 0.251063 0.841193 30.000000
2.544697 0.222881 0.842924 30.000000
2.561115 0.195396 0.847954 30.000000
2.539408 0.164965 0.840362 30.000000
2.507859 0.134639 0.829549 30.000000
2.475947 0.104980 0.818731 30.000000
2.476983 0.077102 0.818891 30.000000
2.453967 0.048753 0.811047 30.000000
2.435294 0.020978 0.804928 30.000000
2.411636 -0.006356 0.797083 30.000000
2.397162 -0.033289 0.792299 30.000000
2.396700 -0.060258 0.792299 30.000000
2.381620 -0.086710 0.787516 30.000000
2.375805 -0.113217 0.785794 30.000000
2.350732 -0.138577 0.777876 30.000000
2.349067 -0.164990 0.777649 30.000000
2.314050 -0.188703 0.766450 30.000000
2.335449 -0.216939 0.774136 30.000000
2.333037 -0.243171 0.773684 30.000000
2.339607 -0.270569 0.776665 30.000000
2.346001 -0.298028 0.779341 30.000000
2.337878 -0.323745 0.777472 30.000000
2.343631 -0.351469 0.780220 30.000000
2.400625 -0.387578 0.800000 30.000000
2.363489 -0.408941 0.788754 30.000000
2.400904 -0.443287 0.802341 30.000000
2.405286 -0.472097 0.804911 30.000000
2.404662 -0.500150 0.805840 30.000000
2.417702 -0.531208 0.811360 30.000000
2.444143 -0.565898 0.821697 30.000000
2.548671 -0.620343 0.858457 30.000000
2.638461 -0.673758 0.890329 30.000000
2.640213 -0.705853 0.892559 30.000000
2.678185 -0.748210 0.907189 30.000000
2.665409 -0.776873 0.904569 30.000000
2.643117 -0.802758 0.899124 30.000000
2.616028 -0.826814 0.892054 30.000000
2.602353 -0.854824 0.889541 30.000000
2.579357 -0.879487 0.883946 30.000000
2.569652 -0.908427 0.882810 30.000000
2.510545 -0.919287 0.864747 30.000000
2.540556 -0.962587 0.877376 30.000000
2.503256 -0.980922 0.867208 30.000000
2.483742 -1.005369 0.862850 30.000000
2.476966 -1.035210 0.863264 30.000000
2.456692 -1.059410 0.859088 30.000000
2.431978 -1.081391 0.853307 30.000000
2.420036 -1.108771 0.852028 30.000000
2.386217 -1.125904 0.843139 30.000000
2.399585 -1.165271 0.850903 30.000000
2.378243 -1.188015 0.846502 30.000000
2.360977 -1.212573 0.843540 30.000000
2.322429 -1.225743 0.832940 30.000000
2.313252 -1.254078 0.832936 30.000000
2.311681 -1.287401 0.836192 30.000000
2.285288 -1.306132 0.829988 30.000000
2.258376 -1.325002 0.824137 30.000000
2.248055 -1.352676 0.823875 30.000000
2.249272 -1.388297 0.828430 30.000000
2.222127 -1.405749 0.822094 30.000000
2.202568 -1.428375 0.819092 30.000000
2.170803 -1.442898 0.811468 30.000000
2.163202 -1.472349 0.812518 30.000000
2.139061 -1.491469 0.807886 30.000000
2.114790 -1.510161 0.803184 30.000000
2.109676 -1.542694 0.805860 30.000000
2.088823 -1.563785 0.802637 30.000000
2.067866 -1.584538 0.799255 30.000000
2.039116 -1.599056 0.793036 30.000000
2.032773 -1.631191 0.795512 30.000000
2.018507 -1.657179 0.794973 30.000000
2.014999 -1.692314 0.798782 30.000000
1.985646 -1.705786 0.792339 30.000000
1.952566 -1.715517 0.784473 30.000000
1.937485 -1.740757 0.783760 30.000000
1.929056 -1.772308 0.785912 30.000000
1.923741 -1.807128 0.789473 30.000000
1.911063 -1.835458 0.790060 30.000000
1.886887 -1.854291 0.786610 30.000000
1.870138 -1.878914 0.785672 30.000000
1.836506 -1.886182 0.777644 30.000000
1.816150 -1.906790 0.775214 30.000000
1.821707 -1.955228 0.784046 30.000000
1.806156 -1.983488 0.784644 30.000000
1.781639 -2.000119 0.780686 30.000000
1.766492 -2.027197 0.780920 30.000000
1.749904 -2.055104 0.781308 30.000000
1.734100 -2.081953 0.781421 30.000000
1.705741 -2.093865 0.775991 30.000000
1.658297 -2.083671 0.762494 30.000000
1.615393 -2.075538 0.750189 30.000000
1.557178 -2.048373 0.731364 30.000000
1.483803 -1.996180 0.704154 30.000000
1.430228 -1.970695 0.686855 30.000000
1.370387 -1.931635 0.665299 30.000000
1.322455 -1.907230 0.649276 30.000000
1.266034 -1.870819 0.629546 30.000000
1.230268 -1.860732 0.619090 30.000000
1.180693 -1.830594 0.602175 30.000000
1.135687 -1.802909 0.586492 30.000000
1.095331 -1.783257 0.573691 30.000000
1.051783 -1.754072 0.558143 30.000000
1.012642 -1.733037 0.545581 30.000000
0.987253 -1.731694 0.539315 30.000000
0.958406 -1.726405 0.532032 30.000000
0.778314 1.430476 0.451691 30.000000
0.814446 1.459406 0.465731 30.000000
0.813995 1.420316 0.458151 30.000000
0.824989 1.402265 0.457210 30.000000
0.842120 1.396999 0.460528 30.000000
0.854232 1.383337 0.461078 30.000000
0.877424 1.385312 0.466887 30.000000
0.894608 1.379355 0.470187 30.000000
0.907342 1.364655 0.470530 30.000000
0.921703 1.354353 0.472351 30.000000
0.934045 1.339435 0.472626 30.000000
0.950997 1.332708 0.475837 30.000000
0.971491 1.329114 0.480303 30.000000
0.991264 1.325809 0.484893 30.000000
1.011148 1.322164 0.489504 30.000000
1.022964 1.306370 0.489677 30.000000
1.039793 1.298444 0.492893 30.000000
1.044451 1.275513 0.490364 30.000000
1.064831 1.270469 0.494746 30.000000
1.100163 1.283783 0.506479 30.000000
1.094912 1.249679 0.499564 30.000000
1.140193 1.272837 0.515650 30.000000
1.151177 1.255800 0.515672 30.000000
1.174463 1.253180 0.521716 30.000000
1.184520 1.236306 0.521901 30.000000
1.204486 1.229590 0.526410 30.000000
1.204738 1.201859 0.521973 30.000000
1.241553 1.211422 0.533788 30.000000
1.261538 1.203838 0.538288 30.000000
1.274459 1.189413 0.539848 30.000000
1.290851 1.178040 0.542834 30.000000
1.310708 1.169597 0.547317 30.000000
1.319746 1.151467 0.547286 30.000000
1.321288 1.127058 0.544256 30.000000
1.355489 1.130223 0.554639 30.000000
1.386223 1.129704 0.563564 30.000000
1.409656 1.122707 0.569457 30.000000
1.429407 1.112353 0.573862 30.000000
1.445261 1.098828 0.576709 30.000000
1.441535 1.071242 0.572208 30.000000
1.476341 1.071460 0.582600 30.000000
1.495799 1.059960 0.586876 30.000000
1.519118 1.050873 0.592692 30.000000
1.542080 1.041815 0.598766 30.000000
1.561422 1.029274 0.603029 30.000000
1.576697 1.013857 0.605705 30.000000
1.591488 0.998590 0.608629 30.000000
1.618624 0.990194 0.615888 30.000000
1.633301 0.974365 0.618713 30.000000
1.651895 0.960651 0.623095 30.000000
1.683123 0.953285 0.631901 30.000000
1.710012 0.943401 0.639303 30.000000
1.745220 0.937512 0.649845 30.000000
1.767902 0.924326 0.655737 30.000000
1.794767 0.912814 0.663147 30.000000
1.813113 0.896644 0.667380 30.000000
1.827012 0.878094 0.669989 30.000000
1.849428 0.863267 0.675746 30.000000
1.884681 0.854024 0.686173 30.000000
1.898272 0.834445 0.688747 30.000000
1.924530 0.820482 0.696195 30.000000
1.959717 0.809410 0.706554 30.000000
1.972715 0.789072 0.709229 30.000000
2.016709 0.780271 0.722728 30.000000
2.033870 0.760771 0.726876 30.000000
2.059881 0.744222 0.734212 30.000000
2.099107 0.731811 0.746266 30.000000
2.115964 0.710999 0.750311 30.000000
2.150634 0.695819 0.760670 30.000000
2.171557 0.675806 0.766406 30.000000
2.187887 0.653836 0.770335 30.000000
2.222122 0.636956 0.780818 30.000000
2.265437 0.621892 0.794451 30.000000
2.299506 0.603524 0.804827 30.000000
2.324314 0.582082 0.811935 30.000000
2.339780 0.557950 0.815764 30.000000
2.340976 0.530549 0.814932 30.000000
2.416130 0.518925 0.839600 30.000000
2.468017 0.501023 0.856334 30.000000
2.519784 0.482074 0.873009 30.000000
2.562012 0.460403 0.886650 30.000000
2.622970 0.440778 0.906424 30.000000
2.636865 0.412656 0.910252 30.000000
2.636571 0.382200 0.909068 30.000000
2.612382 0.348635 0.899804 30.000000
2.564374 0.312840 0.882535 30.000000
2.529920 0.279771 0.870014 30.000000
2.471672 0.245132 0.849312 30.000000
2.492925 0.218910 0.856186 30.000000
2.537719 0.193984 0.870835 30.000000
2.525445 0.164494 0.866224 30.000000
2.475120 0.133207 0.848654 30.000000
2.462221 0.104699 0.844033 30.000000
2.448992 0.076432 0.839331 30.000000
2.430786 0.048470 0.832850 30.000000
2.416911 0.020897 0.828067 30.000000
2.402799 -0.006356 0.823283 30.000000
2.393185 -0.033277 0.819965 30.000000
2.378458 -0.059943 0.815103 30.000000
2.377614 -0.086729 0.815026 30.000000
2.367167 -0.113141 0.811633 30.000000
2.365791 -0.139821 0.811327 30.000000
2.378265 -0.167421 0.816032 30.000000
2.347977 -0.192024 0.806241 30.000000
2.359904 -0.219784 0.810792 30.000000
2.366792 -0.247371 0.813722 30.000000
2.378052 -0.275638 0.818266 30.000000
2.421899 -0.308406 0.833965 30.000000
2.413670 -0.335077 0.832034 30.000000
2.428615 -0.365080 0.838101 30.000000
2.433840 -0.393994 0.840853 30.000000
2.424725 -0.420612 0.838843 30.000000
2.438660 -0.451352 0.844656 30.000000
2.466133 -0.485254 0.855372 30.000000
2.534849 -0.528421 0.880478 30.000000
2.625925 -0.578522 0.913761 30.000000
2.698002 -0.626186 0.940306 30.000000
2.700150 -0.658960 0.942804 30.000000
2.697392 -0.690588 0.943603 30.000000
2.648596 -0.709968 0.928365 30.000000
2.654416 -0.743574 0.932198 30.000000
2.655339 -0.776071 0.934421 30.000000
2.633011 -0.801960 0.928823 30.000000
2.606167 -0.825845 0.921284 30.000000
2.592510 -0.853769 0.918721 30.000000
2.569652 -0.878438 0.912887 30.000000
2.555479 -0.905795 0.910246 30.000000
2.518741 -0.924794 0.899575 30.000000
2.521934 -0.958173 0.903128 30.000000
2.489101 -0.978153 0.894245 30.000000
2.474035 -1.004339 0.891285 30.000000
2.449744 -1.026929 0.885510 30.000000
2.438550 -1.054358 0.884058 30.000000
2.405175 -1.072298 0.874979 30.000000
2.410568 -1.107491 0.880005 30.000000
2.381209 -1.126666 0.872438 30.000000
2.351688 -1.145282 0.864805 30.000000
2.377283 -1.190991 0.877478 30.000000
2.326213 -1.198250 0.861946 30.000000
2.321409 -1.228926 0.863556 30.000000
2.291297 -1.246006 0.855718 30.000000
2.277727 -1.271808 0.854127 30.000000
2.288138 -1.312045 0.862106 30.000000
2.261620 -1.330558 0.855762 30.000000
2.255274 -1.360823 0.857087 30.000000
2.228012 -1.379097 0.850932 30.000000
2.205014 -1.398972 0.846001 30.000000
2.185444 -1.421592 0.842871 30.000000
2.161722 -1.441231 0.838129 30.000000
2.138364 -1.460024 0.833149 30.000000
2.141683 -1.498072 0.839048 30.000000
2.090259 -1.497491 0.823563 30.000000
2.100578 -1.541108 0.832402 30.000000
2.072705 -1.555815 0.825679 30.000000
2.044187 -1.570680 0.819309 30.000000
2.034344 -1.599851 0.820350 30.000000
2.024207 -1.628946 0.821458 30.000000
2.006245 -1.651981 0.819379 30.000000
2.010003 -1.693205 0.826382 30.000000
1.951666 -1.681732 0.807742 30.000000
1.951192 -1.719674 0.813142 30.000000
1.935944 -1.744991 0.812385 30.000000
1.920376 -1.770138 0.811703 30.000000
1.908046 -1.798390 0.812325 30.000000
1.878208 -1.810058 0.805637 30.000000
1.889181 -1.861404 0.816460 30.000000
1.871461 -1.886901 0.815895 30.000000
1.824381 -1.880573 0.801647 30.000000
1.804062 -1.901143 0.799222 30.000000
1.790001 -1.928474 0.799622 30.000000
1.771396 -1.952916 0.798805 30.000000
1.766260 -1.990744 0.803424 30.000000
1.748019 -2.014212 0.802234 30.000000
1.735730 -2.044800 0.803821 30.000000
1.715717 -2.068739 0.802859 30.000000
1.687508 -2.080555 0.797268 30.000000
1.659373 -2.091895 0.791610 30.000000
1.618209 -2.088614 0.780561 30.000000
1.558276 -2.056986 0.759354 30.000000
1.502089 -2.028121 0.739687 30.000000
1.431485 -1.979582 0.713451 30.000000
1.379956 -1.952531 0.695373 30.000000
1.322546 -1.917251 0.674927 30.000000
1.264677 -1.876281 0.652857 30.000000
1.235627 -1.879041 0.646414 30.000000
1.179405 -1.836270 0.624583 30.000000
1.133238 -1.809373 0.608589 30.000000
1.101586 -1.801524 0.599257 30.000000
1.067832 -1.788992 0.588623 30.000000
1.018710 -1.751619 0.570126 30.000000
0.984751 -1.738496 0.559847 30.000000
0.789326 1.458153 0.475628 30.000000
0.804698 1.449046 0.477734 30.000000
0.813826 1.426739 0.475406 30.000000
0.823904 1.409161 0.474649 30.000000
0.834737 1.390970 0.473662 30.000000
0.874460 1.422299 0.489747 30.000000
0.875039 1.387444 0.483077 30.000000
0.889599 1.377425 0.485060 30.000000
0.920870 1.390704 0.495322 30.000000
0.932891 1.376224 0.495858 30.000000
0.936477 1.349788 0.492026 30.000000
0.946002 1.330782 0.490874 30.000000
0.976996 1.343185 0.501418 30.000000
0.994043 1.335851 0.504721 30.000000
0.997419 1.308739 0.500547 30.000000
1.023036 1.312434 0.508226 30.000000
1.051901 1.319441 0.517359 30.000000
1.048529 1.284677 0.510207 30.000000
1.077495 1.290996 0.519331 30.000000
1.081945 1.267798 0.516662 30.000000
1.104888 1.266182 0.522876 30.000000
1.119121 1.253022 0.524380 30.000000
1.142147 1.250755 0.530582 30.000000
1.168602 1.251647 0.538259 30.000000
1.182022 1.238226 0.539957 30.000000
1.191949 1.221229 0.540092 30.000000
1.205114 1.207518 0.541731 30.000000
1.239086 1.213204 0.552198 30.000000
1.248754 1.195691 0.552288 30.000000
1.261660 1.181345 0.553894 30.000000
1.277910 1.170048 0.556975 30.000000
1.290574 1.155329 0.558475 30.000000
1.313810 1.149899 0.564590 30.000000
1.340754 1.147091 0.572215 30.000000
1.349560 1.128586 0.572140 30.000000
1.357624 1.110502 0.572283 30.000000
1.395714 1.115561 0.584517 30.000000
1.411622 1.102364 0.587452 30.000000
1.431197 1.091846 0.591956 30.000000
1.446918 1.078143 0.594852 30.000000
1.465958 1.067439 0.599556 30.000000
1.485352 1.055977 0.603984 30.000000
1.508589 1.046924 0.609943 30.000000
1.531471 1.037842 0.616159 30.000000
1.550809 1.025339 0.620515 30.000000
1.565679 1.010385 0.623537 30.000000
1.580785 0.994799 0.626266 30.000000
1.603544 0.984261 0.632367 30.000000
1.618393 0.968157 0.635114 30.000000
1.645148 0.959301 0.642785 30.000000
1.671863 0.949952 0.650420 30.000000
1.702800 0.942398 0.659685 30.000000
1.725400 0.929756 0.665763 30.000000
1.748020 0.916642 0.671733 30.000000
1.770529 0.903177 0.677719 30.000000
1.788748 0.887130 0.682041 30.000000
1.811127 0.872879 0.687992 30.000000
1.841948 0.862218 0.697136 30.000000
1.864247 0.847025 0.702991 30.000000
1.881818 0.829763 0.707499 30.000000
1.912579 0.817548 0.716571 30.000000
1.925674 0.797671 0.719276 30.000000
1.925582 0.772149 0.716885 30.000000
2.008638 0.779366 0.745690 30.000000
2.012564 0.754885 0.745026 30.000000
2.060586 0.746523 0.760754 30.000000
2.073116 0.724647 0.763316 30.000000
2.094274 0.705613 0.769098 30.000000
2.128646 0.690647 0.779971 30.000000
2.145108 0.669230 0.784061 30.000000
2.174834 0.651746 0.793177 30.000000
2.231627 0.641501 0.812217 30.000000
2.238459 0.616201 0.813043 30.000000
2.286057 0.601558 0.828680 30.000000
2.338237 0.587132 0.845923 30.000000
2.358317 0.563835 0.851516 30.000000
2.387276 0.542394 0.860592 30.000000
2.397589 0.516382 0.862964 30.000000
2.444655 0.497633 0.878546 30.000000
2.486952 0.477053 0.892405 30.000000
2.538355 0.457308 0.909775 30.000000
2.585040 0.435563 0.925168 30.000000
2.631540 0.412870 0.940747 30.000000
2.635851 0.383041 0.941178 30.000000
2.597766 0.347670 0.926780 30.000000
2.554543 0.312507 0.910611 30.000000
2.525000 0.279962 0.899348 30.000000
2.513808 0.250023 0.894669 30.000000
2.488257 0.219081 0.884816 30.000000
2.518634 0.193099 0.895160 30.000000
2.506489 0.163635 0.890312 30.000000
2.451568 0.132285 0.870586 30.000000
2.448212 0.104340 0.868915 30.000000
2.430324 0.076058 0.862388 30.000000
2.412109 0.048203 0.855937 30.000000
2.398364 0.020815 0.851000 30.000000
2.374882 -0.006306 0.842640 30.000000
2.369939 -0.033080 0.840892 30.000000
2.378900 -0.060104 0.844081 30.000000
2.368711 -0.086653 0.840661 30.000000
2.424042 -0.116145 0.860717 30.000000
2.413298 -0.142935 0.857140 30.000000
2.392772 -0.168926 0.850301 30.000000
2.433025 -0.199419 0.865020 30.000000
2.426041 -0.226487 0.863192 30.000000
2.442108 -0.255905 0.869632 30.000000
2.439167 -0.283491 0.869314 30.000000
2.435987 -0.311077 0.868916 30.000000
2.451164 -0.341183 0.875027 30.000000
2.451981 -0.369523 0.876292 30.000000
2.475729 -0.401825 0.885801 30.000000
2.536214 -0.441142 0.908695 30.000000
2.637928 -0.489505 0.946279 30.000000
2.715735 -0.535802 0.975587 30.000000
2.732815 -0.571350 0.983264 30.000000
2.712585 -0.599102 0.977472 30.000000
2.701430 -0.628680 0.975005 30.000000
2.698924 -0.660396 0.975945 30.000000
2.682415 -0.688607 0.971825 30.000000
2.674712 -0.718881 0.971018 30.000000
2.634939 -0.740222 0.958466 30.000000
2.626797 -0.769958 0.957492 30.000000
2.622904 -0.800896 0.958079 30.000000
2.573459 -0.817816 0.942365 30.000000
2.564469 -0.846793 0.941143 30.000000
2.532795 -0.868115 0.931878 30.000000
2.518655 -0.895257 0.929198 30.000000
2.522107 -0.928567 0.932995 30.000000
2.498618 -0.952085 0.926866 30.000000
2.488168 -0.980240 0.925571 30.000000
2.455317 -0.999658 0.916367 30.000000
2.457517 -1.032887 0.919891 30.000000
2.437311 -1.057094 0.915514 30.000000
2.399922 -1.072872 0.904213 30.000000
2.388044 -1.100190 0.902940 30.000000
2.375828 -1.127254 0.901583 30.000000
2.346354 -1.145929 0.893749 30.000000
2.342175 -1.176878 0.895634 30.000000
2.312424 -1.194733 0.887657 30.000000
2.290887 -1.216477 0.882924 30.000000
2.281664 -1.244666 0.882944 30.000000
2.263962 -1.268153 0.879663 30.000000
2.233657 -1.284297 0.871665 30.000000
2.235950 -1.319077 0.876318 30.000000
2.217180 -1.342293 0.873217 30.000000
2.210626 -1.372332 0.874567 30.000000
2.183217 -1.390077 0.868288 30.000000
2.168221 -1.414571 0.866288 30.000000
2.156417 -1.442118 0.866289 30.000000
2.132981 -1.460962 0.861043 30.000000
2.112881 -1.482686 0.857720 30.000000
2.096445 -1.506841 0.855977 30.000000
2.072611 -1.524706 0.850679 30.000000
2.040568 -1.536932 0.842513 30.000000
2.031097 -1.566129 0.843750 30.000000
2.010065 -1.586421 0.840214 30.000000
2.011030 -1.624297 0.846016 30.000000
1.990182 -1.643599 0.842058 30.000000
1.961224 -1.657095 0.835345 30.000000
1.950211 -1.685645 0.836289 30.000000
1.945941 -1.720497 0.840212 30.000000
1.916524 -1.733083 0.833358 30.000000
1.918518 -1.774264 0.840304 30.000000
1.899167 -1.796045 0.837959 30.000000
1.865953 -1.804414 0.829525 30.000000
1.869115 -1.849742 0.838074 30.000000
1.842285 -1.864189 0.832520 30.000000
1.802183 -1.864522 0.821030 30.000000
1.785287 -1.888406 0.819962 30.000000
1.787498 -1.933129 0.827882 30.000000
1.773010 -1.960421 0.828261 30.000000
1.744541 -1.974064 0.822913 30.000000
1.732597 -2.004609 0.824675 30.000000
1.708003 -2.020524 0.820484 30.000000
1.722804 -2.083981 0.835406 30.000000
1.690220 -2.093038 0.828401 30.000000
1.641137 -2.078345 0.812284 30.000000
1.616067 -2.093073 0.807949 30.000000
1.557884 -2.066228 0.787858 30.000000
1.504616 -2.041360 0.769008 30.000000
1.426904 -1.980670 0.737265 30.000000
1.385292 -1.969986 0.724690 30.000000
1.350776 -1.965829 0.714750 30.000000
1.268459 -1.889534 0.679131 30.000000
1.234094 -1.884489 0.669615 30.000000
1.183087 -1.849863 0.649933 30.000000
1.134347 -1.819075 0.632004 30.000000
1.105134 -1.815437 0.623780 30.000000
1.065198 -1.795464 0.610192 30.000000
1.029379 -1.778326 0.597891 30.000000
0.978672 -1.736153 0.577515 30.000000
1.008902 -1.835649 0.604144 30.000000
0.770530 1.430777 0.481685 30.000000
0.797222 1.442799 0.490889 30.000000
0.808712 1.424756 0.489965 30.000000
0.830914 1.427831 0.496316 30.000000
0.831258 1.393585 0.489754 30.000000
0.861816 1.407985 0.500317 30.000000
0.869038 1.385931 0.498002 30.000000
0.892296 1.387454 0.504213 30.000000
0.920128 1.397148 0.513550 30.000000
0.910880 1.350867 0.502321 30.000000
0.925970 1.339888 0.504039 30.000000
0.945689 1.337070 0.508984 30.000000
0.962671 1.330050 0.512357 30.000000
0.977578 1.318450 0.514089 30.000000
0.997358 1.314817 0.518979 30.000000
1.014219 1.307127 0.522332 30.000000
1.031851 1.298681 0.525536 30.000000
1.042705 1.283089 0.525827 30.000000
1.062454 1.278449 0.530721 30.000000
1.073057 1.262573 0.531006 30.000000
1.090359 1.253313 0.534076 30.000000
1.113267 1.251411 0.540439 30.000000
1.145845 1.259741 0.551454 30.000000
1.159392 1.246521 0.553202 30.000000
1.176051 1.236582 0.556446 30.000000
1.179424 1.212777 0.553480 30.000000
1.192461 1.199197 0.555164 30.000000
1.222319 1.202048 0.564613 30.000000
1.238741 1.191182 0.567834 30.000000
1.255124 1.180127 0.571009 30.000000
1.278342 1.175248 0.577292 30.000000
1.298186 1.166790 0.582019 30.000000
1.317944 1.158000 0.586763 30.000000
1.326938 1.139668 0.586697 30.000000
1.324807 1.112109 0.581786 30.000000
1.355263 1.111761 0.591223 30.000000
1.393271 1.116803 0.603847 30.000000
1.416186 1.109860 0.610333 30.000000
1.405753 1.076129 0.602066 30.000000
1.451620 1.085311 0.617957 30.000000
1.463074 1.068889 0.619535 30.000000
1.478672 1.054629 0.622500 30.000000
1.494096 1.040163 0.625355 30.000000
1.512959 1.028500 0.630139 30.000000
1.543990 1.024023 0.639476 30.000000
1.562810 1.011573 0.644182 30.000000
1.577625 0.996300 0.647263 30.000000
1.596638 0.982868 0.651692 30.000000
1.611227 0.967125 0.654669 30.000000
1.637910 0.958259 0.662537 30.000000
1.639954 0.934875 0.660522 30.000000
1.666525 0.925237 0.668361 30.000000
1.701410 0.919647 0.679538 30.000000
1.744686 0.917755 0.694009 30.000000
1.767229 0.904171 0.700146 30.000000
1.789656 0.890234 0.706235 30.000000
1.799296 0.869661 0.707335 30.000000
1.804476 0.847020 0.706700 30.000000
1.856318 0.846100 0.724728 30.000000
1.878427 0.830540 0.730681 30.000000
1.908918 0.818464 0.740271 30.000000
1.930847 0.801945 0.746188 30.000000
1.956924 0.787021 0.754004 30.000000
1.991653 0.774978 0.765141 30.000000
1.995492 0.750599 0.764493 30.000000
2.030117 0.737498 0.775529 30.000000
2.069112 0.725210 0.788281 30.000000
2.094618 0.707840 0.796194 30.000000
2.124584 0.691162 0.805462 30.000000
2.140881 0.669908 0.809799 30.000000
2.188542 0.657779 0.826043 30.000000
2.195513 0.632862 0.826933 30.000000
2.247576 0.620378 0.844780 30.000000
2.267870 0.598395 0.850575 30.000000
2.301612 0.579468 0.861496 30.000000
2.335118 0.559920 0.872589 30.000000
2.382275 0.542804 0.888751 30.000000
2.406517 0.519634 0.896067 30.000000
2.453300 0.500826 0.912353 30.000000
2.472424 0.475592 0.918060 30.000000
2.509768 0.453384 0.930796 30.000000
2.584122 0.436534 0.956849 30.000000
2.611830 0.410893 0.966024 30.000000
2.611479 0.380578 0.964994 30.000000
2.596893 0.348409 0.958466 30.000000
2.563187 0.314377 0.945229 30.000000
2.519797 0.280151 0.928455 30.000000
2.532024 0.252408 0.932141 30.000000
2.501853 0.220821 0.920511 30.000000
2.513418 0.193214 0.924280 30.000000
2.468543 0.161632 0.907309 30.000000
2.460697 0.133141 0.904186 30.000000
2.443300 0.104381 0.897297 30.000000
2.434951 0.076342 0.893932 30.000000
2.440198 0.048877 0.895892 30.000000
2.435901 0.021145 0.894249 30.000000
2.440674 -0.006506 0.896051 30.000000
2.459208 -0.034381 0.902784 30.000000
2.468113 -0.062523 0.906069 30.000000
2.462620 -0.090363 0.904266 30.000000
2.466106 -0.118466 0.906069 30.000000
2.478800 -0.147231 0.910914 30.000000
2.486389 -0.175985 0.914196 30.000000
2.498317 -0.205334 0.919116 30.000000
2.486606 -0.232734 0.915268 30.000000
2.479259 -0.260493 0.913304 30.000000
2.490251 -0.290239 0.918138 30.000000
2.538222 -0.324991 0.936636 30.000000
2.590284 -0.361554 0.956919 30.000000
2.702371 -0.408419 0.999158 30.000000
2.758012 -0.448774 1.020931 30.000000
2.766717 -0.482608 1.025714 30.000000
2.733628 -0.508750 1.014700 30.000000
2.741761 -0.542469 1.019206 30.000000
2.708181 -0.567646 1.008030 30.000000
2.692626 -0.596441 1.004069 30.000000
2.685998 -0.626894 1.003263 30.000000
2.665409 -0.653899 0.997156 30.000000
2.644358 -0.680682 0.991324 30.000000
2.636823 -0.710647 0.990438 30.000000
2.610833 -0.735513 0.982738 30.000000
2.598135 -0.763770 0.980068 30.000000
2.580705 -0.790371 0.975527 30.000000
2.558592 -0.815254 0.969296 30.000000
2.531670 -0.838440 0.961640 30.000000
2.513602 -0.863932 0.956955 30.000000
2.499600 -0.890889 0.954142 30.000000
2.472046 -0.912769 0.946265 30.000000
2.461963 -0.940796 0.945068 30.000000
2.456001 -0.970468 0.945557 30.000000
2.436669 -0.994644 0.940822 30.000000
2.421156 -1.020707 0.938032 30.000000
2.388407 -1.038647 0.928192 30.000000
2.389741 -1.071769 0.932040 30.000000
2.356732 -1.088783 0.922061 30.000000
2.310584 -1.099489 0.907430 30.000000
2.340732 -1.146570 0.922707 30.000000
2.315445 -1.166870 0.916275 30.000000
2.310894 -1.197561 0.918175 30.000000
2.289345 -1.219406 0.913254 30.000000
2.271779 -1.243242 0.910002 30.000000
2.262238 -1.271355 0.909981 30.000000
2.240214 -1.292319 0.904999 30.000000
2.205772 -1.305633 0.895002 30.000000
2.191521 -1.330655 0.893179 30.000000
2.184541 -1.360920 0.894972 30.000000
2.185746 -1.395788 0.899614 30.000000
2.154769 -1.410151 0.891064 30.000000
2.131119 -1.429667 0.886137 30.000000
2.119605 -1.456372 0.885693 30.000000
2.095602 -1.475332 0.880700 30.000000
2.060046 -1.485649 0.870773 30.000000
2.055487 -1.517184 0.873413 30.000000
2.038678 -1.540833 0.871518 30.000000
2.025283 -1.567213 0.871233 30.000000
2.023459 -1.601586 0.875263 30.000000
2.005746 -1.624788 0.873267 30.000000
2.002372 -1.659917 0.877499 30.000000
1.969654 -1.670609 0.868943 30.000000
1.940535 -1.683826 0.862010 30.000000
1.939740 -1.721811 0.867708 30.000000
1.927816 -1.750390 0.868535 30.000000
1.898203 -1.762736 0.861456 30.000000
1.882399 -1.787749 0.860614 30.000000
1.869679 -1.815899 0.861331 30.000000
1.859934 -1.847216 0.863595 30.000000
1.836470 -1.865056 0.859508 30.000000
1.789839 -1.858608 0.844460 30.000000
1.805471 -1.917055 0.858947 30.000000
1.787981 -1.941094 0.857787 30.000000
1.763795 -1.957885 0.853537 30.000000
1.742578 -1.977919 0.850832 30.000000
1.726386 -2.005760 0.851443 30.000000
1.717017 -2.039929 0.854663 30.000000
1.683033 -2.044617 0.845674 30.000000
1.661060 -2.063705 0.842789 30.000000
1.655317 -2.105871 0.849226 30.000000
1.626953 -2.117090 0.843213 30.000000
1.595714 -2.124021 0.835721 30.000000
1.532242 -2.089029 0.812064 30.000000
1.476503 -2.059877 0.791201 30.000000
1.410718 -2.013998 0.764453 30.000000
1.347580 -1.971512 0.739670 30.000000
1.276188 -1.911273 0.708773 30.000000
1.234971 -1.893703 0.694315 30.000000
1.185313 -1.863974 0.675700 30.000000
1.150437 -1.852987 0.664281 30.000000
1.097360 -1.813477 0.642910 30.000000
1.063560 -1.801118 0.631602 30.000000
1.022978 -1.775845 0.616047 30.000000
0.991213 -1.767169 0.606526 30.000000
0.956401 -1.748970 0.593950 30.000000
0.771086 1.441873 0.500455 30.000000
0.785118 1.428135 0.500969 30.000000
0.807247 1.431461 0.507528 30.000000
0.820968 1.417408 0.507989 30.000000
0.840758 1.416092 0.513110 30.000000
0.855656 1.406353 0.515215 30.000000
0.868923 1.391883 0.515612 30.000000
0.886242 1.385822 0.519216 30.000000
0.901824 1.375030 0.521059 30.000000
0.905729 1.348786 0.517047 30.000000
0.928132 1.350049 0.523643 30.000000
0.935075 1.327140 0.520845 30.000000
0.954743 1.324038 0.525836 30.000000
0.963173 1.305339 0.524747 30.000000
0.985662 1.305590 0.531306 30.000000
1.000306 1.293674 0.532986 30.000000
1.017059 1.285801 0.536430 30.000000
1.033787 1.277755 0.539886 30.000000
1.053463 1.273087 0.544865 30.000000
1.073242 1.268120 0.549866 30.000000
1.078180 1.244437 0.546741 30.000000
1.094669 1.235544 0.550122 30.000000
1.114311 1.229881 0.555046 30.000000
1.150107 1.241296 0.567945 30.000000
1.166712 1.231390 0.571284 30.000000
1.183282 1.221244 0.574632 30.000000
1.186486 1.197459 0.571514 30.000000
1.199414 1.183661 0.573198 30.000000
1.212234 1.169755 0.574828 30.000000
1.252416 1.181600 0.589412 30.000000
1.254819 1.157430 0.586151 30.000000
1.288498 1.161827 0.597517 30.000000
1.304644 1.150000 0.600718 30.000000
1.302349 1.122892 0.595966 30.000000
1.318235 1.110773 0.599107 30.000000
1.337610 1.101403 0.603845 30.000000
1.371715 1.103587 0.615197 30.000000
1.401927 1.102635 0.625117 30.000000
1.421463 1.092001 0.629874 30.000000
1.444782 1.083908 0.636249 30.000000
1.452435 1.064699 0.636220 30.000000
1.460318 1.044994 0.635833 30.000000
1.479146 1.033766 0.640749 30.000000
1.510001 1.029737 0.650416 30.000000
1.528793 1.017728 0.655257 30.000000
1.555475 1.010491 0.663420 30.000000
1.562621 0.989816 0.662936 30.000000
1.589248 0.981778 0.671076 30.000000
1.611877 0.970825 0.677490 30.000000
1.610147 0.945189 0.673742 30.000000
1.632629 0.933716 0.680115 30.000000
1.654959 0.921840 0.686507 30.000000
1.677315 0.909498 0.692856 30.000000
1.728721 0.912158 0.711128 30.000000
1.759520 0.902950 0.720831 30.000000
1.786095 0.891102 0.728848 30.000000
1.787307 0.866383 0.726515 30.000000
1.809278 0.852117 0.732967 30.000000
1.839852 0.841008 0.742557 30.000000
1.857376 0.823834 0.747258 30.000000
1.892022 0.813814 0.758751 30.000000
1.922582 0.800929 0.768342 30.000000
1.944166 0.784242 0.774624 30.000000
1.970097 0.768825 0.782588 30.000000
2.000288 0.754596 0.792308 30.000000
2.017028 0.735123 0.796971 30.000000
2.060295 0.724427 0.811817 30.000000
2.085869 0.706836 0.819574 30.000000
2.106689 0.687458 0.825888 30.000000
2.131928 0.669107 0.833891 30.000000
2.156926 0.650204 0.841765 30.000000
2.181893 0.630746 0.849653 30.000000
2.224729 0.615874 0.864495 30.000000
2.267557 0.600029 0.879212 30.000000
2.282903 0.576559 0.883642 30.000000
2.343731 0.563517 0.905352 30.000000
2.372516 0.542010 0.914935 30.000000
2.391949 0.518004 0.920932 30.000000
2.429544 0.497279 0.933905 30.000000
2.453095 0.473247 0.941687 30.000000
2.476478 0.448634 0.949479 30.000000
2.559558 0.433763 0.980159 30.000000
2.587231 0.408191 0.989502 30.000000
2.586961 0.378035 0.988161 30.000000
2.563076 0.344866 0.978146 30.000000
2.548055 0.313470 0.971573 30.000000
2.537380 0.282848 0.966597 30.000000
2.512381 0.251230 0.956305 30.000000
2.500963 0.221401 0.951402 30.000000
2.498514 0.192609 0.949875 30.000000
2.500477 0.164147 0.950121 30.000000
2.497445 0.135432 0.948675 30.000000
2.503503 0.107223 0.950366 30.000000
2.476449 0.077879 0.939889 30.000000
2.509813 0.050393 0.952549 30.000000
2.500792 0.021796 0.949083 30.000000
2.491524 -0.006669 0.945535 30.000000
2.496036 -0.035037 0.947227 30.000000
2.504894 -0.063630 0.950612 30.000000
2.513337 -0.092436 0.954077 30.000000
2.512106 -0.121004 0.954159 30.000000
2.510710 -0.149572 0.953830 30.000000
2.546211 -0.180789 0.967847 30.000000
2.502192 -0.206242 0.951648 30.000000
2.560333 -0.240356 0.974350 30.000000
2.622579 -0.276337 0.998893 30.000000
2.698349 -0.315429 1.028647 30.000000
2.764376 -0.354948 1.054659 30.000000
2.806689 -0.392805 1.071800 30.000000
2.783662 -0.421995 1.064266 30.000000
2.792826 -0.455855 1.069016 30.000000
2.755403 -0.481970 1.056008 30.000000
2.740822 -0.511551 1.051749 30.000000
2.703058 -0.536190 1.038587 30.000000
2.687879 -0.565002 1.034344 30.000000
2.681609 -0.595545 1.033627 30.000000
2.661310 -0.622799 1.027454 30.000000
2.645180 -0.650949 1.023313 30.000000
2.637987 -0.680966 1.022336 30.000000
2.594193 -0.701209 1.007408 30.000000
2.581892 -0.729452 1.004779 30.000000
2.573848 -0.758830 1.003817 30.000000
2.552023 -0.783907 0.997517 30.000000
2.547875 -0.814295 0.998135 30.000000
2.512222 -0.834361 0.986440 30.000000
2.498481 -0.861456 0.983661 30.000000
2.493342 -0.891606 0.984370 30.000000
2.479204 -0.918083 0.981165 30.000000
2.455916 -0.941277 0.974748 30.000000
2.441199 -0.967456 0.971729 30.000000
2.413242 -0.988118 0.963430 30.000000
2.393402 -1.012206 0.958950 30.000000
2.378028 -1.037466 0.955785 30.000000
2.362441 -1.062459 0.952540 30.000000
2.350565 -1.089580 0.951277 30.000000
2.330299 -1.112068 0.946152 30.000000
2.322177 -1.140826 0.946527 30.000000
2.305290 -1.165359 0.943298 30.000000
2.284114 -1.187378 0.938363 30.000000
2.279274 -1.217896 0.940277 30.000000
2.257607 -1.239388 0.935269 30.000000
2.243977 -1.265143 0.933513 30.000000
2.230013 -1.290814 0.931841 30.000000
2.219925 -1.318552 0.931782 30.000000
2.185430 -1.331611 0.921387 30.000000
2.162922 -1.351444 0.916180 30.000000
2.155630 -1.381582 0.917983 30.000000
2.136670 -1.403485 0.914307 30.000000
2.129239 -1.432937 0.915596 30.000000
2.105517 -1.452286 0.910496 30.000000
2.109017 -1.489658 0.916706 30.000000
2.038922 -1.475393 0.891494 30.000000
2.042058 -1.512401 0.897538 30.000000
2.028955 -1.538855 0.897308 30.000000
2.022993 -1.571018 0.900305 30.000000
2.006256 -1.593720 0.897902 30.000000
1.992270 -1.619815 0.897397 30.000000
1.970711 -1.639788 0.893594 30.000000
1.959758 -1.668697 0.894723 30.000000
1.924228 -1.675058 0.883960 30.000000
1.923500 -1.712855 0.889816 30.000000
1.911612 -1.741426 0.890745 30.000000
1.892498 -1.763377 0.888324 30.000000
1.873134 -1.785078 0.885904 30.000000
1.846826 -1.800007 0.880170 30.000000
1.843880 -1.837921 0.885727 30.000000
1.827138 -1.862450 0.884731 30.000000
1.780642 -1.856040 0.869317 30.000000
1.779961 -1.897156 0.876242 30.000000
1.765679 -1.924498 0.876660 30.000000
1.751161 -1.951735 0.877142 30.000000
1.733194 -1.975299 0.875854 30.000000
1.713796 -1.999443 0.874979 30.000000
1.701348 -2.029919 0.876728 30.000000
1.685486 -2.056677 0.876965 30.000000
1.651473 -2.061075 0.867647 30.000000
1.635191 -2.087391 0.867788 30.000000
1.611521 -2.106804 0.865063 30.000000
1.588958 -2.125195 0.861998 30.000000
1.532542 -2.097155 0.840378 30.000000
1.471329 -2.060428 0.815826 30.000000
1.404481 -2.015467 0.788613 30.000000
1.350747 -1.984208 0.767351 30.000000
1.287463 -1.936035 0.740161 30.000000
1.231785 -1.899464 0.717907 30.000000
1.196259 -1.889282 0.706048 30.000000
1.157397 -1.875183 0.692972 30.000000
1.095660 -1.818880 0.664757 30.000000
1.061863 -1.806615 0.653114 30.000000
1.024761 -1.790398 0.640261 30.000000
0.994135 -1.781273 0.630179 30.000000
0.957907 -1.763864 0.617477 30.000000
0.778822 1.426418 0.515382 30.000000
0.799667 1.425049 0.520446 30.000000
0.817115 1.419808 0.524167 30.000000
0.828229 1.401534 0.523103 30.000000
0.843050 1.391880 0.525243 30.000000
0.865290 1.394192 0.532008 30.000000
0.870763 1.367517 0.527765 30.000000
0.908646 1.393196 0.543831 30.000000
0.891778 1.335218 0.527248 30.000000
0.909521 1.328202 0.530619 30.000000
0.937266 1.337031 0.540492 30.000000
0.943141 1.314600 0.537808 30.000000
0.959996 1.307392 0.541368 30.000000
0.988168 1.315175 0.551295 30.000000
0.988542 1.284379 0.545073 30.000000
1.011058 1.284064 0.551802 30.000000
1.033709 1.283335 0.558512 30.000000
1.050472 1.274934 0.562034 30.000000
1.058007 1.255503 0.560719 30.000000
1.080772 1.253914 0.567436 30.000000
1.091104 1.237764 0.567679 30.000000
1.117776 1.238592 0.575747 30.000000
1.140747 1.235972 0.582487 30.000000
1.160539 1.229587 0.587562 30.000000
1.163977 1.205849 0.584426 30.000000
1.170401 1.185536 0.582857 30.000000
1.193276 1.181868 0.589495 30.000000
1.212325 1.174961 0.594773 30.000000
1.218264 1.154273 0.593080 30.000000
1.258470 1.165660 0.608074 30.000000
1.278118 1.157265 0.613034 30.000000
1.276633 1.129814 0.607936 30.000000
1.260520 1.090261 0.596014 30.000000
1.311440 1.109380 0.616316 30.000000
1.327208 1.097006 0.619457 30.000000
1.364885 1.102108 0.632841 30.000000
1.376496 1.086570 0.634548 30.000000
1.388448 1.070463 0.635971 30.000000
1.426044 1.074374 0.649588 30.000000
1.445440 1.063184 0.654348 30.000000
1.456748 1.046630 0.655980 30.000000
1.468289 1.029551 0.657320 30.000000
1.498668 1.025961 0.667459 30.000000
1.517810 1.013575 0.672155 30.000000
1.540461 1.003806 0.678834 30.000000
1.559142 0.991132 0.683740 30.000000
1.577752 0.978157 0.688661 30.000000
1.592277 0.962393 0.691733 30.000000
1.618783 0.953489 0.700049 30.000000
1.620937 0.930164 0.697897 30.000000
1.639220 0.916042 0.702680 30.000000
1.673807 0.910496 0.714436 30.000000
1.679545 0.888992 0.713858 30.000000
1.726655 0.888815 0.730822 30.000000
1.765309 0.883846 0.744566 30.000000
1.783380 0.867461 0.749194 30.000000
1.801283 0.850817 0.753768 30.000000
1.823067 0.836058 0.760386 30.000000
1.853321 0.824743 0.770506 30.000000
1.875000 0.809039 0.776966 30.000000
1.909734 0.798111 0.788580 30.000000
1.926980 0.779714 0.793227 30.000000
1.961426 0.767793 0.804954 30.000000
1.973914 0.747149 0.807980 30.000000
1.999523 0.730869 0.816105 30.000000
2.038200 0.718704 0.829551 30.000000
2.059086 0.699967 0.835993 30.000000
2.088654 0.683689 0.846041 30.000000
2.122685 0.668234 0.857764 30.000000
2.138748 0.646624 0.862311 30.000000
2.172494 0.629932 0.873927 30.000000
2.210682 0.613724 0.887366 30.000000
2.253342 0.597992 0.902481 30.000000
2.268713 0.574570 0.907010 30.000000
2.297421 0.554144 0.916895 30.000000
2.326015 0.533047 0.926719 30.000000
2.381734 0.517286 0.947347 30.000000
2.410144 0.494758 0.957048 30.000000
2.447321 0.473480 0.970471 30.000000
2.465970 0.448060 0.976652 30.000000
2.535026 0.430829 1.002656 30.000000
2.567178 0.406222 1.014066 30.000000
2.566827 0.376172 1.012673 30.000000
2.547660 0.343737 1.004172 30.000000
2.542038 0.313538 1.001038 30.000000
2.512916 0.280879 0.988629 30.000000
2.515733 0.252294 0.989209 30.000000
2.508944 0.222720 0.985978 30.000000
2.529822 0.195593 0.993517 30.000000
2.531818 0.166653 0.993767 30.000000
