x y z intensity
1.203624 1.098722 0.183029 30.000000
1.222998 1.092027 0.184648 30.000000
1.234529 1.078885 0.185252 30.000000
1.246262 1.065239 0.185756 30.000000
1.265466 1.057814 0.187388 30.000000
1.284658 1.050070 0.188976 30.000000
1.307716 1.045155 0.191187 30.000000
1.315217 1.027646 0.191082 30.000000
1.329982 1.016512 0.192216 30.000000
1.341037 1.001754 0.192679 30.000000
1.351939 0.986945 0.193141 30.000000
1.374817 0.980633 0.195276 30.000000
1.381377 0.962593 0.195167 30.000000
1.403935 0.956030 0.197416 30.000000
1.426726 0.948782 0.199569 30.000000
1.445322 0.938450 0.201149 30.000000
1.455541 0.922460 0.201573 30.000000
1.469771 0.908976 0.202579 30.000000
1.483633 0.895665 0.203640 30.000000
1.497658 0.881783 0.204597 30.000000
1.520136 0.872697 0.206728 30.000000
1.555396 0.870768 0.210735 30.000000
1.551742 0.846489 0.209354 30.000000
1.574076 0.836367 0.211502 30.000000
1.613983 0.835027 0.216017 30.000000
1.636165 0.824192 0.218182 30.000000
1.658436 0.812728 0.220353 30.000000
1.667064 0.794678 0.220750 30.000000
1.684644 0.780517 0.222279 30.000000
1.693090 0.761970 0.222622 30.000000
1.701193 0.743594 0.223021 30.000000
1.750371 0.742320 0.228739 30.000000
1.776624 0.730821 0.231541 30.000000
1.793700 0.714951 0.233034 30.000000
1.815189 0.700786 0.235190 30.000000
1.827376 0.682605 0.236090 30.000000
1.844028 0.666068 0.237653 30.000000
1.883946 0.657262 0.242172 30.000000
1.876827 0.631961 0.240669 30.000000
1.902468 0.617635 0.243389 30.000000
1.913785 0.598331 0.244301 30.000000
1.934455 0.581597 0.246364 30.000000
1.969211 0.568745 0.250311 30.000000
1.999175 0.553881 0.253660 30.000000
2.019497 0.535886 0.255737 30.000000
2.010719 0.510126 0.254170 30.000000
2.064374 0.499864 0.260512 30.000000
2.113185 0.487437 0.266257 30.000000
2.132929 0.467487 0.268353 30.000000
2.147547 0.446141 0.269775 30.000000
2.181484 0.428477 0.273643 30.000000
2.190876 0.405591 0.274527 30.000000
2.239124 0.389261 0.280240 30.000000
2.267736 0.368784 0.283441 30.000000
2.296154 0.347772 0.286716 30.000000
2.334194 0.327461 0.291149 30.000000
2.357286 0.304491 0.293820 30.000000
2.404779 0.284001 0.299490 30.000000
2.358418 0.252435 0.293499 30.000000
2.375789 0.228111 0.295487 30.000000
2.491853 0.211794 0.309694 30.000000
2.513800 0.186035 0.312307 30.000000
2.575085 0.162341 0.319763 30.000000
2.616313 0.136238 0.324763 30.000000
2.662303 0.109553 0.330381 30.000000
2.717841 0.082113 0.337232 30.000000
2.728516 0.052620 0.338463 30.000000
2.733897 0.022869 0.339162 30.000000
2.793523 -0.007130 0.346549 30.000000
2.842880 -0.038383 0.352704 30.000000
2.881950 -0.070391 0.357628 30.000000
2.935610 -0.103792 0.364399 30.000000
2.983912 -0.138062 0.370463 30.000000
3.056473 -0.174925 0.379694 30.000000
3.108857 -0.212061 0.386367 30.000000
3.160776 -0.250292 0.393037 30.000000
3.162793 -0.285254 0.393555 30.000000
3.120075 -0.315730 0.388539 30.000000
3.057239 -0.343130 0.380972 30.000000
3.043510 -0.375217 0.379555 30.000000
3.009759 -0.404445 0.375683 30.000000
3.044467 -0.443033 0.380499 30.000000
3.010039 -0.471630 0.376630 30.000000
2.985124 -0.501135 0.373897 30.000000
2.901388 -0.519714 0.363908 30.000000
2.910211 -0.554131 0.365473 30.000000
2.894288 -0.583778 0.363976 30.000000
2.878044 -0.613305 0.362481 30.000000
2.842206 -0.638180 0.358545 30.000000
2.782002 -0.656543 0.351562 30.000000
2.745804 -0.679710 0.347552 30.000000
2.709413 -0.702160 0.343636 30.000000
2.716039 -0.735484 0.345118 30.000000
2.688802 -0.759675 0.342339 30.000000
2.656579 -0.781963 0.338958 30.000000
2.638404 -0.808090 0.337404 30.000000
2.620037 -0.833756 0.335852 30.000000
2.596769 -0.857574 0.333613 30.000000
2.606135 -0.892170 0.335612 30.000000
2.591549 -0.919050 0.334669 30.000000
2.628087 -0.964211 0.340193 30.000000
2.594212 -0.984152 0.336836 30.000000
2.569515 -1.006868 0.334520 30.000000
2.549198 -1.031311 0.332894 30.000000
2.537955 -1.058869 0.332386 30.000000
2.521645 -1.084635 0.331365 30.000000
2.491677 -1.103931 0.328465 30.000000
2.556224 -1.166183 0.338118 30.000000
2.723098 -1.278559 0.361551 30.000000
3.066777 -1.480632 0.408548 30.000000
3.246103 -1.611356 0.434084 30.000000
3.321493 -1.693807 0.445654 30.000000
3.100511 -1.624159 0.417712 30.000000
2.951374 -1.587593 0.399319 30.000000
2.951251 -1.629534 0.400960 30.000000
2.996769 -1.740846 0.410582 30.000000
3.101309 -1.847341 0.426864 30.000000
2.920281 -1.782426 0.403711 30.000000
2.959559 -1.851253 0.411163 30.000000
3.031048 -1.942707 0.423145 30.000000
2.984679 -1.959543 0.418875 30.000000
2.979551 -2.003430 0.420323 30.000000
2.728462 -1.921890 0.388931 30.000000
2.642778 -1.905359 0.378770 30.000000
2.641741 -1.949131 0.380850 30.000000
2.655934 -2.005011 0.385217 30.000000
2.646261 -2.042434 0.385813 30.000000
2.767912 -2.185382 0.406157 30.000000
2.813424 -2.271889 0.415454 30.000000
2.489670 -2.056046 0.370049 30.000000
2.470752 -2.086526 0.369624 30.000000
2.451566 -2.116891 0.369297 30.000000
2.421532 -2.136284 0.367073 30.000000
2.394336 -2.159537 0.365518 30.000000
2.381527 -2.195884 0.366213 30.000000
2.357352 -2.221949 0.365218 30.000000
2.332977 -2.247717 0.364223 30.000000
2.336526 -2.301178 0.367584 30.000000
2.290237 -2.305605 0.363245 30.000000
2.276282 -2.340442 0.363708 30.000000
2.260895 -2.376105 0.364261 30.000000
2.234811 -2.400778 0.363153 30.000000
2.205180 -2.421475 0.361497 30.000000
2.178533 -2.445608 0.360290 30.000000
2.164846 -2.484328 0.361364 30.000000
2.111839 -2.477738 0.355804 30.000000
2.056109 -2.466364 0.349831 30.000000
2.019677 -2.477281 0.347029 30.000000
2.018581 -2.529360 0.350056 30.000000
2.000141 -2.563070 0.350371 30.000000
1.981145 -2.596782 0.350776 30.000000
1.943958 -2.606380 0.347976 30.000000
1.868556 -2.563254 0.338198 30.000000
1.780032 -2.498560 0.325936 30.000000
1.710119 -2.456740 0.316818 30.000000
1.627373 -2.393059 0.305138 30.000000
1.554491 -2.340315 0.295104 30.000000
1.491002 -2.298888 0.286699 30.000000
1.439260 -2.273098 0.280423 30.000000
1.372581 -2.221092 0.271088 30.000000
1.316328 -2.179844 0.263203 30.000000
1.302598 -2.211282 0.264157 30.000000
0.814307 1.406326 0.179676 30.000000
0.811816 1.367334 0.176562 30.000000
0.824125 1.354056 0.176790 30.000000
0.846714 1.357553 0.179140 30.000000
0.856152 1.339746 0.178760 30.000000
0.870654 1.330273 0.179492 30.000000
0.887873 1.324732 0.180788 30.000000
0.905085 1.318983 0.182039 30.000000
0.925093 1.317091 0.183862 30.000000
0.921984 1.282607 0.181185 30.000000
0.938124 1.276905 0.182485 30.000000
0.954980 1.270459 0.183740 30.000000
0.968799 1.259912 0.184424 30.000000
0.982471 1.249170 0.185107 30.000000
0.992932 1.234412 0.185162 30.000000
1.006318 1.223411 0.185843 30.000000
1.032392 1.227465 0.188814 30.000000
1.029511 1.197207 0.186522 30.000000
1.038705 1.182510 0.186613 30.000000
1.068158 1.189468 0.190195 30.000000
1.077723 1.173970 0.190241 30.000000
1.093904 1.165638 0.191423 30.000000
1.106580 1.153502 0.192013 30.000000
1.133011 1.155396 0.194995 30.000000
1.138568 1.135849 0.194392 30.000000
1.150928 1.123193 0.194985 30.000000
1.159106 1.107454 0.195024 30.000000
1.174806 1.097979 0.196221 30.000000
1.194096 1.091674 0.197980 30.000000
1.209684 1.081701 0.199136 30.000000
1.225195 1.071545 0.200295 30.000000
1.240276 1.061609 0.201508 30.000000
1.263237 1.057409 0.203903 30.000000
1.278627 1.046519 0.205025 30.000000
1.297757 1.038543 0.206819 30.000000
1.312961 1.027236 0.207949 30.000000
1.324138 1.012676 0.208462 30.000000
1.338826 1.001343 0.209648 30.000000
1.353733 0.989409 0.210734 30.000000
1.368549 0.977284 0.211875 30.000000
1.387290 0.967804 0.213593 30.000000
1.401691 0.955613 0.214794 30.000000
1.424462 0.948308 0.217099 30.000000
1.434780 0.932515 0.217573 30.000000
1.457452 0.924641 0.219943 30.000000
1.471492 0.911428 0.221107 30.000000
1.489886 0.900316 0.222803 30.000000
1.508179 0.888856 0.224503 30.000000
1.530557 0.879896 0.226900 30.000000
1.522759 0.853306 0.224780 30.000000
1.545054 0.843623 0.227075 30.000000
1.571556 0.836147 0.230127 30.000000
1.589400 0.823344 0.231794 30.000000
1.602641 0.808280 0.232934 30.000000
1.624722 0.797157 0.235254 30.000000
1.646780 0.785627 0.237524 30.000000
1.673137 0.776060 0.240560 30.000000
1.672441 0.753538 0.239606 30.000000
1.703224 0.745239 0.243301 30.000000
1.720362 0.730345 0.244944 30.000000
1.755631 0.722917 0.249252 30.000000
1.772671 0.707247 0.250906 30.000000
1.784814 0.689706 0.251911 30.000000
1.806105 0.675479 0.254284 30.000000
1.818008 0.657280 0.255235 30.000000
1.848428 0.645576 0.258869 30.000000
1.864693 0.628551 0.260543 30.000000
1.880845 0.611261 0.262160 30.000000
1.901550 0.595124 0.264500 30.000000
1.926852 0.580044 0.267441 30.000000
1.937808 0.560234 0.268348 30.000000
1.977201 0.548454 0.273279 30.000000
2.021332 0.536966 0.278882 30.000000
2.046277 0.519695 0.281786 30.000000
2.075884 0.503171 0.285356 30.000000
2.090869 0.482711 0.287010 30.000000
2.120159 0.465161 0.290525 30.000000
2.125105 0.441970 0.290793 30.000000
2.168683 0.426428 0.296376 30.000000
2.202410 0.408094 0.300570 30.000000
2.216450 0.385723 0.302108 30.000000
2.269448 0.369438 0.308975 30.000000
2.283070 0.346073 0.310520 30.000000
2.301418 0.323182 0.312733 30.000000
2.329352 0.301168 0.316212 30.000000
2.347225 0.277454 0.318432 30.000000
2.355063 0.252362 0.319245 30.000000
2.357689 0.226615 0.319391 30.000000
2.419196 0.205836 0.327484 30.000000
2.505293 0.185592 0.339001 30.000000
2.556600 0.161326 0.345766 30.000000
2.582998 0.134690 0.349189 30.000000
2.623878 0.108044 0.354622 30.000000
2.649693 0.080083 0.358049 30.000000
2.675116 0.051663 0.361478 30.000000
2.695347 0.022578 0.364238 30.000000
2.789571 -0.007130 0.376960 30.000000
2.809131 -0.037895 0.379638 30.000000
2.863100 -0.069939 0.387003 30.000000
2.936407 -0.103876 0.396956 30.000000
2.994536 -0.138750 0.404989 30.000000
3.062036 -0.175397 0.414266 30.000000
3.119279 -0.212882 0.422201 30.000000
3.151351 -0.249705 0.426787 30.000000
3.148528 -0.284168 0.426690 30.000000
3.110710 -0.315038 0.421912 30.000000
3.062735 -0.344048 0.415704 30.000000
3.019502 -0.372601 0.410170 30.000000
2.995642 -0.402937 0.407312 30.000000
2.986178 -0.434894 0.406458 30.000000
2.976357 -0.466743 0.405605 30.000000
2.961389 -0.497664 0.403994 30.000000
2.936330 -0.526438 0.401143 30.000000
2.930359 -0.558496 0.400868 30.000000
2.899917 -0.585558 0.397174 30.000000
2.869126 -0.612000 0.393577 30.000000
2.876856 -0.646605 0.395299 30.000000
2.797339 -0.660837 0.384979 30.000000
2.756321 -0.683026 0.379983 30.000000
2.719932 -0.705635 0.375745 30.000000
2.702492 -0.732717 0.374075 30.000000
2.694475 -0.762029 0.373557 30.000000
2.662256 -0.784509 0.369995 30.000000
2.648801 -0.812109 0.368908 30.000000
2.630400 -0.837931 0.367163 30.000000
2.616515 -0.865017 0.366080 30.000000
2.597551 -0.890224 0.364340 30.000000
2.597172 -0.921774 0.365231 30.000000
2.577601 -0.946862 0.363495 30.000000
2.581105 -0.980121 0.364953 30.000000
2.547323 -0.999119 0.361172 30.000000
2.527016 -1.023277 0.359444 30.000000
2.515854 -1.050720 0.358856 30.000000
2.504272 -1.078331 0.358437 30.000000
2.456186 -1.089359 0.352644 30.000000
2.574884 -1.176049 0.370990 30.000000
2.692200 -1.265076 0.389099 30.000000
2.847811 -1.376544 0.413158 30.000000
3.067936 -1.524742 0.446847 30.000000
3.108789 -1.587266 0.454395 30.000000
3.099954 -1.625924 0.454931 30.000000
3.034262 -1.633572 0.446995 30.000000
2.881697 -1.592522 0.426348 30.000000
2.967588 -1.682837 0.441023 30.000000
2.979435 -1.732304 0.444556 30.000000
2.836719 -1.691422 0.425294 30.000000
2.940727 -1.797523 0.442965 30.000000
2.858270 -1.789752 0.432367 30.000000
2.784188 -1.786273 0.423287 30.000000
2.673262 -1.756979 0.408538 30.000000
2.666217 -1.794716 0.409647 30.000000
2.618343 -1.803595 0.404244 30.000000
2.622711 -1.849502 0.407139 30.000000
2.614342 -1.887039 0.408134 30.000000
2.597503 -1.918749 0.407868 30.000000
2.628401 -1.985435 0.414899 30.000000
2.567162 -1.983974 0.407752 30.000000
2.518064 -1.990579 0.402400 30.000000
2.515337 -2.033918 0.404615 30.000000
2.458541 -2.033118 0.398049 30.000000
2.466382 -2.085731 0.402008 30.000000
2.432868 -2.102223 0.398969 30.000000
2.402293 -2.122349 0.396653 30.000000
2.389880 -2.158745 0.397505 30.000000
2.355175 -2.174888 0.394583 30.000000
2.313179 -2.183680 0.390453 30.000000
2.354404 -2.270240 0.400110 30.000000
2.304623 -2.271594 0.394766 30.000000
2.279652 -2.296863 0.393671 30.000000
2.261298 -2.328957 0.393681 30.000000
2.208402 -2.325012 0.387683 30.000000
2.189630 -2.356436 0.387697 30.000000
2.160385 -2.376690 0.385914 30.000000
2.127724 -2.392964 0.383540 30.000000
2.089588 -2.400327 0.379792 30.000000
2.066496 -2.426896 0.379209 30.000000
2.059014 -2.472418 0.381467 30.000000
2.044464 -2.510264 0.382529 30.000000
2.054128 -2.579262 0.388252 30.000000
2.059422 -2.644753 0.393345 30.000000
2.015439 -2.647449 0.389102 30.000000
1.977612 -2.657476 0.385935 30.000000
1.917871 -2.633870 0.378069 30.000000
1.880404 -2.642649 0.374945 30.000000
1.726751 -2.483727 0.348380 30.000000
1.629846 -2.399857 0.332920 30.000000
1.559712 -2.351355 0.322499 30.000000
1.509750 -2.330816 0.316195 30.000000
1.433798 -2.267578 0.304294 30.000000
1.380295 -2.236723 0.296884 30.000000
1.303536 -2.219379 0.288419 30.000000
0.817530 1.413973 0.195434 30.000000
0.805044 1.357915 0.189725 30.000000
0.824951 1.357422 0.191699 30.000000
0.834498 1.339767 0.191277 30.000000
0.854394 1.338867 0.193262 30.000000
0.865402 1.325727 0.193485 30.000000
0.874294 1.307838 0.193046 30.000000
0.896924 1.310400 0.195654 30.000000
0.914029 1.304454 0.197000 30.000000
0.916618 1.278187 0.195271 30.000000
0.936371 1.275980 0.197233 30.000000
0.950244 1.265613 0.197963 30.000000
0.966992 1.258984 0.199316 30.000000
0.977648 1.244341 0.199424 30.000000
1.002919 1.249447 0.202713 30.000000
1.010227 1.230640 0.202192 30.000000
1.023599 1.219424 0.202878 30.000000
1.020722 1.189243 0.200393 30.000000
1.050000 1.196550 0.204250 30.000000
1.059717 1.181152 0.204248 30.000000
1.079262 1.176743 0.206212 30.000000
1.091545 1.165196 0.206949 30.000000
1.107651 1.156641 0.208233 30.000000
1.134142 1.158491 0.211460 30.000000
1.146765 1.145867 0.212109 30.000000
1.145059 1.119282 0.210155 30.000000
1.157233 1.106567 0.210746 30.000000
1.176102 1.100922 0.212746 30.000000
1.195414 1.094524 0.214654 30.000000
1.211031 1.084508 0.215911 30.000000
1.222843 1.071095 0.216511 30.000000
1.242082 1.063930 0.218436 30.000000
1.253311 1.050536 0.219090 30.000000
1.272407 1.042870 0.220975 30.000000
1.283805 1.028736 0.221533 30.000000
1.298901 1.017506 0.222759 30.000000
1.321472 1.012522 0.225381 30.000000
1.336461 1.000777 0.226566 30.000000
1.339366 0.980065 0.225732 30.000000
1.362140 0.973885 0.228321 30.000000
1.388749 0.970433 0.231597 30.000000
1.391107 0.949454 0.230762 30.000000
1.413797 0.942235 0.233269 30.000000
1.427997 0.929602 0.234526 30.000000
1.450616 0.921719 0.237048 30.000000
1.469042 0.910842 0.238894 30.000000
1.482971 0.897430 0.240166 30.000000
1.497009 0.883552 0.241280 30.000000
1.528058 0.879299 0.245206 30.000000
1.533083 0.860253 0.245005 30.000000
1.542454 0.843298 0.245438 30.000000
1.560186 0.831108 0.247366 30.000000
1.577965 0.818399 0.249135 30.000000
1.600100 0.807673 0.251659 30.000000
1.613161 0.792401 0.252853 30.000000
1.630682 0.778833 0.254636 30.000000
1.670413 0.775662 0.259973 30.000000
1.669731 0.753143 0.258971 30.000000
1.691408 0.740866 0.261526 30.000000
1.708431 0.726242 0.263329 30.000000
1.748307 0.720622 0.268652 30.000000
1.742211 0.695994 0.266947 30.000000
1.786544 0.691257 0.272995 30.000000
1.803256 0.675004 0.274703 30.000000
1.815092 0.656982 0.275826 30.000000
1.822114 0.637106 0.276183 30.000000
1.852346 0.625083 0.280085 30.000000
1.877862 0.610957 0.283287 30.000000
1.893822 0.593338 0.285074 30.000000
1.923816 0.579735 0.288938 30.000000
1.930012 0.558671 0.289310 30.000000
1.955032 0.542780 0.292410 30.000000
1.984700 0.527805 0.296356 30.000000
2.014316 0.512183 0.300183 30.000000
2.058235 0.499407 0.306227 30.000000
2.097274 0.484676 0.311501 30.000000
2.112051 0.463899 0.313267 30.000000
2.121763 0.441769 0.314251 30.000000
2.165281 0.426223 0.320263 30.000000
2.194097 0.406985 0.324060 30.000000
2.217931 0.386364 0.327142 30.000000
2.236608 0.364521 0.329579 30.000000
2.264910 0.343703 0.333389 30.000000
2.302811 0.323727 0.338573 30.000000
2.315995 0.299825 0.340229 30.000000
2.348572 0.277963 0.344773 30.000000
2.366174 0.253799 0.347084 30.000000
2.398365 0.230733 0.351562 30.000000
2.430321 0.207021 0.356044 30.000000
2.491634 0.184782 0.364864 30.000000
2.513234 0.158752 0.367832 30.000000
2.574075 0.134352 0.376663 30.000000
2.600062 0.107229 0.380358 30.000000
2.630776 0.079634 0.384697 30.000000
2.656239 0.051294 0.388394 30.000000
2.676438 0.022454 0.391370 30.000000
2.686415 -0.006877 0.392817 30.000000
2.819733 -0.038095 0.412349 30.000000
2.858690 -0.069939 0.418136 30.000000
2.917050 -0.103261 0.426727 30.000000
2.975094 -0.137971 0.435407 30.000000
3.017894 -0.173037 0.441823 30.000000
3.075074 -0.210088 0.450405 30.000000
3.141649 -0.249217 0.460429 30.000000
3.119024 -0.281748 0.457345 30.000000
3.100973 -0.314442 0.455081 30.000000
3.028585 -0.340541 0.444780 30.000000
3.019821 -0.373020 0.443871 30.000000
2.971467 -0.400110 0.437190 30.000000
2.971833 -0.433280 0.437633 30.000000
2.957148 -0.464256 0.436007 30.000000
2.912944 -0.490000 0.429968 30.000000
2.921997 -0.524414 0.431854 30.000000
2.906417 -0.554511 0.430141 30.000000
2.890513 -0.584305 0.428430 30.000000
2.879217 -0.614828 0.427438 30.000000
2.853007 -0.641897 0.424204 30.000000
2.817080 -0.666177 0.419451 30.000000
2.761555 -0.685059 0.412018 30.000000
2.696534 -0.700314 0.403076 30.000000
2.684027 -0.728312 0.401931 30.000000
2.671204 -0.756292 0.400788 30.000000
2.658069 -0.784082 0.399731 30.000000
2.635245 -0.808694 0.397165 30.000000
2.621521 -0.836002 0.396028 30.000000
2.612358 -0.864593 0.395519 30.000000
2.593494 -0.889802 0.393589 30.000000
2.537051 -0.901465 0.386069 30.000000
2.545671 -0.935938 0.388406 30.000000
2.526050 -0.960432 0.386489 30.000000
2.538589 -0.996972 0.389524 30.000000
2.523071 -1.022690 0.388229 30.000000
2.498041 -1.044655 0.385611 30.000000
2.477515 -1.067863 0.383619 30.000000
2.456740 -1.090789 0.381631 30.000000
2.521179 -1.152795 0.393066 30.000000
2.651968 -1.247576 0.414805 30.000000
2.785206 -1.347828 0.437260 30.000000
2.996593 -1.490509 0.472115 30.000000
3.187285 -1.629331 0.504167 30.000000
2.993961 -1.572330 0.475545 30.000000
3.042247 -1.639985 0.485030 30.000000
2.855070 -1.579927 0.457125 30.000000
3.014542 -1.711014 0.484604 30.000000
2.892928 -1.684430 0.467164 30.000000
2.840243 -1.695890 0.460820 30.000000
2.838794 -1.736909 0.462554 30.000000
2.718820 -1.705034 0.445243 30.000000
2.704200 -1.737671 0.445039 30.000000
2.644007 -1.739563 0.437206 30.000000
2.653454 -1.788092 0.441109 30.000000
2.641893 -1.822896 0.441584 30.000000
2.618170 -1.848416 0.439817 30.000000
2.601749 -1.880145 0.439508 30.000000
2.600900 -1.923548 0.441903 30.000000
2.599429 -1.967193 0.444283 30.000000
2.523388 -1.952557 0.433749 30.000000
2.497983 -1.977292 0.431996 30.000000
2.491507 -2.017235 0.433696 30.000000
2.480644 -2.054161 0.434616 30.000000
2.454942 -2.077541 0.432759 30.000000
2.428220 -2.101234 0.431005 30.000000
2.401371 -2.124647 0.429155 30.000000
2.363272 -2.137806 0.425422 30.000000
2.332350 -2.157076 0.422925 30.000000
2.316668 -2.188727 0.422969 30.000000
2.324620 -2.245130 0.427696 30.000000
2.285837 -2.256768 0.423885 30.000000
2.254041 -2.274839 0.421296 30.000000
2.222103 -2.292462 0.418812 30.000000
2.176380 -2.295246 0.413645 30.000000
2.135274 -2.300053 0.409051 30.000000
2.126731 -2.341780 0.411016 30.000000
2.104324 -2.368851 0.410295 30.000000
2.088048 -2.403190 0.410948 30.000000
2.090598 -2.460024 0.415418 30.000000
2.085768 -2.509669 0.418479 30.000000
2.092769 -2.574797 0.424046 30.000000
2.059644 -2.588981 0.421150 30.000000
2.046577 -2.631050 0.422871 30.000000
2.014761 -2.649557 0.420808 30.000000
1.970887 -2.651663 0.416148 30.000000
1.921513 -2.645110 0.410367 30.000000
1.786295 -2.516435 0.385903 30.000000
1.719185 -2.478906 0.375825 30.000000
1.653132 -2.440135 0.365812 30.000000
1.563419 -2.363077 0.350340 30.000000
1.517461 -2.345948 0.343972 30.000000
1.452029 -2.299583 0.333469 30.000000
1.379993 -2.239415 0.321303 30.000000
1.342701 -2.233269 0.316990 30.000000
1.300691 -2.217956 0.311499 30.000000
0.795839 1.378611 0.204935 30.000000
0.802375 1.357429 0.203942 30.000000
0.819745 1.352693 0.205459 30.000000
0.831877 1.339282 0.205640 30.000000
0.846434 1.330014 0.206465 30.000000
0.860894 1.320552 0.207290 30.000000
0.872505 1.306822 0.207460 30.000000
0.895117 1.309375 0.210254 30.000000
0.909375 1.299365 0.211035 30.000000
0.911219 1.273672 0.209265 30.000000
0.930913 1.271495 0.211414 30.000000
0.947713 1.265077 0.212858 30.000000
0.961488 1.254515 0.213637 30.000000
0.975117 1.243806 0.214367 30.000000
0.988649 1.232951 0.215146 30.000000
1.005176 1.225781 0.216553 30.000000
1.024282 1.222682 0.218741 30.000000
1.021485 1.192474 0.216070 30.000000
1.044287 1.192236 0.218848 30.000000
1.057227 1.180615 0.219580 30.000000
1.073461 1.172500 0.220952 30.000000
1.082812 1.156934 0.220996 30.000000
1.101765 1.152520 0.223114 30.000000
1.121265 1.147319 0.225192 30.000000
1.133773 1.134811 0.225884 30.000000
1.149670 1.125668 0.227276 30.000000
1.147667 1.099127 0.225115 30.000000
1.170060 1.096941 0.227961 30.000000
1.182025 1.083889 0.228604 30.000000
1.201210 1.077348 0.230661 30.000000
1.220441 1.070494 0.232677 30.000000
1.227947 1.054058 0.232666 30.000000
1.243263 1.043568 0.233978 30.000000
1.269975 1.042262 0.237440 30.000000
1.285182 1.031225 0.238764 30.000000
1.303891 1.023412 0.240863 30.000000
1.311109 1.005833 0.240756 30.000000
1.322117 0.991257 0.241316 30.000000
1.340596 0.982734 0.243376 30.000000
1.359354 0.973576 0.245392 30.000000
1.374032 0.961300 0.246687 30.000000
1.392701 0.951570 0.248663 30.000000
1.398682 0.933682 0.248557 30.000000
1.421281 0.926219 0.251273 30.000000
1.443638 0.918746 0.254052 30.000000
1.457870 0.905305 0.255315 30.000000
1.476178 0.894227 0.257266 30.000000
1.498481 0.885693 0.260068 30.000000
1.516664 0.873981 0.262032 30.000000
1.521698 0.855030 0.261831 30.000000
1.539637 0.842865 0.263802 30.000000
1.552991 0.828400 0.265034 30.000000
1.579559 0.820294 0.268506 30.000000
1.588293 0.802991 0.269000 30.000000
1.605845 0.789776 0.270937 30.000000
1.618755 0.774344 0.272184 30.000000
1.640566 0.762649 0.274824 30.000000
1.662234 0.750826 0.277583 30.000000
1.688392 0.740582 0.281048 30.000000
1.696360 0.721913 0.281446 30.000000
1.726944 0.712787 0.285680 30.000000
1.739146 0.695705 0.286841 30.000000
1.774198 0.687332 0.291852 30.000000
1.790914 0.671179 0.293663 30.000000
1.798059 0.651574 0.294077 30.000000
1.819020 0.636749 0.296773 30.000000
1.844530 0.623140 0.300177 30.000000
1.860600 0.605940 0.302064 30.000000
1.881210 0.590013 0.304717 30.000000
1.911072 0.576632 0.308967 30.000000
1.921982 0.556986 0.310103 30.000000
1.951717 0.542529 0.314244 30.000000
1.967021 0.523738 0.316154 30.000000
2.025283 0.515518 0.324853 30.000000
2.035570 0.494481 0.325945 30.000000
2.079250 0.481135 0.332424 30.000000
2.094042 0.460449 0.334294 30.000000
2.123057 0.442577 0.338414 30.000000
2.127746 0.419266 0.338682 30.000000
2.190449 0.406778 0.348146 30.000000
2.199583 0.383610 0.349194 30.000000
2.208527 0.360335 0.350243 30.000000
2.241561 0.340594 0.355092 30.000000
2.274481 0.320142 0.359946 30.000000
2.307207 0.299046 0.364807 30.000000
2.329990 0.276073 0.368122 30.000000
2.347551 0.252070 0.370593 30.000000
2.384593 0.229712 0.376168 30.000000
2.396730 0.204353 0.377868 30.000000
2.448068 0.181779 0.385779 30.000000
2.509040 0.158674 0.395249 30.000000
2.550132 0.133242 0.401540 30.000000
2.581004 0.106538 0.406279 30.000000
2.621537 0.079485 0.412575 30.000000
2.646876 0.051199 0.416460 30.000000
2.647285 0.022246 0.416542 30.000000
2.741210 -0.007029 0.431307 30.000000
2.785404 -0.037694 0.438301 30.000000
2.858954 -0.069972 0.449958 30.000000
2.897470 -0.102736 0.456175 30.000000
2.935688 -0.136275 0.462302 30.000000
2.993135 -0.171812 0.471533 30.000000
3.065013 -0.209655 0.483090 30.000000
3.126553 -0.248338 0.493090 30.000000
3.108985 -0.281206 0.490664 30.000000
3.086050 -0.313253 0.487367 30.000000
3.023510 -0.340353 0.477866 30.000000
2.995145 -0.370408 0.473801 30.000000
2.956684 -0.398605 0.468096 30.000000
2.961943 -0.432382 0.469461 30.000000
2.957135 -0.464745 0.469184 30.000000
2.903154 -0.488906 0.461169 30.000000
2.917145 -0.524139 0.463989 30.000000
2.872468 -0.548586 0.457532 30.000000
2.871167 -0.581002 0.457943 30.000000
2.864743 -0.612400 0.457581 30.000000
2.814492 -0.633938 0.450280 30.000000
2.793031 -0.661267 0.447612 30.000000
2.737813 -0.679857 0.439472 30.000000
2.696763 -0.701127 0.433740 30.000000
2.693785 -0.731855 0.434078 30.000000
2.666667 -0.755949 0.430577 30.000000
2.663017 -0.786539 0.430916 30.000000
2.644910 -0.812537 0.428870 30.000000
2.640644 -0.842921 0.429207 30.000000
2.626623 -0.870300 0.427930 30.000000
2.612380 -0.897321 0.426654 30.000000
2.532651 -0.901050 0.414707 30.000000
2.508861 -0.923487 0.411842 30.000000
2.507779 -0.954658 0.412950 30.000000
2.515736 -0.989234 0.415408 30.000000
2.509465 -1.018553 0.415582 30.000000
2.498260 -1.045896 0.414997 30.000000
2.473024 -1.067530 0.412226 30.000000
2.461381 -1.094391 0.411561 30.000000
2.467384 -1.129397 0.413911 30.000000
2.589050 -1.219826 0.435911 30.000000
2.709165 -1.312580 0.457661 30.000000
2.991024 -1.490096 0.507289 30.000000
3.102447 -1.587907 0.528083 30.000000
3.041049 -1.599107 0.519744 30.000000
3.006255 -1.622694 0.515804 30.000000
2.884437 -1.598394 0.497075 30.000000
2.806955 -1.595434 0.485645 30.000000
2.836205 -1.653718 0.493015 30.000000
2.771583 -1.656613 0.483851 30.000000
2.736384 -1.676768 0.479996 30.000000
2.734517 -1.717493 0.482058 30.000000
2.711825 -1.744410 0.480225 30.000000
2.688395 -1.771635 0.478495 30.000000
2.677423 -1.806172 0.478869 30.000000
2.632979 -1.818799 0.473482 30.000000
2.624954 -1.856491 0.474686 30.000000
2.596410 -1.879651 0.472236 30.000000
2.556262 -1.892914 0.467415 30.000000
2.570851 -1.947961 0.472863 30.000000
2.545353 -1.973383 0.471045 30.000000
2.497053 -1.979188 0.464801 30.000000
2.490513 -2.019166 0.466501 30.000000
2.433984 -2.018228 0.458950 30.000000
2.449397 -2.077145 0.464944 30.000000
2.423375 -2.100048 0.462942 30.000000
2.385422 -2.113715 0.458905 30.000000
2.373136 -2.149920 0.459759 30.000000
2.323926 -2.152539 0.453613 30.000000
2.301074 -2.177344 0.452246 30.000000
2.301956 -2.226728 0.455909 30.000000
2.249214 -2.224253 0.449004 30.000000
2.224741 -2.249019 0.447639 30.000000
2.179318 -2.252146 0.442180 30.000000
2.155461 -2.275230 0.440732 30.000000
2.143907 -2.313518 0.442156 30.000000
2.128515 -2.348047 0.442871 30.000000
2.138875 -2.412244 0.449092 30.000000
2.138311 -2.465619 0.453103 30.000000
2.117568 -2.496703 0.453066 30.000000
2.097773 -2.526615 0.452717 30.000000
2.060687 -2.538043 0.449158 30.000000
2.039052 -2.568462 0.449004 30.000000
2.035170 -2.622095 0.452896 30.000000
2.000453 -2.636590 0.450015 30.000000
1.971505 -2.658504 0.448384 30.000000
1.916285 -2.644004 0.440835 30.000000
1.788516 -2.522527 0.415708 30.000000
1.738328 -2.509549 0.408875 30.000000
1.649688 -2.438231 0.392822 30.000000
1.587519 -2.402600 0.382717 30.000000
1.518196 -2.353333 0.370798 30.000000
1.442231 -2.290274 0.356913 30.000000
1.393794 -2.268091 0.349719 30.000000
1.348492 -2.249396 0.343136 30.000000
1.320395 -2.254803 0.340311 30.000000
0.812861 1.412316 0.224702 30.000000
0.808084 1.369109 0.220168 30.000000
0.817895 1.351574 0.219721 30.000000
0.837815 1.350790 0.221981 30.000000
0.841064 1.325203 0.220182 30.000000
0.863623 1.328271 0.223145 30.000000
0.878076 1.318555 0.224023 30.000000
0.889691 1.304650 0.224200 30.000000
0.906689 1.298779 0.225732 30.000000
0.920801 1.288672 0.226611 30.000000
0.926099 1.266384 0.225309 30.000000
0.939159 1.256517 0.226228 30.000000
0.955902 1.249951 0.227767 30.000000
0.966440 1.235379 0.227873 30.000000
0.982978 1.228455 0.229368 30.000000
0.996322 1.217489 0.230193 30.000000
1.019142 1.217759 0.233148 30.000000
1.018970 1.191797 0.231114 30.000000
1.028678 1.176706 0.231156 30.000000
1.048096 1.172606 0.233347 30.000000
1.067529 1.168213 0.235596 30.000000
1.087025 1.163526 0.237805 30.000000
1.095845 1.148255 0.237899 30.000000
1.104883 1.132471 0.237891 30.000000
1.127710 1.130618 0.240811 30.000000
1.136551 1.114589 0.240802 30.000000
1.148245 1.102306 0.241588 30.000000
1.156729 1.086098 0.241524 30.000000
1.175863 1.079854 0.243719 30.000000
1.187642 1.066744 0.244359 30.000000
1.210014 1.063668 0.247375 30.000000
1.232897 1.059802 0.250304 30.000000
1.236928 1.039688 0.249431 30.000000
1.255889 1.032141 0.251610 30.000000
1.282235 1.030869 0.255380 30.000000
1.293515 1.016540 0.256040 30.000000
1.312428 1.008128 0.258192 30.000000
1.327112 0.996833 0.259629 30.000000
1.333999 0.979094 0.259470 30.000000
1.340668 0.961341 0.259256 30.000000
1.354957 0.949548 0.260696 30.000000
1.389787 0.951154 0.265938 30.000000
1.403987 0.938757 0.267396 30.000000
1.418350 0.925801 0.268701 30.000000
1.432616 0.912648 0.270010 30.000000
1.446519 0.899613 0.271426 30.000000
1.469028 0.891187 0.274318 30.000000
1.482781 0.877666 0.275745 30.000000
1.500866 0.866092 0.277807 30.000000
1.501526 0.844808 0.276810 30.000000
1.519343 0.832886 0.278878 30.000000
1.545650 0.825531 0.282598 30.000000
1.563400 0.812914 0.284680 30.000000
1.576465 0.798038 0.286024 30.000000
1.593842 0.785138 0.288171 30.000000
1.606862 0.769582 0.289357 30.000000
1.655334 0.770702 0.297136 30.000000
1.650089 0.746421 0.295231 30.000000
1.671707 0.734061 0.298039 30.000000
1.697712 0.723506 0.301718 30.000000
1.719154 0.710499 0.304656 30.000000
1.740488 0.697134 0.307544 30.000000
1.766309 0.685137 0.311191 30.000000
1.782870 0.669210 0.313283 30.000000
1.794694 0.651338 0.314508 30.000000
1.834250 0.643040 0.320618 30.000000
1.836431 0.621258 0.320224 30.000000
1.847777 0.602639 0.321400 30.000000
1.863622 0.585275 0.323394 30.000000
1.893455 0.572044 0.327905 30.000000
1.909048 0.553928 0.329910 30.000000
1.938710 0.539509 0.334314 30.000000
1.963500 0.523361 0.337969 30.000000
2.002487 0.510388 0.344095 30.000000
2.022298 0.491956 0.346880 30.000000
2.046732 0.474193 0.350493 30.000000
2.085451 0.459124 0.356583 30.000000
2.099929 0.438279 0.358495 30.000000
2.143280 0.422816 0.365359 30.000000
2.167134 0.402966 0.368930 30.000000
2.166505 0.378313 0.368445 30.000000
2.194854 0.358537 0.372782 30.000000
2.247319 0.341867 0.381259 30.000000
2.255789 0.317865 0.382368 30.000000
2.293331 0.297562 0.388376 30.000000
2.320890 0.275348 0.392734 30.000000
2.343393 0.251924 0.396194 30.000000
2.375393 0.229091 0.401315 30.000000
2.348280 0.200504 0.396559 30.000000
2.428994 0.180607 0.409983 30.000000
2.445565 0.154857 0.412549 30.000000
2.496319 0.130587 0.420927 30.000000
2.541971 0.105033 0.428478 30.000000
2.602053 0.078955 0.438603 30.000000
2.617567 0.050721 0.441096 30.000000
2.622902 0.021999 0.442007 30.000000
2.716661 -0.006978 0.457793 30.000000
2.775568 -0.037541 0.467763 30.000000
2.829185 -0.069368 0.476903 30.000000
2.897292 -0.102821 0.488445 30.000000
2.920572 -0.135727 0.492598 30.000000
2.973089 -0.170870 0.501644 30.000000
3.035008 -0.207876 0.512347 30.000000
3.086625 -0.245408 0.521289 30.000000
3.093571 -0.280124 0.522757 30.000000
3.065872 -0.311470 0.518417 30.000000
3.023052 -0.340717 0.511687 30.000000
2.989831 -0.370221 0.506525 30.000000
2.941658 -0.397010 0.498788 30.000000
2.942035 -0.429965 0.499341 30.000000
2.942122 -0.462935 0.499893 30.000000
2.917419 -0.491913 0.496307 30.000000
2.892514 -0.520372 0.492726 30.000000
2.877006 -0.550077 0.490710 30.000000
2.856344 -0.578681 0.487871 30.000000
2.845119 -0.608942 0.486685 30.000000
2.790170 -0.629242 0.478082 30.000000
2.773582 -0.657500 0.476081 30.000000
2.737633 -0.680699 0.470702 30.000000
2.696630 -0.701939 0.464511 30.000000
2.679353 -0.728749 0.462351 30.000000
2.690257 -0.763515 0.465204 30.000000
2.672318 -0.790221 0.463132 30.000000
2.654268 -0.816460 0.460977 30.000000
2.649860 -0.847084 0.461279 30.000000
2.617156 -0.868320 0.456678 30.000000
2.593524 -0.892166 0.453718 30.000000
2.527920 -0.900635 0.443428 30.000000
2.508785 -0.924946 0.441219 30.000000
2.493919 -0.950564 0.439827 30.000000
2.506471 -0.986842 0.443308 30.000000
2.495641 -1.014252 0.442642 30.000000
2.475376 -1.037681 0.440356 30.000000
2.450416 -1.058869 0.437268 30.000000
2.443119 -1.087870 0.437580 30.000000
2.444666 -1.120753 0.439253 30.000000
2.548485 -1.202101 0.459424 30.000000
2.659470 -1.290570 0.481313 30.000000
2.857280 -1.425284 0.518994 30.000000
2.986725 -1.530664 0.544427 30.000000
3.043951 -1.602751 0.557187 30.000000
2.957034 -1.598276 0.543358 30.000000
2.827046 -1.568738 0.521813 30.000000
2.784314 -1.584770 0.515944 30.000000
2.788002 -1.628015 0.519120 30.000000
2.749159 -1.645574 0.514062 30.000000
2.726730 -1.673394 0.512281 30.000000
2.721076 -1.710842 0.513560 30.000000
2.673048 -1.722220 0.507056 30.000000
2.658105 -1.754519 0.506859 30.000000
2.630927 -1.777728 0.504110 30.000000
2.611206 -1.806868 0.503129 30.000000
2.607804 -1.846442 0.504975 30.000000
2.583369 -1.872470 0.503110 30.000000
2.562571 -1.900957 0.502026 30.000000
2.553972 -1.937612 0.503070 30.000000
2.575406 -1.999155 0.510489 30.000000
2.495222 -1.981572 0.497706 30.000000
2.489305 -2.020896 0.499406 30.000000
2.447919 -2.032645 0.494379 30.000000
2.425416 -2.059668 0.493102 30.000000
2.387695 -2.073535 0.488867 30.000000
2.369223 -2.102401 0.488164 30.000000
2.378983 -2.158501 0.493729 30.000000
2.329717 -2.161255 0.487136 30.000000
2.280773 -2.163250 0.480474 30.000000
2.254223 -2.184072 0.478265 30.000000
2.223073 -2.202016 0.475407 30.000000
2.195355 -2.223032 0.473306 30.000000
2.177730 -2.254446 0.473352 30.000000
2.157233 -2.281159 0.472549 30.000000
2.182503 -2.359344 0.482224 30.000000
2.169788 -2.398113 0.483694 30.000000
2.140165 -2.418260 0.481460 30.000000
2.162112 -2.497967 0.490991 30.000000
2.103941 -2.483063 0.481934 30.000000
2.089256 -2.521390 0.483247 30.000000
2.070920 -2.555952 0.483813 30.000000
2.033597 -2.567149 0.480015 30.000000
2.020663 -2.609031 0.482012 30.000000
1.988976 -2.627273 0.479561 30.000000
1.970475 -2.660137 0.479884 30.000000
1.929673 -2.665743 0.475290 30.000000
1.817572 -2.569775 0.452913 30.000000
1.741599 -2.520544 0.439201 30.000000
1.650241 -2.445350 0.421336 30.000000
1.588091 -2.409714 0.410545 30.000000
1.521404 -2.364789 0.398508 30.000000
1.460066 -2.321887 0.386995 30.000000
1.395778 -2.274646 0.375037 30.000000
1.340338 -2.239042 0.365240 30.000000
1.358257 -2.326460 0.375527 30.000000
0.797640 1.390161 0.235723 30.000000
0.795257 1.351323 0.231597 30.000000
0.822737 1.363547 0.236184 30.000000
0.835023 1.350104 0.236430 30.000000
0.847070 1.336523 0.236621 30.000000
0.864363 1.331149 0.238340 30.000000
0.869871 1.309586 0.237083 30.000000
0.886917 1.303920 0.238753 30.000000
0.912430 1.310216 0.242684 30.000000
0.906639 1.271840 0.238340 30.000000
0.926303 1.269651 0.240722 30.000000
0.943088 1.263227 0.242355 30.000000
0.962177 1.261009 0.244855 30.000000
0.972900 1.246338 0.244971 30.000000
0.992640 1.243171 0.247337 30.000000
1.009326 1.235893 0.248992 30.000000
1.019614 1.220766 0.249057 30.000000
1.025928 1.202344 0.248437 30.000000
1.039062 1.190869 0.249268 30.000000
1.058626 1.186618 0.251612 30.000000
1.068220 1.171080 0.251614 30.000000
1.080515 1.159569 0.252545 30.000000
1.093152 1.147471 0.253328 30.000000
1.109135 1.138762 0.254854 30.000000
1.132015 1.136875 0.258022 30.000000
1.140496 1.121166 0.258069 30.000000
1.156315 1.111782 0.259609 30.000000
1.164869 1.095458 0.259552 30.000000
1.187730 1.092428 0.262654 30.000000
1.210258 1.089459 0.265919 30.000000
1.218489 1.072654 0.265816 30.000000
1.233925 1.062218 0.267329 30.000000
1.248978 1.052002 0.268897 30.000000
1.264301 1.041147 0.270419 30.000000
1.252595 1.008403 0.266178 30.000000
1.290466 1.016134 0.272656 30.000000
1.309361 1.007668 0.274958 30.000000
1.312519 0.987120 0.273926 30.000000
1.326959 0.975713 0.275462 30.000000
1.349676 0.969461 0.278554 30.000000
1.364048 0.957588 0.280102 30.000000
1.374466 0.942321 0.280670 30.000000
1.384781 0.926952 0.281288 30.000000
1.402936 0.917184 0.283627 30.000000
1.421260 0.906820 0.285818 30.000000
1.439282 0.896481 0.288171 30.000000
1.457470 0.885537 0.290375 30.000000
1.479639 0.877133 0.293532 30.000000
1.493492 0.863037 0.294907 30.000000
1.502731 0.846695 0.295547 30.000000
1.546475 0.848895 0.302794 30.000000
1.555543 0.831961 0.303395 30.000000
1.568817 0.817139 0.304845 30.000000
1.586536 0.804120 0.307039 30.000000
1.595129 0.786713 0.307590 30.000000
1.612386 0.773458 0.309848 30.000000
1.625159 0.757815 0.311257 30.000000
1.646841 0.745805 0.314215 30.000000
1.686413 0.741597 0.320721 30.000000
1.707936 0.728850 0.323812 30.000000
1.715702 0.710096 0.324330 30.000000
1.732438 0.694837 0.326513 30.000000
1.767442 0.686510 0.332152 30.000000
1.770176 0.665332 0.331758 30.000000
1.800466 0.654229 0.336552 30.000000
1.821410 0.639297 0.339567 30.000000
1.832833 0.620959 0.340913 30.000000
1.853531 0.605336 0.343938 30.000000
1.869390 0.587866 0.346039 30.000000
1.899209 0.574528 0.350817 30.000000
1.914814 0.556306 0.352929 30.000000
1.939654 0.540582 0.356789 30.000000
1.969178 0.525649 0.361593 30.000000
1.993817 0.508914 0.365469 30.000000
2.013587 0.490469 0.368414 30.000000
2.047562 0.474980 0.373990 30.000000
2.062193 0.454621 0.376069 30.000000
2.095947 0.437947 0.381594 30.000000
2.119909 0.418797 0.385438 30.000000
2.138779 0.398188 0.388409 30.000000
2.181816 0.381500 0.395714 30.000000
2.214943 0.362234 0.401199 30.000000
2.238162 0.340915 0.405069 30.000000
2.280729 0.321850 0.412328 30.000000
2.298727 0.298687 0.415187 30.000000
2.331212 0.276872 0.420694 30.000000
2.363410 0.254412 0.426207 30.000000
2.380685 0.229889 0.429002 30.000000
2.407575 0.205807 0.433566 30.000000
2.419488 0.180091 0.435482 30.000000
2.455673 0.155716 0.441818 30.000000
2.501429 0.131025 0.449926 30.000000
2.547002 0.105361 0.457882 30.000000
2.587301 0.078656 0.465034 30.000000
2.617544 0.050735 0.470419 30.000000
2.632713 0.022123 0.473154 30.000000
2.662322 -0.006852 0.478460 30.000000
2.735884 -0.037075 0.491726 30.000000
2.750048 -0.067470 0.494379 30.000000
2.813130 -0.099936 0.505789 30.000000
2.831484 -0.131748 0.509326 30.000000
2.957641 -0.170121 0.532133 30.000000
2.985078 -0.204658 0.537437 30.000000
3.075874 -0.244826 0.554040 30.000000
3.073004 -0.278599 0.553849 30.000000
3.055159 -0.310876 0.551008 30.000000
3.007528 -0.339331 0.542873 30.000000
2.949956 -0.365703 0.532979 30.000000
2.945809 -0.398145 0.532703 30.000000
2.941293 -0.430402 0.532426 30.000000
2.926777 -0.461127 0.530388 30.000000
2.906981 -0.490727 0.527379 30.000000
2.867590 -0.516519 0.520945 30.000000
2.827970 -0.541475 0.514428 30.000000
2.821989 -0.572450 0.513982 30.000000
2.796311 -0.599298 0.510113 30.000000
2.765654 -0.624551 0.505371 30.000000
2.734764 -0.649188 0.500636 30.000000
2.732309 -0.680350 0.501076 30.000000
2.696221 -0.702836 0.495302 30.000000
2.712198 -0.738756 0.499155 30.000000
2.694537 -0.765688 0.496885 30.000000
2.667145 -0.789790 0.492961 30.000000
2.658438 -0.818843 0.492358 30.000000
2.640007 -0.845067 0.490185 30.000000
2.616626 -0.869360 0.487061 30.000000
2.593174 -0.893090 0.483771 30.000000
2.504471 -0.893353 0.468430 30.000000
2.513062 -0.927695 0.471318 30.000000
2.489049 -0.949903 0.468141 30.000000
2.478565 -0.977227 0.467481 30.000000
2.490642 -1.013586 0.471135 30.000000
2.465854 -1.035193 0.467883 30.000000
2.440943 -1.056253 0.464639 30.000000
2.433906 -1.084955 0.464757 30.000000
2.399388 -1.101591 0.459889 30.000000
2.498717 -1.180449 0.480568 30.000000
2.623152 -1.274495 0.506221 30.000000
2.834023 -1.415393 0.548948 30.000000
2.857673 -1.467040 0.555736 30.000000
2.828581 -1.491286 0.552189 30.000000
2.825340 -1.529120 0.553746 30.000000
2.812635 -1.562852 0.553699 30.000000
2.782753 -1.586121 0.550064 30.000000
2.790723 -1.631892 0.554141 30.000000
2.760224 -1.654720 0.550510 30.000000
2.737692 -1.682728 0.548672 30.000000
2.723557 -1.715101 0.548318 30.000000
2.687959 -1.734601 0.543969 30.000000
2.656805 -1.755563 0.540173 30.000000
2.645552 -1.790563 0.540758 30.000000
2.609470 -1.808695 0.536339 30.000000
2.593936 -1.839848 0.535892 30.000000
2.557505 -1.856999 0.531493 30.000000
2.541413 -1.887619 0.530951 30.000000
2.516621 -1.912847 0.528950 30.000000
2.526541 -1.964944 0.534363 30.000000
2.505348 -1.992276 0.532878 30.000000
2.456481 -1.998315 0.525955 30.000000
2.434341 -2.025548 0.524681 30.000000
2.420110 -2.058096 0.524842 30.000000
2.374977 -2.065498 0.518589 30.000000
2.352099 -2.091880 0.517324 30.000000
2.304244 -2.093865 0.510107 30.000000
2.281039 -2.119380 0.508759 30.000000
2.264799 -2.151404 0.508923 30.000000
2.241038 -2.176517 0.507571 30.000000
2.214353 -2.196995 0.505129 30.000000
2.238664 -2.270798 0.514840 30.000000
2.216954 -2.299093 0.514156 30.000000
2.215393 -2.348716 0.518222 30.000000
2.197244 -2.379521 0.518005 30.000000
2.177637 -2.411174 0.517978 30.000000
2.151030 -2.435271 0.516372 30.000000
2.111310 -2.444018 0.511636 30.000000
2.079285 -2.458829 0.508181 30.000000
2.071110 -2.504649 0.511251 30.000000
2.059128 -2.546747 0.513416 30.000000
2.043359 -2.584910 0.514784 30.000000
1.999859 -2.587958 0.509106 30.000000
1.990770 -2.632615 0.511784 30.000000
1.958885 -2.650556 0.509186 30.000000
1.921097 -2.660215 0.505072 30.000000
1.900466 -2.693505 0.505522 30.000000
1.755944 -2.547614 0.472729 30.000000
1.681032 -2.497201 0.458218 30.000000
1.614339 -2.452915 0.445029 30.000000
1.541989 -2.399970 0.430707 30.000000
1.468381 -2.341563 0.415650 30.000000
1.419479 -2.319809 0.407364 30.000000
1.345892 -2.254822 0.391752 30.000000
1.336109 -2.295295 0.394540 30.000000
0.788296 1.375917 0.247695 30.000000
0.802402 1.367542 0.248822 30.000000
0.812200 1.350016 0.248245 30.000000
0.826949 1.340865 0.249267 30.000000
0.841600 1.331519 0.250290 30.000000
0.856154 1.322028 0.251263 30.000000
0.840543 1.267135 0.243539 30.000000
0.884094 1.303093 0.253307 30.000000
0.895491 1.289109 0.253484 30.000000
0.912423 1.283038 0.255206 30.000000
0.926441 1.272768 0.256179 30.000000
0.943262 1.266357 0.257910 30.000000
0.953408 1.252324 0.258126 30.000000
0.970117 1.245508 0.259863 30.000000
0.989839 1.242336 0.262372 30.000000
0.994052 1.219712 0.260852 30.000000
1.013068 1.216632 0.263467 30.000000
1.029539 1.209023 0.265172 30.000000
1.029802 1.182553 0.262752 30.000000
1.049268 1.178369 0.265234 30.000000
1.061621 1.167041 0.266162 30.000000
1.077723 1.158737 0.267827 30.000000
1.087012 1.143066 0.267822 30.000000
1.109820 1.141461 0.271171 30.000000
1.132265 1.139925 0.274585 30.000000
1.130656 1.113361 0.272002 30.000000
1.146390 1.104053 0.273635 30.000000
1.161656 1.095013 0.275372 30.000000
1.188109 1.095319 0.279523 30.000000
1.196462 1.078657 0.279419 30.000000
1.211982 1.068492 0.281024 30.000000
1.227023 1.058497 0.282734 30.000000
1.246099 1.051093 0.285160 30.000000
1.253462 1.034322 0.285155 30.000000
1.253294 1.010998 0.283211 30.000000
1.268237 0.999976 0.284778 30.000000
1.274999 0.983106 0.284708 30.000000
1.305386 0.983599 0.289720 30.000000
1.319836 0.972232 0.291355 30.000000
1.342493 0.966020 0.294595 30.000000
1.365135 0.959490 0.297897 30.000000
1.379434 0.947327 0.299503 30.000000
1.377496 0.923644 0.297477 30.000000
1.391486 0.911222 0.299030 30.000000
1.413878 0.903544 0.302309 30.000000
1.423556 0.888038 0.302985 30.000000
1.454038 0.885221 0.308114 30.000000
1.467930 0.871418 0.309534 30.000000
1.485764 0.860252 0.312010 30.000000
1.503758 0.848471 0.314334 30.000000
1.538669 0.846143 0.320306 30.000000
1.552047 0.831524 0.321859 30.000000
1.565476 0.816482 0.323251 30.000000
1.574240 0.799226 0.323854 30.000000
1.587195 0.784094 0.325360 30.000000
1.595599 0.766626 0.325909 30.000000
1.608294 0.751073 0.327366 30.000000
1.647790 0.747388 0.334163 30.000000
1.678261 0.739102 0.339272 30.000000
1.686229 0.720604 0.339784 30.000000
1.716619 0.711461 0.344858 30.000000
1.724290 0.692542 0.345377 30.000000
1.740836 0.677072 0.347668 30.000000
1.743425 0.656264 0.347332 30.000000
1.792049 0.652192 0.355994 30.000000
1.794398 0.630729 0.355549 30.000000
1.833649 0.622118 0.362461 30.000000
1.844993 0.603385 0.363803 30.000000
1.870191 0.588917 0.367913 30.000000
1.885867 0.571249 0.370186 30.000000
1.910797 0.555997 0.374311 30.000000
1.926195 0.537628 0.376594 30.000000
1.941402 0.518989 0.378819 30.000000
1.984975 0.507315 0.386611 30.000000
2.009476 0.490147 0.390705 30.000000
2.033821 0.472431 0.394741 30.000000
2.062800 0.455418 0.399779 30.000000
2.077207 0.434663 0.401902 30.000000
2.105917 0.416622 0.406887 30.000000
2.144121 0.399719 0.413743 30.000000
2.162837 0.378684 0.416812 30.000000
2.205572 0.361231 0.424619 30.000000
2.219102 0.338482 0.426764 30.000000
2.276087 0.321636 0.437250 30.000000
2.294127 0.298472 0.440269 30.000000
2.306972 0.274406 0.442427 30.000000
2.343970 0.252686 0.449194 30.000000
2.371050 0.229268 0.454021 30.000000
2.378238 0.203563 0.455106 30.000000
2.404803 0.179285 0.459938 30.000000
2.455616 0.155951 0.469458 30.000000
2.471858 0.129661 0.472346 30.000000
2.512422 0.104141 0.480000 30.000000
2.562448 0.077978 0.489455 30.000000
2.597537 0.050449 0.496099 30.000000
2.651962 0.022330 0.506497 30.000000
2.686423 -0.006928 0.513063 30.000000
2.705816 -0.036741 0.516731 30.000000
2.754323 -0.067625 0.526109 30.000000
2.802549 -0.099674 0.535487 30.000000
2.835583 -0.132117 0.541963 30.000000
2.936961 -0.169182 0.561562 30.000000
2.979048 -0.204473 0.569814 30.000000
3.040281 -0.242294 0.581903 30.000000
3.052112 -0.277075 0.584524 30.000000
3.034311 -0.309098 0.581524 30.000000
2.986787 -0.337489 0.572910 30.000000
2.939091 -0.364822 0.564208 30.000000
2.905747 -0.393257 0.558412 30.000000
2.901375 -0.425140 0.558048 30.000000
2.935361 -0.463148 0.565249 30.000000
2.881759 -0.487087 0.555543 30.000000
2.861809 -0.516157 0.552380 30.000000
2.827081 -0.542043 0.546424 30.000000
2.792117 -0.567203 0.540475 30.000000
2.752124 -0.590696 0.533603 30.000000
2.712112 -0.613190 0.526566 30.000000
2.700423 -0.641936 0.525291 30.000000
2.741024 -0.683392 0.534061 30.000000
2.709622 -0.707281 0.528983 30.000000
2.701794 -0.737027 0.528461 30.000000
2.684254 -0.763909 0.526086 30.000000
2.661628 -0.789186 0.522704 30.000000
2.638920 -0.813895 0.519329 30.000000
2.629830 -0.842966 0.518814 30.000000
2.587843 -0.861090 0.511844 30.000000
2.573797 -0.887688 0.510245 30.000000
2.513082 -0.897819 0.499534 30.000000
2.493919 -0.922001 0.497116 30.000000
2.479257 -0.947406 0.495456 30.000000
2.459649 -0.971070 0.492964 30.000000
2.476289 -1.009126 0.497715 30.000000
2.465166 -1.036353 0.497051 30.000000
2.435751 -1.055594 0.492654 30.000000
2.433112 -1.086299 0.493735 30.000000
2.394236 -1.100936 0.487696 30.000000
2.471017 -1.169249 0.505046 30.000000
2.608528 -1.269469 0.535030 30.000000
2.788164 -1.394808 0.573963 30.000000
2.855978 -1.467994 0.590167 30.000000
2.839637 -1.499780 0.589270 30.000000
2.806002 -1.521391 0.584571 30.000000
2.810855 -1.564048 0.587878 30.000000
2.746505 -1.568451 0.577107 30.000000
2.776027 -1.625719 0.585782 30.000000
2.762182 -1.659088 0.585678 30.000000
2.714864 -1.671218 0.578232 30.000000
2.721640 -1.716530 0.582289 30.000000
2.673653 -1.728071 0.574971 30.000000
2.654896 -1.757195 0.573687 30.000000
2.655714 -1.800521 0.577026 30.000000
2.599825 -1.804120 0.567688 30.000000
2.595858 -1.844467 0.570034 30.000000
2.571343 -1.870399 0.567971 30.000000
2.523492 -1.877725 0.560451 30.000000
2.526125 -1.923701 0.564434 30.000000
2.513127 -1.957112 0.564703 30.000000
2.506811 -1.997323 0.566903 30.000000
