x y z intensity
0.981599 1.556094 0.020664 30.000000
1.003815 1.553767 0.020889 30.000000
1.023397 1.546984 0.021059 30.000000
1.042901 1.539915 0.021229 30.000000
1.059533 1.528506 0.021343 30.000000
1.081836 1.525082 0.021572 30.000000
1.086525 1.497084 0.021454 30.000000
1.114650 1.501284 0.021800 30.000000
1.127833 1.485147 0.021855 30.000000
1.146950 1.476745 0.022028 30.000000
1.162929 1.464190 0.022142 30.000000
1.188192 1.463165 0.022435 30.000000
1.207147 1.454010 0.022610 30.000000
1.222894 1.440802 0.022725 30.000000
1.238467 1.427421 0.022783 30.000000
1.253925 1.413866 0.022898 30.000000
1.285998 1.418718 0.023318 30.000000
1.301368 1.404633 0.023435 30.000000
1.330312 1.404954 0.023739 30.000000
1.335059 1.379590 0.023672 30.000000
1.364062 1.379159 0.024037 30.000000
1.396752 1.381820 0.024467 30.000000
1.400967 1.356097 0.024339 30.000000
1.415666 1.340804 0.024458 30.000000
1.448522 1.342262 0.024892 30.000000
1.485271 1.346559 0.025332 30.000000
1.514857 1.343552 0.025708 30.000000
1.529379 1.326929 0.025770 30.000000
1.551340 1.316651 0.026021 30.000000
1.573317 1.306084 0.026212 30.000000
1.587484 1.288859 0.026336 30.000000
1.628872 1.293208 0.026851 30.000000
1.650735 1.281503 0.027107 30.000000
1.672540 1.269498 0.027301 30.000000
1.694349 1.257127 0.027560 30.000000
1.707936 1.238582 0.027624 30.000000
1.733566 1.228580 0.027950 30.000000
1.750971 1.212425 0.028081 30.000000
1.784741 1.207321 0.028476 30.000000
1.822856 1.204324 0.029006 30.000000
1.835859 1.184386 0.029073 30.000000
1.869813 1.177637 0.029473 30.000000
1.903788 1.170292 0.029943 30.000000
1.933555 1.159844 0.030280 30.000000
1.963340 1.148817 0.030618 30.000000
1.980040 1.129911 0.030754 30.000000
2.009692 1.117993 0.031165 30.000000
2.030555 1.100859 0.031371 30.000000
2.055661 1.085729 0.031645 30.000000
2.107310 1.083887 0.032330 30.000000
2.136836 1.069840 0.032676 30.000000
2.193305 1.068468 0.033434 30.000000
2.227361 1.055268 0.033852 30.000000
2.229639 1.026863 0.033789 30.000000
2.277159 1.018924 0.034492 30.000000
2.306389 1.002147 0.034845 30.000000
2.335561 0.984819 0.035200 30.000000
2.378474 0.972613 0.035764 30.000000
2.379609 0.943125 0.035703 30.000000
2.427026 0.931518 0.036340 30.000000
2.460457 0.913879 0.036770 30.000000
2.498461 0.897262 0.037190 30.000000
2.555254 0.886505 0.037973 30.000000
2.588451 0.866622 0.038407 30.000000
2.631003 0.849296 0.038984 30.000000
2.668675 0.829595 0.039492 30.000000
2.706286 0.809187 0.040002 30.000000
2.767764 0.794971 0.040869 30.000000
2.800300 0.771552 0.041313 30.000000
2.871387 0.757727 0.042237 30.000000
2.947227 0.743672 0.043325 30.000000
2.984368 0.718594 0.043846 30.000000
3.055305 0.700706 0.044870 30.000000
3.135941 0.683477 0.045944 30.000000
3.201941 0.661624 0.046902 30.000000
3.243273 0.633505 0.047505 30.000000
3.264781 0.601021 0.047721 30.000000
3.261211 0.563755 0.047678 30.000000
3.296782 0.533189 0.048110 30.000000
3.302388 0.497310 0.048212 30.000000
3.307587 0.461431 0.048314 30.000000
3.297501 0.423641 0.048097 30.000000
3.291934 0.386656 0.048054 30.000000
3.281067 0.349255 0.047836 30.000000
3.259808 0.311229 0.047574 30.000000
3.233116 0.273223 0.047138 30.000000
3.205973 0.235964 0.046702 30.000000
3.173401 0.198847 0.046291 30.000000
3.140393 0.162586 0.045781 30.000000
3.092072 0.126377 0.045148 30.000000
3.073217 0.092246 0.044856 30.000000
3.049069 0.058360 0.044492 30.000000
3.039536 0.025142 0.044346 30.000000
2.979636 -0.007730 0.043561 30.000000
2.969366 -0.039971 0.043415 30.000000
2.938744 -0.071508 0.042977 30.000000
2.902872 -0.102218 0.042465 30.000000
2.866584 -0.132079 0.041953 30.000000
2.835060 -0.161553 0.041602 30.000000
2.798237 -0.189950 0.041089 30.000000
2.756140 -0.217197 0.040503 30.000000
2.733691 -0.245365 0.040210 30.000000
2.735817 -0.275520 0.040283 30.000000
2.707869 -0.302454 0.039917 30.000000
2.709338 -0.332419 0.039990 30.000000
2.745232 -0.367130 0.040576 30.000000
2.830150 -0.409781 0.041895 30.000000
2.963837 -0.462067 0.043945 30.000000
3.155859 -0.527148 0.046875 30.000000
3.159844 -0.563082 0.047021 30.000000
3.114277 -0.589925 0.046436 30.000000
3.097895 -0.621720 0.046193 30.000000
3.115406 -0.660464 0.046558 30.000000
3.127535 -0.698649 0.046850 30.000000
3.124676 -0.733633 0.046924 30.000000
3.135962 -0.772310 0.047216 30.000000
3.141910 -0.809963 0.047336 30.000000
3.118417 -0.840127 0.047117 30.000000
3.123590 -0.877897 0.047336 30.000000
3.113885 -0.911765 0.047336 30.000000
3.142043 -0.957089 0.047819 30.000000
3.150582 -0.997209 0.048110 30.000000
3.149088 -1.034420 0.048155 30.000000
3.166052 -1.078183 0.048591 30.000000
3.158925 -1.114145 0.048663 30.000000
3.174836 -1.158574 0.048996 30.000000
3.185433 -1.201746 0.049358 30.000000
3.130312 -1.219907 0.048604 30.000000
3.056583 -1.229592 0.047663 30.000000
3.038491 -1.260758 0.047491 30.000000
3.171730 -1.356500 0.049800 30.000000
3.193380 -1.407055 0.050271 30.000000
3.132407 -1.420911 0.049551 30.000000
3.116765 -1.454819 0.049446 30.000000
3.163906 -1.518915 0.050452 30.000000
3.133746 -1.546555 0.050130 30.000000
3.125705 -1.584994 0.050166 30.000000
3.112704 -1.621211 0.050238 30.000000
3.046427 -1.628915 0.049345 30.000000
3.177628 -1.743801 0.051662 30.000000
3.123637 -1.758584 0.051092 30.000000
3.095613 -1.787500 0.050841 30.000000
2.981330 -1.764963 0.049171 30.000000
2.944882 -1.786947 0.048887 30.000000
2.950696 -1.834746 0.049207 30.000000
3.048612 -1.941981 0.051079 30.000000
3.039881 -1.983162 0.051180 30.000000
2.885136 -1.927307 0.048818 30.000000
2.641768 -1.849198 0.045273 30.000000
2.613365 -1.872113 0.045034 30.000000
2.681471 -1.965492 0.046474 30.000000
2.655959 -1.991514 0.046302 30.000000
2.634075 -2.020389 0.046201 30.000000
2.611886 -2.048961 0.046100 30.000000
2.569895 -2.061688 0.045652 30.000000
2.435174 -1.997589 0.043547 30.000000
2.302170 -1.930856 0.041451 30.000000
2.239238 -1.920003 0.040602 30.000000
2.165625 -1.898174 0.039551 30.000000
2.085217 -1.868262 0.038367 30.000000
1.994657 -1.826750 0.036982 30.000000
1.923579 -1.800465 0.035945 30.000000
1.864138 -1.783277 0.035116 30.000000
1.787415 -1.747589 0.033875 30.000000
1.725901 -1.724486 0.032987 30.000000
1.668510 -1.703883 0.032171 30.000000
1.625665 -1.696664 0.031627 30.000000
1.566128 -1.670467 0.030750 30.000000
1.520851 -1.657906 0.030075 30.000000
1.462651 -1.629668 0.029206 30.000000
1.398690 -1.592911 0.028208 30.000000
1.374771 -1.600401 0.028011 30.000000
1.318724 -1.569281 0.027089 30.000000
1.295295 -1.575758 0.026895 30.000000
1.271909 -1.581911 0.026639 30.000000
1.254625 -1.595664 0.026577 30.000000
1.218994 -1.585388 0.026123 30.000000
1.204725 -1.602507 0.026066 30.000000
1.187287 -1.615479 0.026005 30.000000
1.163892 -1.620085 0.025753 30.000000
1.152043 -1.640810 0.025821 30.000000
1.131348 -1.649048 0.025696 30.000000
1.118970 -1.669561 0.025702 30.000000
1.122720 -1.715048 0.026151 30.000000
1.101384 -1.722910 0.025962 30.000000
1.085309 -1.738946 0.025963 30.000000
1.074155 -1.763455 0.026027 30.000000
1.026899 -1.727712 0.025211 30.000000
0.935275 1.595659 0.037149 30.000000
0.944828 1.572585 0.037016 30.000000
0.956610 1.553712 0.036981 30.000000
0.976097 1.547469 0.037250 30.000000
0.998220 1.545200 0.037678 30.000000
1.014897 1.534250 0.037847 30.000000
1.037125 1.531467 0.038222 30.000000
1.053667 1.520119 0.038391 30.000000
1.075880 1.516756 0.038769 30.000000
1.083419 1.492869 0.038625 30.000000
1.105482 1.489016 0.039004 30.000000
1.130629 1.488901 0.039491 30.000000
1.143656 1.472569 0.039556 30.000000
1.156483 1.456190 0.039620 30.000000
1.187962 1.462934 0.040325 30.000000
1.200588 1.446088 0.040391 30.000000
1.212959 1.429195 0.040455 30.000000
1.228409 1.415920 0.040627 30.000000
1.250377 1.409953 0.041016 30.000000
1.275693 1.407373 0.041516 30.000000
1.287487 1.389790 0.041523 30.000000
1.312834 1.386569 0.042026 30.000000
1.334824 1.379355 0.042422 30.000000
1.356796 1.371874 0.042761 30.000000
1.403619 1.388672 0.043938 30.000000
1.411444 1.366349 0.043896 30.000000
1.415369 1.340565 0.043680 30.000000
1.437222 1.331888 0.044083 30.000000
1.481262 1.342957 0.045105 30.000000
1.507068 1.336671 0.045628 30.000000
1.521519 1.320191 0.045751 30.000000
1.543469 1.309996 0.046163 30.000000
1.565313 1.299449 0.046515 30.000000
1.575530 1.279158 0.046525 30.000000
1.616810 1.283693 0.047516 30.000000
1.634623 1.269050 0.047758 30.000000
1.664257 1.263261 0.048347 30.000000
1.681984 1.247998 0.048590 30.000000
1.703567 1.235454 0.049015 30.000000
1.733242 1.228386 0.049610 30.000000
1.750646 1.212230 0.049857 30.000000
1.763711 1.193120 0.049987 30.000000
1.805774 1.193102 0.050940 30.000000
1.839659 1.186896 0.051662 30.000000
1.844032 1.161518 0.051559 30.000000
1.869381 1.149213 0.052048 30.000000
1.911779 1.146781 0.053014 30.000000
1.945667 1.138511 0.053746 30.000000
1.975281 1.127225 0.054362 30.000000
2.004903 1.115353 0.054980 30.000000
2.025738 1.098266 0.055290 30.000000
2.059655 1.087850 0.056031 30.000000
2.093541 1.076812 0.056776 30.000000
2.118520 1.060743 0.057283 30.000000
2.152416 1.048617 0.057960 30.000000
2.208842 1.046557 0.059319 30.000000
2.233654 1.028804 0.059833 30.000000
2.267502 1.014688 0.060517 30.000000
2.292175 0.996017 0.061035 30.000000
2.330491 0.982722 0.061845 30.000000
2.373377 0.970564 0.062857 30.000000
2.365200 0.937366 0.062444 30.000000
2.384552 0.915240 0.062846 30.000000
2.445919 0.908498 0.064278 30.000000
2.512006 0.902168 0.065919 30.000000
2.526344 0.876673 0.066124 30.000000
2.545211 0.852419 0.066453 30.000000
2.616142 0.844688 0.068230 30.000000
2.639441 0.820691 0.068686 30.000000
2.691316 0.804891 0.069890 30.000000
2.738324 0.786690 0.070972 30.000000
2.790042 0.768896 0.072269 30.000000
2.865829 0.756451 0.074107 30.000000
2.932038 0.740002 0.075699 30.000000
2.983619 0.718594 0.076919 30.000000
3.030276 0.695118 0.078016 30.000000
3.091303 0.673895 0.079492 30.000000
3.152294 0.651409 0.080972 30.000000
3.242567 0.633505 0.083210 30.000000
3.268988 0.601824 0.083815 30.000000
3.304831 0.571521 0.084674 30.000000
3.345411 0.541171 0.085557 30.000000
3.341113 0.503266 0.085408 30.000000
3.336576 0.465576 0.085258 30.000000
3.331494 0.428101 0.085107 30.000000
3.281298 0.385388 0.083714 30.000000
3.255511 0.346609 0.083054 30.000000
3.234230 0.308853 0.082520 30.000000
3.192480 0.269855 0.081377 30.000000
3.165311 0.233028 0.080712 30.000000
3.112859 0.195190 0.079314 30.000000
3.084813 0.159743 0.078646 30.000000
3.041376 0.124428 0.077500 30.000000
3.052576 0.091646 0.077755 30.000000
3.023431 0.057882 0.077084 30.000000
2.978909 0.024645 0.075937 30.000000
2.944011 -0.007639 0.075045 30.000000
2.918752 -0.039298 0.074408 30.000000
2.903138 -0.070657 0.074114 30.000000
2.882271 -0.101514 0.073604 30.000000
2.855985 -0.131619 0.072966 30.000000
2.814492 -0.160415 0.071946 30.000000
2.772704 -0.188257 0.070925 30.000000
2.710703 -0.213662 0.069395 30.000000
2.693278 -0.241707 0.069012 30.000000
2.720310 -0.274017 0.069777 30.000000
2.702236 -0.301816 0.069395 30.000000
2.688911 -0.329984 0.069139 30.000000
2.695098 -0.360503 0.069312 30.000000
2.780072 -0.402617 0.071605 30.000000
2.918748 -0.455136 0.075300 30.000000
3.071367 -0.513146 0.079377 30.000000
3.119792 -0.556066 0.080682 30.000000
3.118414 -0.590855 0.080809 30.000000
3.141229 -0.630476 0.081475 30.000000
3.163622 -0.670832 0.082237 30.000000
3.165875 -0.707269 0.082393 30.000000
3.172650 -0.745060 0.082773 30.000000
3.174000 -0.781774 0.082928 30.000000
3.117017 -0.803723 0.081660 30.000000
3.146684 -0.847831 0.082574 30.000000
3.151767 -0.886013 0.082954 30.000000
3.170754 -0.928623 0.083613 30.000000
3.170029 -0.965830 0.083765 30.000000
3.183233 -1.007769 0.084295 30.000000
3.191118 -1.048462 0.084800 30.000000
3.174800 -1.081406 0.084571 30.000000
3.172350 -1.118826 0.084721 30.000000
3.216373 -1.173790 0.086127 30.000000
3.194163 -1.205067 0.085771 30.000000
3.199557 -1.246928 0.086169 30.000000
3.042068 -1.223694 0.082180 30.000000
3.014704 -1.250879 0.081705 30.000000
3.065293 -1.311080 0.083355 30.000000
3.156147 -1.390613 0.086124 30.000000
3.149985 -1.428855 0.086268 30.000000
3.170486 -1.479874 0.087158 30.000000
3.109190 -1.492635 0.085808 30.000000
3.065872 -1.513054 0.084853 30.000000
3.067109 -1.555286 0.085244 30.000000
3.076596 -1.602418 0.085882 30.000000
3.081057 -1.647454 0.086394 30.000000
3.181346 -1.745874 0.089509 30.000000
2.978086 -1.719580 0.084614 30.000000
2.985102 -1.767192 0.085140 30.000000
3.012623 -1.828120 0.086382 30.000000
2.880244 -1.879045 0.083774 30.000000
2.905283 -1.940873 0.085007 30.000000
2.945947 -2.014662 0.086613 30.000000
2.678131 -1.874701 0.079235 30.000000
2.783440 -1.993980 0.082782 30.000000
2.600333 -1.905986 0.077751 30.000000
2.655351 -1.991210 0.079940 30.000000
2.601838 -1.995647 0.078777 30.000000
2.528790 -1.983767 0.077019 30.000000
2.522605 -2.023751 0.077301 30.000000
2.388319 -1.959163 0.073742 30.000000
2.340010 -1.962610 0.072720 30.000000
2.250262 -1.929403 0.070397 30.000000
2.191499 -1.920886 0.069032 30.000000
2.095958 -1.877926 0.066492 30.000000
2.027504 -1.856804 0.064789 30.000000
1.941423 -1.817223 0.062506 30.000000
1.874580 -1.793328 0.060820 30.000000
1.797832 -1.757768 0.058792 30.000000
1.757352 -1.755987 0.057939 30.000000
1.685705 -1.721449 0.055970 30.000000
1.639211 -1.710815 0.054896 30.000000
1.579454 -1.684774 0.053365 30.000000
1.527335 -1.664998 0.052072 30.000000
1.472400 -1.640561 0.050670 30.000000
1.414922 -1.611434 0.049095 30.000000
1.377771 -1.603935 0.048279 30.000000
1.321752 -1.572858 0.046784 30.000000
1.291872 -1.571647 0.046143 30.000000
1.271662 -1.581663 0.045905 30.000000
1.245170 -1.583566 0.045382 30.000000
1.218750 -1.585144 0.044922 30.000000
1.198534 -1.594271 0.044627 30.000000
1.187103 -1.615173 0.044728 30.000000
1.157876 -1.611722 0.044100 30.000000
1.143242 -1.628292 0.044090 30.000000
1.122681 -1.636438 0.043797 30.000000
1.110437 -1.656797 0.043835 30.000000
1.100630 -1.681339 0.044042 30.000000
1.090427 -1.705751 0.044186 30.000000
1.082474 -1.734455 0.044435 30.000000
1.066165 -1.750395 0.044356 30.000000
1.080349 -1.817707 0.045633 30.000000
0.952740 1.625502 0.054822 30.000000
0.934308 1.555113 0.053008 30.000000
0.966868 1.570401 0.054165 30.000000
0.970485 1.538680 0.053654 30.000000
0.997939 1.544863 0.054524 30.000000
1.014673 1.533913 0.054749 30.000000
1.031238 1.522851 0.054973 30.000000
1.056231 1.523887 0.055648 30.000000
1.072648 1.512339 0.055931 30.000000
1.094879 1.508710 0.056460 30.000000
1.096262 1.476638 0.055928 30.000000
1.112209 1.464678 0.056152 30.000000
1.137240 1.464334 0.056837 30.000000
1.156143 1.455850 0.057217 30.000000
1.181316 1.454830 0.057907 30.000000
1.206628 1.453491 0.058601 30.000000
1.209382 1.425042 0.058209 30.000000
1.264089 1.457101 0.060312 30.000000
1.246716 1.405869 0.058979 30.000000
1.268633 1.399620 0.059524 30.000000
1.287140 1.389443 0.059913 30.000000
1.315920 1.389848 0.060720 30.000000
1.320572 1.364697 0.060477 30.000000
1.352869 1.367967 0.061507 30.000000
1.374778 1.360193 0.062004 30.000000
1.407494 1.362513 0.063044 30.000000
1.418580 1.343645 0.063063 30.000000
1.444134 1.338323 0.063787 30.000000
1.469729 1.332582 0.064454 30.000000
1.491684 1.323100 0.065023 30.000000
1.517314 1.316609 0.065695 30.000000
1.531545 1.299986 0.065880 30.000000
1.553344 1.289562 0.066392 30.000000
1.575034 1.278848 0.066969 30.000000
1.608479 1.277100 0.067982 30.000000
1.629792 1.266111 0.068501 30.000000
1.651489 1.254321 0.069023 30.000000
1.665041 1.236211 0.069213 30.000000
1.690599 1.226778 0.069905 30.000000
1.716094 1.216889 0.070599 30.000000
1.741586 1.206669 0.071296 30.000000
1.742175 1.179180 0.070985 30.000000
1.792476 1.184967 0.072699 30.000000
1.822063 1.176189 0.073508 30.000000
1.855916 1.169577 0.074556 30.000000
1.872766 1.151898 0.074927 30.000000
1.906609 1.144278 0.075914 30.000000
1.927592 1.128481 0.076460 30.000000
1.970178 1.124817 0.077796 30.000000
1.977935 1.100842 0.077832 30.000000
2.002932 1.086423 0.078486 30.000000
2.041130 1.078583 0.079731 30.000000
2.066091 1.063165 0.080390 30.000000
2.108789 1.056267 0.081744 30.000000
2.160595 1.052995 0.083450 30.000000
2.176414 1.031575 0.083844 30.000000
2.219213 1.022530 0.085211 30.000000
2.225621 0.996314 0.085186 30.000000
2.277588 0.989965 0.086908 30.000000
2.302017 0.970993 0.087585 30.000000
2.330892 0.953536 0.088440 30.000000
2.355056 0.933683 0.089121 30.000000
2.393024 0.918822 0.090332 30.000000
2.416939 0.897977 0.091018 30.000000
2.511192 0.902086 0.094356 30.000000
2.501843 0.868480 0.093811 30.000000
2.553786 0.855511 0.095569 30.000000
2.605709 0.841533 0.097248 30.000000
2.652827 0.825143 0.098837 30.000000
2.685585 0.803373 0.099812 30.000000
2.722960 0.782463 0.101052 30.000000
2.760168 0.760841 0.102296 30.000000
2.845599 0.751259 0.105243 30.000000
2.897110 0.731349 0.106942 30.000000
2.958393 0.712650 0.109095 30.000000
3.004881 0.689436 0.110622 30.000000
3.046304 0.664314 0.112068 30.000000
3.107175 0.642306 0.114140 30.000000
3.202227 0.625838 0.117475 30.000000
3.258044 0.600014 0.119376 30.000000
3.338169 0.577380 0.122180 30.000000
3.364003 0.544364 0.123005 30.000000
3.349963 0.504755 0.122387 30.000000
3.325547 0.464194 0.121406 30.000000
3.295675 0.423641 0.120243 30.000000
3.250413 0.381890 0.118535 30.000000
3.224600 0.343434 0.117548 30.000000
3.198321 0.305527 0.116461 30.000000
3.131659 0.264803 0.114022 30.000000
3.129363 0.230460 0.113936 30.000000
3.066930 0.192375 0.111578 30.000000
3.058826 0.158451 0.111308 30.000000
3.020384 0.123611 0.109856 30.000000
3.016590 0.090596 0.109766 30.000000
2.992441 0.057308 0.108858 30.000000
2.967915 0.024563 0.107949 30.000000
2.943023 -0.007639 0.107130 30.000000
2.887795 -0.038894 0.105129 30.000000
2.867197 -0.069806 0.104402 30.000000
2.866321 -0.100898 0.104402 30.000000
2.830069 -0.130468 0.103129 30.000000
2.803568 -0.159760 0.102219 30.000000
2.761800 -0.187496 0.100764 30.000000
2.734696 -0.215542 0.099855 30.000000
2.707300 -0.243047 0.098945 30.000000
2.694535 -0.271430 0.098582 30.000000
2.686426 -0.300152 0.098317 30.000000
2.678082 -0.328683 0.098135 30.000000
2.644659 -0.353795 0.097045 30.000000
2.719788 -0.393936 0.099869 30.000000
2.858512 -0.445806 0.105135 30.000000
3.075249 -0.513874 0.113210 30.000000
3.158081 -0.562984 0.116378 30.000000
3.171350 -0.600992 0.117103 30.000000
3.189141 -0.640312 0.117910 30.000000
3.196652 -0.677990 0.118454 30.000000
3.184292 -0.711528 0.118173 30.000000
3.171556 -0.744861 0.117892 30.000000
3.158447 -0.778089 0.117612 30.000000
3.154643 -0.813607 0.117693 30.000000
3.198659 -0.862033 0.119578 30.000000
3.189150 -0.896733 0.119477 30.000000
3.193621 -0.935546 0.119916 30.000000
3.216713 -0.980295 0.121073 30.000000
3.220222 -1.019735 0.121510 30.000000
3.246954 -1.067080 0.122844 30.000000
3.225701 -1.099030 0.122276 30.000000
3.218342 -1.135346 0.122351 30.000000
3.252773 -1.187393 0.124037 30.000000
3.249116 -1.226134 0.124183 30.000000
3.207609 -1.250453 0.123006 30.000000
3.133679 -1.260898 0.120479 30.000000
2.967458 -1.231625 0.114499 30.000000
2.976888 -1.273634 0.115192 30.000000
3.090975 -1.362294 0.120066 30.000000
3.198770 -1.451568 0.124647 30.000000
3.173839 -1.481988 0.124078 30.000000
3.175598 -1.525083 0.124679 30.000000
3.118491 -1.539598 0.122875 30.000000
3.048025 -1.546243 0.120547 30.000000
3.146335 -1.639362 0.124913 30.000000
3.115132 -1.666417 0.124169 30.000000
2.679645 -1.965289 0.113952 30.000000
2.789934 -2.093382 0.119394 30.000000
2.457730 -1.886319 0.105768 30.000000
2.437579 -1.912241 0.105484 30.000000
2.365999 -1.898079 0.103087 30.000000
2.321979 -1.904719 0.101793 30.000000
2.347015 -1.968473 0.103545 30.000000
2.283679 -1.958135 0.101411 30.000000
2.187118 -1.917058 0.097864 30.000000
2.128853 -1.907423 0.095921 30.000000
2.037972 -1.866426 0.092482 30.000000
1.984717 -1.857715 0.090728 30.000000
1.881327 -1.799762 0.086653 30.000000
1.811587 -1.771282 0.084093 30.000000
1.763967 -1.762596 0.082537 30.000000
1.709664 -1.746002 0.080659 30.000000
1.645619 -1.717598 0.078297 30.000000
1.602956 -1.709872 0.076859 30.000000
1.540364 -1.679315 0.074520 30.000000
1.475334 -1.643876 0.072030 30.000000
1.434313 -1.633507 0.070624 30.000000
1.364422 -1.588320 0.067834 30.000000
1.350311 -1.606915 0.067804 30.000000
1.297908 -1.578996 0.065779 30.000000
1.268159 -1.577396 0.064950 30.000000
1.241712 -1.579268 0.064223 30.000000
1.215399 -1.580755 0.063561 30.000000
1.198169 -1.593845 0.063318 30.000000
1.174959 -1.598698 0.062758 30.000000
1.169237 -1.627594 0.063207 30.000000
1.140067 -1.623777 0.062334 30.000000
1.130859 -1.648438 0.062561 30.000000
1.110133 -1.656432 0.062161 30.000000
1.097586 -1.676728 0.062228 30.000000
1.092872 -1.709591 0.062818 30.000000
1.079579 -1.729841 0.062878 30.000000
1.058115 -1.737153 0.062476 30.000000
1.023916 -1.722802 0.061310 30.000000
0.926180 1.582553 0.069888 30.000000
0.933034 1.555224 0.069458 30.000000
0.949873 1.544977 0.069791 30.000000
0.969208 1.538791 0.070261 30.000000
0.991287 1.536579 0.070982 30.000000
1.010628 1.529857 0.071456 30.000000
1.030002 1.522964 0.071987 30.000000
1.043611 1.507569 0.072072 30.000000
1.074347 1.516529 0.073394 30.000000
1.073159 1.480508 0.072490 30.000000
1.095083 1.476750 0.073166 30.000000
1.114049 1.468770 0.073647 30.000000
1.133046 1.460500 0.074185 30.000000
1.151902 1.452049 0.074669 30.000000
1.170731 1.443305 0.075154 30.000000
1.192719 1.438167 0.075843 30.000000
1.211529 1.428967 0.076332 30.000000
1.217162 1.404366 0.076005 30.000000
1.239001 1.398505 0.076699 30.000000
1.274243 1.407141 0.078220 30.000000
1.289435 1.393167 0.078452 30.000000
1.297702 1.371819 0.078327 30.000000
1.326415 1.371938 0.079447 30.000000
1.348301 1.364473 0.080098 30.000000
1.370166 1.356737 0.080809 30.000000
1.392066 1.348669 0.081465 30.000000
1.410315 1.336891 0.081972 30.000000
1.421135 1.318002 0.081998 30.000000
1.453901 1.319155 0.083294 30.000000
1.471969 1.306580 0.083807 30.000000
1.497413 1.300233 0.084687 30.000000
1.515334 1.287050 0.085143 30.000000
1.552296 1.289624 0.086674 30.000000
1.558535 1.266248 0.086490 30.000000
1.591831 1.264733 0.087814 30.000000
1.609438 1.250347 0.088279 30.000000
1.650793 1.253878 0.090047 30.000000
1.664407 1.235767 0.090237 30.000000
1.681811 1.220464 0.090708 30.000000
1.711313 1.213550 0.091837 30.000000
1.732662 1.200526 0.092467 30.000000
1.758015 1.189995 0.093384 30.000000
1.800088 1.190017 0.095120 30.000000
1.812942 1.170308 0.095383 30.000000
1.838210 1.158456 0.096245 30.000000
1.863251 1.146595 0.097176 30.000000
1.879897 1.128783 0.097599 30.000000
1.913639 1.120840 0.098981 30.000000
1.947452 1.112360 0.100302 30.000000
1.976898 1.100773 0.101402 30.000000
2.010669 1.091118 0.102731 30.000000
2.040072 1.078442 0.103840 30.000000
2.069468 1.065381 0.104952 30.000000
2.098778 1.051720 0.106068 30.000000
2.128067 1.037598 0.107116 30.000000
2.152745 1.020802 0.108012 30.000000
2.195488 1.011927 0.109819 30.000000
2.210903 0.990041 0.110268 30.000000
2.239807 0.973956 0.111326 30.000000
2.291669 0.967033 0.113603 30.000000
2.306702 0.943924 0.113984 30.000000
2.298182 0.911433 0.113297 30.000000
2.340486 0.899197 0.115052 30.000000
2.420361 0.899796 0.118726 30.000000
2.472286 0.888652 0.120954 30.000000
2.495993 0.866680 0.121805 30.000000
2.552552 0.855347 0.124272 30.000000
2.575939 0.832237 0.125129 30.000000
2.603947 0.810135 0.126219 30.000000
2.626883 0.786021 0.127080 30.000000
2.678461 0.769872 0.129334 30.000000
2.744412 0.756857 0.132289 30.000000
2.757330 0.728213 0.132695 30.000000
2.876462 0.726367 0.138222 30.000000
2.918155 0.703288 0.140034 30.000000
2.979130 0.683849 0.142690 30.000000
3.039996 0.663249 0.145445 30.000000
3.086158 0.638260 0.147409 30.000000
3.146815 0.615198 0.150175 30.000000
3.222143 0.593679 0.153550 30.000000
3.302169 0.571419 0.157266 30.000000
3.323000 0.537875 0.158072 30.000000
3.284209 0.495077 0.156062 30.000000
3.244866 0.453042 0.154050 30.000000
3.190127 0.410165 0.151331 30.000000
3.149711 0.370229 0.149313 30.000000
3.108890 0.331263 0.147292 30.000000
3.092442 0.295549 0.146446 30.000000
3.035759 0.256804 0.143713 30.000000
3.053308 0.224861 0.144514 30.000000
2.990753 0.187592 0.141449 30.000000
2.952683 0.153022 0.139653 30.000000
2.954219 0.120955 0.139744 30.000000
2.940326 0.088346 0.139035 30.000000
2.931149 0.056160 0.138563 30.000000
2.911619 0.024108 0.137708 30.000000
2.861765 -0.007432 0.135346 30.000000
2.866497 -0.038538 0.135582 30.000000
2.865883 -0.069718 0.135582 30.000000
2.840051 -0.100020 0.134401 30.000000
2.833760 -0.130698 0.134165 30.000000
2.797296 -0.159476 0.132512 30.000000
2.775481 -0.188511 0.131567 30.000000
2.718503 -0.214364 0.128969 30.000000
2.701080 -0.242517 0.128260 30.000000
2.688325 -0.270929 0.127705 30.000000
2.675261 -0.298960 0.127233 30.000000
2.661975 -0.326857 0.126679 30.000000
2.648387 -0.354375 0.126207 30.000000
2.644387 -0.383192 0.126125 30.000000
2.753558 -0.429552 0.131462 30.000000
2.921115 -0.488255 0.139708 30.000000
3.068108 -0.547200 0.146916 30.000000
3.238669 -0.613916 0.155292 30.000000
3.217130 -0.646113 0.154486 30.000000
3.205027 -0.679963 0.154150 30.000000
3.241286 -0.724503 0.156164 30.000000
3.247856 -0.763038 0.156766 30.000000
3.253945 -0.801891 0.157266 30.000000
3.254709 -0.839710 0.157632 30.000000
3.255009 -0.877636 0.157997 30.000000
3.283790 -0.923576 0.159661 30.000000
3.292748 -0.964731 0.160491 30.000000
3.286938 -1.001934 0.160515 30.000000
3.266288 -1.034506 0.159944 30.000000
3.269112 -1.074670 0.160433 30.000000
3.309235 -1.127823 0.162888 30.000000
3.080195 -1.087239 0.151984 30.000000
3.255878 -1.189106 0.161068 30.000000
3.261437 -1.231533 0.161783 30.000000
3.261977 -1.272017 0.162265 30.000000
3.210898 -1.292396 0.160201 30.000000
2.993762 -1.242920 0.149832 30.000000
2.943361 -1.259680 0.147789 30.000000
3.016305 -1.329849 0.151968 30.000000
3.051731 -1.385289 0.154296 30.000000
3.117931 -1.456408 0.158225 30.000000
3.124461 -1.501076 0.159162 30.000000
3.210943 -1.585833 0.164108 30.000000
3.144552 -1.595868 0.161375 30.000000
3.047268 -1.588354 0.157051 30.000000
3.117918 -1.668558 0.161292 30.000000
3.051396 -1.675923 0.158467 30.000000
2.580569 -1.765783 0.139937 30.000000
2.557087 -1.791000 0.139427 30.000000
2.427732 -1.740182 0.133039 30.000000
2.356300 -1.728149 0.129879 30.000000
2.365254 -1.774753 0.131162 30.000000
2.377533 -1.824738 0.132660 30.000000
2.349625 -1.844387 0.131853 30.000000
2.352739 -1.888698 0.132899 30.000000
2.335863 -1.917489 0.132750 30.000000
2.310989 -1.939572 0.132254 30.000000
2.285909 -1.961480 0.131667 30.000000
2.215651 -1.943410 0.128558 30.000000
2.157123 -1.934100 0.126025 30.000000
2.080644 -1.906927 0.122421 30.000000
2.016033 -1.888533 0.119484 30.000000
1.970102 -1.886206 0.117638 30.000000
1.853040 -1.813206 0.111504 30.000000
1.787245 -1.787399 0.108402 30.000000
1.722295 -1.760360 0.105316 30.000000
1.654675 -1.728496 0.102033 30.000000
1.611841 -1.720881 0.100254 30.000000
1.552542 -1.694116 0.097424 30.000000
1.497397 -1.669979 0.094752 30.000000
1.472584 -1.678637 0.094057 30.000000
1.402184 -1.633941 0.090427 30.000000
1.339394 -1.595501 0.087172 30.000000
1.299831 -1.582919 0.085458 30.000000
1.276307 -1.589143 0.084730 30.000000
1.249743 -1.591177 0.083798 30.000000
1.208034 -1.572953 0.081901 30.000000
1.181952 -1.573992 0.080981 30.000000
1.164818 -1.586737 0.080681 30.000000
1.159153 -1.615478 0.081196 30.000000
1.150207 -1.640260 0.081502 30.000000
1.123869 -1.640256 0.080649 30.000000
1.106014 -1.652402 0.080346 30.000000
1.096240 -1.676850 0.080645 30.000000
1.078006 -1.688659 0.080340 30.000000
1.062292 -1.704464 0.080172 30.000000
1.048898 -1.724471 0.080262 30.000000
1.060693 -1.787310 0.082329 30.000000
0.920743 1.573316 0.085937 30.000000
0.927508 1.546104 0.085381 30.000000
0.946869 1.540168 0.086004 30.000000
0.966157 1.534009 0.086629 30.000000
0.985426 1.527571 0.087201 30.000000
1.004730 1.520963 0.087830 30.000000
1.023958 1.514073 0.088462 30.000000
1.046006 1.511060 0.089282 30.000000
1.059459 1.495529 0.089432 30.000000
1.066795 1.471807 0.089034 30.000000
1.085654 1.464155 0.089668 30.000000
1.107563 1.460194 0.090496 30.000000
1.132538 1.459935 0.091574 30.000000
1.145186 1.443602 0.091664 30.000000
1.173365 1.446616 0.093056 30.000000
1.189017 1.433753 0.093398 30.000000
1.207727 1.424528 0.093991 30.000000
1.216595 1.403741 0.093829 30.000000
1.238430 1.397877 0.094619 30.000000
1.253553 1.384352 0.094961 30.000000
1.281495 1.385835 0.096380 30.000000
1.296491 1.371761 0.096669 30.000000
1.321780 1.368289 0.097785 30.000000
1.340113 1.357366 0.098391 30.000000
1.361894 1.349648 0.099199 30.000000
1.376543 1.334707 0.099551 30.000000
1.394638 1.323026 0.100104 30.000000
1.412632 1.311149 0.100658 30.000000
1.441672 1.309026 0.101999 30.000000
1.463301 1.299828 0.102821 30.000000
1.488724 1.293622 0.103970 30.000000
1.521729 1.293457 0.105530 30.000000
1.531927 1.273542 0.105570 30.000000
1.557370 1.266187 0.106671 30.000000
1.571049 1.249073 0.106978 30.000000
1.604314 1.247158 0.108619 30.000000
1.621827 1.232604 0.109135 30.000000
1.643166 1.220753 0.109982 30.000000
1.656366 1.202736 0.110233 30.000000
1.702016 1.207643 0.112702 30.000000
1.727336 1.197553 0.113768 30.000000
1.740312 1.178602 0.114025 30.000000
1.778016 1.176113 0.115911 30.000000
1.803302 1.164758 0.117053 30.000000
1.820123 1.147672 0.117588 30.000000
1.853812 1.140828 0.119219 30.000000
1.874412 1.126078 0.120033 30.000000
1.908112 1.118180 0.121674 30.000000
1.933216 1.104724 0.122770 30.000000
1.980015 1.102995 0.125249 30.000000
1.991861 1.081381 0.125457 30.000000
2.043216 1.080635 0.128226 30.000000
2.054873 1.058310 0.128438 30.000000
2.088561 1.047030 0.130111 30.000000
2.117792 1.033004 0.131439 30.000000
2.133394 1.012025 0.131934 30.000000
2.166959 0.999164 0.133621 30.000000
2.191348 0.981655 0.134679 30.000000
2.220080 0.965989 0.136021 30.000000
2.253435 0.951498 0.137648 30.000000
2.263603 0.926900 0.137872 30.000000
2.296747 0.911433 0.139506 30.000000
2.325205 0.893595 0.140862 30.000000
2.414262 0.897819 0.145897 30.000000
2.442657 0.878278 0.147266 30.000000
2.489824 0.864800 0.149692 30.000000
2.536791 0.850586 0.152206 30.000000
2.574450 0.832154 0.154158 30.000000
2.602365 0.810052 0.155462 30.000000
2.630157 0.787369 0.156769 30.000000
2.633752 0.757371 0.156735 30.000000
2.689914 0.742081 0.159761 30.000000
2.779804 0.734502 0.164795 30.000000
2.860221 0.722608 0.169267 30.000000
2.916413 0.703105 0.172314 30.000000
2.948166 0.677053 0.173933 30.000000
3.028531 0.660931 0.178428 30.000000
3.064872 0.634118 0.180343 30.000000
3.110760 0.608393 0.182838 30.000000
3.166244 0.583527 0.185815 30.000000
3.236284 0.560248 0.189761 30.000000
3.301337 0.534581 0.193427 30.000000
3.247730 0.489765 0.190063 30.000000
3.208359 0.448208 0.187562 30.000000
3.168457 0.407617 0.185059 30.000000
3.147967 0.370229 0.183807 30.000000
3.107075 0.331168 0.181297 30.000000
3.080701 0.294504 0.179654 30.000000
3.033990 0.256804 0.176849 30.000000
3.011706 0.221927 0.175400 30.000000
2.964105 0.186028 0.172591 30.000000
2.960936 0.153539 0.172392 30.000000
2.902629 0.118911 0.168998 30.000000
2.893716 0.086996 0.168417 30.000000
2.919466 0.055968 0.169869 30.000000
2.884973 0.023901 0.167925 30.000000
2.860104 -0.007344 0.166472 30.000000
2.849859 -0.038336 0.165891 30.000000
2.834280 -0.068989 0.165020 30.000000
2.793506 -0.098437 0.162695 30.000000
2.757321 -0.127162 0.160662 30.000000
2.725902 -0.155413 0.158918 30.000000
2.724066 -0.185127 0.158918 30.000000
2.657207 -0.209572 0.155142 30.000000
2.694535 -0.242071 0.157383 30.000000
2.661925 -0.268343 0.155559 30.000000
2.653938 -0.296741 0.155269 30.000000
2.635647 -0.323733 0.154317 30.000000
2.622099 -0.350983 0.153737 30.000000
2.613197 -0.378734 0.153366 30.000000
2.653305 -0.414073 0.155893 30.000000
2.953949 -0.493927 0.173767 30.000000
3.012245 -0.537366 0.177438 30.000000
3.217139 -0.610095 0.189785 30.000000
3.234801 -0.649946 0.191131 30.000000
3.237304 -0.687118 0.191507 30.000000
3.273457 -0.732026 0.194004 30.000000
3.260497 -0.766363 0.193510 30.000000
3.295618 -0.812439 0.196002 30.000000
3.267257 -0.843246 0.194643 30.000000
3.301350 -0.890429 0.197130 30.000000
3.310745 -0.931479 0.198071 30.000000
3.286071 -0.963222 0.196999 30.000000
3.299268 -1.006197 0.198224 30.000000
3.326159 -1.054004 0.200305 30.000000
3.333500 -1.096399 0.201237 30.000000
3.288413 -1.120953 0.199021 30.000000
3.276094 -1.156637 0.198809 30.000000
3.291482 -1.202492 0.200201 30.000000
3.343577 -1.262855 0.203975 30.000000
3.334352 -1.300941 0.204041 30.000000
3.320020 -1.337154 0.203713 30.000000
3.037880 -1.262071 0.187033 30.000000
2.927639 -1.253784 0.180878 30.000000
2.918577 -1.287243 0.180772 30.000000
3.131703 -1.422135 0.194706 30.000000
3.021065 -1.411713 0.188466 30.000000
2.983075 -1.433721 0.186752 30.000000
3.034426 -1.499264 0.190667 30.000000
2.966336 -1.588121 0.188616 30.000000
2.944478 -1.617907 0.188028 30.000000
2.492246 -1.706363 0.166076 30.000000
2.436710 -1.707625 0.163242 30.000000
2.426090 -1.740000 0.163516 30.000000
2.414978 -1.772278 0.163696 30.000000
2.399561 -1.801551 0.163602 30.000000
2.355995 -1.809350 0.161515 30.000000
2.336112 -1.834952 0.161152 30.000000
2.335419 -1.876007 0.162140 30.000000
2.307103 -1.895121 0.161234 30.000000
2.297768 -1.929847 0.161585 30.000000
2.272797 -1.951538 0.160950 30.000000
2.225107 -1.953201 0.158620 30.000000
2.166501 -1.944015 0.155589 30.000000
2.101084 -1.927003 0.151951 30.000000
2.039844 -1.912268 0.148596 30.000000
1.972041 -1.889577 0.144729 30.000000
1.858591 -1.820113 0.137532 30.000000
1.817462 -1.819112 0.135555 30.000000
1.755695 -1.795913 0.132013 30.000000
1.680750 -1.757290 0.127368 30.000000
1.627460 -1.739038 0.124389 30.000000
1.565334 -1.708069 0.120574 30.000000
1.523380 -1.698967 0.118406 30.000000
1.458731 -1.662940 0.114441 30.000000
1.424289 -1.659743 0.112748 30.000000
1.354810 -1.613923 0.108307 30.000000
1.308711 -1.593809 0.105620 30.000000
1.278874 -1.592351 0.104222 30.000000
1.249187 -1.590497 0.102894 30.000000
1.204508 -1.568326 0.100245 30.000000
1.175414 -1.565344 0.098873 30.000000
1.161322 -1.582050 0.098766 30.000000
1.158667 -1.614810 0.099658 30.000000
1.138249 -1.623232 0.099044 30.000000
1.126206 -1.643708 0.099178 30.000000
1.094418 -1.635134 0.097574 30.000000
1.087553 -1.663637 0.098200 30.000000
1.072142 -1.679567 0.098082 30.000000
1.056519 -1.695312 0.097900 30.000000
1.045871 -1.719526 0.098266 30.000000
1.042408 -1.756548 0.099354 30.000000
0.914257 1.564584 0.101806 30.000000
0.923511 1.541656 0.101404 30.000000
0.945433 1.540002 0.102409 30.000000
0.956744 1.521167 0.102283 30.000000
0.978631 1.519068 0.103293 30.000000
0.995091 1.508296 0.103735 30.000000
1.011386 1.497415 0.104177 30.000000
1.038925 1.502735 0.105719 30.000000
1.055176 1.491343 0.106165 30.000000
1.068389 1.475739 0.106321 30.000000
1.084318 1.463988 0.106711 30.000000
1.106219 1.460082 0.107744 30.000000
1.122011 1.447930 0.108136 30.000000
1.143835 1.443489 0.109119 30.000000
1.162573 1.434811 0.109866 30.000000
1.187651 1.433582 0.111156 30.000000
1.196738 1.412932 0.110956 30.000000
1.208755 1.396025 0.111052 30.000000
1.233809 1.393969 0.112351 30.000000
1.248892 1.380480 0.112692 30.000000
1.270580 1.374092 0.113697 30.000000
1.288885 1.363757 0.114402 30.000000
1.317557 1.364001 0.115967 30.000000
1.342861 1.360160 0.117291 30.000000
1.357588 1.345432 0.117642 30.000000
1.379305 1.337478 0.118668 30.000000
1.393346 1.322850 0.119079 30.000000
1.404023 1.304121 0.119121 30.000000
1.436610 1.305491 0.121028 30.000000
1.454526 1.293018 0.121696 30.000000
1.476101 1.283558 0.122679 30.000000
1.512784 1.286747 0.124922 30.000000
1.538260 1.279680 0.126230 30.000000
1.540537 1.253345 0.125590 30.000000
1.569760 1.248828 0.127220 30.000000
1.583317 1.231591 0.127527 30.000000
1.608543 1.223293 0.128849 30.000000
1.625834 1.208596 0.129477 30.000000
1.655052 1.202486 0.131065 30.000000
1.696544 1.204500 0.133621 30.000000
1.709588 1.185920 0.133939 30.000000
1.751355 1.186742 0.136511 30.000000
1.764165 1.167527 0.136835 30.000000
1.784902 1.153988 0.137870 30.000000
1.814259 1.145140 0.139493 30.000000
1.839404 1.133044 0.140730 30.000000
1.864456 1.120603 0.142038 30.000000
1.898085 1.112795 0.143936 30.000000
1.918792 1.096955 0.144927 30.000000
1.978560 1.102718 0.148802 30.000000
1.977254 1.073891 0.148094 30.000000
2.019684 1.068615 0.150673 30.000000
2.053390 1.057957 0.152600 30.000000
2.073683 1.039964 0.153543 30.000000
2.093719 1.021990 0.154560 30.000000
2.127226 1.009813 0.156503 30.000000
2.147161 0.990803 0.157455 30.000000
2.180555 0.977500 0.159335 30.000000
2.209377 0.961711 0.160961 30.000000
2.247269 0.949183 0.163184 30.000000
2.248184 0.920928 0.162814 30.000000
2.281176 0.905834 0.164786 30.000000
2.314141 0.889862 0.166688 30.000000
2.393828 0.890703 0.171953 30.000000
2.431524 0.874741 0.174205 30.000000
2.450274 0.851538 0.175116 30.000000
2.492426 0.836143 0.177795 30.000000
2.558309 0.827383 0.182090 30.000000
2.591006 0.806836 0.183945 30.000000
2.613975 0.782907 0.185210 30.000000
2.655795 0.764269 0.187834 30.000000
2.716804 0.749873 0.191736 30.000000
2.753758 0.727952 0.194033 30.000000
2.858237 0.722518 0.201010 30.000000
2.880450 0.694825 0.202302 30.000000
2.931546 0.673609 0.205551 30.000000
2.982491 0.651259 0.208806 30.000000
3.023594 0.625933 0.211383 30.000000
3.079159 0.602549 0.214990 30.000000
3.139453 0.579004 0.218945 30.000000
3.248821 0.562701 0.226331 30.000000
3.254771 0.527299 0.226533 30.000000
3.230624 0.487432 0.224577 30.000000
3.191261 0.446037 0.221688 30.000000
3.136624 0.403699 0.217667 30.000000
3.101153 0.364886 0.215111 30.000000
3.070254 0.327465 0.212800 30.000000
3.033836 0.290229 0.210143 30.000000
2.997058 0.253765 0.207484 30.000000
2.994660 0.220826 0.207231 30.000000
2.952061 0.185403 0.204224 30.000000
2.929054 0.151989 0.202592 30.000000
2.875667 0.117802 0.198802 30.000000
2.866840 0.086246 0.198200 30.000000
2.882503 0.055299 0.199234 30.000000
2.838054 0.023616 0.196219 30.000000
2.833153 -0.007280 0.195874 30.000000
2.812943 -0.037866 0.194495 30.000000
2.787494 -0.067896 0.192770 30.000000
2.761631 -0.097298 0.191046 30.000000
2.745499 -0.126702 0.190012 30.000000
2.728962 -0.155697 0.188977 30.000000
2.707217 -0.184028 0.187515 30.000000
2.660306 -0.209964 0.184412 30.000000
2.672761 -0.240202 0.185364 30.000000
2.655163 -0.267761 0.184331 30.000000
2.627275 -0.293887 0.182527 30.000000
2.628910 -0.323043 0.182791 30.000000
2.580768 -0.345605 0.179613 30.000000
2.566992 -0.372211 0.178845 30.000000
2.587429 -0.403988 0.180485 30.000000
2.735375 -0.457621 0.191057 30.000000
2.911976 -0.519744 0.203681 30.000000
3.175631 -0.602457 0.222374 30.000000
3.296055 -0.662523 0.231194 30.000000
3.303391 -0.701421 0.232016 30.000000
3.310144 -0.740637 0.232941 30.000000
3.306803 -0.777576 0.233075 30.000000
3.356296 -0.827865 0.236971 30.000000
3.289138 -0.849276 0.232660 30.000000
3.323025 -0.896718 0.235524 30.000000
3.361145 -0.946243 0.238724 30.000000
3.350677 -0.982559 0.238403 30.000000
3.344661 -1.020438 0.238530 30.000000
3.338078 -1.058313 0.238656 30.000000
3.326402 -1.094518 0.238442 30.000000
3.347454 -1.141674 0.240495 30.000000
3.287868 -1.161409 0.236783 30.000000
3.293703 -1.203990 0.237923 30.000000
3.378505 -1.276854 0.244699 30.000000
3.308601 -1.291760 0.240317 30.000000
3.206669 -1.291867 0.233587 30.000000
2.952849 -1.227207 0.215766 30.000000
2.907252 -1.245440 0.213120 30.000000
2.902643 -1.281103 0.213501 30.000000
2.884029 -1.310579 0.212875 30.000000
2.982568 -1.394705 0.220853 30.000000
2.953773 -1.420646 0.219548 30.000000
3.005420 -1.485483 0.224150 30.000000
2.981768 -1.597028 0.225014 30.000000
2.972925 -1.634320 0.225366 30.000000
2.876149 -1.663780 0.219913 30.000000
2.780618 -1.649268 0.213574 30.000000
2.557800 -1.555115 0.197388 30.000000
2.668870 -1.743950 0.208853 30.000000
2.442423 -1.634274 0.192151 30.000000
2.391519 -1.638229 0.189187 30.000000
2.434800 -1.707261 0.193616 30.000000
2.403814 -1.724999 0.192189 30.000000
2.384903 -1.751239 0.191827 30.000000
2.369619 -1.780205 0.191698 30.000000
2.330260 -1.790745 0.189635 30.000000
2.330192 -1.831506 0.190791 30.000000
2.333405 -1.875641 0.192261 30.000000
2.289677 -1.882082 0.189885 30.000000
2.269012 -1.907007 0.189432 30.000000
2.236721 -1.921904 0.187934 30.000000
2.159385 -1.896855 0.182725 30.000000
2.149693 -1.930324 0.183146 30.000000
2.128489 -1.953736 0.182704 30.000000
2.059799 -1.932498 0.178084 30.000000
1.974476 -1.891945 0.171919 30.000000
1.896695 -1.857486 0.166412 30.000000
1.834076 -1.835742 0.162183 30.000000
1.761674 -1.802129 0.157042 30.000000
1.693656 -1.770750 0.152239 30.000000
1.643563 -1.756311 0.149007 30.000000
1.587296 -1.733621 0.145103 30.000000
1.528436 -1.706192 0.140986 30.000000
1.470334 -1.677682 0.136891 30.000000
1.429248 -1.667120 0.134277 30.000000
1.378984 -1.644322 0.130832 30.000000
1.316758 -1.605195 0.126128 30.000000
1.289869 -1.607736 0.124777 30.000000
1.253865 -1.598103 0.122530 30.000000
1.199960 -1.564185 0.118555 30.000000
1.176973 -1.569157 0.117535 30.000000
1.156931 -1.577845 0.116818 30.000000
1.154242 -1.610571 0.117884 30.000000
1.133871 -1.618962 0.117103 30.000000
1.121865 -1.639406 0.117270 30.000000
1.090141 -1.630804 0.115377 30.000000
1.083305 -1.659275 0.116127 30.000000
1.067937 -1.675176 0.115934 30.000000
1.052355 -1.690952 0.115799 30.000000
1.039090 -1.710809 0.115890 30.000000
0.989891 -1.670535 0.112006 30.000000
0.911187 1.559446 0.117765 30.000000
0.922961 1.540833 0.117609 30.000000
0.936064 1.527021 0.117830 30.000000
0.963222 1.533622 0.119696 30.000000
0.977139 1.518791 0.119864 30.000000
0.996345 1.512241 0.120694 30.000000
1.012740 1.501274 0.121192 30.000000
1.034638 1.498351 0.122305 30.000000
1.062361 1.503285 0.124152 30.000000
1.055248 1.459291 0.121956 30.000000
1.073969 1.451679 0.122791 30.000000
1.095732 1.447869 0.123914 30.000000
1.111395 1.435816 0.124414 30.000000
1.136179 1.435386 0.125887 30.000000
1.151747 1.422898 0.126335 30.000000
1.173507 1.417927 0.127474 30.000000
1.195322 1.412649 0.128675 30.000000
1.204081 1.391970 0.128432 30.000000
1.215811 1.375002 0.128477 30.000000
1.237436 1.369095 0.129626 30.000000
1.265765 1.370143 0.131484 30.000000
1.287508 1.363470 0.132646 30.000000
1.305717 1.352888 0.133402 30.000000
1.320386 1.338564 0.133862 30.000000
1.341964 1.331092 0.134977 30.000000
1.367159 1.326764 0.136454 30.000000
1.381031 1.312192 0.136920 30.000000
1.402617 1.303828 0.138047 30.000000
1.431496 1.301780 0.139899 30.000000
1.449372 1.289346 0.140675 30.000000
1.478367 1.286533 0.142542 30.000000
1.496137 1.273454 0.143325 30.000000
1.536791 1.279313 0.146239 30.000000
1.531346 1.246685 0.144838 30.000000
1.552683 1.236098 0.145934 30.000000
1.577848 1.228160 0.147401 30.000000
1.603091 1.219903 0.148936 30.000000
1.644351 1.223104 0.151892 30.000000
1.637419 1.190382 0.150416 30.000000
1.682822 1.195455 0.153696 30.000000
1.699552 1.180296 0.154510 30.000000
1.741226 1.181208 0.157503 30.000000
1.754040 1.162084 0.157825 30.000000
1.770783 1.145474 0.158586 30.000000
1.804253 1.139357 0.160787 30.000000
1.825085 1.124800 0.161932 30.000000
1.850042 1.112496 0.163392 30.000000
1.883569 1.104825 0.165613 30.000000
1.899792 1.086648 0.166326 30.000000
1.928729 1.075932 0.168248 30.000000
1.966636 1.069061 0.170869 30.000000
1.991363 1.054547 0.172286 30.000000
2.038190 1.051031 0.175687 30.000000
2.054016 1.030947 0.176350 30.000000
2.087457 1.019375 0.178618 30.000000
2.116492 1.005104 0.180438 30.000000
2.131703 0.984316 0.181181 30.000000
2.155913 0.967152 0.182625 30.000000
2.193750 0.955518 0.185229 30.000000
2.231554 0.943212 0.187841 30.000000
2.218577 0.909361 0.186203 30.000000
2.246796 0.892724 0.188121 30.000000
2.307517 0.887844 0.192615 30.000000
2.373111 0.883512 0.197585 30.000000
2.415398 0.869440 0.200622 30.000000
2.448212 0.851459 0.202887 30.000000
2.490335 0.835821 0.205859 30.000000
2.532540 0.819382 0.208838 30.000000
2.579247 0.803787 0.212298 30.000000
2.587848 0.775668 0.212546 30.000000
2.644017 0.761173 0.216636 30.000000
2.676126 0.739171 0.218938 30.000000
2.727399 0.721405 0.222648 30.000000
2.841306 0.718671 0.231572 30.000000
2.863468 0.691135 0.233024 30.000000
2.909724 0.668958 0.236452 30.000000
2.960586 0.646816 0.240190 30.000000
2.991854 0.619678 0.242353 30.000000
3.061990 0.599579 0.247779 30.000000
3.102604 0.572574 0.250743 30.000000
3.192078 0.553238 0.257675 30.000000
3.212689 0.520818 0.259064 30.000000
3.208313 0.484356 0.258469 30.000000
3.149210 0.440416 0.253405 30.000000
3.119183 0.401693 0.250817 30.000000
3.073920 0.361877 0.247032 30.000000
3.057792 0.326313 0.245535 30.000000
3.001644 0.287286 0.240852 30.000000
2.945003 0.249557 0.236165 30.000000
2.967419 0.218901 0.237849 30.000000
2.914888 0.183214 0.233556 30.000000
2.876859 0.149315 0.230456 30.000000
2.868398 0.117598 0.229746 30.000000
2.834581 0.085347 0.226954 30.000000
2.855295 0.054820 0.228637 30.000000
2.805894 0.023367 0.224647 30.000000
2.800996 -0.007203 0.224333 30.000000
2.760870 -0.037195 0.221140 30.000000
2.750314 -0.066962 0.220342 30.000000
2.714605 -0.095718 0.217548 30.000000
2.723315 -0.125699 0.218262 30.000000
2.682005 -0.153058 0.215070 30.000000
2.675223 -0.181917 0.214671 30.000000
2.673089 -0.211059 0.214589 30.000000
2.630914 -0.236549 0.211317 30.000000
2.638082 -0.266179 0.212115 30.000000
2.620219 -0.293252 0.210838 30.000000
2.587149 -0.318097 0.208367 30.000000
2.553918 -0.342216 0.205898 30.000000
2.554985 -0.370700 0.206138 30.000000
2.550796 -0.398522 0.206059 30.000000
2.610275 -0.436882 0.211149 30.000000
3.094713 -0.587485 0.251022 30.000000
3.303154 -0.664282 0.268292 30.000000
3.339605 -0.709500 0.271655 30.000000
3.370677 -0.754479 0.274616 30.000000
3.357366 -0.789925 0.274008 30.000000
3.377636 -0.833625 0.276171 30.000000
3.281610 -0.847821 0.268738 30.000000
3.329912 -0.899106 0.273269 30.000000
3.406345 -0.959436 0.280052 30.000000
3.371814 -0.989470 0.277865 30.000000
3.403746 -1.039253 0.281194 30.000000
3.335293 -1.057885 0.276040 30.000000
3.389900 -1.116019 0.281326 30.000000
3.377554 -1.152837 0.280999 30.000000
3.289795 -1.162750 0.274292 30.000000
3.365924 -1.231064 0.281408 30.000000
3.273058 -1.237626 0.274433 30.000000
3.338277 -1.304131 0.280750 30.000000
3.208437 -1.293414 0.270564 30.000000
3.198849 -1.330273 0.270636 30.000000
2.886410 -1.237390 0.244940 30.000000
2.863640 -1.264701 0.243875 30.000000
2.804367 -1.275304 0.239615 30.000000
3.093036 -1.446908 0.265174 30.000000
3.005171 -1.445982 0.258572 30.000000
3.033929 -1.500750 0.262023 30.000000
2.428648 -1.551011 0.219078 30.000000
2.461694 -1.610220 0.223177 30.000000
2.448101 -1.639823 0.223014 30.000000
2.458848 -1.686255 0.225199 30.000000
2.428445 -1.703852 0.223524 30.000000
2.425943 -1.741904 0.224570 30.000000
2.390768 -1.756510 0.222526 30.000000
2.363458 -1.776575 0.221325 30.000000
2.343914 -1.802363 0.220782 30.000000
2.316259 -1.821715 0.219497 30.000000
2.331207 -1.875092 0.222290 30.000000
2.264396 -1.862442 0.217306 30.000000
2.213409 -1.861529 0.213818 30.000000
2.177842 -1.872598 0.211816 30.000000
2.161021 -1.899620 0.211656 30.000000
2.151282 -1.933127 0.212225 30.000000
2.130041 -1.956579 0.211606 30.000000
2.061275 -1.935393 0.206344 30.000000
2.004778 -1.922507 0.202025 30.000000
1.908993 -1.871044 0.193835 30.000000
1.814476 -1.817619 0.185691 30.000000
1.777171 -1.819505 0.183421 30.000000
1.709011 -1.788328 0.177856 30.000000
1.648536 -1.763155 0.172963 30.000000
1.605697 -1.755269 0.169952 30.000000
1.543245 -1.724424 0.164824 30.000000
1.498129 -1.711113 0.161426 30.000000
1.440547 -1.681870 0.156703 30.000000
1.377344 -1.643994 0.151237 30.000000
1.346720 -1.643457 0.149376 30.000000
1.291349 -1.611313 0.144662 30.000000
1.255327 -1.601719 0.142068 30.000000
