x y z intensity
1.551346 0.893804 0.845343 30.000000
1.568838 0.879856 0.851191 30.000000
1.594113 0.869929 0.861280 30.000000
1.599509 0.848919 0.860667 30.000000
1.608687 0.829951 0.862074 30.000000
1.633818 0.818887 0.872033 30.000000
1.679222 0.817248 0.892738 30.000000
1.688129 0.797286 0.894001 30.000000
1.708825 0.783084 0.902007 30.000000
1.725651 0.766381 0.907484 30.000000
1.742047 0.749675 0.913229 30.000000
1.775018 0.739510 0.927612 30.000000
1.787078 0.720278 0.931091 30.000000
1.840912 0.717153 0.956226 30.000000
1.857104 0.698618 0.961794 30.000000
1.881554 0.682751 0.971604 30.000000
1.901689 0.664932 0.979180 30.000000
1.921443 0.646950 0.987044 30.000000
1.958464 0.633859 1.003203 30.000000
1.973755 0.613535 1.008707 30.000000
2.001807 0.596718 1.020735 30.000000
2.042743 0.583022 1.039307 30.000000
2.066350 0.563715 1.048969 30.000000
2.089623 0.544002 1.058940 30.000000
2.112920 0.523660 1.068486 30.000000
2.166519 0.510183 1.093628 30.000000
2.189407 0.488663 1.103363 30.000000
2.212152 0.466655 1.112959 30.000000
2.239146 0.445033 1.124699 30.000000
2.256953 0.421250 1.132266 30.000000
2.314328 0.404098 1.159603 30.000000
2.332001 0.378990 1.166644 30.000000
2.362373 0.355735 1.180902 30.000000
2.419469 0.335386 1.207988 30.000000
2.445274 0.309761 1.219406 30.000000
2.475089 0.284210 1.233303 30.000000
2.509257 0.258408 1.249345 30.000000
2.552075 0.232602 1.269666 30.000000
2.594712 0.205854 1.289909 30.000000
2.663702 0.180066 1.323666 30.000000
2.701208 0.150779 1.341802 30.000000
2.734005 0.120548 1.357633 30.000000
2.793413 0.090359 1.386518 30.000000
2.812086 0.058070 1.395790 30.000000
2.866211 0.025586 1.422656 30.000000
2.897659 -0.008095 1.438216 30.000000
2.852581 -0.041309 1.415890 30.000000
2.825231 -0.074042 1.402169 30.000000
2.801793 -0.106314 1.391058 30.000000
2.791509 -0.138633 1.386423 30.000000
2.772006 -0.170193 1.377252 30.000000
2.765552 -0.202316 1.374559 30.000000
2.691675 -0.228646 1.338845 30.000000
2.720222 -0.263226 1.354015 30.000000
2.712696 -0.294575 1.351330 30.000000
2.691648 -0.324120 1.341808 30.000000
2.670000 -0.353341 1.332570 30.000000
2.661530 -0.384064 1.329803 30.000000
2.635264 -0.411641 1.317723 30.000000
2.639203 -0.444088 1.321788 30.000000
2.581334 -0.465422 1.294327 30.000000
2.585053 -0.497198 1.297677 30.000000
2.575016 -0.526663 1.294751 30.000000
2.560347 -0.554985 1.289441 30.000000
2.532330 -0.579919 1.277429 30.000000
2.525880 -0.609516 1.276369 30.000000
2.505937 -0.635977 1.268965 30.000000
2.498994 -0.665156 1.267559 30.000000
2.417989 -0.674014 1.229124 30.000000
2.432043 -0.708701 1.239000 30.000000
2.424212 -0.737186 1.237795 30.000000
2.394618 -0.758713 1.225457 30.000000
2.390356 -0.788440 1.226624 30.000000
2.373220 -0.813381 1.220710 30.000000
2.364110 -0.841393 1.219433 30.000000
2.367318 -0.873823 1.224619 30.000000
2.307214 -0.882441 1.197000 30.000000
2.310051 -0.914469 1.202025 30.000000
2.295777 -0.939885 1.198250 30.000000
2.285520 -0.966789 1.196569 30.000000
2.266669 -0.989919 1.190382 30.000000
2.247311 -1.013022 1.184627 30.000000
2.240465 -1.041130 1.184786 30.000000
2.212573 -1.059844 1.174478 30.000000
2.188649 -1.080002 1.166350 30.000000
2.188750 -1.111973 1.170991 30.000000
2.164462 -1.131513 1.162635 30.000000
2.159953 -1.161299 1.164944 30.000000
2.139284 -1.182364 1.158672 30.000000
2.126324 -1.207460 1.156526 30.000000
2.101480 -1.225638 1.147896 30.000000
2.084300 -1.247942 1.143550 30.000000
2.058641 -1.265659 1.135206 30.000000
2.041123 -1.287362 1.130722 30.000000
2.041937 -1.321523 1.137159 30.000000
2.034738 -1.350872 1.139256 30.000000
2.020263 -1.374559 1.136624 30.000000
2.005048 -1.398574 1.134321 30.000000
1.993195 -1.425064 1.134036 30.000000
1.959147 -1.435380 1.121168 30.000000
1.961472 -1.472196 1.129092 30.000000
1.948924 -1.498283 1.128624 30.000000
1.928925 -1.518585 1.123901 30.000000
1.912280 -1.541409 1.121182 30.000000
1.870900 -1.543712 1.103965 30.000000
1.864582 -1.574647 1.107316 30.000000
1.850936 -1.599627 1.106514 30.000000
1.840476 -1.627462 1.107674 30.000000
1.825433 -1.652893 1.107092 30.000000
1.800941 -1.668115 1.099955 30.000000
1.779730 -1.686155 1.094796 30.000000
1.764081 -1.710885 1.094044 30.000000
1.749019 -1.734791 1.092788 30.000000
1.742362 -1.769042 1.097997 30.000000
1.710940 -1.776242 1.086537 30.000000
1.691119 -1.796968 1.083494 30.000000
1.672120 -1.816789 1.080040 30.000000
1.654953 -1.840430 1.078912 30.000000
1.643599 -1.870705 1.081675 30.000000
1.623962 -1.889928 1.078029 30.000000
1.605952 -1.913081 1.076694 30.000000
1.596438 -1.946715 1.081267 30.000000
1.567574 -1.954519 1.071522 30.000000
1.557382 -1.987964 1.075868 30.000000
1.541112 -2.014123 1.076256 30.000000
1.488593 -1.992206 1.051227 30.000000
1.499352 -2.054923 1.070966 30.000000
1.487480 -2.088139 1.074993 30.000000
1.481922 -2.128081 1.082306 30.000000
1.448215 -2.130730 1.070771 30.000000
1.432546 -2.159905 1.072676 30.000000
1.424075 -2.200568 1.080169 30.000000
1.365624 -2.163025 1.049532 30.000000
1.329947 -2.159941 1.036113 30.000000
1.277842 -2.128428 1.009580 30.000000
1.210220 -2.068047 0.970006 30.000000
1.160091 -2.034456 0.943716 30.000000
0.771457 1.385534 0.652912 30.000000
0.784237 1.371789 0.653566 30.000000
0.801499 1.365908 0.658094 30.000000
0.821070 1.363712 0.664458 30.000000
0.828594 1.341678 0.661237 30.000000
0.860412 1.358595 0.677327 30.000000
0.862624 1.328580 0.670090 30.000000
0.864311 1.298665 0.662782 30.000000
0.893980 1.310701 0.676987 30.000000
0.910932 1.303360 0.681325 30.000000
0.917165 1.280807 0.677772 30.000000
0.946522 1.292135 0.692291 30.000000
0.949676 1.265744 0.686673 30.000000
0.977486 1.272125 0.698975 30.000000
0.985759 1.252802 0.697211 30.000000
0.990106 1.230421 0.693727 30.000000
1.012363 1.228748 0.701937 30.000000
1.022955 1.212721 0.702090 30.000000
1.035557 1.200543 0.704526 30.000000
1.054839 1.194575 0.710717 30.000000
1.061978 1.174757 0.708656 30.000000
1.099029 1.188949 0.727377 30.000000
1.105926 1.168731 0.725326 30.000000
1.115093 1.152261 0.725527 30.000000
1.130434 1.142176 0.729797 30.000000
1.149622 1.134618 0.735882 30.000000
1.161648 1.120859 0.738049 30.000000
1.180830 1.112738 0.744059 30.000000
1.195992 1.101652 0.748219 30.000000
1.224660 1.102526 0.760773 30.000000
1.233051 1.084851 0.760721 30.000000
1.251528 1.075959 0.766924 30.000000
1.270076 1.066737 0.773092 30.000000
1.285082 1.054363 0.777165 30.000000
1.296450 1.038851 0.779069 30.000000
1.300635 1.017707 0.776661 30.000000
1.322444 1.010237 0.784841 30.000000
1.333450 0.994290 0.786582 30.000000
1.362552 0.991521 0.798977 30.000000
1.373366 0.975073 0.800684 30.000000
1.398448 0.969134 0.811226 30.000000
1.412886 0.954805 0.814936 30.000000
1.449742 0.955098 0.831613 30.000000
1.437096 0.923327 0.820446 30.000000
1.477410 0.925396 0.839535 30.000000
1.499217 0.914539 0.847472 30.000000
1.528323 0.908242 0.860024 30.000000
1.538087 0.890040 0.861712 30.000000
1.559424 0.878398 0.869835 30.000000
1.572779 0.861975 0.873604 30.000000
1.586121 0.845337 0.877258 30.000000
1.607240 0.832614 0.885252 30.000000
1.628312 0.819422 0.893205 30.000000
1.633200 0.797999 0.892303 30.000000
1.682138 0.798009 0.915981 30.000000
1.699026 0.781621 0.921605 30.000000
1.711455 0.763404 0.925282 30.000000
1.727783 0.746677 0.931119 30.000000
1.777122 0.743524 0.954666 30.000000
1.797516 0.727503 0.962582 30.000000
1.817886 0.711055 0.970515 30.000000
1.833911 0.692662 0.976103 30.000000
1.870893 0.681596 0.992789 30.000000
1.886463 0.662493 0.998616 30.000000
1.914876 0.647212 1.010751 30.000000
1.934528 0.628805 1.018640 30.000000
1.958258 0.611290 1.028716 30.000000
1.990455 0.595795 1.043227 30.000000
2.018384 0.578392 1.055449 30.000000
2.020315 0.553331 1.054062 30.000000
2.073560 0.541992 1.079883 30.000000
2.105486 0.523850 1.094123 30.000000
2.141454 0.506270 1.110860 30.000000
2.159858 0.483921 1.118452 30.000000
2.186829 0.463037 1.130491 30.000000
2.213441 0.441715 1.142777 30.000000
2.270834 0.425475 1.170511 30.000000
2.240121 0.392601 1.153212 30.000000
2.305853 0.376273 1.185588 30.000000
2.353931 0.355750 1.208784 30.000000
2.388586 0.332264 1.225125 30.000000
2.427341 0.308695 1.243996 30.000000
2.457088 0.283191 1.258184 30.000000
2.499858 0.258437 1.279017 30.000000
2.542460 0.232659 1.299864 30.000000
2.562674 0.204084 1.309115 30.000000
2.626927 0.178195 1.341419 30.000000
2.655327 0.148849 1.355402 30.000000
2.714638 0.120164 1.385103 30.000000
2.751465 0.089396 1.403268 30.000000
2.787752 0.057790 1.421815 30.000000
2.832673 0.025426 1.444722 30.000000
2.837224 -0.007970 1.446994 30.000000
2.837029 -0.041309 1.446897 30.000000
2.796467 -0.073594 1.426070 30.000000
2.790961 -0.106292 1.423800 30.000000
2.771730 -0.138221 1.414621 30.000000
2.756775 -0.170004 1.407431 30.000000
2.737109 -0.201053 1.397881 30.000000
2.699058 -0.230171 1.379541 30.000000
2.709671 -0.263285 1.385975 30.000000
2.684539 -0.292662 1.374171 30.000000
2.685634 -0.324729 1.375790 30.000000
2.686440 -0.356807 1.377314 30.000000
2.651384 -0.383970 1.360999 30.000000
2.625052 -0.411696 1.349039 30.000000
2.598430 -0.438813 1.336910 30.000000
2.558453 -0.463030 1.317924 30.000000
2.579391 -0.498263 1.330948 30.000000
2.543319 -0.522180 1.313976 30.000000
2.528738 -0.550211 1.308575 30.000000
2.518282 -0.578947 1.305347 30.000000
2.494480 -0.604340 1.295277 30.000000
2.487549 -0.633820 1.294487 30.000000
2.480618 -0.662949 1.293171 30.000000
2.408643 -0.674194 1.258411 30.000000
2.435425 -0.712600 1.275261 30.000000
2.418990 -0.738678 1.269475 30.000000
2.406526 -0.765736 1.265939 30.000000
2.385430 -0.789798 1.257760 30.000000
2.359512 -0.812274 1.247701 30.000000
2.367593 -0.845967 1.254930 30.000000
2.358074 -0.873923 1.253644 30.000000
2.273086 -0.872910 1.212080 30.000000
2.305065 -0.916261 1.232839 30.000000
2.278351 -0.936668 1.222343 30.000000
2.259781 -0.960020 1.216143 30.000000
2.249329 -0.986611 1.214387 30.000000
2.242627 -1.014883 1.214676 30.000000
2.231234 -1.041522 1.213084 30.000000
2.207878 -1.061824 1.204373 30.000000
2.155745 -1.068140 1.180679 30.000000
2.171884 -1.108023 1.194275 30.000000
2.151667 -1.129532 1.187978 30.000000
2.135165 -1.152905 1.183804 30.000000
2.122559 -1.178201 1.181744 30.000000
2.097902 -1.196565 1.173131 30.000000
2.096439 -1.228217 1.177460 30.000000
2.059945 -1.239014 1.162095 30.000000
2.022942 -1.249504 1.147185 30.000000
2.028435 -1.285329 1.155609 30.000000
2.025867 -1.316527 1.159578 30.000000
2.011145 -1.340818 1.157451 30.000000
1.999902 -1.367492 1.157398 30.000000
1.996408 -1.398615 1.161063 30.000000
1.969830 -1.414607 1.152236 30.000000
1.950541 -1.435445 1.147637 30.000000
1.923846 -1.450590 1.138773 30.000000
1.922141 -1.484583 1.144698 30.000000
1.905835 -1.507527 1.142075 30.000000
1.885765 -1.527374 1.137168 30.000000
1.872568 -1.552757 1.136504 30.000000
1.845240 -1.566246 1.127303 30.000000
1.838481 -1.597005 1.130768 30.000000
1.817800 -1.615868 1.125636 30.000000
1.780145 -1.619049 1.110043 30.000000
1.759351 -1.637062 1.104882 30.000000
1.763902 -1.680480 1.116721 30.000000
1.752342 -1.707684 1.117687 30.000000
1.736354 -1.732242 1.116885 30.000000
1.714662 -1.749469 1.111447 30.000000
1.692874 -1.766374 1.105940 30.000000
1.676242 -1.790351 1.104962 30.000000
1.651118 -1.803324 1.097338 30.000000
1.646213 -1.840453 1.104355 30.000000
1.622653 -1.857074 1.099100 30.000000
1.603207 -1.876108 1.095392 30.000000
1.591069 -1.906250 1.098163 30.000000
1.584397 -1.943370 1.104847 30.000000
1.564161 -1.961933 1.100917 30.000000
1.545235 -1.984613 1.099324 30.000000
1.512189 -1.988864 1.087738 30.000000
1.501256 -2.022058 1.092119 30.000000
1.485706 -2.046997 1.091978 30.000000
1.476451 -2.083897 1.098069 30.000000
1.474459 -2.132212 1.109996 30.000000
1.451136 -2.150198 1.106038 30.000000
1.417432 -2.152551 1.094263 30.000000
1.401401 -2.181522 1.096087 30.000000
1.360391 -2.171366 1.078387 30.000000
1.327104 -2.172253 1.066586 30.000000
1.277379 -2.144980 1.041369 30.000000
1.228439 -2.116814 1.016232 30.000000
1.180215 -2.087689 0.991260 30.000000
0.772803 1.361069 0.663440 30.000000
0.792274 1.359212 0.669952 30.000000
0.809402 1.353137 0.674528 30.000000
0.845786 1.378115 0.694858 30.000000
0.824091 1.309207 0.667768 30.000000
0.840822 1.302725 0.672225 30.000000
0.861658 1.304142 0.680949 30.000000
0.873346 1.289474 0.681390 30.000000
0.887457 1.278528 0.683829 30.000000
0.906768 1.274881 0.690252 30.000000
0.926085 1.270946 0.696650 30.000000
0.941938 1.263480 0.701308 30.000000
0.955836 1.251741 0.703624 30.000000
0.963955 1.232604 0.701795 30.000000
0.985268 1.231717 0.710468 30.000000
0.996002 1.215891 0.710678 30.000000
1.012299 1.207009 0.714903 30.000000
1.033804 1.205226 0.723604 30.000000
1.047170 1.192339 0.725734 30.000000
1.071776 1.193292 0.736476 30.000000
1.072732 1.166564 0.730208 30.000000
1.094360 1.163594 0.738794 30.000000
1.110450 1.153272 0.742940 30.000000
1.116317 1.133455 0.740980 30.000000
1.134797 1.126394 0.747410 30.000000
1.153847 1.118584 0.753541 30.000000
1.172332 1.110886 0.759965 30.000000
1.194214 1.105994 0.768494 30.000000
1.209374 1.094579 0.772722 30.000000
1.231255 1.088956 0.781254 30.000000
1.243030 1.074071 0.783253 30.000000
1.258029 1.061984 0.787410 30.000000
1.276458 1.052459 0.793684 30.000000
1.284373 1.034178 0.793421 30.000000
1.299138 1.021435 0.797493 30.000000
1.317423 1.011124 0.803640 30.000000
1.346459 1.008618 0.816299 30.000000
1.357530 0.992296 0.818068 30.000000
1.371574 0.978813 0.822258 30.000000
1.389704 0.967294 0.828312 30.000000
1.403657 0.953306 0.832470 30.000000
1.429119 0.946140 0.842794 30.000000
1.446738 0.933984 0.849082 30.000000
1.457109 0.916348 0.850547 30.000000
1.478355 0.905968 0.858904 30.000000
1.495729 0.892903 0.865064 30.000000
1.516954 0.881785 0.873351 30.000000
1.549829 0.876819 0.888358 30.000000
1.563221 0.860392 0.892112 30.000000
1.584359 0.848030 0.900353 30.000000
1.601489 0.833077 0.906251 30.000000
1.618214 0.818183 0.912472 30.000000
1.651244 0.810534 0.927277 30.000000
1.664137 0.792650 0.930788 30.000000
1.692831 0.782219 0.943587 30.000000
1.709262 0.765774 0.949576 30.000000
1.742000 0.756108 0.964571 30.000000
1.758342 0.738825 0.970471 30.000000
1.778625 0.722893 0.978589 30.000000
1.794741 0.704973 0.984319 30.000000
1.823218 0.691393 0.996822 30.000000
1.851669 0.677249 1.009282 30.000000
1.888138 0.665703 1.026604 30.000000
1.907845 0.647676 1.034761 30.000000
1.923419 0.627555 1.040163 30.000000
1.947052 0.610100 1.050427 30.000000
1.970661 0.592103 1.060641 30.000000
1.993885 0.573774 1.071087 30.000000
2.025782 0.557112 1.085715 30.000000
2.048809 0.537731 1.096061 30.000000
2.080549 0.519732 1.110511 30.000000
2.103279 0.499217 1.120674 30.000000
2.134608 0.480166 1.135308 30.000000
2.148177 0.456812 1.141047 30.000000
2.196584 0.440072 1.164715 30.000000
2.214206 0.416564 1.172564 30.000000
2.266586 0.398896 1.198746 30.000000
2.310161 0.378501 1.220259 30.000000
2.331721 0.353849 1.230071 30.000000
2.357487 0.329316 1.242124 30.000000
2.369639 0.302579 1.247408 30.000000
2.319858 0.268502 1.220280 30.000000
2.481337 0.257549 1.304068 30.000000
2.488412 0.228574 1.306728 30.000000
2.548235 0.203732 1.337112 30.000000
2.590038 0.176419 1.358415 30.000000
2.622697 0.147580 1.375004 30.000000
2.690522 0.119492 1.409971 30.000000
2.722719 0.088774 1.426298 30.000000
2.749945 0.057139 1.440497 30.000000
2.803471 0.025210 1.468526 30.000000
2.865573 -0.008095 1.501005 30.000000
2.847661 -0.041600 1.491627 30.000000
2.802891 -0.074083 1.468140 30.000000
2.779697 -0.106270 1.456543 30.000000
2.773836 -0.138917 1.454032 30.000000
2.758945 -0.170815 1.446790 30.000000
2.743691 -0.202401 1.439360 30.000000
2.719157 -0.232917 1.427583 30.000000
2.694381 -0.262819 1.415622 30.000000
2.686900 -0.294128 1.412840 30.000000
2.657154 -0.322663 1.398298 30.000000
2.644865 -0.352734 1.392933 30.000000
2.627571 -0.382144 1.385535 30.000000
2.610046 -0.411060 1.377959 30.000000
2.601037 -0.441148 1.374921 30.000000
2.561228 -0.465491 1.355539 30.000000
2.564742 -0.497364 1.359169 30.000000
2.537356 -0.523262 1.346918 30.000000
2.510066 -0.548290 1.334061 30.000000
2.525504 -0.582966 1.344690 30.000000
2.501745 -0.608533 1.334329 30.000000
2.494754 -0.638269 1.333533 30.000000
2.449159 -0.657291 1.311533 30.000000
2.398990 -0.674285 1.287622 30.000000
2.387451 -0.701196 1.283789 30.000000
2.392423 -0.733388 1.289464 30.000000
2.363088 -0.754887 1.276650 30.000000
2.358622 -0.784473 1.277914 30.000000
2.350093 -0.812280 1.276379 30.000000
2.332845 -0.836911 1.270112 30.000000
2.315153 -0.861513 1.264281 30.000000
2.293037 -0.884231 1.256016 30.000000
2.287318 -0.913088 1.256772 30.000000
2.260721 -0.933457 1.246090 30.000000
2.258616 -0.963678 1.248948 30.000000
2.231703 -0.983224 1.238045 30.000000
2.233116 -1.015137 1.242905 30.000000
2.201921 -1.031937 1.229610 30.000000
2.190279 -1.058299 1.228030 30.000000
2.162481 -1.076535 1.217283 30.000000
2.142972 -1.097805 1.210562 30.000000
2.146530 -1.131719 1.217640 30.000000
2.126159 -1.152977 1.211174 30.000000
2.113364 -1.178319 1.209110 30.000000
2.096521 -1.201190 1.204733 30.000000
2.083338 -1.226074 1.202509 30.000000
2.069989 -1.250793 1.200201 30.000000
2.041161 -1.265901 1.188939 30.000000
2.019204 -1.285703 1.182466 30.000000
2.012862 -1.314482 1.184359 30.000000
1.994331 -1.336275 1.180027 30.000000
1.983664 -1.362328 1.179534 30.000000
1.975797 -1.391382 1.181636 30.000000
1.946359 -1.404097 1.169999 30.000000
1.952490 -1.443521 1.180673 30.000000
1.911402 -1.447988 1.162847 30.000000
1.884712 -1.462643 1.153714 30.000000
1.882640 -1.496416 1.159732 30.000000
1.862686 -1.516142 1.154795 30.000000
1.835704 -1.529848 1.145546 30.000000
1.815532 -1.548836 1.140479 30.000000
1.791781 -1.564612 1.133272 30.000000
1.811859 -1.619188 1.153889 30.000000
1.787621 -1.634679 1.146492 30.000000
1.773257 -1.659115 1.145517 30.000000
1.765118 -1.689560 1.148621 30.000000
1.733069 -1.698555 1.137331 30.000000
1.724428 -1.728787 1.140325 30.000000
1.715501 -1.759002 1.143199 30.000000
1.683138 -1.766954 1.131724 30.000000
1.667433 -1.790224 1.130291 30.000000
1.638196 -1.800625 1.120892 30.000000
1.631223 -1.833591 1.125549 30.000000
1.628602 -1.874209 1.134806 30.000000
1.591177 -1.872730 1.118546 30.000000
1.581963 -1.906274 1.123428 30.000000
1.554975 -1.918618 1.115824 30.000000
1.543374 -1.947700 1.118092 30.000000
1.527420 -1.973877 1.118606 30.000000
1.491790 -1.974360 1.104742 30.000000
1.487567 -2.014027 1.112791 30.000000
1.475936 -2.047174 1.117207 30.000000
1.456080 -2.069109 1.115349 30.000000
1.435805 -2.090772 1.113478 30.000000
1.423012 -2.123748 1.117601 30.000000
1.401216 -2.140436 1.113088 30.000000
1.380270 -2.161587 1.110988 30.000000
1.356557 -2.178646 1.106894 30.000000
1.332675 -2.195450 1.102800 30.000000
1.273506 -2.152559 1.069058 30.000000
1.226955 -2.128552 1.045413 30.000000
0.763598 1.354272 0.675041 30.000000
0.777358 1.344961 0.677938 30.000000
0.796773 1.342906 0.684539 30.000000
0.813878 1.336668 0.689156 30.000000
0.816326 1.306944 0.681652 30.000000
0.837964 1.308099 0.690262 30.000000
0.844763 1.286067 0.686691 30.000000
0.866498 1.286725 0.695294 30.000000
0.884850 1.283752 0.702098 30.000000
0.888477 1.257701 0.696310 30.000000
0.907638 1.253833 0.702817 30.000000
0.934989 1.260690 0.715521 30.000000
0.934253 1.231265 0.707745 30.000000
0.959049 1.233888 0.718381 30.000000
0.977454 1.229394 0.725145 30.000000
0.991075 1.217093 0.727415 30.000000
1.004591 1.204686 0.729633 30.000000
1.017156 1.192543 0.732114 30.000000
1.039342 1.189995 0.740645 30.000000
1.048843 1.174054 0.740966 30.000000
1.058166 1.158026 0.741166 30.000000
1.092692 1.167882 0.758224 30.000000
1.098818 1.148125 0.756250 30.000000
1.117269 1.141252 0.762870 30.000000
1.123687 1.120894 0.760547 30.000000
1.142117 1.113542 0.767083 30.000000
1.163780 1.108979 0.775762 30.000000
1.185535 1.104071 0.784479 30.000000
1.194074 1.086597 0.784381 30.000000
1.222590 1.087012 0.797416 30.000000
1.230919 1.069182 0.797330 30.000000
1.249341 1.060035 0.803728 30.000000
1.264268 1.047637 0.807885 30.000000
1.275661 1.032279 0.809840 30.000000
1.290458 1.019475 0.813900 30.000000
1.315789 1.014680 0.824639 30.000000
1.326884 0.998602 0.826451 30.000000
1.344567 0.988106 0.832955 30.000000
1.362705 0.976868 0.839138 30.000000
1.383989 0.968302 0.847870 30.000000
1.398407 0.953861 0.851732 30.000000
1.415960 0.942094 0.858145 30.000000
1.426018 0.925118 0.859948 30.000000
1.451387 0.917148 0.870444 30.000000
1.464993 0.902037 0.874472 30.000000
1.489993 0.893591 0.885260 30.000000
1.499634 0.875679 0.886926 30.000000
1.543921 0.877440 0.908977 30.000000
1.561205 0.863114 0.915124 30.000000
1.570628 0.844268 0.916592 30.000000
1.591255 0.831844 0.925237 30.000000
1.600379 0.812611 0.926594 30.000000
1.640808 0.809277 0.946639 30.000000
1.657743 0.793243 0.952498 30.000000
1.674258 0.777207 0.958686 30.000000
1.694707 0.762673 0.967071 30.000000
1.715019 0.747721 0.975411 30.000000
1.747566 0.737519 0.990651 30.000000
1.763737 0.719969 0.996527 30.000000
1.788025 0.705276 1.007055 30.000000
1.803982 0.686971 1.012827 30.000000
1.832004 0.673182 1.025855 30.000000
1.851920 0.655607 1.033850 30.000000
1.892322 0.645005 1.053720 30.000000
1.924430 0.630714 1.068895 30.000000
1.939642 0.610446 1.074686 30.000000
1.954632 0.589837 1.080416 30.000000
1.973497 0.570323 1.088709 30.000000
2.018058 0.557349 1.110648 30.000000
2.036726 0.536785 1.118842 30.000000
2.068021 0.518995 1.133947 30.000000
2.086427 0.497450 1.141880 30.000000
2.117591 0.478442 1.156804 30.000000
2.157211 0.460587 1.176376 30.000000
2.175220 0.437485 1.184049 30.000000
2.205749 0.416607 1.199104 30.000000
2.257861 0.398871 1.225812 30.000000
2.279467 0.374914 1.235961 30.000000
2.300896 0.350464 1.245959 30.000000
2.330628 0.326905 1.260933 30.000000
2.364811 0.303124 1.277792 30.000000
2.372242 0.275565 1.280733 30.000000
2.454016 0.255664 1.323694 30.000000
2.460795 0.227016 1.326828 30.000000
2.529140 0.203027 1.362480 30.000000
2.561834 0.175160 1.379572 30.000000
2.598701 0.146812 1.398863 30.000000
2.653031 0.118325 1.427451 30.000000
2.680637 0.087722 1.441654 30.000000
2.720912 0.056768 1.463337 30.000000
2.782937 0.025073 1.496583 30.000000
2.831472 -0.008045 1.522729 30.000000
2.826873 -0.041536 1.520165 30.000000
2.777860 -0.073753 1.493830 30.000000
2.767999 -0.106343 1.489095 30.000000
2.753460 -0.138408 1.481897 30.000000
2.734158 -0.169983 1.472049 30.000000
2.732260 -0.202347 1.471574 30.000000
2.681422 -0.230654 1.445457 30.000000
2.657075 -0.260206 1.432796 30.000000
2.658403 -0.292126 1.434697 30.000000
2.637573 -0.321485 1.424598 30.000000
2.625065 -0.351598 1.419598 30.000000
2.616852 -0.382050 1.416321 30.000000
2.595041 -0.410332 1.406333 30.000000
2.581620 -0.439590 1.400798 30.000000
2.550698 -0.465476 1.385841 30.000000
2.532596 -0.493094 1.377699 30.000000
2.531202 -0.524070 1.379428 30.000000
2.516682 -0.552223 1.373829 30.000000
2.493249 -0.578177 1.363534 30.000000
2.478214 -0.605641 1.357774 30.000000
2.450131 -0.629517 1.344805 30.000000
2.426168 -0.653860 1.334115 30.000000
2.401698 -0.677972 1.323788 30.000000
2.369029 -0.698835 1.308109 30.000000
2.361181 -0.726983 1.307000 30.000000
2.357288 -0.756396 1.307971 30.000000
2.336330 -0.780137 1.299519 30.000000
2.327746 -0.807844 1.297989 30.000000
2.318652 -0.835721 1.296800 30.000000
2.297118 -0.858440 1.288040 30.000000
2.262707 -0.876235 1.272668 30.000000
2.248813 -0.901595 1.268927 30.000000
2.251076 -0.933479 1.274208 30.000000
2.224374 -0.953351 1.263275 30.000000
2.197657 -0.972583 1.252201 30.000000
2.199094 -1.004245 1.257302 30.000000
2.208275 -1.039726 1.266823 30.000000
2.188538 -1.062452 1.260544 30.000000
2.141245 -1.070417 1.237703 30.000000
2.145039 -1.104294 1.245065 30.000000
2.117559 -1.121244 1.233509 30.000000
2.116774 -1.153040 1.238472 30.000000
2.100156 -1.176173 1.234041 30.000000
2.079397 -1.196827 1.227340 30.000000
2.077738 -1.228465 1.231938 30.000000
2.041406 -1.239402 1.216011 30.000000
2.012778 -1.254262 1.204501 30.000000
1.998572 -1.278777 1.202552 30.000000
1.992152 -1.307378 1.204547 30.000000
1.985382 -1.336074 1.206360 30.000000
1.974091 -1.362657 1.206398 30.000000
1.952126 -1.380848 1.199129 30.000000
1.936697 -1.404522 1.196680 30.000000
1.928942 -1.432716 1.198204 30.000000
1.902277 -1.447934 1.188984 30.000000
1.879161 -1.465403 1.181852 30.000000
1.862925 -1.488051 1.179173 30.000000
1.849999 -1.513376 1.178625 30.000000
1.823088 -1.527017 1.169160 30.000000
1.806267 -1.549014 1.166330 30.000000
1.785988 -1.567805 1.161143 30.000000
1.785595 -1.604298 1.169021 30.000000
1.778091 -1.634943 1.172475 30.000000
1.740642 -1.637742 1.156215 30.000000
1.732713 -1.668017 1.159488 30.000000
1.727550 -1.701363 1.164807 30.000000
1.708258 -1.722789 1.161852 30.000000
1.696069 -1.749710 1.162711 30.000000
1.664858 -1.756869 1.150581 30.000000
1.654273 -1.787428 1.153895 30.000000
1.629207 -1.800461 1.146009 30.000000
1.604118 -1.813103 1.138067 30.000000
1.604514 -1.856922 1.149567 30.000000
1.581989 -1.872565 1.143648 30.000000
1.561021 -1.892130 1.140181 30.000000
1.554121 -1.929112 1.147220 30.000000
1.536768 -1.951175 1.145231 30.000000
1.514984 -1.970205 1.141642 30.000000
1.491719 -1.984599 1.135389 30.000000
1.480492 -2.017685 1.139931 30.000000
1.463386 -2.043468 1.140201 30.000000
1.446033 -2.069131 1.140444 30.000000
1.414360 -2.071228 1.127846 30.000000
1.409158 -2.115352 1.138206 30.000000
1.393335 -2.144348 1.140234 30.000000
1.369836 -2.161694 1.136047 30.000000
1.341274 -2.171003 1.127818 30.000000
1.322070 -2.195618 1.127673 30.000000
1.272310 -2.168657 1.101334 30.000000
1.227422 -2.144124 1.076750 30.000000
0.759063 1.322321 0.681240 30.000000
0.771272 1.308606 0.681792 30.000000
0.804474 1.329846 0.700825 30.000000
0.822852 1.327754 0.707814 30.000000
0.825247 1.298032 0.700075 30.000000
0.839430 1.287459 0.702602 30.000000
0.858612 1.284338 0.709302 30.000000
0.866713 1.266365 0.707863 30.000000
0.885901 1.262756 0.714542 30.000000
0.902451 1.255127 0.719037 30.000000
0.923513 1.255094 0.728092 30.000000
0.945598 1.254179 0.736824 30.000000
0.942880 1.220734 0.726425 30.000000
0.969588 1.226965 0.739716 30.000000
0.980367 1.211153 0.739842 30.000000
0.993054 1.199256 0.742369 30.000000
1.015124 1.196993 0.751108 30.000000
1.027762 1.184621 0.753550 30.000000
1.043922 1.175031 0.757899 30.000000
1.062383 1.168965 0.764706 30.000000
1.077871 1.159297 0.769248 30.000000
1.090815 1.145654 0.771343 30.000000
1.109275 1.138822 0.778048 30.000000
1.118261 1.122085 0.778112 30.000000
1.130272 1.108404 0.780375 30.000000
1.148593 1.100816 0.787017 30.000000
1.170263 1.095916 0.795853 30.000000
1.185364 1.084625 0.800212 30.000000
1.207090 1.079051 0.809054 30.000000
1.225534 1.070127 0.815579 30.000000
1.243940 1.060929 0.822126 30.000000
1.252014 1.042770 0.821885 30.000000
1.266893 1.030213 0.826035 30.000000
1.281610 1.017460 0.830196 30.000000
1.299293 1.007577 0.836916 30.000000
1.324589 1.002335 0.847810 30.000000
1.342793 0.991344 0.854187 30.000000
1.353264 0.975208 0.856190 30.000000
1.374933 0.966283 0.864770 30.000000
1.385200 0.949730 0.866731 30.000000
1.398985 0.935471 0.870932 30.000000
1.428047 0.930352 0.883945 30.000000
1.434263 0.910747 0.883455 30.000000
1.444023 0.893448 0.885208 30.000000
1.480234 0.891985 0.903113 30.000000
1.497515 0.878555 0.909419 30.000000
1.533997 0.875735 0.927242 30.000000
1.520284 0.844276 0.914857 30.000000
1.560226 0.842983 0.935316 30.000000
1.573441 0.826070 0.939120 30.000000
1.586025 0.809247 0.943178 30.000000
1.618750 0.801699 0.958531 30.000000
1.643152 0.790004 0.969544 30.000000
1.663594 0.775874 0.978110 30.000000
1.679947 0.759513 0.984280 30.000000
1.704265 0.746369 0.995115 30.000000
1.728545 0.732772 1.005913 30.000000
1.760932 0.721934 1.021333 30.000000
1.764748 0.699086 1.020218 30.000000
1.788494 0.684334 1.031147 30.000000
1.812509 0.668856 1.041701 30.000000
1.856914 0.660488 1.064424 30.000000
1.880597 0.643970 1.075169 30.000000
1.900022 0.625542 1.083555 30.000000
1.919329 0.606744 1.091747 30.000000
1.942647 0.588779 1.102340 30.000000
1.948780 0.565657 1.103609 30.000000
1.984605 0.550468 1.121189 30.000000
2.015865 0.533520 1.136620 30.000000
2.042798 0.514819 1.149609 30.000000
2.078162 0.497582 1.167341 30.000000
2.104904 0.477541 1.180151 30.000000
2.127163 0.456069 1.190427 30.000000
2.157721 0.435926 1.205823 30.000000
2.170855 0.411822 1.211550 30.000000
2.226951 0.395173 1.241184 30.000000
2.265715 0.374274 1.261067 30.000000
2.291451 0.350563 1.273665 30.000000
2.320951 0.326946 1.288927 30.000000
2.346268 0.301987 1.301303 30.000000
2.392906 0.279129 1.325989 30.000000
2.417624 0.252873 1.338551 30.000000
2.446157 0.226588 1.353707 30.000000
2.487923 0.200565 1.375598 30.000000
2.529149 0.173693 1.397848 30.000000
2.570167 0.145798 1.419845 30.000000
2.624084 0.117554 1.449097 30.000000
2.673498 0.087824 1.475663 30.000000
2.696034 0.056490 1.488115 30.000000
2.727051 0.024716 1.505121 30.000000
2.788430 -0.007970 1.539041 30.000000
2.805744 -0.041373 1.548509 30.000000
2.765771 -0.073773 1.526478 30.000000
2.751587 -0.106151 1.519232 30.000000
2.724009 -0.137555 1.504550 30.000000
2.717928 -0.169698 1.501850 30.000000
2.711663 -0.201738 1.498962 30.000000
2.634943 -0.227643 1.457836 30.000000
2.641263 -0.259743 1.461831 30.000000
2.633858 -0.290702 1.458957 30.000000
2.613143 -0.319868 1.448761 30.000000
2.613633 -0.351632 1.450804 30.000000
2.592434 -0.380137 1.440343 30.000000
2.583727 -0.410383 1.437296 30.000000
2.574761 -0.440434 1.434161 30.000000
2.522331 -0.462387 1.406889 30.000000
2.530151 -0.494815 1.413027 30.000000
2.477448 -0.515053 1.385536 30.000000
2.501622 -0.551243 1.401543 30.000000
2.461201 -0.573135 1.381377 30.000000
2.429214 -0.596214 1.365944 30.000000
2.422604 -0.625090 1.364813 30.000000
2.411495 -0.652732 1.361030 30.000000
2.370228 -0.672060 1.341038 30.000000
2.367164 -0.701385 1.341885 30.000000
2.350879 -0.727087 1.335913 30.000000
2.334394 -0.752503 1.329780 30.000000
2.330219 -0.781744 1.330713 30.000000
2.313297 -0.806569 1.324422 30.000000
2.304458 -0.834106 1.322807 30.000000
2.294939 -0.861813 1.321532 30.000000
2.256950 -0.877838 1.303078 30.000000
2.230705 -0.898364 1.292101 30.000000
2.220708 -0.925107 1.290518 30.000000
2.222605 -0.956913 1.295850 30.000000
2.207938 -0.981677 1.291733 30.000000
2.201244 -1.009856 1.292164 30.000000
2.170156 -1.026724 1.278403 30.000000
2.151096 -1.048669 1.271636 30.000000
2.135240 -1.072738 1.267556 30.000000
2.123682 -1.098081 1.265245 30.000000
2.111382 -1.123671 1.263428 30.000000
2.107174 -1.152930 1.265614 30.000000
2.098188 -1.180454 1.265786 30.000000
2.073575 -1.199039 1.256659 30.000000
2.041324 -1.212657 1.242837 30.000000
2.039344 -1.244118 1.247408 30.000000
1.999465 -1.252070 1.228854 30.000000
1.996944 -1.283213 1.233253 30.000000
1.978707 -1.305178 1.228910 30.000000
1.968208 -1.331296 1.228518 30.000000
1.957493 -1.357339 1.228033 30.000000
1.924081 -1.368255 1.214309 30.000000
1.920203 -1.399045 1.218236 30.000000
1.922392 -1.435749 1.227176 30.000000
1.878059 -1.437531 1.206369 30.000000
1.883875 -1.476225 1.216886 30.000000
1.853577 -1.488002 1.205057 30.000000
1.823361 -1.499194 1.193269 30.000000
1.806814 -1.521311 1.190363 30.000000
1.786721 -1.540268 1.185212 30.000000
1.786562 -1.576732 1.193427 30.000000
1.769320 -1.598366 1.190336 30.000000
1.738687 -1.607599 1.178255 30.000000
1.734186 -1.640982 1.183993 30.000000
1.706795 -1.652530 1.174013 30.000000
1.717602 -1.701564 1.190577 30.000000
1.692874 -1.715899 1.182718 30.000000
1.683792 -1.746002 1.185782 30.000000
1.664017 -1.766931 1.182651 30.000000
1.648194 -1.790345 1.181209 30.000000
1.604953 -1.783390 1.160082 30.000000
1.608653 -1.830382 1.174192 30.000000
1.589254 -1.849781 1.170312 30.000000
1.568451 -1.869594 1.166927 30.000000
1.551584 -1.891823 1.165115 30.000000
1.538883 -1.921837 1.167988 30.000000
1.513102 -1.933178 1.159642 30.000000
1.505211 -1.969960 1.166557 30.000000
1.461566 -1.959741 1.145902 30.000000
1.470488 -2.017570 1.164956 30.000000
1.448040 -2.035983 1.161004 30.000000
1.425507 -2.054059 1.157053 30.000000
1.414346 -2.086162 1.161049 30.000000
1.388804 -2.100155 1.154899 30.000000
1.370572 -2.125129 1.154827 30.000000
1.354340 -2.153910 1.156878 30.000000
1.344078 -2.189614 1.162493 30.000000
1.317555 -2.202569 1.156136 30.000000
1.270273 -2.179817 1.131297 30.000000
0.769051 1.351489 0.711282 30.000000
0.777099 1.329702 0.707733 30.000000
0.798797 1.331241 0.716710 30.000000
0.808704 1.313184 0.715164 30.000000
0.819722 1.299390 0.715957 30.000000
0.831539 1.284984 0.716424 30.000000
0.848224 1.278078 0.721078 30.000000
0.864838 1.270901 0.725748 30.000000
0.888292 1.275093 0.737068 30.000000
0.889296 1.245335 0.728838 30.000000
0.910212 1.245292 0.738001 30.000000
0.932146 1.244476 0.746896 30.000000
0.935023 1.218236 0.740630 30.000000
0.958836 1.220945 0.751950 30.000000
0.972418 1.208679 0.754266 30.000000
0.993671 1.207136 0.763427 30.000000
1.003470 1.191489 0.763775 30.000000
1.016813 1.178728 0.765999 30.000000
1.032222 1.169593 0.770702 30.000000
1.050652 1.163551 0.777588 30.000000
1.054565 1.140341 0.773041 30.000000
1.079040 1.140364 0.784308 30.000000
1.094307 1.130293 0.788906 30.000000
1.115821 1.126384 0.797959 30.000000
1.124724 1.109491 0.797980 30.000000
1.139872 1.098704 0.802509 30.000000
1.154925 1.087729 0.806943 30.000000
1.173267 1.079528 0.813661 30.000000
1.184957 1.065052 0.815792 30.000000
1.206565 1.059215 0.824721 30.000000
1.224826 1.050128 0.831340 30.000000
1.243103 1.040709 0.837925 30.000000
1.264775 1.033765 0.846777 30.000000
1.272146 1.015779 0.846716 30.000000
1.286787 1.002769 0.850933 30.000000
1.297849 0.986877 0.852729 30.000000
1.326012 0.984350 0.866421 30.000000
1.351277 0.978338 0.877496 30.000000
1.358020 0.959449 0.877177 30.000000
1.371871 0.945491 0.881465 30.000000
1.392993 0.936258 0.890451 30.000000
1.403488 0.918979 0.891959 30.000000
1.413345 0.901932 0.893756 30.000000
1.453046 0.903336 0.914348 30.000000
1.455275 0.881128 0.911343 30.000000
1.483791 0.874583 0.924819 30.000000
1.519646 0.872143 0.943380 30.000000
1.529181 0.853621 0.944959 30.000000
1.550130 0.841270 0.953550 30.000000
1.562829 0.824659 0.957768 30.000000
1.583700 0.811594 0.966275 30.000000
1.604084 0.798369 0.975114 30.000000
1.624471 0.784736 0.983914 30.000000
1.648766 0.772616 0.995010 30.000000
1.665048 0.756296 1.001268 30.000000
1.681217 0.739720 1.007477 30.000000
1.701368 0.724475 1.016043 30.000000
1.729475 0.712210 1.029384 30.000000
1.749499 0.696152 1.037797 30.000000
1.760868 0.676726 1.041658 30.000000
1.792650 0.664742 1.057626 30.000000
1.841242 0.657650 1.082783 30.000000
1.864807 0.641169 1.093711 30.000000
1.884139 0.622851 1.102164 30.000000
1.898840 0.603051 1.108550 30.000000
1.917916 0.583975 1.116823 30.000000
1.945322 0.566902 1.129839 30.000000
1.976430 0.550638 1.145740 30.000000
1.986456 0.528093 1.149256 30.000000
2.021741 0.511726 1.167357 30.000000
2.052657 0.493556 1.182896 30.000000
2.091916 0.476640 1.203274 30.000000
2.118180 0.456230 1.216640 30.000000
2.131730 0.432483 1.222069 30.000000
2.140503 0.407791 1.225433 30.000000
2.196250 0.391328 1.255625 30.000000
2.239149 0.371416 1.278332 30.000000
2.238580 0.343964 1.276831 30.000000
2.298367 0.325073 1.309158 30.000000
2.336166 0.302051 1.329551 30.000000
2.352275 0.275586 1.337505 30.000000
2.407133 0.252905 1.367433 30.000000
2.401180 0.223253 1.362768 30.000000
2.455350 0.198812 1.392891 30.000000
2.491981 0.171843 1.413104 30.000000
2.550211 0.145281 1.445466 30.000000
2.599460 0.116888 1.472736 30.000000
2.618042 0.086346 1.482587 30.000000
2.679585 0.056396 1.517441 30.000000
2.723467 0.024740 1.542266 30.000000
2.784472 -0.008008 1.576758 30.000000
2.792978 -0.041438 1.581489 30.000000
2.757691 -0.073813 1.561492 30.000000
2.726191 -0.105623 1.544252 30.000000
2.707373 -0.137365 1.534305 30.000000
2.679698 -0.168052 1.519152 30.000000
2.677721 -0.200062 1.518681 30.000000
2.666883 -0.231319 1.513195 30.000000
2.629413 -0.259709 1.493233 30.000000
2.639337 -0.292639 1.500148 30.000000
2.597095 -0.319410 1.477373 30.000000
2.584888 -0.349240 1.471725 30.000000
2.567849 -0.378229 1.463899 30.000000
2.563757 -0.408877 1.462899 30.000000
2.533356 -0.435100 1.447452 30.000000
2.515548 -0.463072 1.439286 30.000000
2.484782 -0.488038 1.423510 30.000000
2.483375 -0.518717 1.425339 30.000000
2.464920 -0.545551 1.416755 30.000000
2.445996 -0.572080 1.408535 30.000000
2.439580 -0.601348 1.407480 30.000000
2.420229 -0.627243 1.398926 30.000000
2.388052 -0.649313 1.382980 30.000000
2.364160 -0.672995 1.371848 30.000000
2.343872 -0.697693 1.363513 30.000000
2.344354 -0.728484 1.367182 30.000000
2.324077 -0.752316 1.358093 30.000000
2.303290 -0.775936 1.349362 30.000000
2.290594 -0.802064 1.345411 30.000000
2.289585 -0.832746 1.349154 30.000000
2.264198 -0.853937 1.337694 30.000000
2.246761 -0.877753 1.330922 30.000000
2.232780 -0.903183 1.327080 30.000000
2.206544 -0.923358 1.315845 30.000000
2.216326 -0.958634 1.326214 30.000000
2.201729 -0.983498 1.321960 30.000000
2.182852 -1.006261 1.315230 30.000000
2.159925 -1.026781 1.306034 30.000000
2.125043 -1.041138 1.289600 30.000000
2.121619 -1.070509 1.292156 30.000000
2.105585 -1.094238 1.287955 30.000000
2.105434 -1.125588 1.292707 30.000000
2.088986 -1.148988 1.288342 30.000000
2.068506 -1.169962 1.281528 30.000000
2.048449 -1.190092 1.274154 30.000000
2.027666 -1.210367 1.267128 30.000000
1.988028 -1.218695 1.248319 30.000000
1.997025 -1.256763 1.260029 30.000000
1.972189 -1.273663 1.250447 30.000000
1.968698 -1.305254 1.255457 30.000000
1.950840 -1.326444 1.250422 30.000000
1.929247 -1.344774 1.242978 30.000000
1.921914 -1.373133 1.244799 30.000000
1.902944 -1.394066 1.240029 30.000000
1.898606 -1.424813 1.243982 30.000000
1.875633 -1.442638 1.236733 30.000000
1.862981 -1.468360 1.236355 30.000000
1.833658 -1.479420 1.223951 30.000000
1.806943 -1.493379 1.214216 30.000000
1.793818 -1.518324 1.213610 30.000000
1.780388 -1.543111 1.212993 30.000000
1.763486 -1.564865 1.209920 30.000000
1.749555 -1.589370 1.209124 30.000000
1.735397 -1.613713 1.208235 30.000000
1.711404 -1.628673 1.200377 30.000000
1.700004 -1.655762 1.201578 30.000000
1.691549 -1.685916 1.205007 30.000000
1.682728 -1.715975 1.208234 30.000000
1.661082 -1.733188 1.202465 30.000000
1.642481 -1.753346 1.198860 30.000000
1.631635 -1.783905 1.202261 30.000000
1.591615 -1.780299 1.183017 30.000000
1.596188 -1.826585 1.196893 30.000000
1.561070 -1.829578 1.182478 30.000000
1.550234 -1.858816 1.185149 30.000000
1.536256 -1.884535 1.185584 30.000000
1.523442 -1.914326 1.188506 30.000000
1.506035 -1.936307 1.186532 30.000000
1.503395 -1.980381 1.197982 30.000000
1.459775 -1.970356 1.176885 30.000000
1.457708 -2.013618 1.187657 30.000000
1.430050 -2.024571 1.179408 30.000000
1.419206 -2.056789 1.183529 30.000000
1.398864 -2.078430 1.181612 30.000000
1.378269 -2.099881 1.179595 30.000000
1.364831 -2.132586 1.183832 30.000000
1.340423 -2.145204 1.177031 30.000000
1.326020 -2.177733 1.181095 30.000000
1.311103 -2.210247 1.185097 30.000000
1.275210 -2.207328 1.170262 30.000000
0.784857 1.354519 0.736232 30.000000
0.818344 1.375304 0.756064 30.000000
0.802913 1.314444 0.731004 30.000000
0.822277 1.311634 0.737961 30.000000
0.835780 1.301376 0.740892 30.000000
0.847642 1.286779 0.741341 30.000000
0.865984 1.283754 0.748563 30.000000
0.882820 1.276167 0.753319 30.000000
0.899581 1.268410 0.758036 30.000000
0.920694 1.268171 0.767431 30.000000
0.924092 1.241897 0.761110 30.000000
0.934379 1.226854 0.761581 30.000000
0.945270 1.211302 0.761774 30.000000
0.972006 1.217065 0.775534 30.000000
0.982768 1.201072 0.775635 30.000000
0.998291 1.192374 0.780472 30.000000
1.016739 1.186783 0.787521 30.000000
1.030037 1.173698 0.789764 30.000000
1.048491 1.167622 0.796802 30.000000
1.057885 1.151344 0.796948 30.000000
1.070203 1.138222 0.799412 30.000000
1.091612 1.134554 0.808621 30.000000
1.113119 1.130551 0.817871 30.000000
1.122169 1.113586 0.817861 30.000000
1.143732 1.108947 0.827054 30.000000
1.155728 1.094705 0.829300 30.000000
1.170813 1.083362 0.833807 30.000000
1.182623 1.068860 0.836005 30.000000
1.197586 1.057066 0.840420 30.000000
1.222496 1.053741 0.851793 30.000000
1.240787 1.044227 0.858532 30.000000
1.258528 1.034828 0.865519 30.000000
1.273343 1.021881 0.869841 30.000000
1.284070 1.006468 0.872099 30.000000
1.309194 1.001142 0.883354 30.000000
1.323338 0.987854 0.887890 30.000000
1.337882 0.973965 0.891979 30.000000
1.355438 0.962765 0.898800 30.000000
1.369318 0.948714 0.903202 30.000000
1.383078 0.934460 0.907498 30.000000
1.393631 0.917181 0.909064 30.000000
1.418262 0.909609 0.920449 30.000000
1.442981 0.901560 0.931813 30.000000
1.448593 0.881993 0.931538 30.000000
1.469522 0.870918 0.940425 30.000000
1.498006 0.863821 0.954109 30.000000
1.526550 0.856140 0.967712 30.000000
1.550878 0.846085 0.979300 30.000000
1.564110 0.829083 0.983208 30.000000
1.580652 0.814112 0.989802 30.000000
1.585442 0.793031 0.989043 30.000000
1.633188 0.792886 1.015054 30.000000
1.653533 0.778592 1.023908 30.000000
1.673808 0.763948 1.032720 30.000000
1.686101 0.745362 1.036587 30.000000
1.706249 0.729912 1.045304 30.000000
1.722227 0.712506 1.051453 30.000000
1.733779 0.693354 1.055480 30.000000
1.765794 0.681612 1.071371 30.000000
1.777104 0.661824 1.075231 30.000000
1.812801 0.650616 1.093845 30.000000
1.840303 0.635811 1.107490 30.000000
1.859508 0.617634 1.116007 30.000000
1.886873 0.601728 1.129493 30.000000
1.913893 0.585395 1.143285 30.000000
1.932791 0.565840 1.151575 30.000000
1.976343 0.553142 1.175138 30.000000
1.990643 0.531563 1.181194 30.000000
2.029918 0.516047 1.202120 30.000000
2.043874 0.493614 1.207986 30.000000
2.070029 0.473955 1.221710 30.000000
2.087893 0.451656 1.229867 30.000000
2.139324 0.436047 1.258308 30.000000
2.173637 0.416061 1.276642 30.000000
2.199393 0.393677 1.289921 30.000000
2.229189 0.371412 1.305557 30.000000
2.246006 0.346550 1.313622 30.000000
2.275240 0.323205 1.329445 30.000000
2.317181 0.300916 1.352637 30.000000
2.341797 0.275594 1.365743 30.000000
2.379125 0.251034 1.386213 30.000000
2.416282 0.225646 1.406609 30.000000
2.465842 0.200483 1.434800 30.000000
2.493648 0.172687 1.450292 30.000000
2.521316 0.144182 1.465703 30.000000
2.557300 0.115444 1.485962 30.000000
2.614657 0.086592 1.518593 30.000000
2.649885 0.055935 1.539047 30.000000
2.689170 0.024487 1.561834 30.000000
2.715207 -0.007858 1.576899 30.000000
2.749601 -0.040953 1.596793 30.000000
2.723181 -0.073251 1.581441 30.000000
2.696199 -0.104927 1.566379 30.000000
2.681815 -0.136640 1.558754 30.000000
2.671572 -0.168313 1.553450 30.000000
2.660963 -0.199685 1.547961 30.000000
2.624324 -0.228598 1.527239 30.000000
2.608622 -0.258911 1.519439 30.000000
2.584072 -0.287771 1.506443 30.000000
2.580771 -0.318859 1.505893 30.000000
2.564330 -0.348018 1.497646 30.000000
2.551934 -0.377502 1.491728 30.000000
2.530381 -0.405501 1.481174 30.000000
2.530040 -0.436588 1.482952 30.000000
2.495257 -0.461479 1.464642 30.000000
2.477412 -0.488917 1.456166 30.000000
2.463505 -0.516850 1.450018 30.000000
2.457566 -0.546549 1.449309 30.000000
2.430527 -0.571025 1.435430 30.000000
2.415694 -0.598121 1.429394 30.000000
2.392250 -0.622829 1.418303 30.000000
2.377009 -0.649244 1.412026 30.000000
2.340610 -0.669406 1.393255 30.000000
2.341309 -0.700228 1.397105 30.000000
2.317168 -0.723059 1.385558 30.000000
2.317326 -0.753638 1.389232 30.000000
2.296505 -0.777450 1.380355 30.000000
2.287905 -0.805037 1.378823 30.000000
2.270882 -0.829554 1.372269 30.000000
2.257736 -0.855331 1.368022 30.000000
2.223695 -0.873143 1.351892 30.000000
2.210195 -0.898226 1.347507 30.000000
2.192048 -0.921608 1.341006 30.000000
2.189709 -0.951575 1.344162 30.000000
2.171220 -0.974512 1.337507 30.000000
2.176216 -1.008087 1.345375 30.000000
2.141519 -1.023071 1.328706 30.000000
2.126396 -1.046959 1.324192 30.000000
2.087698 -1.058734 1.304913 30.000000
2.095615 -1.093953 1.314775 30.000000
2.052427 -1.102989 1.293462 30.000000
2.044382 -1.129665 1.293444 30.000000
2.039361 -1.158923 1.296244 30.000000
2.026439 -1.183787 1.294036 30.000000
2.013271 -1.208404 1.291827 30.000000
1.993048 -1.227851 1.284155 30.000000
1.972108 -1.247362 1.276910 30.000000
1.976795 -1.283176 1.286371 30.000000
1.951085 -1.300370 1.277066 30.000000
1.929734 -1.319041 1.269604 30.000000
1.911765 -1.339816 1.264463 30.000000
1.904489 -1.368041 1.266298 30.000000
1.903131 -1.401988 1.273343 30.000000
1.870475 -1.411664 1.258483 30.000000
1.837214 -1.421234 1.244082 30.000000
1.849757 -1.465258 1.259784 30.000000
1.809360 -1.468564 1.240561 30.000000
1.797208 -1.493059 1.239521 30.000000
1.794125 -1.526633 1.246047 30.000000
1.770621 -1.542862 1.238292 30.000000
1.766734 -1.576444 1.244600 30.000000
1.732997 -1.583223 1.229814 30.000000
1.715690 -1.604492 1.226579 30.000000
1.717284 -1.643921 1.237193 30.000000
1.689861 -1.655703 1.226853 30.000000
1.671887 -1.676360 1.223437 30.000000
1.666080 -1.709590 1.229095 30.000000
1.653698 -1.736436 1.230054 30.000000
1.641012 -1.763186 1.230904 30.000000
1.622108 -1.783246 1.227189 30.000000
1.588142 -1.786312 1.212085 30.000000
1.573709 -1.813172 1.213160 30.000000
1.554335 -1.832382 1.209301 30.000000
1.546291 -1.865110 1.214240 30.000000
1.522388 -1.881233 1.208450 30.000000
1.505188 -1.903319 1.206549 30.000000
1.494718 -1.936610 1.211704 30.000000
1.477007 -1.958353 1.209666 30.000000
1.447075 -1.966289 1.199214 30.000000
1.439517 -2.002205 1.205796 30.000000
1.422312 -2.027827 1.206153 30.000000
1.407232 -2.057127 1.208663 30.000000
1.378341 -2.063055 1.197577 30.000000
1.365227 -2.095647 1.202037 30.000000
1.343463 -2.112330 1.197295 30.000000
1.329519 -2.144869 1.201659 30.000000
1.310307 -2.169663 1.201507 30.000000
1.293045 -2.198220 1.203457 30.000000
0.776462 1.351827 0.749959 30.000000
0.793796 1.345409 0.754933 30.000000
0.804119 1.327178 0.753319 30.000000
0.809313 1.301332 0.747290 30.000000
0.829976 1.302493 0.756857 30.000000
0.844463 1.291627 0.759534 30.000000
0.852860 1.273576 0.758040 30.000000
0.872073 1.269791 0.765045 30.000000
0.887874 1.262533 0.770164 30.000000
0.907211 1.258203 0.777171 30.000000
0.907081 1.228906 0.768738 30.000000
0.920857 1.217060 0.771139 30.000000
0.944563 1.219680 0.782903 30.000000
0.966545 1.217847 0.792088 30.000000
0.976626 1.202357 0.792526 30.000000
0.992160 1.193563 0.797413 30.000000
0.999870 1.173963 0.795120 30.000000
1.023982 1.174856 0.806857 30.000000
1.036515 1.162055 0.809374 30.000000
1.048940 1.149094 0.811891 30.000000
1.064229 1.139263 0.816675 30.000000
1.085649 1.135538 0.826073 30.000000
1.097891 1.121942 0.828456 30.000000
1.116224 1.114481 0.835466 30.000000
1.128317 1.100536 0.837754 30.000000
1.146635 1.092513 0.844748 30.000000
1.158522 1.078161 0.846939 30.000000
1.173505 1.066608 0.851495 30.000000
1.191734 1.057785 0.858380 30.000000
1.209982 1.048577 0.865178 30.000000
1.227632 1.039539 0.872333 30.000000
1.245852 1.029778 0.879121 30.000000
1.260104 1.017317 0.883818 30.000000
1.278256 1.006924 0.890534 30.000000
1.292316 0.993972 0.895148 30.000000
1.303442 0.977737 0.896964 30.000000
1.324425 0.969543 0.906315 30.000000
1.345460 0.960919 0.915642 30.000000
1.352140 0.941867 0.915233 30.000000
1.373105 0.932605 0.924487 30.000000
1.386776 0.918142 0.928780 30.000000
1.393051 0.898685 0.928198 30.000000
1.406484 0.883841 0.932385 30.000000
1.434719 0.877888 0.946388 30.000000
1.448061 0.862388 0.950493 30.000000
1.480106 0.857589 0.966849 30.000000
1.511897 0.852478 0.983558 30.000000
1.532711 0.840056 0.992425 30.000000
1.553110 0.827538 1.001685 30.000000
1.561947 0.808628 1.003416 30.000000
1.582233 0.795443 1.012529 30.000000
1.610256 0.785655 1.026576 30.000000
1.634378 0.773412 1.038110 30.000000
1.658535 0.760660 1.049545 30.000000
1.670781 0.742119 1.053455 30.000000
1.690765 0.726772 1.062305 30.000000
