x y z intensity
1.697657 0.854468 -0.234174 33.000000
1.724717 0.844496 -0.236974 35.000000
1.742653 0.830044 -0.238614 35.000000
1.756119 0.812956 -0.239584 28.000000
1.805655 0.811991 -0.245418 30.000000
1.827942 0.798283 -0.247692 32.000000
1.850235 0.784032 -0.249850 31.000000
1.872345 0.769545 -0.252074 33.000000
1.899062 0.756343 -0.254860 29.000000
1.939512 0.748159 -0.259509 32.000000
1.956864 0.730339 -0.261069 35.000000
1.997303 0.720800 -0.265737 26.000000
2.023813 0.705388 -0.268484 36.000000
2.059541 0.692863 -0.272547 32.000000
2.090487 0.678060 -0.275996 32.000000
2.121397 0.662676 -0.279453 35.000000
2.147510 0.645074 -0.282155 35.000000
2.182936 0.629876 -0.286180 34.000000
2.237453 0.619277 -0.292714 35.000000
2.248818 0.596126 -0.293626 26.000000
2.288847 0.580110 -0.298299 33.000000
2.338340 0.565621 -0.304161 31.000000
2.363669 0.544618 -0.306968 30.000000
2.403408 0.526228 -0.311589 32.000000
2.447787 0.507953 -0.316769 35.000000
2.496977 0.489861 -0.322660 33.000000
2.536285 0.468933 -0.327301 36.000000
2.521657 0.437847 -0.325020 10.000000
2.609533 0.423807 -0.335890 9.000000
2.667871 0.403501 -0.342988 26.000000
2.721224 0.381247 -0.349462 35.000000
2.813741 0.362911 -0.360991 61.000000
2.852063 0.336254 -0.365497 91.000000
2.875235 0.307263 -0.368200 95.000000
2.848814 0.273022 -0.364499 34.000000
2.816949 0.239008 -0.360164 9.000000
2.799600 0.206757 -0.357723 8.000000
2.806709 0.176495 -0.358441 9.000000
2.828252 0.146897 -0.360970 27.000000
2.849468 0.116779 -0.363586 67.000000
2.810948 0.084527 -0.358528 24.000000
2.816686 0.053909 -0.359160 10.000000
2.812073 0.023100 -0.358528 9.000000
2.807200 -0.007600 -0.357895 8.000000
2.802068 -0.038192 -0.357177 9.000000
2.811381 -0.068954 -0.358441 8.000000
2.835212 -0.100547 -0.361515 8.000000
2.819127 -0.130842 -0.359532 9.000000
2.822516 -0.161861 -0.360077 8.000000
2.850293 -0.194678 -0.363779 10.000000
2.892508 -0.229319 -0.369285 67.000000
2.855251 -0.257708 -0.364778 52.000000
2.896664 -0.293339 -0.370279 79.000000
2.893350 -0.324957 -0.370099 60.000000
2.884755 -0.355878 -0.369201 41.000000
2.905311 -0.390657 -0.372171 91.000000
2.895984 -0.421596 -0.371361 58.000000
2.886312 -0.452427 -0.370462 36.000000
2.861712 -0.480597 -0.367678 26.000000
2.870914 -0.514464 -0.369294 10.000000
2.875008 -0.547543 -0.370280 29.000000
2.883473 -0.581726 -0.371801 56.000000
2.925474 -0.623555 -0.377795 63.000000
2.889532 -0.648961 -0.373763 89.000000
2.930616 -0.691692 -0.379653 65.000000
2.927744 -0.724839 -0.379907 62.000000
2.900557 -0.751682 -0.377039 70.000000
2.896958 -0.784591 -0.377202 74.000000
2.888373 -0.816070 -0.376833 71.000000
2.879326 -0.847550 -0.376371 36.000000
2.869910 -0.879030 -0.376002 29.000000
2.888582 -0.919166 -0.379265 25.000000
2.883224 -0.952141 -0.379418 13.000000
2.872766 -0.983425 -0.378858 15.000000
2.861840 -1.014895 -0.378484 13.000000
2.864701 -1.051025 -0.379777 15.000000
2.885539 -1.094688 -0.383625 24.000000
2.855100 -1.118673 -0.380498 13.000000
2.884146 -1.166632 -0.385561 20.000000
2.880581 -1.201738 -0.386119 18.000000
2.890129 -1.243021 -0.388704 13.000000
2.899174 -1.284318 -0.391087 13.000000
2.880521 -1.313947 -0.389891 13.000000
2.906445 -1.364469 -0.394799 16.000000
2.918452 -1.408808 -0.397663 21.000000
2.902909 -1.440793 -0.397065 17.000000
2.896108 -1.476588 -0.397482 21.000000
2.919387 -1.528995 -0.402234 24.000000
2.911209 -1.565714 -0.402734 23.000000
2.920005 -1.611914 -0.405645 24.000000
2.898254 -1.640948 -0.404222 25.000000
2.897301 -1.682659 -0.405910 31.000000
2.908615 -1.732161 -0.409287 72.000000
2.911070 -1.776413 -0.411345 42.000000
2.904094 -1.816177 -0.412299 68.000000
2.867370 -1.837261 -0.409071 86.000000
2.867814 -1.882389 -0.411209 43.000000
2.842923 -1.911040 -0.409772 58.000000
2.810121 -1.933026 -0.406942 44.000000
2.784781 -1.960987 -0.405512 35.000000
2.771169 -1.997358 -0.405749 62.000000
2.745128 -2.024855 -0.404216 35.000000
2.738653 -2.066906 -0.405621 65.000000
2.712579 -2.093079 -0.403981 64.000000
2.677828 -2.113645 -0.401176 34.000000
2.654556 -2.142996 -0.400233 37.000000
2.646289 -2.184680 -0.401509 42.000000
2.610864 -2.204170 -0.398716 37.000000
2.605412 -2.248951 -0.400556 52.000000
2.573958 -2.270085 -0.398240 33.000000
2.560036 -2.308215 -0.398910 33.000000
2.552881 -2.353109 -0.400611 35.000000
2.527070 -2.381054 -0.399544 26.000000
2.479471 -2.388003 -0.394952 24.000000
2.308006 -2.272290 -0.370491 10.000000
2.227009 -2.241178 -0.360331 16.000000
2.147995 -2.207690 -0.350037 21.000000
2.068969 -2.173574 -0.339990 17.000000
1.997696 -2.145250 -0.331029 19.000000
1.920661 -2.108269 -0.321088 23.000000
1.854563 -2.081065 -0.312789 20.000000
1.802406 -2.067557 -0.306760 20.000000
1.731386 -2.030548 -0.297441 15.000000
1.696449 -2.034128 -0.294250 23.000000
1.652258 -2.025633 -0.289342 30.000000
1.615564 -2.023470 -0.285558 26.000000
1.605698 -2.056709 -0.286709 30.000000
1.574220 -2.062320 -0.284035 30.000000
1.566622 -2.099364 -0.285710 26.000000
1.552411 -2.128540 -0.286285 29.000000
1.537857 -2.157586 -0.286849 18.000000
1.514271 -2.174259 -0.285791 24.000000
1.501709 -2.207210 -0.286871 26.000000
1.483204 -2.231797 -0.286788 25.000000
1.461484 -2.252170 -0.286249 26.000000
1.442251 -2.276473 -0.286151 25.000000
1.440893 -2.330248 -0.289726 22.000000
1.422075 -2.353558 -0.289512 22.000000
1.401473 -2.377567 -0.289373 7.000000
0.778781 1.337467 -0.150669 7.000000
0.772850 1.294648 -0.147348 21.000000
0.781711 1.277606 -0.146927 24.000000
0.806107 1.285834 -0.149438 29.000000
0.813906 1.269034 -0.149105 30.000000
0.835878 1.272494 -0.151095 29.000000
0.849699 1.263249 -0.151655 33.000000
0.863380 1.253911 -0.152216 34.000000
0.879833 1.248405 -0.153275 34.000000
0.887551 1.230639 -0.152789 21.000000
0.897908 1.216816 -0.152798 28.000000
0.911082 1.206936 -0.153354 33.000000
0.936323 1.212618 -0.155889 30.000000
0.943316 1.194519 -0.155391 32.000000
0.965625 1.195715 -0.157433 30.000000
0.984925 1.192730 -0.158974 32.000000
1.007458 1.193263 -0.160986 35.000000
1.004146 1.163324 -0.158941 14.000000
1.012928 1.148984 -0.158991 36.000000
1.032088 1.145187 -0.160497 32.000000
1.061375 1.152074 -0.163566 33.000000
1.077281 1.143967 -0.164567 35.000000
1.096619 1.139270 -0.166094 32.000000
1.098482 1.116506 -0.165008 38.000000
1.121220 1.114912 -0.167016 34.000000
1.151170 1.119825 -0.170135 26.000000
1.148889 1.093399 -0.168466 51.000000
1.164014 1.084570 -0.169531 35.000000
1.183130 1.078378 -0.171033 46.000000
1.198583 1.068617 -0.171958 59.000000
1.206468 1.052091 -0.171868 37.000000
1.240610 1.058132 -0.175521 37.000000
1.255889 1.047603 -0.176458 42.000000
1.274988 1.040032 -0.177985 26.000000
1.286302 1.025940 -0.178389 35.000000
1.297110 1.012102 -0.178844 34.000000
1.335785 1.018910 -0.183039 35.000000
1.346873 1.004159 -0.183451 45.000000
1.361773 0.992181 -0.184356 35.000000
1.408971 1.003123 -0.189675 35.000000
1.423937 0.990403 -0.190593 37.000000
1.442701 0.980653 -0.192167 24.000000
1.440884 0.956501 -0.190897 36.000000
1.476260 0.956841 -0.194566 41.000000
1.499230 0.948499 -0.196596 38.000000
1.522211 0.939825 -0.198578 55.000000
1.536464 0.925966 -0.199570 36.000000
1.555058 0.914091 -0.201008 37.000000
1.573539 0.901918 -0.202505 35.000000
1.600693 0.894291 -0.205063 23.000000
1.605957 0.874292 -0.204844 37.000000
1.619668 0.859213 -0.205795 34.000000
1.651031 0.852822 -0.208868 36.000000
1.669097 0.839138 -0.210330 52.000000
1.713691 0.838535 -0.215156 35.000000
1.745205 0.830341 -0.218314 35.000000
1.781225 0.823740 -0.221983 37.000000
1.780901 0.800320 -0.221218 22.000000
1.816858 0.792691 -0.224900 32.000000
1.834531 0.776656 -0.226333 30.000000
1.870364 0.768031 -0.230031 32.000000
1.897087 0.754884 -0.232605 33.000000
1.928291 0.743184 -0.235752 36.000000
1.950253 0.727253 -0.237708 31.000000
1.995373 0.719507 -0.242572 31.000000
1.988988 0.692778 -0.241127 11.000000
2.057573 0.691681 -0.248786 35.000000
2.088669 0.676799 -0.251903 37.000000
2.114784 0.659990 -0.254455 32.000000
2.145581 0.644060 -0.257583 36.000000
2.171622 0.626097 -0.260075 39.000000
2.192580 0.606394 -0.262070 36.000000
2.266300 0.600299 -0.270369 36.000000
2.282268 0.578035 -0.271731 16.000000
2.307727 0.557822 -0.274243 32.000000
2.357197 0.542614 -0.279630 32.000000
2.382327 0.521148 -0.282151 29.000000
2.431641 0.504227 -0.287476 33.000000
2.466225 0.483486 -0.291157 35.000000
2.515277 0.464660 -0.296493 31.000000
2.554404 0.443177 -0.300762 28.000000
2.608128 0.423256 -0.306686 16.000000
2.661619 0.402266 -0.312616 29.000000
2.734696 0.382878 -0.320776 70.000000
2.778089 0.358094 -0.325563 54.000000
2.850929 0.335850 -0.333733 75.000000
2.903752 0.310078 -0.339686 95.000000
2.906982 0.278406 -0.339776 95.000000
2.899867 0.245806 -0.338710 35.000000
2.872653 0.211960 -0.335330 8.000000
2.869909 0.180319 -0.334752 10.000000
2.901434 0.150588 -0.338310 30.000000
2.883014 0.118087 -0.335997 22.000000
2.849417 0.085571 -0.331949 9.000000
2.865102 0.054851 -0.333772 9.000000
2.840624 0.023391 -0.330880 8.000000
2.850643 -0.007708 -0.331949 8.000000
2.860400 -0.038936 -0.333105 8.000000
2.854820 -0.069927 -0.332439 8.000000
2.868745 -0.101602 -0.334086 8.000000
2.867510 -0.132911 -0.334086 8.000000
2.880798 -0.165073 -0.335731 8.000000
2.923442 -0.199500 -0.340752 8.000000
2.861689 -0.226663 -0.333733 9.000000
2.928293 -0.264131 -0.341726 72.000000
2.915340 -0.295018 -0.340392 43.000000
2.926816 -0.328459 -0.341941 71.000000
2.918176 -0.359702 -0.341184 42.000000
2.909189 -0.390838 -0.340427 24.000000
2.904770 -0.422581 -0.340247 12.000000
2.914711 -0.456449 -0.341702 9.000000
2.934127 -0.492373 -0.344304 7.000000
2.938330 -0.526022 -0.345271 9.000000
2.912944 -0.554313 -0.342699 10.000000
2.960400 -0.596719 -0.348643 47.000000
2.968295 -0.632107 -0.350083 78.000000
2.966056 -0.665546 -0.350376 61.000000
2.973182 -0.701184 -0.351812 89.000000
2.979953 -0.737138 -0.353151 95.000000
2.938088 -0.760767 -0.348778 33.000000
2.924902 -0.791447 -0.347835 95.000000
2.901811 -0.819139 -0.345754 56.000000
2.921328 -0.859225 -0.348797 28.000000
2.916631 -0.892387 -0.348991 20.000000
2.911528 -0.925559 -0.349091 17.000000
2.920170 -0.963598 -0.350983 23.000000
2.918992 -0.998455 -0.351644 16.000000
2.921953 -1.035271 -0.352866 9.000000
2.929280 -1.073721 -0.354649 22.000000
2.917398 -1.105727 -0.354170 19.000000
2.933082 -1.148216 -0.356973 20.000000
2.934228 -1.185822 -0.358176 17.000000
2.930473 -1.221331 -0.358716 16.000000
2.935277 -1.261158 -0.360471 20.000000
2.939518 -1.301286 -0.362220 14.000000
2.929823 -1.335037 -0.362087 9.000000
2.964575 -1.390279 -0.367631 23.000000
2.949290 -1.422658 -0.367027 20.000000
2.960516 -1.467676 -0.369659 26.000000
2.948810 -1.502301 -0.369605 26.000000
2.963065 -1.550644 -0.372873 30.000000
2.981245 -1.601289 -0.376578 60.000000
2.967932 -1.636317 -0.376403 35.000000
2.941278 -1.663892 -0.374573 30.000000
2.922912 -1.696057 -0.373950 71.000000
2.895694 -1.722933 -0.372126 61.000000
2.885559 -1.759143 -0.372290 87.000000
2.866260 -1.790686 -0.371564 59.000000
2.850628 -1.824805 -0.371383 76.000000
2.838886 -1.861429 -0.371744 88.000000
2.818355 -1.892486 -0.370910 47.000000
2.773452 -1.905715 -0.366722 29.000000
2.760510 -1.941806 -0.366977 81.000000
2.735132 -1.969155 -0.365609 71.000000
2.737419 -2.016744 -0.368009 71.000000
2.719263 -2.049690 -0.367711 84.000000
2.696581 -2.079479 -0.366770 57.000000
2.682231 -2.114378 -0.366793 67.000000
2.674441 -2.156212 -0.368085 63.000000
2.612357 -2.153791 -0.361823 28.000000
2.607671 -2.198390 -0.363537 39.000000
2.594684 -2.236706 -0.364076 34.000000
2.596194 -2.288104 -0.366819 32.000000
2.611658 -2.353070 -0.371645 34.000000
2.604162 -2.398502 -0.373187 32.000000
2.560631 -2.408952 -0.369380 30.000000
2.455238 -2.361168 -0.356841 23.000000
2.326470 -2.286831 -0.340732 10.000000
2.245312 -2.255859 -0.331445 23.000000
2.158056 -2.216236 -0.321174 21.000000
2.082302 -2.185759 -0.312503 21.000000
2.017712 -2.164792 -0.305326 25.000000
1.936956 -2.124372 -0.295632 25.000000
1.854163 -2.078638 -0.285571 25.000000
1.802924 -2.064316 -0.279889 21.000000
1.728611 -2.023393 -0.270863 12.000000
1.703380 -2.038352 -0.269461 22.000000
1.655869 -2.026114 -0.264541 29.000000
1.630611 -2.040207 -0.263077 32.000000
1.596087 -2.042232 -0.260198 34.000000
1.573828 -2.059642 -0.259244 31.000000
1.557285 -2.084706 -0.259281 29.000000
1.537475 -2.105643 -0.258818 27.000000
1.534679 -2.150706 -0.261303 24.000000
1.511263 -2.167397 -0.260331 29.000000
1.496008 -2.196101 -0.260824 29.000000
1.480322 -2.224745 -0.261306 30.000000
1.450645 -2.232541 -0.259271 26.000000
1.432961 -2.255882 -0.259093 27.000000
1.424116 -2.296747 -0.260994 27.000000
1.417046 -2.342049 -0.263268 25.000000
1.363702 -2.310258 -0.256933 9.000000
0.772726 1.325176 -0.135399 7.000000
0.771728 1.290974 -0.133268 17.000000
0.783135 1.278249 -0.133378 22.000000
0.804902 1.282222 -0.135171 28.000000
0.813431 1.264984 -0.134789 29.000000
0.832595 1.264316 -0.136191 31.000000
0.845583 1.255642 -0.136748 30.000000
0.859175 1.246318 -0.137212 31.000000
0.878415 1.244993 -0.138628 30.000000
0.877289 1.215142 -0.136822 17.000000
0.896387 1.213461 -0.138240 23.000000
0.909518 1.203613 -0.138702 29.000000
0.934735 1.209337 -0.141002 28.000000
0.941676 1.191220 -0.140549 28.000000
0.960827 1.188632 -0.141939 32.000000
0.976881 1.181882 -0.142871 29.000000
1.002565 1.186329 -0.145155 33.000000
1.002354 1.160217 -0.143764 15.000000
1.018244 1.152903 -0.144655 29.000000
1.027403 1.137987 -0.144610 35.000000
1.056642 1.144951 -0.147435 34.000000
1.075362 1.141019 -0.148858 34.000000
1.094670 1.136316 -0.150238 34.000000
1.100020 1.117179 -0.149723 34.000000
1.126255 1.119051 -0.152014 35.000000
1.145561 1.113577 -0.153408 18.000000
1.143233 1.087221 -0.151883 36.000000
1.162323 1.081424 -0.153279 52.000000
1.181415 1.075274 -0.154632 37.000000
1.200555 1.068863 -0.155990 42.000000
1.212137 1.055654 -0.156384 42.000000
1.238774 1.055156 -0.158720 35.000000
1.249901 1.041933 -0.159119 37.000000
1.265034 1.031306 -0.160006 20.000000
1.276245 1.017343 -0.160356 38.000000
1.303005 1.015463 -0.162717 54.000000
1.321964 1.007158 -0.164054 32.000000
1.340852 0.998525 -0.165395 35.000000
1.359716 0.989615 -0.166741 35.000000
1.378552 0.980374 -0.168091 36.000000
1.421609 0.988308 -0.172418 36.000000
1.436451 0.975438 -0.173286 21.000000
1.430463 0.948624 -0.171616 35.000000
1.465785 0.949108 -0.174975 52.000000
1.492889 0.943619 -0.177294 36.000000
1.511541 0.932375 -0.178620 46.000000
1.529979 0.921219 -0.180004 57.000000
1.552817 0.911960 -0.181840 41.000000
1.575655 0.902308 -0.183625 43.000000
1.576715 0.880138 -0.182951 20.000000
1.603665 0.872364 -0.185247 37.000000
1.621751 0.859664 -0.186651 61.000000
1.644302 0.848716 -0.188452 47.000000
1.675664 0.841830 -0.191273 53.000000
1.693691 0.827790 -0.192577 37.000000
1.743028 0.828443 -0.197446 35.000000
1.769910 0.817903 -0.199780 34.000000
1.796852 0.806671 -0.202121 22.000000
1.791875 0.781071 -0.200830 33.000000
1.836795 0.777146 -0.205285 35.000000
1.858982 0.762678 -0.207067 35.000000
1.885668 0.749685 -0.209366 32.000000
1.916843 0.738139 -0.212247 33.000000
1.943362 0.724100 -0.214557 33.000000
1.965097 0.708096 -0.216357 29.000000
1.982117 0.689832 -0.217645 26.000000
2.036667 0.683965 -0.223000 35.000000
2.081769 0.674072 -0.227399 35.000000
2.112691 0.658714 -0.230186 36.000000
2.138738 0.641477 -0.232530 46.000000
2.159925 0.622314 -0.234359 32.000000
2.200099 0.607998 -0.238129 33.000000
2.240193 0.592953 -0.242045 29.000000
2.260984 0.572224 -0.243818 24.000000
2.291236 0.553444 -0.246562 32.000000
2.350403 0.540607 -0.252505 32.000000
2.385249 0.521373 -0.255779 35.000000
2.420008 0.501429 -0.259132 35.000000
2.449717 0.479894 -0.261892 33.000000
2.489002 0.459479 -0.265700 32.000000
2.537912 0.439940 -0.270556 27.000000
2.611294 0.423499 -0.278030 32.000000
2.630428 0.397234 -0.279761 17.000000
2.703533 0.378225 -0.287250 35.000000
2.746924 0.353819 -0.291521 36.000000
2.844492 0.334863 -0.301553 67.000000
2.877586 0.307092 -0.304783 63.000000
2.925331 0.279917 -0.309586 81.000000
2.938126 0.248923 -0.310724 54.000000
2.965454 0.218720 -0.313435 32.000000
2.952756 0.185393 -0.311954 37.000000
2.949607 0.152996 -0.311429 36.000000
2.951148 0.120819 -0.311429 36.000000
2.932355 0.088046 -0.309422 22.000000
2.928193 0.055992 -0.308898 9.000000
2.903782 0.023882 -0.306276 8.000000
2.908843 -0.007766 -0.306711 8.000000
2.928463 -0.039724 -0.308808 8.000000
2.932805 -0.071841 -0.309242 8.000000
2.916996 -0.103273 -0.307670 8.000000
2.920620 -0.135211 -0.308104 8.000000
2.923969 -0.167346 -0.308538 8.000000
2.956719 -0.201619 -0.312114 8.000000
2.914698 -0.230674 -0.307745 8.000000
2.951626 -0.266006 -0.311841 24.000000
2.953572 -0.298609 -0.312182 25.000000
2.930344 -0.328550 -0.310000 10.000000
2.936505 -0.361707 -0.310864 9.000000
2.942276 -0.394988 -0.311727 8.000000
2.947655 -0.428392 -0.312588 9.000000
2.957549 -0.462780 -0.313878 9.000000
2.947501 -0.494108 -0.313174 10.000000
2.990857 -0.534961 -0.318198 31.000000
2.999546 -0.570285 -0.319479 52.000000
2.998144 -0.603870 -0.319718 72.000000
3.015707 -0.641608 -0.322034 91.000000
3.013465 -0.675523 -0.322269 95.000000
3.010724 -0.709545 -0.322503 95.000000
3.022158 -0.746967 -0.324290 95.000000
2.927280 -0.757402 -0.314595 33.000000
2.909329 -0.786535 -0.313190 69.000000
2.905331 -0.819602 -0.313429 90.000000
2.896346 -0.851093 -0.313058 60.000000
2.948822 -0.901392 -0.319385 24.000000
2.971974 -0.944097 -0.322608 22.000000
2.989982 -0.985585 -0.325212 20.000000
2.988480 -1.021352 -0.325852 17.000000
2.958390 -1.047366 -0.323414 9.000000
2.974954 -1.089595 -0.326004 16.000000
2.986256 -1.130867 -0.328171 18.000000
2.973913 -1.163096 -0.327681 17.000000
2.979529 -1.202970 -0.329230 19.000000
2.979997 -1.241137 -0.330263 19.000000
2.993854 -1.285094 -0.332817 19.000000
3.002508 -1.327734 -0.334854 15.000000
2.983278 -1.358403 -0.333743 13.000000
2.991019 -1.401132 -0.335668 22.000000
3.024914 -1.457508 -0.340714 32.000000
3.017761 -1.494883 -0.341103 40.000000
3.019069 -1.536864 -0.342599 73.000000
3.002132 -1.569804 -0.341976 95.000000
2.993857 -1.606722 -0.342250 98.000000
2.971782 -1.637046 -0.341125 82.000000
2.932124 -1.657171 -0.338004 36.000000
2.913943 -1.689194 -0.337384 57.000000
2.886795 -1.715927 -0.335770 69.000000
2.876754 -1.752105 -0.335938 73.000000
2.857437 -1.783509 -0.335318 81.000000
2.846193 -1.820067 -0.335584 95.000000
2.817872 -1.845697 -0.333872 82.000000
2.814050 -1.887568 -0.335117 58.000000
2.772759 -1.904241 -0.331935 63.000000
2.748161 -1.930984 -0.330620 88.000000
2.722904 -1.958051 -0.329307 84.000000
2.693393 -1.981977 -0.327612 59.000000
2.699381 -2.032358 -0.330196 52.000000
2.688830 -2.070892 -0.330927 62.000000
2.669949 -2.103422 -0.330578 37.000000
2.666189 -2.148215 -0.332158 30.000000
2.623364 -2.161472 -0.328911 22.000000
2.661247 -2.240584 -0.335549 31.000000
2.655469 -2.285938 -0.337090 29.000000
2.656486 -2.337959 -0.339574 32.000000
2.649274 -2.383571 -0.340978 29.000000
2.637817 -2.425891 -0.341895 24.000000
2.582108 -2.427401 -0.337227 25.000000
2.487296 -2.390118 -0.327276 20.000000
2.354532 -2.312548 -0.312198 13.000000
2.262392 -2.271236 -0.302268 18.000000
2.188889 -2.245990 -0.294832 20.000000
2.112749 -2.215787 -0.286874 24.000000
2.024832 -2.168794 -0.277101 21.000000
1.964163 -2.150368 -0.271095 26.000000
1.871021 -2.093743 -0.260502 24.000000
1.808807 -2.069158 -0.254117 19.000000
1.747403 -2.043375 -0.247769 11.000000
1.715490 -2.050869 -0.245573 24.000000
1.661510 -2.031012 -0.240196 27.000000
1.633095 -2.041248 -0.238403 32.000000
1.595483 -2.039343 -0.235339 28.000000
1.573267 -2.056641 -0.234467 34.000000
1.556776 -2.081755 -0.234572 33.000000
1.531137 -2.094621 -0.233248 26.000000
1.522716 -2.131497 -0.234604 21.000000
1.502371 -2.152035 -0.234165 26.000000
1.495728 -2.193046 -0.235936 26.000000
1.470355 -2.204273 -0.234438 27.000000
1.454482 -2.232704 -0.234863 26.000000
1.438175 -2.261068 -0.235276 28.000000
1.413547 -2.276665 -0.234291 26.000000
1.399081 -2.309058 -0.235124 25.000000
1.409343 -2.384227 -0.240179 9.000000
0.784142 1.342910 -0.123208 7.000000
0.778230 1.300034 -0.120466 14.000000
0.781860 1.274506 -0.119339 15.000000
0.808946 1.286998 -0.121793 15.000000
0.814768 1.265491 -0.121056 23.000000
0.833940 1.264873 -0.122275 14.000000
0.852501 1.264416 -0.123593 28.000000
0.854859 1.238626 -0.122393 20.000000
0.885519 1.253647 -0.125294 16.000000
0.881586 1.219686 -0.123268 21.000000
0.894765 1.210009 -0.123683 19.000000
0.907899 1.200148 -0.124098 20.000000
0.933044 1.205958 -0.126162 27.000000
0.946118 1.195686 -0.126582 18.000000
0.965320 1.193021 -0.127832 28.000000
0.971892 1.174721 -0.127422 21.000000
0.994292 1.175441 -0.129049 23.000000
1.000504 1.156965 -0.128635 23.000000
1.013012 1.146003 -0.129010 20.000000
1.028766 1.138551 -0.129853 28.000000
1.047887 1.134544 -0.131075 25.000000
1.070445 1.133870 -0.132725 24.000000
1.089638 1.129292 -0.133958 34.000000
1.101894 1.117275 -0.134342 22.000000
1.120644 1.112615 -0.135630 29.000000
1.118396 1.086397 -0.134253 22.000000
1.141025 1.084369 -0.135926 25.000000
1.160135 1.078568 -0.137126 38.000000
1.171829 1.065807 -0.137514 30.000000
1.194542 1.062832 -0.139154 26.000000
1.202344 1.046387 -0.139062 32.000000
1.247806 1.062212 -0.143325 27.000000
1.251697 1.042083 -0.142803 30.000000
1.259161 1.025167 -0.142715 24.000000
1.278047 1.017543 -0.143890 20.000000
1.293038 1.006538 -0.144680 29.000000
1.315518 1.001684 -0.146354 28.000000
1.334400 0.993142 -0.147542 23.000000
1.353208 0.984324 -0.148784 34.000000
1.400404 0.995423 -0.153085 26.000000
1.407106 0.977158 -0.152957 27.000000
1.409466 0.956135 -0.152380 29.000000
1.444761 0.957138 -0.155319 26.000000
1.463478 0.946671 -0.156532 31.000000
1.486310 0.938572 -0.158143 30.000000
1.504752 0.927801 -0.159418 29.000000
1.531841 0.921548 -0.161489 40.000000
1.546106 0.907196 -0.162213 29.000000
1.564583 0.895223 -0.163391 29.000000
1.582947 0.882895 -0.164571 28.000000
1.596819 0.867944 -0.165302 27.000000
1.614865 0.855340 -0.166543 32.000000
1.646232 0.849056 -0.169096 33.000000
1.673170 0.839941 -0.171144 24.000000
1.682178 0.821639 -0.171431 32.000000
1.727051 0.820312 -0.175312 29.000000
1.758323 0.812059 -0.177892 27.000000
1.771651 0.794865 -0.178587 27.000000
1.816677 0.791372 -0.182494 26.000000
1.829765 0.773452 -0.183196 27.000000
1.856410 0.761159 -0.185340 29.000000
1.878469 0.746382 -0.186905 27.000000
1.914402 0.736603 -0.189919 30.000000
1.936257 0.720880 -0.191492 26.000000
1.972024 0.710039 -0.194517 21.000000
1.984371 0.690090 -0.195237 29.000000
2.015245 0.676505 -0.197746 28.000000
2.069909 0.669810 -0.202577 30.000000
2.100808 0.654610 -0.205097 30.000000
2.122061 0.636034 -0.206760 29.000000
2.157555 0.621143 -0.209686 32.000000
2.183356 0.602978 -0.211754 30.000000
2.208993 0.584256 -0.213826 15.000000
2.244184 0.567556 -0.216834 25.000000
2.274411 0.548988 -0.219308 24.000000
2.333587 0.536369 -0.224588 24.000000
2.368418 0.517348 -0.227612 28.000000
2.398290 0.496610 -0.230099 29.000000
2.442627 0.478134 -0.233994 29.000000
2.506406 0.462422 -0.239766 29.000000
2.481821 0.429980 -0.237033 10.000000
2.574825 0.417291 -0.245625 32.000000
2.623522 0.395911 -0.250006 9.000000
2.681900 0.374946 -0.255249 9.000000
2.735172 0.352083 -0.260026 32.000000
2.812963 0.330967 -0.267240 32.000000
2.870883 0.306125 -0.272406 35.000000
2.928487 0.280097 -0.277662 57.000000
2.990893 0.253213 -0.283392 32.000000
2.993469 0.220641 -0.283484 33.000000
2.985742 0.187446 -0.282544 31.000000
2.982697 0.154633 -0.282166 28.000000
2.989135 0.122335 -0.282636 33.000000
2.990327 0.089780 -0.282636 29.000000
2.941293 0.056272 -0.277933 10.000000
2.961654 0.024332 -0.279814 8.000000
2.951789 -0.007872 -0.278874 6.000000
2.951518 -0.039994 -0.278783 8.000000
2.975857 -0.072816 -0.281134 7.000000
2.954954 -0.104505 -0.279163 7.000000
2.973575 -0.137601 -0.280951 8.000000
2.976811 -0.170278 -0.281330 7.000000
2.969834 -0.202296 -0.280769 9.000000
3.002198 -0.237436 -0.283963 22.000000
3.014395 -0.271455 -0.285278 26.000000
2.996382 -0.302703 -0.283686 9.000000
2.992874 -0.335291 -0.283594 7.000000
3.003911 -0.369702 -0.284814 8.000000
3.019471 -0.405005 -0.286595 16.000000
3.000117 -0.435730 -0.284911 20.000000
3.024701 -0.472961 -0.287624 31.000000
3.034175 -0.508273 -0.288745 33.000000
3.033417 -0.542154 -0.289023 34.000000
3.041950 -0.577905 -0.290234 68.000000
3.035496 -0.611028 -0.289949 70.000000
3.033627 -0.644997 -0.290130 95.000000
3.016781 -0.675713 -0.288914 95.000000
3.009201 -0.708593 -0.288725 92.000000
2.991670 -0.738897 -0.287512 83.000000
2.920887 -0.755096 -0.281104 37.000000
2.907667 -0.785606 -0.280363 39.000000
2.889405 -0.814385 -0.279160 62.000000
2.856505 -0.838839 -0.276571 34.000000
2.923470 -0.893043 -0.283596 21.000000
3.018030 -0.957940 -0.293370 18.000000
2.997995 -0.987723 -0.292157 10.000000
3.020141 -1.031394 -0.294991 10.000000
3.013391 -1.065918 -0.295060 10.000000
3.006410 -1.100152 -0.295029 10.000000
3.012969 -1.139871 -0.296469 12.000000
3.009607 -1.176372 -0.296990 10.000000
3.019721 -1.218466 -0.298878 12.000000
3.057015 -1.272040 -0.303398 18.000000
3.038436 -1.303359 -0.302435 11.000000
3.051375 -1.348465 -0.304759 19.000000
3.059212 -1.392002 -0.306519 31.000000
3.057600 -1.431294 -0.307364 35.000000
3.055335 -1.470983 -0.308204 87.000000
3.039124 -1.504339 -0.307684 71.000000
3.018164 -1.535126 -0.306714 95.000000
3.001251 -1.568017 -0.306091 95.000000
2.984235 -1.600287 -0.305469 66.000000
2.957973 -1.627961 -0.304053 70.000000
2.909619 -1.642996 -0.300300 35.000000
2.887289 -1.672240 -0.299341 32.000000
2.877451 -1.708813 -0.299619 46.000000
2.858584 -1.740190 -0.299004 36.000000
2.844045 -1.773382 -0.298730 45.000000
2.824636 -1.804395 -0.298114 50.000000
2.792212 -1.827022 -0.296172 32.000000
2.784587 -1.865805 -0.296882 33.000000
2.751727 -1.887749 -0.294843 34.000000
2.726898 -1.914943 -0.293790 32.000000
2.721945 -1.956276 -0.294828 38.000000
2.696470 -1.983105 -0.293774 26.000000
2.694529 -2.027508 -0.295237 26.000000
2.708368 -2.083457 -0.298325 28.000000
2.697189 -2.122216 -0.298893 17.000000
2.677730 -2.154776 -0.298590 18.000000
2.684812 -2.209261 -0.301200 17.000000
2.675775 -2.251379 -0.302176 14.000000
2.681242 -2.306612 -0.304753 14.000000
2.674595 -2.352312 -0.306136 9.000000
2.685894 -2.414749 -0.309532 9.000000
2.666680 -2.450696 -0.309499 9.000000
2.581736 -2.425185 -0.301819 9.000000
2.537080 -2.436140 -0.298835 13.000000
2.378801 -2.334599 -0.282357 9.000000
2.287338 -2.292595 -0.273445 10.000000
2.199598 -2.253217 -0.265005 12.000000
2.106085 -2.205071 -0.255872 12.000000
2.041168 -2.184357 -0.250031 10.000000
1.960117 -2.143995 -0.242146 18.000000
1.883482 -2.105832 -0.234808 10.000000
1.857188 -2.122500 -0.233617 10.000000
1.759513 -2.055638 -0.223378 10.000000
1.705070 -2.036487 -0.218451 10.000000
1.666999 -2.035752 -0.215676 20.000000
1.616807 -2.018791 -0.211287 19.000000
1.597864 -2.040216 -0.210901 21.000000
1.569508 -2.049600 -0.209378 28.000000
1.547139 -2.066594 -0.208588 24.000000
1.530499 -2.091394 -0.208679 20.000000
1.510627 -2.112031 -0.208286 14.000000
1.504703 -2.152919 -0.209880 20.000000
1.486925 -2.177395 -0.209869 24.000000
1.464404 -2.192651 -0.208981 19.000000
1.443234 -2.212727 -0.208568 21.000000
1.429845 -2.245153 -0.209246 22.000000
1.413296 -2.273253 -0.209602 16.000000
1.398893 -2.305623 -0.210338 20.000000
1.401731 -2.367916 -0.213688 7.000000
0.765334 1.308894 -0.106365 6.000000
0.764143 1.274785 -0.104675 10.000000
0.795403 1.296632 -0.107599 19.000000
0.804150 1.279437 -0.107263 19.000000
0.812621 1.262220 -0.106969 14.000000
0.848222 1.286573 -0.110189 25.000000
0.851018 1.260703 -0.109181 16.000000
0.873159 1.263657 -0.110631 19.000000
0.883955 1.249998 -0.110647 23.000000
0.891600 1.232221 -0.110298 10.000000
0.907924 1.226456 -0.111080 24.000000
0.915164 1.208513 -0.110725 21.000000
0.943512 1.218206 -0.112876 21.000000
0.953571 1.203924 -0.112887 26.000000
0.960312 1.185694 -0.112527 20.000000
0.982693 1.186710 -0.114008 24.000000
1.005231 1.187329 -0.115448 26.000000
1.018085 1.176284 -0.115829 11.000000
1.014277 1.146425 -0.114301 33.000000
1.030035 1.138974 -0.115049 25.000000
1.045779 1.131309 -0.115752 27.000000
1.075159 1.137972 -0.117961 32.000000
1.087472 1.126138 -0.118296 26.000000
1.103192 1.117756 -0.119009 35.000000
1.111764 1.102133 -0.118967 28.000000
1.159481 1.124577 -0.123052 19.000000
1.145942 1.088236 -0.120781 33.000000
1.168750 1.085840 -0.122266 34.000000
1.184207 1.076302 -0.122942 33.000000
1.192139 1.060010 -0.122852 35.000000
1.211185 1.053418 -0.123963 34.000000
1.237771 1.053023 -0.125802 36.000000
1.253044 1.042582 -0.126487 37.000000
1.287570 1.047688 -0.129113 24.000000
1.283299 1.021097 -0.127863 37.000000
1.302262 1.013112 -0.128893 30.000000
1.317189 1.001836 -0.129586 30.000000
1.344082 0.999243 -0.131404 37.000000
1.358932 0.987408 -0.132103 33.000000
1.369628 0.972495 -0.132361 41.000000
1.388102 0.963473 -0.133456 33.000000
1.423304 0.964996 -0.136134 25.000000
1.429572 0.946609 -0.136002 35.000000
1.439807 0.930914 -0.136265 31.000000
1.479389 0.933736 -0.139252 35.000000
1.506486 0.927964 -0.141109 55.000000
1.520779 0.914010 -0.141779 36.000000
1.534910 0.899854 -0.142449 43.000000
1.561968 0.892970 -0.144266 36.000000
1.575796 0.878542 -0.144941 26.000000
1.589620 0.863687 -0.145619 33.000000
1.607791 0.850957 -0.146644 33.000000
1.630215 0.840207 -0.148074 32.000000
1.657073 0.831290 -0.149910 52.000000
1.679478 0.819740 -0.151348 36.000000
1.719804 0.816331 -0.154406 36.000000
1.764688 0.814444 -0.157878 36.000000
1.773436 0.795163 -0.158116 22.000000
1.800282 0.783719 -0.159918 35.000000
1.827061 0.771817 -0.161785 46.000000
1.844543 0.755676 -0.162781 32.000000
1.875757 0.744914 -0.165063 35.000000
1.911637 0.735129 -0.167696 34.000000
1.924209 0.715983 -0.168293 32.000000
1.959949 0.705107 -0.170935 32.000000
1.991010 0.692048 -0.173238 17.000000
2.003157 0.671946 -0.173842 36.000000
2.062493 0.666943 -0.178484 52.000000
2.083802 0.649020 -0.179916 37.000000
2.109846 0.632016 -0.181761 35.000000
2.150111 0.618663 -0.184777 37.000000
2.180705 0.601930 -0.187042 35.000000
2.230434 0.589559 -0.190891 35.000000
2.246384 0.567840 -0.191929 10.000000
2.296010 0.553805 -0.195716 36.000000
2.316437 0.532200 -0.197173 34.000000
2.390269 0.521822 -0.203035 35.000000
2.410376 0.498854 -0.204426 47.000000
2.449882 0.479320 -0.207476 44.000000
2.474528 0.456254 -0.209286 33.000000
2.523569 0.437013 -0.213095 42.000000
2.567466 0.415857 -0.216571 17.000000
2.601408 0.392358 -0.219141 9.000000
2.659799 0.371665 -0.223788 8.000000
2.722967 0.350344 -0.228855 9.000000
2.790998 0.328231 -0.234340 29.000000
2.838945 0.302605 -0.238167 52.000000
2.891693 0.276395 -0.242413 36.000000
2.944188 0.249195 -0.246661 23.000000
3.026229 0.222930 -0.253316 43.000000
3.058296 0.191906 -0.255906 95.000000
3.060173 0.158592 -0.255906 95.000000
3.051811 0.124871 -0.255074 72.000000
3.052934 0.091572 -0.255074 67.000000
3.053776 0.058367 -0.255074 76.000000
3.064208 0.025243 -0.255906 24.000000
3.034406 -0.008085 -0.253409 9.000000
3.024163 -0.040938 -0.252484 8.000000
2.993629 -0.073181 -0.249989 9.000000
2.992711 -0.105736 -0.249897 11.000000
3.026177 -0.139902 -0.252715 28.000000
3.054354 -0.174543 -0.255209 68.000000
3.047322 -0.207464 -0.254700 35.000000
3.025021 -0.239006 -0.252945 24.000000
3.091710 -0.278152 -0.258664 95.000000
3.083520 -0.311304 -0.258059 62.000000
3.084960 -0.345456 -0.258379 63.000000
3.095899 -0.380743 -0.259432 91.000000
3.096539 -0.415028 -0.259751 95.000000
3.101714 -0.450136 -0.260388 98.000000
3.096627 -0.483920 -0.260196 62.000000
3.056756 -0.511753 -0.257110 54.000000
3.060871 -0.546724 -0.257747 86.000000
3.030300 -0.575307 -0.255492 70.000000
3.004337 -0.604340 -0.253654 35.000000
2.978084 -0.632760 -0.251724 25.000000
2.941916 -0.658580 -0.249068 23.000000
2.978185 -0.700793 -0.252492 79.000000
2.946219 -0.727239 -0.250250 37.000000
2.904455 -0.750387 -0.247098 30.000000
2.900907 -0.783285 -0.247232 82.000000
2.863479 -0.806555 -0.244499 57.000000
2.849771 -0.836306 -0.243817 62.000000
2.869182 -0.876049 -0.245995 32.000000
3.040039 -0.964258 -0.261133 19.000000
3.095663 -1.019181 -0.266546 26.000000
3.098534 -1.057640 -0.267468 15.000000
3.082307 -1.089363 -0.266660 10.000000
3.107738 -1.136589 -0.269507 26.000000
3.123143 -1.180904 -0.271635 28.000000
3.114801 -1.216658 -0.271631 31.000000
3.119980 -1.257694 -0.272736 32.000000
3.106075 -1.291580 -0.272427 35.000000
3.119345 -1.337144 -0.274433 77.000000
3.095575 -1.367097 -0.273212 62.000000
3.066838 -1.394580 -0.271489 29.000000
3.069836 -1.435931 -0.272577 95.000000
3.040488 -1.462860 -0.270961 89.000000
3.037878 -1.502545 -0.271747 98.000000
3.012391 -1.531024 -0.270430 95.000000
2.977958 -1.554593 -0.268321 80.000000
2.973961 -1.594053 -0.269102 98.000000
2.947769 -1.621685 -0.267792 61.000000
2.899872 -1.636058 -0.264403 28.000000
2.886145 -1.670152 -0.264288 62.000000
2.854910 -1.693861 -0.262595 35.000000
2.849089 -1.732728 -0.263268 83.000000
2.817309 -1.755851 -0.261477 54.000000
2.806403 -1.791907 -0.261753 55.000000
2.799246 -1.830670 -0.262314 85.000000
2.774934 -1.858407 -0.261412 33.000000
2.733932 -1.874574 -0.258852 13.000000
2.734245 -1.918010 -0.260185 35.000000
2.749631 -1.973924 -0.263059 29.000000
2.768048 -2.033378 -0.266302 36.000000
2.741775 -2.060557 -0.265286 30.000000
2.754669 -2.117822 -0.268011 26.000000
2.754890 -2.166303 -0.269675 26.000000
2.738846 -2.202587 -0.269797 10.000000
2.772510 -2.279883 -0.274768 8.000000
2.770246 -2.329346 -0.276393 9.000000
2.767339 -2.379089 -0.277896 9.000000
2.775019 -2.438869 -0.280521 9.000000
2.774183 -2.492382 -0.282372 9.000000
2.746791 -2.522514 -0.281687 9.000000
2.646465 -2.484171 -0.273267 9.000000
2.530161 -2.425787 -0.263024 12.000000
2.389598 -2.341579 -0.250335 9.000000
2.325247 -2.328772 -0.245526 16.000000
2.223109 -2.275484 -0.236563 16.000000
2.160287 -2.259978 -0.231815 19.000000
2.057264 -2.199656 -0.222574 19.000000
1.989449 -2.174226 -0.217062 16.000000
1.919078 -2.143764 -0.211216 23.000000
1.846378 -2.108272 -0.205125 16.000000
1.781217 -2.079022 -0.199709 10.000000
1.736094 -2.071618 -0.196419 21.000000
1.685063 -2.055681 -0.192507 21.000000
1.625184 -2.027206 -0.187536 29.000000
1.593852 -2.033080 -0.185824 34.000000
1.568687 -2.046353 -0.184756 32.000000
1.555334 -2.075287 -0.185193 36.000000
1.520931 -2.076015 -0.183060 24.000000
1.512852 -2.112747 -0.184118 18.000000
1.501236 -2.145390 -0.184811 33.000000
1.475109 -2.157534 -0.183819 28.000000
1.468223 -2.198332 -0.185196 32.000000
1.433305 -2.197472 -0.183076 25.000000
1.422784 -2.233998 -0.184087 26.000000
1.403744 -2.257865 -0.183967 26.000000
1.403877 -2.310546 -0.186246 23.000000
1.399002 -2.360092 -0.188240 9.000000
0.773356 1.322607 -0.093642 7.000000
0.774861 1.292679 -0.092486 13.000000
0.788824 1.284200 -0.092854 26.000000
0.805399 1.279761 -0.093485 23.000000
0.816519 1.266689 -0.093499 28.000000
0.833000 1.261914 -0.094179 26.000000
0.843845 1.248626 -0.094191 22.000000
0.874380 1.263986 -0.096391 29.000000
0.888057 1.254399 -0.096720 23.000000
0.884028 1.220424 -0.095158 16.000000
0.900178 1.214756 -0.095797 28.000000
0.928427 1.224744 -0.097707 26.000000
0.932508 1.202715 -0.097081 32.000000
0.945493 1.192523 -0.097407 25.000000
0.964668 1.189897 -0.098373 29.000000
0.987103 1.190881 -0.099619 29.000000
1.003195 1.183856 -0.100272 28.000000
1.002940 1.157761 -0.099263 20.000000
1.008833 1.139282 -0.098943 30.000000
1.031210 1.139303 -0.100198 35.000000
1.053735 1.139011 -0.101458 33.000000
1.066073 1.127432 -0.101743 33.000000
1.085203 1.122886 -0.102684 33.000000
1.100888 1.114543 -0.103300 31.000000
1.120051 1.109491 -0.104247 35.000000
1.128474 1.093723 -0.104205 22.000000
1.143533 1.085189 -0.104874 35.000000
1.162610 1.079393 -0.105780 51.000000
1.178045 1.069986 -0.106405 57.000000
1.193359 1.060351 -0.106982 55.000000
1.216129 1.057034 -0.108281 58.000000
1.235214 1.050140 -0.109200 42.000000
1.258127 1.046171 -0.110458 35.000000
1.254007 1.019718 -0.109358 23.000000
1.276745 1.015289 -0.110620 32.000000
1.307463 1.016578 -0.112565 42.000000
1.326398 1.008228 -0.113498 40.000000
1.341309 0.996678 -0.114093 34.000000
1.356182 0.984836 -0.114690 45.000000
1.362778 0.967081 -0.114553 36.000000
1.377305 0.954998 -0.115151 35.000000
1.391791 0.942670 -0.115700 24.000000
1.426934 0.943962 -0.118021 42.000000
1.457877 0.942164 -0.120007 66.000000
1.463853 0.923519 -0.119874 48.000000
1.478055 0.910091 -0.120432 37.000000
1.513585 0.909307 -0.122725 49.000000
1.531969 0.897768 -0.123635 37.000000
1.554684 0.888407 -0.124896 32.000000
1.572985 0.876280 -0.125812 26.000000
1.595555 0.866233 -0.127025 37.000000
1.613704 0.853401 -0.127946 40.000000
1.631787 0.840376 -0.128870 64.000000
1.640828 0.822519 -0.129038 34.000000
1.671943 0.815767 -0.131019 47.000000
1.721262 0.816739 -0.134413 38.000000
1.748179 0.806326 -0.135998 34.000000
1.743183 0.781125 -0.135116 29.000000
1.779039 0.774011 -0.137411 35.000000
1.814917 0.766241 -0.139711 36.000000
1.836960 0.752080 -0.140954 37.000000
1.877364 0.745161 -0.143619 35.000000
1.899364 0.730012 -0.144869 35.000000
1.939867 0.721450 -0.147545 35.000000
1.956978 0.703675 -0.148383 31.000000
1.978683 0.687268 -0.149643 35.000000
2.004839 0.672205 -0.151262 36.000000
2.054794 0.664141 -0.154605 35.000000
2.080911 0.647672 -0.156167 45.000000
2.102179 0.629291 -0.157373 35.000000
2.132790 0.613423 -0.159365 33.000000
2.163345 0.596832 -0.161293 40.000000
2.193839 0.579581 -0.163224 32.000000
2.243464 0.566760 -0.166594 33.000000
2.278570 0.549347 -0.168892 34.000000
2.313542 0.531302 -0.171193 34.000000
2.382547 0.519921 -0.175943 37.000000
2.397835 0.496050 -0.176813 39.000000
2.437340 0.476602 -0.179409 38.000000
2.476685 0.456408 -0.182085 40.000000
2.520773 0.436319 -0.185048 26.000000
2.559851 0.414423 -0.187653 46.000000
2.579009 0.388802 -0.188815 9.000000
2.627529 0.366919 -0.192145 8.000000
2.705537 0.347885 -0.197646 8.000000
2.733889 0.321332 -0.199537 8.000000
2.791805 0.297410 -0.203600 17.000000
2.869274 0.274201 -0.209024 33.000000
3.041043 0.257272 -0.221413 9.000000
3.043658 0.224121 -0.221413 26.000000
3.100741 0.194402 -0.225393 81.000000
3.127542 0.162040 -0.227297 95.000000
3.134058 0.128130 -0.227659 95.000000
3.125337 0.093759 -0.226935 73.000000
3.136170 0.059890 -0.227659 71.000000
3.136554 0.025818 -0.227659 91.000000
3.027035 -0.008058 -0.219604 14.000000
3.056675 -0.041343 -0.221775 24.000000
3.070976 -0.075007 -0.222860 32.000000
3.084894 -0.108903 -0.223851 37.000000
3.093534 -0.142894 -0.224480 44.000000
3.091829 -0.176532 -0.224480 35.000000
3.089744 -0.210171 -0.224385 36.000000
3.127052 -0.246951 -0.227179 42.000000
3.119206 -0.280480 -0.226722 66.000000
3.125871 -0.315404 -0.227348 77.000000
3.127270 -0.349892 -0.227517 81.000000
3.128176 -0.384488 -0.227781 95.000000
3.128779 -0.419192 -0.227948 95.000000
3.109241 -0.450948 -0.226772 95.000000
3.094291 -0.483246 -0.225860 86.000000
3.034820 -0.507827 -0.221810 31.000000
3.014349 -0.538149 -0.220544 19.000000
2.993654 -0.568058 -0.219280 13.000000
2.953089 -0.593715 -0.216583 9.000000
2.931819 -0.622587 -0.215324 9.000000
2.924941 -0.654501 -0.215141 10.000000
2.941970 -0.691848 -0.216653 50.000000
2.939137 -0.725036 -0.216825 63.000000
2.868305 -0.740597 -0.211910 35.000000
2.889038 -0.779572 -0.213867 67.000000
2.832335 -0.797458 -0.210123 74.000000
2.804459 -0.822453 -0.208340 53.000000
2.838270 -0.865953 -0.211359 35.000000
3.037921 -0.963141 -0.226696 18.000000
3.107832 -1.022598 -0.232427 21.000000
3.153266 -1.075450 -0.236373 24.000000
3.169556 -1.119665 -0.238187 25.000000
3.157215 -1.154015 -0.237879 32.000000
3.167893 -1.197181 -0.239229 69.000000
3.163923 -1.235206 -0.239622 87.000000
3.145892 -1.267322 -0.238855 95.000000
3.122673 -1.297631 -0.237842 95.000000
3.103812 -1.329600 -0.237078 88.000000
3.084683 -1.361366 -0.236418 89.000000
3.060644 -1.390763 -0.235308 58.000000
3.027247 -1.415530 -0.233502 83.000000
3.016203 -1.450509 -0.233441 95.000000
3.018322 -1.491703 -0.234421 95.000000
3.010840 -1.529076 -0.234702 103.000000
2.971889 -1.550185 -0.232559 100.000000
2.959265 -1.584840 -0.232494 95.000000
2.937436 -1.614683 -0.231636 95.000000
2.889284 -1.629420 -0.228817 42.000000
2.880061 -1.665872 -0.229098 71.000000
2.857450 -1.694674 -0.228246 95.000000
2.830328 -1.720588 -0.227156 61.000000
2.828318 -1.761838 -0.228015 72.000000
2.796336 -1.784570 -0.226483 35.000000
2.806391 -1.833501 -0.228354 32.000000
2.815214 -1.883475 -0.230215 31.000000
2.798608 -1.916858 -0.230035 28.000000
2.793988 -1.958818 -0.230867 31.000000
2.792649 -2.003731 -0.232029 34.000000
2.782741 -2.042971 -0.232405 27.000000
2.780194 -2.088256 -0.233553 17.000000
2.781063 -2.136804 -0.235027 10.000000
2.788952 -2.191715 -0.237051 9.000000
2.811532 -2.259596 -0.240500 9.000000
2.802127 -2.302825 -0.241165 8.000000
2.807391 -2.359007 -0.243146 9.000000
2.804190 -2.409132 -0.244452 9.000000
2.807721 -2.465885 -0.246406 9.000000
2.821588 -2.533063 -0.249329 10.000000
2.775376 -2.546927 -0.246997 9.000000
2.670964 -2.505429 -0.239455 9.000000
2.543651 -2.436786 -0.229566 10.000000
2.427808 -2.377203 -0.220814 10.000000
2.341872 -2.343494 -0.214592 21.000000
2.249961 -2.301139 -0.207861 23.000000
2.173027 -2.271464 -0.202354 24.000000
2.083437 -2.225801 -0.195692 25.000000
2.015294 -2.200526 -0.190890 24.000000
1.931357 -2.155441 -0.184525 24.000000
1.868343 -2.131300 -0.180100 23.000000
1.789808 -2.087185 -0.174121 12.000000
1.741368 -2.075938 -0.171013 23.000000
1.690261 -2.060026 -0.167608 24.000000
1.639744 -2.043331 -0.164223 28.000000
1.598988 -2.037481 -0.161712 36.000000
1.570659 -2.046827 -0.160537 35.000000
1.545417 -2.059795 -0.159675 34.000000
1.514123 -2.064415 -0.158121 30.000000
1.500381 -2.092943 -0.158416 22.000000
1.483353 -2.117259 -0.158476 33.000000
1.474369 -2.153896 -0.159368 32.000000
1.450907 -2.169776 -0.158729 31.000000
1.438201 -2.202132 -0.159300 34.000000
1.416921 -2.221860 -0.159038 29.000000
1.398027 -2.245642 -0.158994 34.000000
1.381298 -2.273562 -0.159243 30.000000
1.389661 -2.344261 -0.162377 9.000000
0.764435 1.305559 -0.078829 7.000000
0.763165 1.271504 -0.077540 10.000000
0.787406 1.280132 -0.078860 21.000000
0.795907 1.263049 -0.078610 24.000000
0.817671 1.266920 -0.079721 26.000000
0.831403 1.257934 -0.079998 23.000000
0.847795 1.252945 -0.080540 22.000000
0.867027 1.251861 -0.081351 27.000000
0.886298 1.250560 -0.082165 24.000000
0.879272 1.212524 -0.080566 13.000000
0.892410 1.202911 -0.080841 25.000000
0.920501 1.213047 -0.082468 25.000000
0.933578 1.202948 -0.082700 29.000000
0.949713 1.196667 -0.083252 29.000000
0.965746 1.190131 -0.083805 25.000000
0.985003 1.187228 -0.084586 29.000000
1.001057 1.180238 -0.085144 25.000000
1.004018 1.157996 -0.084554 17.000000
1.006638 1.135779 -0.084006 32.000000
1.032291 1.139538 -0.085347 34.000000
1.054304 1.139675 -0.086463 34.000000
1.066642 1.128096 -0.086700 35.000000
1.075417 1.112833 -0.086658 33.000000
1.090987 1.104559 -0.087175 32.000000
1.117131 1.106653 -0.088536 32.000000
1.125563 1.090922 -0.088495 22.000000
1.141019 1.081995 -0.089017 36.000000
1.156407 1.072845 -0.089540 35.000000
1.175420 1.066874 -0.090301 39.000000
1.194434 1.060596 -0.091113 38.000000
1.213494 1.054057 -0.091879 41.000000
1.228697 1.043974 -0.092411 68.000000
1.251550 1.040040 -0.093468 46.000000
1.255095 1.020015 -0.093142 31.000000
1.281750 1.018644 -0.094492 39.000000
1.300694 1.010706 -0.095270 33.000000
1.327520 1.008534 -0.096628 47.000000
1.342433 0.996934 -0.097122 42.000000
1.345191 0.976348 -0.096746 36.000000
1.359780 0.964500 -0.097240 49.000000
1.374330 0.952462 -0.097736 36.000000
1.392922 0.942979 -0.098525 24.000000
1.411431 0.933212 -0.099265 49.000000
1.450871 0.936749 -0.101526 36.000000
1.461007 0.920858 -0.101684 55.000000
1.470933 0.904861 -0.101895 55.000000
1.510441 0.907062 -0.104172 55.000000
1.524551 0.893048 -0.104629 60.000000
1.547222 0.883784 -0.105679 42.000000
1.565476 0.871754 -0.106490 24.000000
1.583616 0.859369 -0.107249 37.000000
1.610520 0.851403 -0.108604 58.000000
1.624147 0.836144 -0.109070 52.000000
1.655449 0.829564 -0.110729 74.000000
1.677795 0.818068 -0.111796 50.000000
1.709132 0.810441 -0.113406 60.000000
1.735995 0.800176 -0.114778 38.000000
1.735475 0.777162 -0.114353 19.000000
1.762038 0.766405 -0.115730 36.000000
1.788654 0.754958 -0.117051 37.000000
1.829059 0.748663 -0.119339 34.000000
1.869569 0.741605 -0.121571 52.000000
1.896137 0.728409 -0.122902 35.000000
1.927352 0.716423 -0.124601 35.000000
1.958505 0.703866 -0.126240 32.000000
1.961299 0.680913 -0.126064 24.000000
1.992195 0.667641 -0.127708 41.000000
2.027820 0.655134 -0.129659 55.000000
2.072914 0.644907 -0.132220 41.000000
2.098942 0.628062 -0.133570 52.000000
2.120030 0.609355 -0.134618 36.000000
2.155371 0.594385 -0.136582 34.000000
2.185786 0.577310 -0.138176 32.000000
2.240325 0.565680 -0.141367 24.000000
2.270588 0.547152 -0.142965 36.000000
2.305557 0.529214 -0.144943 35.000000
2.340454 0.510498 -0.146851 36.000000
2.384897 0.493168 -0.149447 43.000000
2.419497 0.472924 -0.151360 37.000000
2.463811 0.453850 -0.153888 47.000000
2.493147 0.431293 -0.155498 33.000000
2.551902 0.412987 -0.158950 29.000000
2.570975 0.387475 -0.159951 8.000000
2.594799 0.362251 -0.161259 8.000000
2.667941 0.342961 -0.165559 8.000000
2.730954 0.320918 -0.169329 8.000000
2.783942 0.296439 -0.172488 8.000000
2.826680 0.270018 -0.174947 13.000000
3.063175 0.259048 -0.189492 9.000000
3.070784 0.226046 -0.189800 10.000000
3.092966 0.193873 -0.191030 29.000000
3.149778 0.163072 -0.194414 95.000000
3.176252 0.129857 -0.195952 95.000000
3.167539 0.094955 -0.195337 81.000000
3.153346 0.060272 -0.194414 31.000000
3.138857 0.025818 -0.193491 10.000000
3.104021 -0.008162 -0.191338 8.000000
3.113811 -0.042085 -0.191858 20.000000
3.123122 -0.076225 -0.192473 35.000000
3.147008 -0.111014 -0.193914 34.000000
3.170586 -0.146442 -0.195450 55.000000
3.178804 -0.181462 -0.195968 62.000000
3.176565 -0.216022 -0.195870 35.000000
3.179009 -0.250877 -0.196177 32.000000
3.176182 -0.285491 -0.196080 95.000000
3.157970 -0.318408 -0.195062 95.000000
3.149323 -0.352207 -0.194659 95.000000
3.140397 -0.385802 -0.194159 98.000000
3.106365 -0.415977 -0.192225 66.000000
3.076975 -0.446127 -0.190600 26.000000
3.047282 -0.475646 -0.188882 11.000000
3.017296 -0.504629 -0.187260 8.000000
2.977293 -0.531230 -0.184937 9.000000
2.946859 -0.558944 -0.183319 9.000000
2.921051 -0.587016 -0.181917 9.000000
2.924256 -0.620698 -0.182343 10.000000
2.897829 -0.648058 -0.180944 18.000000
2.905231 -0.682897 -0.181674 25.000000
2.883121 -0.710793 -0.180581 10.000000
2.822067 -0.728396 -0.177064 9.000000
2.838140 -0.765549 -0.178400 57.000000
2.810474 -0.790789 -0.176921 57.000000
2.801727 -0.821228 -0.176743 53.000000
2.797395 -0.853123 -0.176866 61.000000
2.992587 -0.948260 -0.189556 25.000000
3.181250 -1.046287 -0.202009 36.000000
3.231194 -1.101418 -0.205609 55.000000
3.162612 -1.116548 -0.201694 27.000000
3.187811 -1.164600 -0.203888 92.000000
3.170276 -1.197388 -0.203277 95.000000
3.147819 -1.228158 -0.202369 95.000000
3.120397 -1.256757 -0.201163 91.000000
3.106616 -1.290592 -0.200855 98.000000
3.087835 -1.322360 -0.200249 95.000000
3.064325 -1.351399 -0.199346 94.000000
3.017565 -1.370229 -0.196862 50.000000
3.011613 -1.407181 -0.197150 95.000000
2.991668 -1.437742 -0.196549 95.000000
2.984788 -1.474634 -0.196733 98.000000
2.968606 -1.506999 -0.196428 98.000000
2.952017 -1.539262 -0.196021 98.000000
2.935122 -1.571322 -0.195715 98.000000
2.909070 -1.598370 -0.194723 88.000000
2.882820 -1.625026 -0.193834 34.000000
2.869336 -1.658885 -0.193721 70.000000
2.859686 -1.695182 -0.193898 37.000000
2.854193 -1.733443 -0.194261 35.000000
2.856396 -1.777663 -0.195301 37.000000
2.870527 -1.830086 -0.197203 35.000000
2.858697 -1.866764 -0.197364 34.000000
