x y z intensity
0.768890 -0.123199 -0.627411 100.000000
0.767517 -0.133118 -0.627075 95.000000
0.762222 -0.142321 -0.623515 100.000000
0.756881 -0.151394 -0.619928 100.000000
0.751255 -0.160399 -0.616527 100.000000
0.749391 -0.170139 -0.616166 103.000000
0.755268 -0.181613 -0.621784 103.000000
0.798655 -0.202964 -0.658795 100.000000
0.868115 -0.232506 -0.717522 100.000000
0.861825 -0.242677 -0.713738 36.000000
0.862711 -0.255002 -0.716363 91.000000
0.860008 -0.266162 -0.715556 100.000000
0.860681 -0.278563 -0.718103 95.000000
0.861256 -0.291027 -0.720540 98.000000
0.854583 -0.300805 -0.716412 98.000000
0.851234 -0.311908 -0.715636 80.000000
1.324343 -0.543645 -1.123781 15.000000
1.325868 -0.563889 -1.128336 20.000000
1.333865 -0.587610 -1.139369 26.000000
1.327203 -0.605055 -1.137958 22.000000
1.324563 -0.623843 -1.139052 24.000000
1.324760 -0.644623 -1.143599 22.000000
1.317646 -0.661925 -1.141891 24.000000
1.310474 -0.679113 -1.140070 19.000000
1.313040 -0.702074 -1.147805 14.000000
1.305524 -0.719171 -1.145797 24.000000
1.294384 -0.734196 -1.140690 26.000000
1.299805 -0.759319 -1.151122 25.000000
1.291825 -0.776205 -1.148809 23.000000
1.279764 -0.791172 -1.143875 19.000000
1.267577 -0.805934 -1.138835 16.000000
1.272015 -0.831345 -1.148825 19.000000
1.269517 -0.852598 -1.152694 10.000000
1.263516 -0.871582 -1.153418 13.000000
1.260555 -0.892849 -1.157010 20.000000
1.254195 -0.911814 -1.157528 18.000000
1.254039 -0.935486 -1.163942 26.000000
1.244101 -0.951910 -1.161264 20.000000
1.239595 -0.973600 -1.164946 20.000000
1.232503 -0.992395 -1.165100 15.000000
1.227504 -1.014080 -1.168558 10.000000
1.220037 -1.032720 -1.168495 16.000000
1.226868 -1.064991 -1.183562 21.000000
1.218113 -1.084120 -1.183739 15.000000
1.221086 -1.114131 -1.195562 22.000000
1.203764 -1.124529 -1.186294 19.000000
1.191497 -1.140636 -1.183320 16.000000
1.193628 -1.170863 -1.194757 21.000000
1.169405 -1.175304 -1.179962 9.000000
1.176630 -1.211501 -1.197035 16.000000
1.171095 -1.236633 -1.202782 20.000000
1.155083 -1.249346 -1.196470 18.000000
1.152731 -1.276932 -1.204449 23.000000
1.150059 -1.304750 -1.212297 17.000000
1.143210 -1.330010 -1.217552 17.000000
1.131846 -1.348472 -1.216616 18.000000
1.106129 -1.351461 -1.201881 9.000000
1.115205 -1.395344 -1.223428 13.000000
1.099480 -1.410805 -1.219795 18.000000
1.092395 -1.435482 -1.224121 16.000000
1.088773 -1.467286 -1.234391 19.000000
1.072421 -1.482561 -1.230488 17.000000
1.069200 -1.513934 -1.240084 16.000000
1.064188 -1.546046 -1.249926 18.000000
1.049374 -1.564509 -1.248559 9.000000
1.041196 -1.593245 -1.255364 10.000000
0.844688 1.328945 -1.017838 29.000000
0.868387 1.330976 -1.032164 21.000000
0.859664 1.283865 -1.008252 21.000000
0.838222 1.220008 -0.970454 37.000000
0.632759 0.875216 -0.714566 36.000000
0.641651 0.866679 -0.717056 35.000000
0.656244 0.864292 -0.724823 43.000000
0.658149 0.845303 -0.718618 38.000000
0.664264 0.833164 -0.718185 35.000000
0.678800 0.830321 -0.725829 34.000000
0.674106 0.805300 -0.714065 30.000000
0.683137 0.795920 -0.716042 81.000000
0.691469 0.786735 -0.718212 95.000000
0.694792 0.771004 -0.714402 69.000000
0.708484 0.767705 -0.722165 92.000000
0.710942 0.752239 -0.718517 93.000000
0.722372 0.745342 -0.723105 95.000000
0.721626 0.726891 -0.716476 65.000000
0.697278 0.685644 -0.686775 26.000000
0.716438 0.687590 -0.700086 95.000000
0.714917 0.669617 -0.693164 95.000000
0.725177 0.662772 -0.697781 95.000000
0.729309 0.650317 -0.696533 83.000000
0.726738 0.632786 -0.689671 72.000000
0.739837 0.628279 -0.697059 95.000000
0.743641 0.615736 -0.695668 62.000000
0.734240 0.593273 -0.682724 52.000000
0.712202 0.560889 -0.657686 98.000000
0.718047 0.551523 -0.659224 98.000000
0.721000 0.539466 -0.657540 100.000000
0.726683 0.529972 -0.658969 98.000000
0.732297 0.520445 -0.660364 95.000000
0.737844 0.510781 -0.661725 98.000000
0.743322 0.501083 -0.663018 95.000000
0.728554 0.478065 -0.646404 77.000000
0.754041 0.481415 -0.665502 98.000000
0.762686 0.473594 -0.669648 100.000000
0.767881 0.463511 -0.670742 100.000000
0.762621 0.447321 -0.662804 100.000000
0.763803 0.435428 -0.661081 100.000000
0.772131 0.427290 -0.665030 103.000000
0.776616 0.417241 -0.666177 98.000000
0.770431 0.401598 -0.658198 95.000000
0.753367 0.380808 -0.641085 95.000000
0.761016 0.372724 -0.645084 100.000000
0.761454 0.361075 -0.642961 98.000000
0.765401 0.351144 -0.643802 98.000000
0.761961 0.337930 -0.638498 98.000000
0.765710 0.327965 -0.639235 98.000000
0.761782 0.315066 -0.634067 86.000000
0.761373 0.303760 -0.631872 81.000000
0.768511 0.295198 -0.635464 98.000000
0.767943 0.283892 -0.633167 100.000000
0.767251 0.272619 -0.630800 103.000000
0.773944 0.263930 -0.634493 100.000000
0.769063 0.251558 -0.629176 103.000000
0.771847 0.241548 -0.629708 100.000000
0.774537 0.231538 -0.630146 100.000000
0.773156 0.220479 -0.627726 95.000000
0.771658 0.209486 -0.625206 86.000000
0.773857 0.199543 -0.625733 100.000000
0.779817 0.190472 -0.629282 100.000000
0.778070 0.179533 -0.626600 100.000000
0.776179 0.168631 -0.623853 98.000000
0.781725 0.159461 -0.627468 100.000000
0.779692 0.148596 -0.624592 100.000000
0.788937 0.139951 -0.631150 95.000000
0.782651 0.128531 -0.625301 98.000000
0.784038 0.118452 -0.625579 103.000000
0.785333 0.108373 -0.625794 103.000000
0.794136 0.099267 -0.632395 100.000000
0.783561 0.087747 -0.623156 103.000000
0.788323 0.078074 -0.626534 105.000000
0.789093 0.067933 -0.626719 103.000000
0.778073 0.056934 -0.617563 98.000000
0.766941 0.046237 -0.608313 98.000000
0.767479 0.036397 -0.608313 98.000000
0.759914 0.026257 -0.602283 103.000000
0.767928 0.016688 -0.608612 100.000000
0.764129 0.006784 -0.605566 98.000000
0.764159 -0.003035 -0.605537 100.000000
0.768018 -0.012890 -0.608582 98.000000
0.810994 -0.024037 -0.642611 98.000000
0.806856 -0.034262 -0.639286 100.000000
0.802470 -0.044418 -0.636152 95.000000
0.797996 -0.054443 -0.632986 98.000000
0.793433 -0.064367 -0.629729 98.000000
0.792721 -0.074558 -0.629512 103.000000
0.791916 -0.084718 -0.629233 100.000000
0.786936 -0.094441 -0.626010 105.000000
0.785980 -0.104520 -0.625609 103.000000
0.784778 -0.114630 -0.625394 103.000000
0.775696 -0.123474 -0.618896 103.000000
0.785937 -0.135424 -0.627839 92.000000
0.776753 -0.144088 -0.621255 103.000000
0.771149 -0.153320 -0.617920 100.000000
0.781074 -0.165656 -0.626662 100.000000
0.794538 -0.179186 -0.638631 95.000000
0.872882 -0.208636 -0.702968 100.000000
0.889642 -0.224695 -0.717815 100.000000
0.890997 -0.237156 -0.720288 95.000000
0.892223 -0.249644 -0.722685 95.000000
0.878177 -0.257786 -0.712716 95.000000
0.878976 -0.270309 -0.715255 98.000000
0.875883 -0.281686 -0.714615 98.000000
0.865510 -0.290371 -0.707564 98.000000
0.895862 -0.313293 -0.734363 84.000000
1.166638 -0.441479 -0.961592 93.000000
1.246303 -0.490011 -1.030927 30.000000
1.292446 -0.527012 -1.072124 10.000000
1.352722 -0.571407 -1.125255 26.000000
1.349868 -0.590613 -1.126994 21.000000
1.339624 -0.606467 -1.122545 23.000000
1.340111 -0.627285 -1.127080 24.000000
1.340353 -0.648120 -1.131542 19.000000
1.329655 -0.663689 -1.126809 22.000000
1.322484 -0.680934 -1.124987 16.000000
1.308090 -0.694266 -1.117087 9.000000
1.328721 -0.726528 -1.139151 22.000000
1.320451 -0.743993 -1.137532 21.000000
1.319512 -0.765011 -1.141326 26.000000
1.304085 -0.778229 -1.133484 24.000000
1.309082 -0.803683 -1.143518 21.000000
1.286562 -0.812234 -1.129609 24.000000
1.287769 -0.835625 -1.136452 21.000000
1.292007 -0.861397 -1.146114 10.000000
1.292611 -0.885127 -1.152707 24.000000
1.296247 -0.911259 -1.162161 26.000000
1.276652 -0.921085 -1.150790 24.000000
1.263526 -0.935343 -1.145287 17.000000
1.262563 -0.959484 -1.151907 18.000000
1.255650 -0.978422 -1.152147 22.000000
1.250950 -1.000217 -1.155599 16.000000
1.234242 -1.011284 -1.146870 10.000000
1.241639 -1.043405 -1.161822 20.000000
1.239320 -1.067874 -1.167859 16.000000
1.243618 -1.097427 -1.179155 24.000000
1.228544 -1.111147 -1.173470 19.000000
1.231319 -1.141388 -1.184974 24.000000
1.218965 -1.157756 -1.181901 22.000000
1.200489 -1.168224 -1.173092 14.000000
1.196595 -1.192823 -1.178553 10.000000
1.195264 -1.220464 -1.186694 19.000000
1.186914 -1.242723 -1.189529 18.000000
1.173712 -1.258477 -1.186085 21.000000
1.174197 -1.289280 -1.196723 16.000000
1.175993 -1.323933 -1.210556 19.000000
1.164758 -1.342634 -1.209637 19.000000
1.149602 -1.358644 -1.206291 15.000000
1.145991 -1.386713 -1.213605 12.000000
1.132967 -1.405705 -1.212884 11.000000
1.121002 -1.424039 -1.211680 15.000000
1.115240 -1.452680 -1.219104 20.000000
1.104056 -1.474727 -1.220869 15.000000
1.108727 -1.516319 -1.238571 17.000000
1.089477 -1.528296 -1.231914 18.000000
1.079790 -1.553681 -1.236075 13.000000
1.067388 -1.575588 -1.237458 10.000000
1.068431 -1.618509 -1.255033 10.000000
1.052941 -1.636919 -1.253440 10.000000
0.853393 1.328882 -1.001313 16.000000
0.872472 1.323940 -1.010110 20.000000
0.853851 1.262879 -0.975758 19.000000
0.862866 1.244037 -0.973553 27.000000
0.667419 0.914900 -0.734862 26.000000
0.669904 0.895568 -0.728978 29.000000
0.669539 0.873001 -0.720264 16.000000
0.670709 0.854196 -0.714429 25.000000
0.682807 0.848162 -0.719287 25.000000
0.686230 0.832652 -0.716107 12.000000
0.692792 0.819989 -0.715350 33.000000
0.691043 0.797897 -0.706158 27.000000
0.704844 0.794922 -0.713906 35.000000
0.710378 0.782439 -0.713258 42.000000
0.719172 0.772673 -0.715086 29.000000
0.724452 0.760109 -0.714336 48.000000
0.720940 0.738678 -0.705032 29.000000
0.732249 0.731713 -0.709538 32.000000
0.716438 0.698936 -0.688740 32.000000
0.714954 0.680896 -0.682031 26.000000
0.725287 0.674172 -0.686601 37.000000
0.726453 0.659022 -0.682581 33.000000
0.736670 0.652075 -0.687085 32.000000
0.743738 0.642261 -0.688696 36.000000
0.747167 0.629993 -0.687650 32.000000
0.757214 0.622632 -0.692029 37.000000
0.738594 0.592142 -0.670377 30.000000
0.744718 0.582513 -0.672006 38.000000
0.725293 0.552856 -0.650132 91.000000
0.731069 0.543423 -0.651602 67.000000
0.740444 0.536064 -0.655712 73.000000
0.746109 0.526417 -0.657120 95.000000
0.745023 0.512074 -0.652640 50.000000
0.753867 0.504595 -0.656865 54.000000
0.752488 0.490334 -0.652254 32.000000
0.757773 0.480476 -0.653439 59.000000
0.766426 0.472704 -0.657540 93.000000
0.768105 0.460592 -0.655709 90.000000
0.773152 0.450531 -0.656759 95.000000
0.777827 0.440572 -0.658012 98.000000
0.779179 0.428437 -0.655993 95.000000
0.780118 0.416461 -0.654166 98.000000
0.788385 0.408069 -0.657982 57.000000
0.764006 0.383482 -0.635171 64.000000
0.768101 0.373601 -0.636114 95.000000
0.768474 0.361949 -0.634033 95.000000
0.768745 0.350325 -0.631880 95.000000
0.768915 0.338763 -0.629686 82.000000
0.765019 0.325793 -0.624641 98.000000
0.768638 0.315828 -0.625308 95.000000
0.771907 0.305989 -0.626196 53.000000
0.775366 0.295959 -0.626736 95.000000
0.778477 0.285994 -0.627498 103.000000
0.785281 0.277291 -0.631216 98.000000
0.780735 0.264625 -0.625807 103.000000
0.787395 0.255811 -0.629402 100.000000
0.786168 0.244568 -0.627165 100.000000
0.785073 0.233296 -0.624607 100.000000
0.791316 0.224322 -0.628271 98.000000
0.778503 0.209982 -0.616471 95.000000
0.780733 0.200008 -0.616998 98.000000
0.794409 0.192811 -0.626588 100.000000
0.784915 0.179936 -0.617865 103.000000
0.790556 0.170768 -0.621500 100.000000
0.800224 0.162195 -0.627876 103.000000
0.797966 0.151241 -0.625298 100.000000
0.791916 0.139606 -0.619352 100.000000
0.797280 0.130146 -0.622745 98.000000
0.798649 0.119936 -0.623025 105.000000
0.799770 0.109757 -0.623461 103.000000
0.800984 0.099516 -0.623617 103.000000
0.806036 0.089713 -0.626768 103.000000
0.799040 0.078646 -0.620932 105.000000
0.799845 0.068456 -0.621118 105.000000
0.792640 0.057660 -0.615152 103.000000
0.773520 0.046356 -0.599909 98.000000
0.777828 0.036673 -0.603210 100.000000
0.778279 0.026753 -0.603150 98.000000
0.778459 0.016833 -0.603270 103.000000
0.774627 0.006849 -0.600268 105.000000
0.774657 -0.003021 -0.600268 105.000000
0.774597 -0.012920 -0.600178 103.000000
0.786332 -0.023138 -0.609243 100.000000
0.825431 -0.034857 -0.639890 100.000000
0.817248 -0.044946 -0.633514 100.000000
0.812734 -0.055102 -0.630359 93.000000
0.808132 -0.065157 -0.627143 100.000000
0.803474 -0.075081 -0.623866 105.000000
0.798730 -0.084903 -0.620529 98.000000
0.801606 -0.095563 -0.623461 105.000000
0.800455 -0.105835 -0.623275 103.000000
0.799396 -0.116014 -0.622808 103.000000
0.802001 -0.126842 -0.625579 100.000000
0.792783 -0.135734 -0.619104 95.000000
0.806699 -0.148769 -0.631145 100.000000
0.805119 -0.159034 -0.630640 98.000000
0.869224 -0.183271 -0.682090 95.000000
0.902192 -0.202119 -0.708820 98.000000
0.899917 -0.213673 -0.708358 95.000000
0.905239 -0.227090 -0.713864 100.000000
0.906570 -0.239687 -0.716290 98.000000
0.899932 -0.250290 -0.712824 91.000000
0.889607 -0.259537 -0.706011 57.000000
0.890425 -0.272148 -0.708506 98.000000
0.887605 -0.283466 -0.707613 95.000000
0.910884 -0.303677 -0.728082 45.000000
1.309526 -0.511543 -1.058804 26.000000
1.341150 -0.543254 -1.087337 19.000000
1.360777 -0.571439 -1.107180 11.000000
1.362152 -0.591972 -1.111426 22.000000
1.359183 -0.611164 -1.113003 20.000000
1.352428 -0.628704 -1.111470 17.000000
1.345503 -0.646130 -1.109824 17.000000
1.363650 -0.675927 -1.129031 14.000000
1.359943 -0.695279 -1.130154 18.000000
1.355499 -0.714898 -1.131675 11.000000
1.323119 -0.718827 -1.108886 10.000000
1.339569 -0.749838 -1.127954 20.000000
1.331721 -0.766988 -1.125803 16.000000
1.319702 -0.782196 -1.120993 13.000000
1.311005 -0.799359 -1.119080 16.000000
1.315898 -0.825000 -1.128809 13.000000
1.313623 -0.846495 -1.132567 15.000000
1.307814 -0.865754 -1.133317 10.000000
1.295070 -0.880421 -1.128091 9.000000
1.302240 -0.908829 -1.140317 14.000000
1.279292 -0.916184 -1.126171 10.000000
1.272118 -0.935484 -1.127009 10.000000
1.262231 -0.951943 -1.124404 10.000000
1.257967 -0.973572 -1.127939 10.000000
1.257329 -0.997432 -1.133797 10.000000
1.262090 -1.026883 -1.145732 10.000000
1.247531 -1.040901 -1.140369 9.000000
1.249270 -1.067604 -1.148739 10.000000
1.243756 -1.089470 -1.151762 10.000000
1.247109 -1.119547 -1.163188 14.000000
1.240961 -1.141551 -1.165950 13.000000
1.222581 -1.152231 -1.157336 10.000000
1.213095 -1.171157 -1.157115 10.000000
1.200489 -1.187133 -1.153995 10.000000
1.213001 -1.229839 -1.176582 9.000000
1.217085 -1.263667 -1.190041 12.000000
1.189498 -1.264621 -1.172619 10.000000
1.186331 -1.292959 -1.180716 10.000000
1.181029 -1.317859 -1.185514 10.000000
1.175403 -1.342720 -1.190197 10.000000
1.160348 -1.358692 -1.186859 12.000000
1.158441 -1.390487 -1.197314 9.000000
1.151913 -1.415436 -1.201590 9.000000
1.141309 -1.437722 -1.203539 10.000000
1.136769 -1.465964 -1.210382 10.000000
1.125605 -1.488132 -1.212112 10.000000
1.114158 -1.510235 -1.213672 10.000000
1.100039 -1.528857 -1.212490 10.000000
1.092894 -1.557750 -1.219316 10.000000
1.078170 -1.576196 -1.217935 9.000000
1.072599 -1.608619 -1.227185 8.000000
1.064202 -1.637613 -1.233673 9.000000
0.831564 1.315368 -0.962861 31.000000
0.843439 1.300246 -0.963628 28.000000
0.869276 1.306201 -0.980159 21.000000
0.850020 1.245153 -0.946223 25.000000
0.672461 0.936771 -0.730405 39.000000
0.665122 0.903741 -0.713950 33.000000
0.657222 0.871066 -0.697375 35.000000
0.664172 0.858727 -0.696808 47.000000
0.676231 0.852926 -0.701603 33.000000
0.692859 0.853771 -0.712089 62.000000
0.680850 0.818516 -0.692361 26.000000
0.684487 0.802842 -0.688832 22.000000
0.701001 0.803256 -0.699250 73.000000
0.707166 0.790611 -0.698368 52.000000
0.715383 0.781270 -0.700461 95.000000
0.721291 0.768505 -0.699518 73.000000
0.720711 0.750008 -0.693207 58.000000
0.714035 0.725699 -0.681287 95.000000
0.734013 0.727706 -0.694043 34.000000
0.723853 0.700716 -0.679136 31.000000
0.728297 0.688343 -0.678114 76.000000
0.732605 0.675937 -0.677040 46.000000
0.739886 0.666266 -0.678732 82.000000
0.740858 0.651072 -0.674740 66.000000
0.747896 0.641299 -0.676308 69.000000
0.754862 0.631416 -0.677840 84.000000
0.755380 0.616259 -0.673687 38.000000
0.735997 0.586058 -0.652588 51.000000
0.735942 0.571310 -0.648205 84.000000
0.745551 0.564051 -0.652383 63.000000
0.751395 0.554449 -0.653879 89.000000
0.750942 0.539723 -0.649350 81.000000
0.756632 0.530032 -0.650764 95.000000
0.772337 0.527144 -0.660765 95.000000
0.767736 0.510376 -0.653419 81.000000
0.769798 0.498196 -0.651798 78.000000
0.768264 0.483865 -0.647195 81.000000
0.770002 0.471770 -0.645445 95.000000
0.775150 0.461743 -0.646563 95.000000
0.769655 0.445579 -0.638828 95.000000
0.778070 0.437543 -0.642752 98.000000
0.779045 0.425663 -0.641000 98.000000
0.787369 0.417401 -0.644833 98.000000
0.770140 0.396221 -0.628325 44.000000
0.777938 0.388132 -0.632278 65.000000
0.778695 0.376237 -0.630023 91.000000
0.779087 0.364501 -0.627989 89.000000
0.775635 0.351162 -0.622929 81.000000
0.786855 0.344415 -0.629646 98.000000
0.782943 0.331265 -0.624700 83.000000
0.790309 0.322710 -0.628372 81.000000
0.782442 0.308193 -0.620341 95.000000
0.793407 0.300969 -0.626857 95.000000
0.804113 0.293584 -0.633579 100.000000
0.807233 0.283313 -0.634261 98.000000
0.806484 0.271696 -0.631963 95.000000
0.813213 0.262610 -0.635529 98.000000
0.808443 0.249841 -0.630109 95.000000
0.818641 0.241842 -0.636796 100.000000
0.805914 0.226999 -0.625252 52.000000
0.804407 0.215725 -0.622864 83.000000
0.806692 0.205474 -0.623403 95.000000
0.804961 0.194252 -0.620880 98.000000
0.807046 0.183987 -0.621291 95.000000
0.801250 0.172012 -0.615632 98.000000
0.799241 0.160994 -0.612940 98.000000
0.804785 0.151617 -0.616414 98.000000
0.786652 0.137939 -0.601776 71.000000
0.788269 0.127899 -0.601868 95.000000
0.797354 0.119099 -0.608410 94.000000
0.794664 0.108419 -0.605613 100.000000
0.807739 0.099765 -0.614808 100.000000
0.804739 0.089085 -0.612104 98.000000
0.813700 0.079640 -0.618166 98.000000
0.802594 0.068303 -0.609335 98.000000
0.779412 0.056375 -0.591356 37.000000
0.787970 0.046950 -0.597480 85.000000
0.788332 0.036980 -0.597722 94.000000
0.776834 0.026571 -0.588606 95.000000
0.792951 0.017065 -0.600802 95.000000
0.820970 0.007230 -0.621998 100.000000
0.824987 -0.003190 -0.624986 98.000000
0.820938 -0.013579 -0.621904 100.000000
0.820813 -0.023983 -0.621778 98.000000
0.820404 -0.034419 -0.621810 103.000000
0.816140 -0.044575 -0.618510 100.000000
0.823534 -0.055464 -0.624449 100.000000
0.791069 -0.063372 -0.600164 103.000000
0.814201 -0.075605 -0.618040 103.000000
0.809264 -0.085540 -0.614963 103.000000
0.808361 -0.095781 -0.614621 103.000000
0.811166 -0.106573 -0.617477 100.000000
0.805964 -0.116294 -0.614216 105.000000
0.796953 -0.125233 -0.607671 103.000000
0.775693 -0.132053 -0.592509 95.000000
0.848957 -0.155566 -0.649226 95.000000
0.913996 -0.179400 -0.699754 98.000000
0.911898 -0.191026 -0.699398 98.000000
0.913634 -0.203522 -0.702007 100.000000
0.911313 -0.215126 -0.701507 98.000000
0.905072 -0.225726 -0.697940 100.000000
0.902619 -0.237209 -0.697336 98.000000
0.880745 -0.243322 -0.681676 37.000000
0.877927 -0.254593 -0.681224 95.000000
0.875248 -0.265692 -0.680424 85.000000
1.359707 -0.469569 -1.065271 27.000000
1.384842 -0.497766 -1.087791 23.000000
1.383250 -0.516766 -1.089419 25.000000
1.384820 -0.537487 -1.094286 24.000000
1.375339 -0.553550 -1.089805 14.000000
1.383988 -0.577390 -1.100402 21.000000
1.381675 -0.596472 -1.101595 22.000000
1.382389 -0.617466 -1.106071 21.000000
1.360907 -0.628372 -1.092745 21.000000
1.361357 -0.649290 -1.096985 20.000000
1.353787 -0.666933 -1.095733 20.000000
1.353836 -0.687847 -1.099834 20.000000
1.339330 -0.701367 -1.092090 10.000000
1.349209 -0.728303 -1.105115 21.000000
1.348636 -0.749435 -1.108874 22.000000
1.347282 -0.770866 -1.112962 19.000000
1.338714 -0.788295 -1.111155 22.000000
1.333452 -0.807657 -1.112135 16.000000
1.338403 -0.833453 -1.121683 21.000000
1.332744 -0.852894 -1.122450 18.000000
1.306452 -0.858851 -1.105824 9.000000
1.307320 -0.882483 -1.112188 13.000000
1.311287 -0.908588 -1.121333 12.000000
1.311659 -0.932547 -1.127500 16.000000
1.304355 -0.952175 -1.128265 16.000000
1.297661 -0.971287 -1.128477 13.000000
1.296524 -0.995789 -1.134740 16.000000
1.278951 -1.007644 -1.126681 14.000000
1.271701 -1.026605 -1.126618 9.000000
1.279422 -1.058969 -1.141062 16.000000
1.274029 -1.081034 -1.144068 12.000000
1.268459 -1.103078 -1.146985 14.000000
1.256411 -1.119598 -1.144191 15.000000
1.247296 -1.138846 -1.144138 10.000000
1.244113 -1.163589 -1.149541 15.000000
1.234567 -1.182639 -1.149257 13.000000
1.233794 -1.210371 -1.157241 9.000000
1.225821 -1.232837 -1.160062 10.000000
1.209781 -1.245795 -1.153978 12.000000
1.202349 -1.267626 -1.156124 11.000000
1.210711 -1.308248 -1.175136 12.000000
1.194160 -1.320915 -1.168809 10.000000
1.195950 -1.355801 -1.182041 19.000000
1.184579 -1.374532 -1.181011 10.000000
1.169251 -1.390455 -1.177642 9.000000
1.164382 -1.419236 -1.185053 15.000000
1.147148 -1.431091 -1.178350 10.000000
1.146883 -1.466499 -1.190923 14.000000
1.138371 -1.492002 -1.195340 10.000000
1.134544 -1.524353 -1.204926 10.000000
1.125311 -1.549930 -1.209018 10.000000
1.113270 -1.572116 -1.210329 10.000000
1.100939 -1.594158 -1.211605 9.000000
1.104844 -1.640841 -1.231271 9.000000
1.082261 -1.648809 -1.221738 10.000000
1.084993 -1.695874 -1.241033 10.000000
0.816513 1.311886 -0.932851 35.000000
0.835161 1.307855 -0.941343 29.000000
0.846946 1.292762 -0.942064 35.000000
0.865622 1.288241 -0.950490 25.000000
0.884340 1.283424 -0.959008 20.000000
0.677717 0.935747 -0.717395 34.000000
0.665085 0.895876 -0.695905 69.000000
0.687666 0.903666 -0.711384 41.000000
0.684508 0.877657 -0.700279 62.000000
0.683542 0.855179 -0.691684 66.000000
0.692948 0.845892 -0.693739 33.000000
0.704272 0.840073 -0.698718 38.000000
0.699834 0.814579 -0.687227 52.000000
0.708822 0.805163 -0.689133 87.000000
0.719961 0.799023 -0.693984 83.000000
0.723134 0.783130 -0.690384 72.000000
0.734152 0.776759 -0.695165 95.000000
0.737003 0.760861 -0.691449 98.000000
0.747939 0.754179 -0.696159 81.000000
0.743980 0.732689 -0.687103 86.000000
0.731195 0.702459 -0.669422 28.000000
0.738648 0.692893 -0.671201 61.000000
0.749097 0.686064 -0.675676 84.000000
0.747131 0.667957 -0.669060 73.000000
0.754302 0.658175 -0.670678 98.000000
0.761399 0.648320 -0.672296 53.000000
0.765198 0.635706 -0.671045 92.000000
0.772119 0.625708 -0.672546 82.000000
0.756212 0.597646 -0.654317 29.000000
0.752547 0.580405 -0.647507 95.000000
0.749035 0.563101 -0.640343 98.000000
0.751942 0.550861 -0.638763 98.000000
0.771112 0.550784 -0.651543 90.000000
0.773874 0.538326 -0.649863 95.000000
0.782939 0.530710 -0.654069 98.000000
0.781697 0.516110 -0.649704 90.000000
0.776836 0.499397 -0.642426 67.000000
0.778716 0.487231 -0.640767 98.000000
0.780446 0.475052 -0.639063 94.000000
0.789141 0.467065 -0.643022 98.000000
0.783563 0.450795 -0.635456 100.000000
0.795622 0.444666 -0.642227 98.000000
0.789752 0.428546 -0.634528 100.000000
0.790607 0.416607 -0.632780 95.000000
0.791620 0.404525 -0.630722 69.000000
0.781275 0.387176 -0.620161 95.000000
0.785357 0.377249 -0.621108 95.000000
0.789373 0.367192 -0.622022 95.000000
0.800738 0.360472 -0.628693 95.000000
0.797177 0.346979 -0.623688 98.000000
0.797222 0.335185 -0.621521 95.000000
0.797135 0.323486 -0.619282 95.000000
0.804243 0.314872 -0.623113 95.000000
0.807753 0.304536 -0.623698 95.000000
0.814745 0.295680 -0.627378 95.000000
0.817880 0.285329 -0.628096 98.000000
0.813277 0.272375 -0.622905 100.000000
0.812338 0.260820 -0.620547 98.000000
0.819035 0.251640 -0.624037 100.000000
0.821817 0.241224 -0.624523 98.000000
0.808723 0.226484 -0.613406 81.000000
0.811262 0.216201 -0.613755 95.000000
0.809604 0.204928 -0.611341 98.000000
0.807862 0.193754 -0.608859 98.000000
0.809937 0.183506 -0.609299 98.000000
0.807976 0.172418 -0.606686 100.000000
0.801797 0.160638 -0.601293 100.000000
0.811510 0.151961 -0.607436 95.000000
0.809077 0.141010 -0.604878 91.000000
0.806567 0.130158 -0.602254 95.000000
0.807930 0.119967 -0.602563 98.000000
0.813217 0.110286 -0.605749 100.000000
0.814431 0.100014 -0.605905 103.000000
0.815365 0.089742 -0.606216 103.000000
0.820425 0.079828 -0.609251 100.000000
0.821207 0.069474 -0.609438 100.000000
0.809868 0.058255 -0.600674 95.000000
0.798447 0.047339 -0.591814 91.000000
0.790784 0.036883 -0.586106 95.000000
0.795221 0.027040 -0.589051 98.000000
0.835605 0.017869 -0.618896 103.000000
0.831714 0.007296 -0.615984 100.000000
0.799601 -0.003067 -0.592178 98.000000
0.827665 -0.013611 -0.612914 105.000000
0.831556 -0.024163 -0.615763 103.000000
0.823116 -0.034315 -0.609845 103.000000
0.826816 -0.044886 -0.612568 103.000000
0.818260 -0.054785 -0.606528 92.000000
0.825622 -0.065727 -0.612285 103.000000
0.820895 -0.075761 -0.609094 103.000000
0.815925 -0.085726 -0.606061 103.000000
0.823013 -0.096940 -0.611657 103.000000
0.817860 -0.106792 -0.608531 105.000000
0.820624 -0.117686 -0.611248 100.000000
0.843167 -0.131756 -0.628728 98.000000
0.901266 -0.152474 -0.672832 98.000000
0.927381 -0.168887 -0.693081 95.000000
0.933290 -0.182178 -0.698716 100.000000
0.927435 -0.193060 -0.695146 103.000000
0.921311 -0.203914 -0.691760 95.000000
0.922953 -0.216476 -0.694214 98.000000
0.916633 -0.227159 -0.690688 105.000000
0.918076 -0.239748 -0.693031 100.000000
0.919174 -0.252471 -0.695547 98.000000
0.885441 -0.255115 -0.671239 86.000000
1.405650 -0.482494 -1.076371 24.000000
1.415649 -0.505755 -1.086801 25.000000
1.402612 -0.520821 -1.079591 25.000000
1.389074 -0.535806 -1.072675 22.000000
1.413574 -0.565338 -1.094456 11.000000
1.407223 -0.583363 -1.093197 23.000000
1.400700 -0.601273 -1.091881 20.000000
1.397780 -0.620719 -1.093358 22.000000
1.387253 -0.636806 -1.088905 21.000000
1.380272 -0.654430 -1.087246 23.000000
1.380558 -0.675524 -1.091319 26.000000
1.366024 -0.689335 -1.083755 17.000000
1.376294 -0.716327 -1.096698 10.000000
1.379504 -0.739514 -1.103369 21.000000
1.367625 -0.755187 -1.098798 23.000000
1.359231 -0.772732 -1.097049 26.000000
1.350663 -0.790160 -1.095242 22.000000
1.355971 -0.815927 -1.104767 21.000000
1.347077 -0.833302 -1.102706 21.000000
1.341473 -0.852704 -1.103496 13.000000
1.352916 -0.883314 -1.118325 11.000000
1.333127 -0.893710 -1.107527 16.000000
1.323605 -0.910670 -1.105147 13.000000
1.326720 -0.937385 -1.114437 20.000000
1.313458 -0.951857 -1.109090 14.000000
1.319359 -0.981214 -1.120954 18.000000
1.308427 -0.998340 -1.118646 17.000000
1.294781 -1.012369 -1.113049 10.000000
1.290041 -1.034395 -1.116221 13.000000
1.275451 -1.048442 -1.110934 17.000000
1.289380 -1.086367 -1.130600 17.000000
1.293218 -1.116679 -1.141764 21.000000
1.277997 -1.130666 -1.136171 13.000000
1.271972 -1.152778 -1.138821 24.000000
1.256467 -1.166411 -1.133110 13.000000
1.259121 -1.196977 -1.143784 14.000000
1.245474 -1.213735 -1.141118 10.000000
1.235487 -1.232815 -1.140616 10.000000
1.234169 -1.260700 -1.148281 17.000000
1.228601 -1.286246 -1.153487 19.000000
1.229474 -1.317387 -1.163621 13.000000
1.223174 -1.343144 -1.168594 18.000000
1.206400 -1.355753 -1.162206 15.000000
1.194038 -1.374983 -1.161672 11.000000
1.195050 -1.410254 -1.174398 12.000000
1.177852 -1.422370 -1.167849 10.000000
1.180730 -1.461143 -1.182966 20.000000
1.164606 -1.476861 -1.179375 18.000000
1.153587 -1.499166 -1.181013 13.000000
1.142217 -1.521406 -1.182480 18.000000
1.143193 -1.560730 -1.197069 15.000000
1.131203 -1.582931 -1.198356 10.000000
1.116417 -1.601630 -1.196925 10.000000
1.125411 -1.655484 -1.221450 10.000000
1.102726 -1.663531 -1.212037 13.000000
1.100956 -1.703582 -1.225865 10.000000
1.084869 -1.722034 -1.224030 10.000000
0.803653 1.311459 -0.905737 29.000000
0.819998 1.304098 -0.911552 29.000000
0.829323 1.285731 -0.909664 32.000000
0.852484 1.288751 -0.923126 28.000000
0.866327 1.277216 -0.926367 30.000000
0.845835 1.216301 -0.893351 33.000000
0.682834 0.934623 -0.704378 59.000000
0.695522 0.928857 -0.709260 34.000000
0.690002 0.899195 -0.695807 62.000000
0.707677 0.899978 -0.705830 34.000000
0.709485 0.880524 -0.700109 36.000000
0.705587 0.854654 -0.688980 54.000000
0.698511 0.825785 -0.675126 32.000000
0.718044 0.829570 -0.687929 66.000000
0.729980 0.823132 -0.692529 90.000000
0.733380 0.807077 -0.689052 86.000000
0.735977 0.791445 -0.685820 95.000000
0.741856 0.778548 -0.684931 89.000000
0.752891 0.771953 -0.689609 95.000000
0.761484 0.761914 -0.691328 73.000000
0.757507 0.740319 -0.682449 91.000000
0.741464 0.707062 -0.662310 59.000000
0.748948 0.697457 -0.664097 63.000000
0.759457 0.690558 -0.668539 77.000000
0.766821 0.680726 -0.670221 83.000000
0.767792 0.665306 -0.666381 74.000000
0.774911 0.655332 -0.668013 95.000000
0.778775 0.642628 -0.666778 69.000000
0.782470 0.629896 -0.665530 95.000000
0.776246 0.609461 -0.655894 82.000000
0.763044 0.584197 -0.640664 95.000000
0.769459 0.574292 -0.641968 98.000000
0.778773 0.566973 -0.646270 95.000000
0.781655 0.554448 -0.644682 95.000000
0.780618 0.539794 -0.640498 100.000000
0.783228 0.527313 -0.638815 95.000000
0.792254 0.519597 -0.642944 100.000000
0.780322 0.498340 -0.630171 67.000000
0.778640 0.484033 -0.625730 95.000000
0.790884 0.478345 -0.632529 103.000000
0.796045 0.468228 -0.633623 98.000000
0.797527 0.455963 -0.631849 100.000000
0.802495 0.445755 -0.632836 95.000000
0.803774 0.433526 -0.630947 95.000000
0.801266 0.419382 -0.626169 100.000000
0.805631 0.409277 -0.627243 27.000000
0.798883 0.393630 -0.619716 76.000000
0.803287 0.383366 -0.620445 95.000000
0.799918 0.369761 -0.615645 87.000000
0.803888 0.359591 -0.616498 95.000000
0.815273 0.352638 -0.623060 95.000000
0.815306 0.340697 -0.620947 98.000000
0.811447 0.327289 -0.615883 95.000000
0.822425 0.320032 -0.622562 32.000000
0.822161 0.308150 -0.620270 100.000000
0.825376 0.297784 -0.621058 98.000000
0.824639 0.286047 -0.618888 98.000000
0.823841 0.274343 -0.616646 100.000000
0.830648 0.265149 -0.620161 98.000000
0.829626 0.253477 -0.617816 98.000000
0.824573 0.240698 -0.612498 100.000000
0.819404 0.228083 -0.607106 79.000000
0.821732 0.217783 -0.607712 94.000000
0.823996 0.207450 -0.608255 95.000000
0.810384 0.193314 -0.597082 95.000000
0.812449 0.183116 -0.597520 100.000000
0.818392 0.173699 -0.600781 98.000000
0.820278 0.163389 -0.601095 95.000000
0.821944 0.153111 -0.601567 98.000000
0.827671 0.143431 -0.604676 76.000000
0.825119 0.132396 -0.602101 98.000000
0.822490 0.121431 -0.599460 100.000000
0.823804 0.111108 -0.599679 98.000000
0.829017 0.101246 -0.602793 100.000000
0.829991 0.090842 -0.603107 103.000000
0.822960 0.079625 -0.597283 100.000000
0.831846 0.070002 -0.603358 103.000000
0.816371 0.058409 -0.591797 77.000000
0.808899 0.047699 -0.585999 75.000000
0.817358 0.037943 -0.592105 98.000000
0.817789 0.027679 -0.592074 95.000000
0.818005 0.017415 -0.592167 98.000000
0.854547 0.007469 -0.618615 100.000000
0.846479 -0.003189 -0.612751 100.000000
0.830247 -0.013544 -0.600930 100.000000
0.834140 -0.024078 -0.603736 108.000000
0.833763 -0.034545 -0.603767 103.000000
0.833449 -0.044981 -0.603516 105.000000
0.832914 -0.055417 -0.603421 95.000000
0.803974 -0.063615 -0.582735 98.000000
0.827495 -0.075918 -0.600085 103.000000
0.826525 -0.086303 -0.600023 103.000000
0.825618 -0.096657 -0.599679 98.000000
0.840548 -0.109099 -0.611220 105.000000
0.883478 -0.125952 -0.643121 100.000000
0.942209 -0.146373 -0.686612 105.000000
0.948636 -0.159516 -0.692021 95.000000
0.942689 -0.170727 -0.688885 95.000000
0.940889 -0.182538 -0.688309 100.000000
0.942778 -0.195210 -0.690864 98.000000
0.944541 -0.207909 -0.693343 98.000000
0.942216 -0.219784 -0.692835 100.000000
0.939783 -0.231623 -0.692254 98.000000
0.929401 -0.241344 -0.685825 100.000000
0.926844 -0.252975 -0.685104 51.000000
1.361206 -0.427032 -1.013535 30.000000
1.418518 -0.464481 -1.058806 23.000000
1.432688 -0.488885 -1.072082 27.000000
1.431271 -0.508253 -1.073666 25.000000
1.425822 -0.526190 -1.072304 23.000000
1.435072 -0.550150 -1.082744 23.000000
1.425476 -0.566597 -1.078262 10.000000
1.415340 -0.583062 -1.074131 16.000000
1.420135 -0.605802 -1.081424 25.000000
1.420961 -0.627059 -1.085658 25.000000
1.410406 -0.643285 -1.081294 19.000000
1.407139 -0.662799 -1.082477 25.000000
1.399506 -0.680784 -1.081205 22.000000
1.384872 -0.694680 -1.073658 18.000000
1.381163 -0.713999 -1.074603 10.000000
1.391309 -0.741268 -1.087239 14.000000
1.390232 -0.762939 -1.091213 24.000000
1.388951 -0.784736 -1.095169 24.000000
1.373137 -0.798245 -1.087630 22.000000
1.371471 -0.819930 -1.091331 24.000000
1.359034 -0.835187 -1.086509 17.000000
1.367450 -0.863486 -1.098435 20.000000
1.354669 -0.878535 -1.093423 10.000000
1.359064 -0.904860 -1.102353 15.000000
1.359054 -0.929439 -1.108748 19.000000
1.338984 -0.939429 -1.097905 17.000000
1.331835 -0.959172 -1.098582 18.000000
1.338501 -0.988281 -1.109863 22.000000
1.327515 -1.005493 -1.107544 16.000000
1.329570 -1.032809 -1.116215 18.000000
1.318166 -1.049946 -1.113749 10.000000
1.309934 -1.069540 -1.113972 12.000000
1.307809 -1.094396 -1.119609 18.000000
1.302333 -1.116652 -1.122345 16.000000
1.305930 -1.147177 -1.133183 20.000000
1.293582 -1.163958 -1.130333 21.000000
1.268759 -1.169107 -1.116491 16.000000
1.268506 -1.196950 -1.124317 15.000000
1.276058 -1.234074 -1.140513 9.000000
1.254008 -1.241541 -1.129208 10.000000
1.269601 -1.288126 -1.153278 20.000000
1.241411 -1.289093 -1.136472 13.000000
1.247175 -1.327080 -1.152209 17.000000
1.239087 -1.349227 -1.153922 15.000000
1.226850 -1.368700 -1.153408 11.000000
1.217269 -1.391307 -1.155464 18.000000
1.205657 -1.410034 -1.154313 9.000000
1.209185 -1.448813 -1.169348 10.000000
1.193196 -1.464802 -1.165825 15.000000
1.179790 -1.483922 -1.164852 15.000000
1.173952 -1.513018 -1.171623 16.000000
1.172908 -1.548997 -1.183461 12.000000
1.158578 -1.567987 -1.182235 13.000000
1.149111 -1.593781 -1.186021 13.000000
1.134348 -1.612485 -1.184604 9.000000
1.136294 -1.655881 -1.201064 9.000000
1.125611 -1.681732 -1.204523 10.000000
1.114626 -1.707560 -1.207855 10.000000
1.103121 -1.733361 -1.211206 10.000000
1.082214 -1.744471 -1.204236 10.000000
0.805974 1.303895 -0.884946 23.000000
0.820883 1.292552 -0.887863 22.000000
0.839373 1.288773 -0.896084 24.000000
0.850719 1.273885 -0.896709 25.000000
0.886172 1.294517 -0.922608 10.000000
0.850552 1.212209 -0.874960 28.000000
0.710393 0.987883 -0.722225 19.000000
0.698086 0.947310 -0.701556 28.000000
0.703118 0.931140 -0.698677 27.000000
0.710581 0.918371 -0.698341 17.000000
0.717847 0.905589 -0.697948 33.000000
0.730347 0.899350 -0.702683 27.000000
0.742878 0.892915 -0.707393 27.000000
0.719388 0.844119 -0.678168 20.000000
0.723027 0.828138 -0.674880 18.000000
0.743471 0.831263 -0.687262 35.000000
0.743376 0.812339 -0.681527 34.000000
0.743594 0.793203 -0.675469 30.000000
0.742987 0.774488 -0.669561 37.000000
0.763479 0.776733 -0.681872 33.000000
0.769102 0.763672 -0.680898 37.000000
0.743681 0.721437 -0.653510 13.000000
0.754336 0.714772 -0.657979 24.000000
0.756171 0.699095 -0.654119 33.000000
0.760413 0.686552 -0.653144 32.000000
0.764558 0.674015 -0.652118 35.000000
0.774911 0.666937 -0.656444 33.000000
0.785286 0.659667 -0.660746 34.000000
0.789557 0.646618 -0.659299 58.000000
0.782979 0.626237 -0.650197 24.000000
0.783153 0.610979 -0.646166 33.000000
0.786475 0.598354 -0.644808 47.000000
0.782948 0.580758 -0.637927 43.000000
0.782536 0.565762 -0.633685 87.000000
0.788388 0.555893 -0.635165 62.000000
0.791116 0.543344 -0.633574 62.000000
0.789873 0.528704 -0.629421 59.000000
0.795753 0.518511 -0.630465 29.000000
0.790707 0.501732 -0.623440 70.000000
0.792490 0.489521 -0.621865 71.000000
0.797720 0.479438 -0.622993 54.000000
0.802881 0.469321 -0.624121 95.000000
0.807939 0.459102 -0.625147 79.000000
0.816559 0.450851 -0.628967 95.000000
0.825119 0.442406 -0.632728 95.000000
0.826309 0.429977 -0.630821 69.000000
0.801234 0.404690 -0.609485 37.000000
0.805704 0.394458 -0.610246 53.000000
0.813608 0.386097 -0.614056 73.000000
0.817700 0.375852 -0.614988 77.000000
0.814384 0.362054 -0.609972 56.000000
0.818273 0.351804 -0.610763 77.000000
0.825869 0.343036 -0.614385 71.000000
0.821735 0.329671 -0.609641 51.000000
0.825343 0.319305 -0.610297 79.000000
0.832709 0.310276 -0.613762 95.000000
0.832069 0.298473 -0.611675 95.000000
0.839103 0.289380 -0.615278 98.000000
0.838466 0.277476 -0.612856 95.000000
0.841451 0.266946 -0.613480 98.000000
0.844305 0.256382 -0.614037 98.000000
0.846897 0.245851 -0.614759 98.000000
0.837732 0.231907 -0.606634 64.000000
0.828238 0.218325 -0.598655 71.000000
0.834668 0.208891 -0.601840 95.000000
0.836847 0.198445 -0.602321 95.000000
0.838962 0.187967 -0.602737 95.000000
0.836976 0.176612 -0.600250 98.000000
0.834875 0.165356 -0.597695 98.000000
0.836526 0.154946 -0.598171 95.000000
0.834241 0.143746 -0.595485 95.000000
0.839763 0.133999 -0.598711 98.000000
0.841160 0.123494 -0.598997 95.000000
0.842461 0.112988 -0.599250 98.000000
0.843667 0.102451 -0.599409 103.000000
0.840590 0.091504 -0.596875 103.000000
0.837566 0.080626 -0.594023 105.000000
0.838352 0.070159 -0.594243 98.000000
0.818709 0.058273 -0.579942 46.000000
0.827475 0.048538 -0.585806 95.000000
0.831925 0.038412 -0.588940 98.000000
0.828281 0.027878 -0.585992 100.000000
0.828466 0.017563 -0.586115 98.000000
0.828590 0.007217 -0.586177 100.000000
0.861276 -0.003220 -0.609246 108.000000
0.836723 -0.013576 -0.591859 105.000000
0.840678 -0.024109 -0.594620 110.000000
0.840301 -0.034608 -0.594651 105.000000
0.831832 -0.044606 -0.588598 100.000000
0.835346 -0.055273 -0.591389 98.000000
0.834721 -0.065658 -0.591233 105.000000
0.834001 -0.076074 -0.591014 103.000000
0.837095 -0.086913 -0.593834 103.000000
0.868657 -0.101096 -0.616536 103.000000
0.944465 -0.121876 -0.671062 103.000000
0.955221 -0.135364 -0.679415 105.000000
0.957750 -0.147908 -0.681932 103.000000
0.968262 -0.161865 -0.690124 95.000000
0.962294 -0.173262 -0.687030 98.000000
0.964490 -0.185999 -0.689319 100.000000
0.954346 -0.196396 -0.683211 100.000000
0.960132 -0.210095 -0.688513 100.000000
0.953797 -0.221145 -0.685134 95.000000
0.951390 -0.233034 -0.684550 100.000000
0.960563 -0.248071 -0.692737 84.000000
1.404554 -0.418795 -1.018879 26.000000
1.435161 -0.447392 -1.043560 23.000000
1.445877 -0.470404 -1.053892 18.000000
1.444294 -0.489960 -1.055948 21.000000
1.442851 -0.509388 -1.057489 18.000000
1.452858 -0.533053 -1.067483 22.000000
1.439138 -0.548422 -1.060721 17.000000
1.440637 -0.569542 -1.065188 9.000000
1.434670 -0.587443 -1.063524 14.000000
1.439582 -0.610289 -1.070622 15.000000
1.436655 -0.629990 -1.071997 19.000000
1.429349 -0.648254 -1.070837 17.000000
1.422333 -0.666171 -1.069214 16.000000
1.418925 -0.685772 -1.070284 19.000000
1.414839 -0.705583 -1.071694 13.000000
1.411062 -0.725138 -1.072571 9.000000
1.413928 -0.748841 -1.079382 12.000000
1.409205 -0.768733 -1.080466 12.000000
1.404380 -0.788539 -1.081481 14.000000
1.388483 -0.802144 -1.074081 13.000000
1.394005 -0.828131 -1.083247 11.000000
1.388570 -0.847914 -1.083996 16.000000
1.379442 -0.865395 -1.081849 13.000000
1.356118 -0.873667 -1.068596 9.000000
1.384461 -0.916415 -1.097087 14.000000
1.367776 -0.929092 -1.089217 10.000000
1.357383 -0.946615 -1.087163 11.000000
1.357620 -0.970894 -1.092842 10.000000
1.336717 -0.980815 -1.082450 10.000000
1.345930 -1.013036 -1.096520 13.000000
1.338086 -1.032773 -1.096911 10.000000
1.336648 -1.057684 -1.102598 9.000000
1.322479 -1.071641 -1.096916 10.000000
1.326294 -1.102388 -1.108269 10.000000
1.317551 -1.122010 -1.108275 10.000000
1.308623 -1.141525 -1.108143 10.000000
1.296364 -1.158184 -1.105314 10.000000
1.290212 -1.180357 -1.107710 10.000000
1.273736 -1.194332 -1.102451 10.000000
1.291604 -1.239774 -1.126046 9.000000
1.281588 -1.259138 -1.125474 10.000000
1.276387 -1.284922 -1.130570 10.000000
1.273810 -1.313795 -1.138201 10.000000
1.262988 -1.332993 -1.137349 10.000000
1.253935 -1.355786 -1.139502 10.000000
1.248467 -1.381095 -1.143778 10.000000
1.216265 -1.378245 -1.124851 9.000000
1.237300 -1.436212 -1.155392 9.000000
1.227017 -1.458878 -1.157126 9.000000
1.224601 -1.491543 -1.166588 10.000000
1.205612 -1.504234 -1.160362 10.000000
1.191844 -1.523405 -1.159293 10.000000
1.180402 -1.545851 -1.160702 9.000000
1.173949 -1.575121 -1.167116 10.000000
1.159466 -1.594013 -1.165756 9.000000
1.157239 -1.630329 -1.176992 9.000000
1.151961 -1.663284 -1.185596 9.000000
1.148651 -1.699928 -1.196487 9.000000
1.128007 -1.711466 -1.189774 9.000000
1.121414 -1.744576 -1.197939 9.000000
1.101241 -1.760071 -1.193992 9.000000
0.802031 1.317561 -0.868093 24.000000
0.820577 1.314249 -0.876257 22.000000
0.825107 1.288633 -0.869580 31.000000
0.845953 1.288511 -0.880133 21.000000
0.850935 1.262424 -0.873001 26.000000
0.861862 1.247612 -0.873558 28.000000
0.870106 1.229172 -0.871540 13.000000
0.710638 0.979718 -0.703632 30.000000
0.713422 0.959922 -0.698375 27.000000
0.728961 0.957360 -0.705716 34.000000
0.725973 0.930796 -0.695285 35.000000
0.736049 0.921221 -0.697501 31.000000
0.726941 0.888234 -0.681759 58.000000
0.742073 0.885242 -0.688960 28.000000
0.746089 0.868964 -0.685833 37.000000
0.747092 0.849532 -0.680101 37.000000
0.750627 0.833382 -0.676868 34.000000
0.759742 0.823507 -0.678747 68.000000
0.759421 0.804554 -0.673030 60.000000
0.762341 0.788459 -0.669598 62.000000
0.768047 0.775430 -0.668711 59.000000
0.776094 0.765664 -0.670664 48.000000
0.766182 0.737801 -0.656548 92.000000
0.761543 0.716424 -0.647845 26.000000
0.769050 0.706702 -0.649609 52.000000
0.770654 0.690978 -0.645742 68.000000
0.784328 0.686732 -0.652724 65.000000
0.794865 0.679499 -0.657036 70.000000
0.792806 0.660970 -0.650359 83.000000
0.796602 0.648175 -0.649214 51.000000
0.793652 0.630139 -0.642700 71.000000
0.787087 0.609662 -0.633393 20.000000
0.773534 0.584370 -0.618588 87.000000
0.779500 0.574684 -0.620132 81.000000
0.785782 0.564717 -0.621361 89.000000
0.788515 0.552233 -0.619882 95.000000
0.790812 0.539976 -0.618567 95.000000
0.793267 0.527528 -0.616928 95.000000
0.798809 0.517553 -0.618244 95.000000
0.793960 0.500630 -0.611064 43.000000
0.799258 0.490615 -0.612261 98.000000
0.808079 0.482712 -0.616127 100.000000
0.809614 0.470415 -0.614517 95.000000
0.814673 0.460195 -0.615542 100.000000
0.830641 0.455898 -0.624825 98.000000
0.839275 0.447365 -0.628552 103.000000
0.836741 0.432923 -0.623935 103.000000
0.841500 0.422336 -0.624831 94.000000
0.797255 0.388130 -0.589865 98.000000
0.797782 0.376247 -0.587839 94.000000
0.805543 0.368011 -0.591490 98.000000
0.809443 0.357936 -0.592367 95.000000
0.809460 0.346163 -0.590362 92.000000
0.817016 0.337590 -0.593927 98.000000
0.820656 0.327320 -0.594610 95.000000
0.820361 0.315529 -0.592465 90.000000
0.831594 0.308121 -0.598675 100.000000
0.830894 0.296379 -0.596657 100.000000
0.837929 0.287353 -0.600177 100.000000
0.833268 0.274219 -0.595021 103.000000
0.832236 0.262591 -0.592794 100.000000
0.839026 0.253387 -0.596153 103.000000
0.833803 0.240614 -0.591042 100.000000
0.844235 0.232490 -0.597350 98.000000
0.834807 0.218771 -0.589279 95.000000
0.841077 0.209404 -0.592644 100.000000
0.847271 0.199905 -0.595949 98.000000
0.841504 0.187486 -0.590523 100.000000
0.839319 0.176211 -0.588269 100.000000
0.841223 0.165769 -0.588618 100.000000
0.843032 0.155295 -0.588872 95.000000
0.848680 0.145518 -0.592118 98.000000
0.842169 0.133639 -0.586578 100.000000
0.847634 0.123779 -0.589697 103.000000
0.848967 0.113242 -0.589951 103.000000
0.845928 0.102243 -0.587494 103.000000
0.847065 0.091725 -0.587620 100.000000
0.843853 0.080846 -0.585064 100.000000
0.844796 0.070347 -0.585033 103.000000
0.845488 0.059849 -0.585190 98.000000
0.817365 0.047703 -0.565396 103.000000
0.830057 0.038128 -0.574135 98.000000
0.830488 0.027833 -0.574105 100.000000
0.826592 0.017451 -0.571385 100.000000
0.826714 0.007207 -0.571416 98.000000
0.834971 -0.003098 -0.577102 103.000000
0.822571 -0.013245 -0.568512 100.000000
0.818306 -0.023320 -0.565548 98.000000
0.842603 -0.034471 -0.582600 95.000000
0.842290 -0.044919 -0.582349 98.000000
0.841759 -0.055367 -0.582256 93.000000
0.795970 -0.062253 -0.550865 100.000000
0.844325 -0.076634 -0.584907 100.000000
0.962254 -0.099327 -0.666926 98.000000
0.977429 -0.113162 -0.678132 98.000000
0.980347 -0.125793 -0.680493 95.000000
0.982997 -0.138526 -0.683034 98.000000
0.977380 -0.150073 -0.679834 95.000000
0.975549 -0.162268 -0.679651 95.000000
0.965713 -0.172864 -0.673515 93.000000
0.967765 -0.185661 -0.676017 95.000000
0.969690 -0.198523 -0.678442 95.000000
0.963607 -0.209621 -0.674923 95.000000
0.961091 -0.221656 -0.674667 98.000000
0.982751 -0.239445 -0.691006 64.000000
1.428045 -0.385499 -1.008077 30.000000
1.483611 -0.420092 -1.049119 22.000000
1.467049 -0.435005 -1.039722 17.000000
1.470097 -0.455691 -1.044377 24.000000
1.465102 -0.473969 -1.043242 23.000000
1.483138 -0.500301 -1.059261 19.000000
1.481683 -0.520072 -1.060733 21.000000
1.476131 -0.538405 -1.059345 21.000000
1.481696 -0.561319 -1.066623 17.000000
1.471538 -0.578337 -1.062610 10.000000
1.465085 -0.596708 -1.061331 15.000000
1.458516 -0.615021 -1.059935 22.000000
1.448019 -0.631497 -1.055704 21.000000
1.463874 -0.659786 -1.070782 19.000000
1.460521 -0.679801 -1.071903 21.000000
1.445336 -0.694558 -1.065012 21.000000
1.441669 -0.714385 -1.065953 18.000000
1.433659 -0.732526 -1.064421 12.000000
1.443936 -0.760271 -1.076598 16.000000
1.420838 -0.770445 -1.063872 22.000000
1.434292 -0.800500 -1.078567 23.000000
1.421849 -0.816407 -1.073968 17.000000
1.420206 -0.838488 -1.077464 24.000000
1.411128 -0.856224 -1.075420 18.000000
1.401869 -0.873899 -1.073316 19.000000
1.406142 -0.900808 -1.082390 18.000000
1.396486 -0.918359 -1.080083 10.000000
1.382740 -0.933740 -1.075370 16.000000
1.376324 -0.953339 -1.075649 19.000000
1.369188 -0.973269 -1.076221 17.000000
1.371968 -1.000551 -1.084797 19.000000
1.361576 -1.017523 -1.082091 15.000000
1.367201 -1.047642 -1.093151 10.000000
1.359069 -1.067559 -1.093333 10.000000
1.340872 -1.079417 -1.085441 10.000000
1.342197 -1.107146 -1.093475 18.000000
1.339233 -1.132789 -1.099182 17.000000
1.346274 -1.166318 -1.112292 12.000000
1.333841 -1.183301 -1.109408 20.000000
1.314095 -1.194887 -1.101638 13.000000
1.301403 -1.211470 -1.098577 10.000000
1.303996 -1.242485 -1.108619 10.000000
1.305303 -1.274282 -1.118915 10.000000
1.310092 -1.308768 -1.131290 16.000000
1.286502 -1.316557 -1.120576 14.000000
1.283707 -1.345635 -1.127923 13.000000
1.278525 -1.371089 -1.132159 16.000000
1.266238 -1.390832 -1.131529 13.000000
1.250898 -1.407244 -1.128314 12.000000
1.255124 -1.446152 -1.142902 9.000000
1.239267 -1.462417 -1.139500 10.000000
1.231571 -1.488422 -1.143670 19.000000
1.215334 -1.504386 -1.140108 10.000000
1.212311 -1.537141 -1.149132 13.000000
1.211417 -1.573389 -1.160599 18.000000
1.194430 -1.589111 -1.156738 10.000000
1.190101 -1.622136 -1.165409 14.000000
1.180212 -1.648169 -1.168929 9.000000
1.174994 -1.681295 -1.177303 9.000000
1.157023 -1.696596 -1.173117 11.000000
1.140013 -1.715878 -1.171836 10.000000
1.142939 -1.763640 -1.189738 10.000000
1.140437 -1.804453 -1.202570 10.000000
1.118934 -1.815693 -1.195564 9.000000
0.776640 1.297593 -0.829861 18.000000
0.790274 1.287328 -0.832967 32.000000
0.803908 1.276852 -0.836073 27.000000
0.825449 1.276804 -0.846105 26.000000
0.836525 1.262280 -0.846744 32.000000
0.852318 1.254926 -0.852211 27.000000
0.876509 1.257588 -0.864746 29.000000
0.720937 0.985447 -0.695039 27.000000
0.726236 0.969109 -0.692391 38.000000
0.733941 0.956176 -0.692200 31.000000
0.744207 0.946547 -0.694406 48.000000
0.743533 0.923395 -0.686589 37.000000
0.747983 0.907026 -0.683694 40.000000
0.735491 0.870883 -0.665599 55.000000
0.753382 0.871083 -0.675159 22.000000
0.759977 0.858038 -0.674579 48.000000
0.763528 0.841758 -0.671440 77.000000
0.769745 0.828697 -0.670743 46.000000
0.775854 0.815592 -0.670032 95.000000
0.781256 0.802722 -0.669505 71.000000
0.781015 0.783456 -0.663542 81.000000
0.786576 0.770302 -0.662617 94.000000
0.791484 0.757461 -0.661953 36.000000
0.778011 0.726757 -0.645373 42.000000
0.785648 0.716916 -0.647158 70.000000
0.793627 0.706734 -0.648602 81.000000
0.794639 0.691069 -0.645088 75.000000
0.798704 0.678287 -0.644091 72.000000
0.799396 0.662757 -0.640418 76.000000
0.803573 0.649696 -0.639054 51.000000
0.810507 0.639499 -0.640537 71.000000
0.803948 0.618870 -0.631416 88.000000
0.810622 0.608696 -0.632801 95.000000
0.793287 0.580850 -0.615542 98.000000
