x y z intensity
2.548080 -1.638164 1.120958 36.000000
2.510655 -1.654339 1.109935 30.000000
2.507622 -1.693991 1.114794 35.000000
2.512373 -1.738556 1.122582 35.000000
2.504292 -1.776007 1.125559 23.000000
2.454733 -1.782276 1.109130 12.000000
2.434822 -1.810862 1.106863 26.000000
2.415403 -1.838462 1.104102 33.000000
2.409729 -1.878014 1.108459 35.000000
2.389595 -1.905289 1.105484 33.000000
2.357538 -1.924039 1.097914 35.000000
2.350557 -1.963450 1.102019 35.000000
2.297489 -1.962363 1.083747 25.000000
2.293564 -2.004499 1.089423 26.000000
2.271351 -2.031056 1.086659 31.000000
2.259468 -2.066856 1.088821 32.000000
2.243538 -2.099381 1.089286 35.000000
2.213646 -2.118828 1.082970 29.000000
2.204915 -2.156715 1.086141 35.000000
2.171357 -2.172053 1.078080 31.000000
2.144318 -2.193710 1.073349 22.000000
2.133364 -2.232058 1.076761 26.000000
2.115464 -2.263508 1.076751 29.000000
2.094027 -2.291319 1.075084 32.000000
2.067862 -2.316382 1.072176 35.000000
2.061354 -2.361512 1.078427 30.000000
2.032789 -2.381588 1.073366 35.000000
2.013094 -2.412187 1.073063 30.000000
1.998924 -2.449958 1.075858 28.000000
1.969572 -2.469191 1.070583 29.000000
1.934269 -2.480577 1.062120 24.000000
1.908871 -2.507448 1.060371 18.000000
1.833772 -2.464706 1.029606 21.000000
1.737643 -2.389770 0.986271 17.000000
1.648865 -2.320679 0.946381 17.000000
1.569830 -2.261642 0.911383 15.000000
1.498905 -2.213651 0.881663 10.000000
1.414929 -2.139697 0.842432 9.000000
1.348359 -2.087978 0.812719 12.000000
1.304395 -2.071992 0.797458 18.000000
1.239985 -2.018034 0.768094 18.000000
1.201428 -2.003678 0.754226 22.000000
1.161922 -1.989440 0.740667 30.000000
1.133656 -1.990319 0.733067 32.000000
1.117906 -2.016617 0.734833 29.000000
0.775835 1.428253 0.531139 9.000000
0.793282 1.423218 0.534943 21.000000
0.799963 1.396844 0.530722 18.000000
0.824423 1.403800 0.539235 17.000000
0.831946 1.381924 0.536697 25.000000
0.847510 1.371652 0.538669 20.000000
0.867107 1.369701 0.544029 20.000000
0.876562 1.351575 0.542975 24.000000
0.904035 1.360975 0.553118 10.000000
0.908747 1.334217 0.548578 22.000000
0.912126 1.308024 0.544200 21.000000
0.934305 1.308877 0.551068 15.000000
0.948312 1.297931 0.553091 30.000000
0.960162 1.282526 0.553275 18.000000
0.976743 1.275052 0.556879 25.000000
0.981648 1.252437 0.553919 23.000000
1.021644 1.274112 0.570666 12.000000
1.011380 1.232945 0.559379 35.000000
1.024635 1.221083 0.561288 25.000000
1.046997 1.219797 0.568090 26.000000
1.057001 1.203976 0.568292 31.000000
1.070023 1.191629 0.570108 24.000000
1.086074 1.182542 0.573554 27.000000
1.108541 1.180085 0.580384 28.000000
1.131075 1.177246 0.587193 22.000000
1.133946 1.153893 0.583849 35.000000
1.149825 1.143928 0.587231 28.000000
1.172355 1.140229 0.593983 33.000000
1.181376 1.123239 0.593918 35.000000
1.199954 1.116186 0.599205 26.000000
1.212149 1.102074 0.600802 35.000000
1.231253 1.094036 0.605798 32.000000
1.246738 1.082651 0.609082 25.000000
1.258125 1.068418 0.610855 32.000000
1.269834 1.053594 0.612305 27.000000
1.292357 1.047460 0.618986 32.000000
1.310750 1.038490 0.624107 31.000000
1.325894 1.025885 0.627276 26.000000
1.344287 1.016290 0.632373 32.000000
1.359258 1.003249 0.635452 32.000000
1.381329 0.995812 0.642288 27.000000
1.391938 0.979872 0.643843 31.000000
1.402824 0.963487 0.645065 32.000000
1.420919 0.952473 0.650061 33.000000
1.450691 0.948842 0.660357 35.000000
1.460880 0.932085 0.661772 34.000000
1.470900 0.915159 0.663074 34.000000
1.484799 0.900597 0.666224 34.000000
1.514592 0.895271 0.676444 30.000000
1.520271 0.875341 0.675855 34.000000
1.533806 0.860008 0.678860 32.000000
1.563591 0.853345 0.689088 36.000000
1.581152 0.839590 0.693809 31.000000
1.606562 0.830041 0.702397 33.000000
1.640604 0.823940 0.714341 40.000000
1.645196 0.803079 0.713788 30.000000
1.662368 0.787939 0.718385 26.000000
1.675036 0.770779 0.721412 29.000000
1.704507 0.760992 0.731683 32.000000
1.721187 0.745110 0.736439 31.000000
1.746344 0.732446 0.744805 32.000000
1.762851 0.715825 0.749463 28.000000
1.792235 0.703982 0.759573 33.000000
1.812858 0.688277 0.766031 31.000000
1.815810 0.665933 0.765273 19.000000
1.853659 0.655838 0.778990 41.000000
1.895819 0.646605 0.794709 31.000000
1.915968 0.629186 0.801234 37.000000
1.935947 0.611397 0.807639 35.000000
1.946927 0.590474 0.810356 29.000000
1.966654 0.571976 0.816647 30.000000
1.990671 0.554349 0.824801 32.000000
1.987538 0.529145 0.821973 13.000000
2.051638 0.521294 0.846929 31.000000
2.079832 0.503093 0.856708 30.000000
2.103129 0.483476 0.865063 30.000000
2.117376 0.461328 0.869426 29.000000
2.145016 0.441708 0.879238 26.000000
2.186133 0.424219 0.894873 28.000000
2.213345 0.403328 0.904787 24.000000
2.208493 0.376386 0.901572 9.000000
2.290344 0.363464 0.933762 29.000000
2.317023 0.340591 0.943793 28.000000
2.338949 0.316572 0.951734 27.000000
2.383625 0.294900 0.969037 34.000000
2.400530 0.269181 0.974967 29.000000
2.449442 0.246395 0.994167 27.000000
2.484359 0.221157 1.007437 29.000000
2.518929 0.195261 1.020877 10.000000
2.567095 0.169542 1.040032 27.000000
2.605902 0.142176 1.055110 29.000000
2.634976 0.113564 1.066528 26.000000
2.696332 0.085254 1.090984 30.000000
2.734116 0.055186 1.106250 30.000000
2.748380 0.024069 1.112056 23.000000
2.794819 -0.007545 1.130809 32.000000
2.845615 -0.040193 1.151344 32.000000
2.868221 -0.073295 1.160531 30.000000
2.913502 -0.107783 1.179183 34.000000
2.953826 -0.143106 1.195861 28.000000
2.965955 -0.177816 1.201386 28.000000
2.954654 -0.210998 1.197150 19.000000
2.961358 -0.245500 1.200603 10.000000
2.949193 -0.278568 1.196760 22.000000
2.932242 -0.310741 1.190656 19.000000
2.942466 -0.345943 1.195882 21.000000
2.975256 -0.384334 1.210361 24.000000
3.021422 -0.425407 1.230236 23.000000
3.090058 -0.471129 1.259431 32.000000
3.103017 -0.509514 1.266284 29.000000
3.124632 -0.549822 1.276760 18.000000
3.159507 -0.593221 1.292713 32.000000
3.143852 -0.627463 1.288033 27.000000
3.141327 -0.664483 1.289158 30.000000
3.138359 -0.701396 1.290175 32.000000
3.112674 -0.732882 1.281362 27.000000
3.113275 -0.770859 1.284343 28.000000
3.095853 -0.804058 1.279469 26.000000
3.037737 -0.825981 1.257697 13.000000
3.064160 -0.871003 1.271491 30.000000
3.027710 -0.898144 1.259228 26.000000
3.008873 -0.930057 1.254283 28.000000
2.998631 -0.964507 1.252939 31.000000
2.974754 -0.994331 1.245953 26.000000
2.963837 -1.028320 1.244408 30.000000
2.930432 -1.054543 1.233963 25.000000
2.914625 -1.086247 1.230386 10.000000
2.911155 -1.123077 1.232631 32.000000
2.872845 -1.146114 1.220087 26.000000
2.855860 -1.177319 1.216732 29.000000
2.834228 -1.206400 1.211350 29.000000
2.808211 -1.233212 1.204151 27.000000
2.794737 -1.265289 1.202241 29.000000
2.776640 -1.295297 1.198509 27.000000
2.732698 -1.313304 1.184169 10.000000
2.731021 -1.350591 1.187531 29.000000
2.720005 -1.384239 1.187647 27.000000
2.709243 -1.417283 1.187158 29.000000
2.668793 -1.435364 1.174515 30.000000
2.665168 -1.472877 1.177943 26.000000
2.669109 -1.515079 1.184854 30.000000
2.624224 -1.529357 1.170163 24.000000
2.559276 -1.530807 1.146448 10.000000
2.586273 -1.587112 1.164001 31.000000
2.560913 -1.611793 1.158047 28.000000
2.523689 -1.628496 1.146757 29.000000
2.533112 -1.675484 1.156761 32.000000
2.503255 -1.696578 1.148954 25.000000
2.499559 -1.736569 1.153872 28.000000
2.469254 -1.756945 1.145885 18.000000
2.438926 -1.776860 1.137923 8.000000
2.430198 -1.813799 1.140842 19.000000
2.399558 -1.832959 1.132706 25.000000
2.375399 -1.858025 1.128494 31.000000
2.381053 -1.905538 1.137780 31.000000
2.341671 -1.918404 1.126478 22.000000
2.327564 -1.951732 1.127296 30.000000
2.292462 -1.965823 1.117193 23.000000
2.256640 -1.980176 1.107520 9.000000
2.262601 -2.031526 1.118496 28.000000
2.247070 -2.064178 1.119072 25.000000
2.225250 -2.089470 1.115601 27.000000
2.188786 -2.102240 1.105778 27.000000
2.182384 -2.144140 1.111257 24.000000
2.162158 -2.172803 1.109781 28.000000
2.141560 -2.201244 1.108294 21.000000
2.111061 -2.219237 1.101622 10.000000
2.099546 -2.257459 1.105093 32.000000
2.071792 -2.278262 1.100013 25.000000
2.068852 -2.326854 1.108256 28.000000
2.040445 -2.347202 1.103155 24.000000
2.018019 -2.374460 1.101196 23.000000
2.007370 -2.415896 1.105867 30.000000
1.972227 -2.428080 1.097244 18.000000
1.969506 -2.480415 1.106695 21.000000
1.933995 -2.491953 1.097976 25.000000
1.901478 -2.506646 1.090827 10.000000
1.819490 -2.457348 1.056351 12.000000
1.740377 -2.405596 1.021688 10.000000
1.648982 -2.333016 0.979048 10.000000
1.567453 -2.270227 0.941450 10.000000
1.499345 -2.226351 0.912498 9.000000
1.407809 -2.140770 0.867353 9.000000
1.356702 -2.113093 0.846402 10.000000
1.296458 -2.068534 0.819225 10.000000
1.235886 -2.023468 0.792542 15.000000
1.194866 -2.005131 0.776708 18.000000
1.166314 -2.006634 0.768838 26.000000
1.131790 -2.000222 0.758096 28.000000
1.115035 -2.021613 0.758040 20.000000
0.762616 1.413862 0.540654 21.000000
0.774160 1.395956 0.539572 24.000000
0.793704 1.394930 0.545051 21.000000
0.806164 1.381428 0.545660 29.000000
0.816929 1.363257 0.544482 20.000000
0.828912 1.349589 0.545060 26.000000
0.848259 1.347774 0.550474 25.000000
0.867777 1.345634 0.555913 20.000000
0.872566 1.319124 0.551296 23.000000
0.886674 1.308849 0.553392 23.000000
0.908695 1.309998 0.560462 27.000000
0.919993 1.295426 0.560861 27.000000
0.933826 1.284576 0.562918 23.000000
0.950419 1.277351 0.566651 30.000000
0.967766 1.269388 0.570138 28.000000
0.984265 1.261667 0.573792 25.000000
0.989002 1.239067 0.570683 32.000000
0.996371 1.220110 0.569238 25.000000
1.024628 1.226388 0.579654 34.000000
1.031752 1.207157 0.578152 35.000000
1.050931 1.202057 0.583441 30.000000
1.063953 1.189658 0.585309 35.000000
1.089487 1.190951 0.594032 32.000000
1.095991 1.171294 0.592353 29.000000
1.115155 1.165126 0.597601 35.000000
1.117397 1.142373 0.594367 43.000000
1.136460 1.135779 0.599580 44.000000
1.162261 1.135470 0.608267 42.000000
1.181422 1.128168 0.613477 35.000000
1.186935 1.107831 0.611549 56.000000
1.198531 1.094223 0.613456 61.000000
1.220963 1.089371 0.620308 35.000000
1.239971 1.081094 0.625410 30.000000
1.254912 1.069891 0.629018 32.000000
1.270243 1.058014 0.632259 35.000000
1.292338 1.052217 0.639360 35.000000
1.303941 1.036910 0.640831 33.000000
1.325995 1.030463 0.647864 39.000000
1.341081 1.017571 0.651096 32.000000
1.355732 1.004813 0.654501 35.000000
1.366835 0.988739 0.655827 32.000000
1.384995 0.978317 0.660950 33.000000
1.403160 0.967496 0.666089 51.000000
1.428996 0.961641 0.674893 38.000000
1.439384 0.945042 0.676305 36.000000
1.457382 0.933349 0.681379 57.000000
1.475376 0.921304 0.686412 42.000000
1.485305 0.904126 0.687782 35.000000
1.487126 0.882092 0.685353 33.000000
1.508789 0.871754 0.692139 34.000000
1.522336 0.856407 0.695189 37.000000
1.551998 0.849832 0.705655 49.000000
1.589689 0.847329 0.720040 42.000000
1.607167 0.833011 0.724823 39.000000
1.628465 0.820829 0.731778 53.000000
1.649960 0.807880 0.738391 35.000000
1.650164 0.784862 0.735864 26.000000
1.696467 0.783358 0.753903 36.000000
1.704891 0.763742 0.755072 32.000000
1.721571 0.747757 0.759931 35.000000
1.742417 0.733187 0.766619 35.000000
1.758904 0.716512 0.771378 35.000000
1.779588 0.701273 0.778030 36.000000
1.791351 0.682504 0.781051 31.000000
1.811777 0.666515 0.787602 29.000000
1.840648 0.653386 0.798075 36.000000
1.851980 0.633764 0.800999 37.000000
1.885123 0.621086 0.813278 61.000000
1.904963 0.603545 0.819822 39.000000
1.929188 0.586913 0.828278 51.000000
1.966515 0.573759 0.842319 41.000000
1.981505 0.553670 0.847073 31.000000
2.005345 0.535489 0.855303 29.000000
2.028947 0.517035 0.863752 33.000000
2.070336 0.502390 0.879780 35.000000
2.093692 0.482696 0.888123 36.000000
2.107757 0.460687 0.892798 34.000000
2.144413 0.442928 0.906687 34.000000
2.176245 0.423633 0.918896 35.000000
2.176170 0.397754 0.917567 28.000000
2.230406 0.381317 0.939162 33.000000
2.261729 0.360103 0.951343 35.000000
2.274724 0.335414 0.955559 35.000000
2.310242 0.313621 0.969530 43.000000
2.363871 0.293368 0.991042 40.000000
2.385211 0.268268 0.999359 35.000000
2.410950 0.243210 1.009129 37.000000
2.418030 0.215903 1.011452 26.000000
2.507702 0.195011 1.048237 34.000000
2.532555 0.167763 1.058357 35.000000
2.561964 0.140154 1.069903 35.000000
2.609424 0.112792 1.089405 33.000000
2.638134 0.083702 1.101041 36.000000
2.675738 0.054163 1.116705 36.000000
2.717618 0.023817 1.134213 35.000000
2.759235 -0.007482 1.151544 37.000000
2.814418 -0.039838 1.174559 35.000000
2.859988 -0.073318 1.193530 36.000000
2.882099 -0.107002 1.203156 36.000000
2.968339 -0.144255 1.239535 36.000000
3.003323 -0.180569 1.254833 34.000000
3.056471 -0.218949 1.277422 32.000000
3.113729 -0.258978 1.302225 32.000000
3.156682 -0.299074 1.320936 35.000000
3.221963 -0.342559 1.349563 35.000000
3.300622 -0.389246 1.383398 36.000000
3.337431 -0.432377 1.400135 35.000000
3.314251 -0.468060 1.391788 36.000000
3.304266 -0.505417 1.389427 40.000000
3.284964 -0.541058 1.382569 35.000000
3.256174 -0.574670 1.372326 29.000000
3.217957 -0.606051 1.358044 34.000000
3.202083 -0.641129 1.353242 33.000000
3.176780 -0.674080 1.344835 33.000000
3.164870 -0.709434 1.341744 35.000000
3.147949 -0.743622 1.336853 34.000000
3.135133 -0.778610 1.333877 35.000000
3.135439 -0.816885 1.336516 35.000000
3.077183 -0.839653 1.314597 28.000000
3.059131 -0.872283 1.309316 32.000000
3.036071 -0.903494 1.302457 31.000000
3.008263 -0.932925 1.293709 31.000000
2.984768 -0.963162 1.286665 33.000000
2.965339 -0.994463 1.281425 31.000000
2.932554 -1.020896 1.270309 29.000000
2.925644 -1.056050 1.270664 29.000000
2.905180 -1.086542 1.265553 29.000000
2.876048 -1.112981 1.256168 32.000000
2.863751 -1.146212 1.254644 32.000000
2.846666 -1.177367 1.251137 34.000000
2.825155 -1.206503 1.245654 33.000000
2.803319 -1.235240 1.240182 33.000000
2.781363 -1.263680 1.234519 32.000000
2.759087 -1.291624 1.228867 30.000000
2.732418 -1.317161 1.221260 26.000000
2.705182 -1.342707 1.213969 30.000000
2.707112 -1.382040 1.219230 35.000000
2.675282 -1.404891 1.209996 31.000000
2.668257 -1.439796 1.211422 34.000000
2.640030 -1.463928 1.203873 36.000000
2.623764 -1.494476 1.201790 32.000000
2.607300 -1.524826 1.199707 32.000000
2.582468 -1.550193 1.193840 27.000000
2.569321 -1.582492 1.193405 32.000000
2.544028 -1.607134 1.187358 34.000000
2.514741 -1.628965 1.179494 30.000000
2.504610 -1.663005 1.180594 31.000000
2.482624 -1.689267 1.176208 33.000000
2.468040 -1.720472 1.175468 29.000000
2.464478 -1.759590 1.180069 25.000000
2.429597 -1.777545 1.170441 11.000000
2.406644 -1.802547 1.165874 16.000000
2.408569 -1.847924 1.174236 35.000000
2.385033 -1.872559 1.169456 32.000000
2.356831 -1.894680 1.163287 31.000000
2.329251 -1.915644 1.156543 35.000000
2.322250 -1.954880 1.161026 28.000000
2.308404 -1.987458 1.161315 28.000000
2.261771 -1.992792 1.146091 24.000000
2.243099 -2.022397 1.144911 26.000000
2.238905 -2.063679 1.150395 31.000000
2.209250 -2.083483 1.143791 26.000000
2.196381 -2.118980 1.145994 28.000000
2.169669 -2.141358 1.141058 31.000000
2.142830 -2.163361 1.136131 27.000000
2.129902 -2.197558 1.137688 23.000000
2.089764 -2.205352 1.125615 18.000000
2.081477 -2.246880 1.130913 23.000000
2.069566 -2.285004 1.134432 28.000000
2.041492 -2.305549 1.129202 28.000000
2.019441 -2.332823 1.127314 26.000000
2.000148 -2.363455 1.127126 26.000000
1.971410 -2.383162 1.121700 25.000000
1.986899 -2.457246 1.141772 25.000000
1.939921 -2.454379 1.126023 15.000000
1.921968 -2.488182 1.127230 21.000000
1.899199 -2.518941 1.127129 18.000000
1.835682 -2.491720 1.101349 16.000000
1.739987 -2.417350 1.055583 15.000000
1.659710 -2.360462 1.018537 13.000000
1.578230 -2.298043 0.979890 10.000000
1.500949 -2.237962 0.943157 10.000000
1.408238 -2.153522 0.897134 9.000000
1.344456 -2.106120 0.867487 10.000000
1.301944 -2.089692 0.851029 12.000000
1.233016 -2.028038 0.816700 10.000000
1.197832 -2.022702 0.805608 13.000000
1.159578 -2.007971 0.791046 20.000000
1.131151 -2.009128 0.783008 20.000000
1.103564 -2.014790 0.776832 20.000000
0.770062 1.398087 0.555305 26.000000
0.780374 1.380586 0.554275 31.000000
0.798431 1.374822 0.558033 27.000000
0.813087 1.365309 0.560295 28.000000
0.827588 1.355590 0.562558 35.000000
0.842037 1.345768 0.564821 32.000000
0.859854 1.339189 0.568508 33.000000
0.868967 1.321113 0.567349 26.000000
0.883118 1.310757 0.569502 33.000000
0.897165 1.300247 0.571604 32.000000
0.913771 1.293421 0.575465 32.000000
0.930408 1.286376 0.579287 33.000000
0.947023 1.279061 0.583070 35.000000
0.957949 1.264096 0.583413 32.000000
0.974439 1.256404 0.587156 32.000000
0.982882 1.237010 0.585492 25.000000
0.996252 1.225338 0.587446 36.000000
1.018454 1.224365 0.594647 65.000000
1.030957 1.212744 0.596826 34.000000
1.044083 1.200500 0.598746 49.000000
1.053995 1.184607 0.598847 36.000000
1.070023 1.175546 0.602481 33.000000
1.095524 1.176569 0.611406 41.000000
1.108331 1.163551 0.613243 25.000000
1.111257 1.140344 0.609664 55.000000
1.136874 1.140349 0.618553 48.000000
1.152049 1.130561 0.622352 46.000000
1.167821 1.120115 0.625845 71.000000
1.183453 1.109431 0.629295 60.000000
1.198569 1.098933 0.633020 62.000000
1.207189 1.081553 0.632800 63.000000
1.236599 1.082495 0.643508 24.000000
1.251553 1.071248 0.647167 51.000000
1.266898 1.059323 0.650512 36.000000
1.278165 1.044643 0.652245 33.000000
1.300601 1.038121 0.659232 47.000000
1.322627 1.031617 0.666464 35.000000
1.333644 1.016249 0.668172 35.000000
1.344936 1.000385 0.669549 35.000000
1.348112 0.979285 0.667428 18.000000
1.373768 0.974300 0.676415 36.000000
1.395676 0.966212 0.683513 58.000000
1.421487 0.960342 0.692508 33.000000
1.431819 0.943744 0.693976 41.000000
1.453730 0.934492 0.701026 37.000000
1.463861 0.917531 0.702392 35.000000
1.477772 0.902814 0.705644 38.000000
1.487531 0.885522 0.706957 21.000000
1.501179 0.870380 0.710106 45.000000
1.514706 0.855088 0.713204 37.000000
1.535928 0.844330 0.720341 35.000000
1.557412 0.832827 0.727208 58.000000
1.599014 0.831940 0.743806 62.000000
1.620549 0.819390 0.750607 36.000000
1.645888 0.808829 0.759580 38.000000
1.654490 0.789747 0.760852 12.000000
1.679726 0.778369 0.769742 29.000000
1.696528 0.762635 0.774749 35.000000
1.704768 0.742957 0.775856 30.000000
1.729762 0.730272 0.784613 34.000000
1.750458 0.715385 0.791397 35.000000
1.762316 0.696999 0.794582 31.000000
1.795742 0.686304 0.807072 34.000000
1.794348 0.662432 0.804278 14.000000
1.831762 0.652549 0.818939 34.000000
1.847495 0.634357 0.823790 37.000000
1.876155 0.620170 0.834487 37.000000
1.882766 0.598503 0.835338 33.000000
1.924478 0.587392 0.851715 62.000000
1.948486 0.570293 0.860251 32.000000
1.967770 0.551545 0.867052 36.000000
1.995822 0.534804 0.877707 16.000000
2.010424 0.514064 0.882442 30.000000
2.038279 0.496315 0.892991 35.000000
2.074938 0.479984 0.907335 33.000000
2.093431 0.459060 0.914067 32.000000
2.125354 0.440411 0.926340 40.000000
2.152599 0.420330 0.936881 29.000000
2.175128 0.398827 0.945325 28.000000
2.210952 0.379239 0.959901 25.000000
2.242206 0.358047 0.972080 33.000000
2.259539 0.334286 0.978590 33.000000
2.304008 0.313857 0.996852 33.000000
2.352927 0.292974 1.016946 35.000000
2.374261 0.267871 1.025146 34.000000
2.390672 0.241964 1.031540 32.000000
2.420601 0.216892 1.043777 30.000000
2.486899 0.193964 1.071649 28.000000
2.516306 0.167206 1.083910 32.000000
2.540998 0.139481 1.093866 34.000000
2.606598 0.113018 1.121769 34.000000
2.635183 0.083819 1.133706 34.000000
2.668029 0.054167 1.147798 34.000000
2.705126 0.023817 1.163692 32.000000
2.746552 -0.007482 1.181565 31.000000
2.796887 -0.039772 1.203113 34.000000
2.823880 -0.072633 1.214779 33.000000
2.891698 -0.107666 1.244311 33.000000
2.945406 -0.143709 1.267817 36.000000
2.966568 -0.178987 1.277691 30.000000
3.037806 -0.218316 1.308782 28.000000
3.080955 -0.257140 1.328214 20.000000
3.146580 -0.299089 1.357397 33.000000
3.220887 -0.343485 1.390292 36.000000
3.285352 -0.388696 1.419543 35.000000
3.317301 -0.431228 1.434761 32.000000
3.298763 -0.467506 1.428185 35.000000
3.284478 -0.504057 1.423362 37.000000
3.265027 -0.539648 1.416907 33.000000
3.232044 -0.572303 1.404010 26.000000
3.198402 -0.604332 1.391347 31.000000
3.169164 -0.636536 1.380556 33.000000
3.161869 -0.673115 1.379805 33.000000
3.141006 -0.706451 1.372742 30.000000
3.137578 -0.743721 1.373740 36.000000
3.093523 -0.770869 1.357005 30.000000
3.089410 -0.807669 1.357798 29.000000
3.076076 -0.841929 1.354467 24.000000
3.040323 -0.869652 1.341377 28.000000
3.012929 -0.899502 1.332421 30.000000
2.994027 -0.931574 1.327273 34.000000
2.961729 -0.958980 1.316186 29.000000
2.942374 -0.990184 1.310853 32.000000
2.931472 -1.024020 1.309310 32.000000
2.911597 -1.054614 1.303784 27.000000
2.874117 -1.078327 1.290416 20.000000
2.853429 -1.108322 1.285122 29.000000
2.837093 -1.139228 1.281264 30.000000
2.824447 -1.172107 1.279747 36.000000
2.794536 -1.197514 1.270317 30.000000
2.789703 -1.233525 1.272356 32.000000
2.771887 -1.263785 1.268619 33.000000
2.749632 -1.291783 1.262766 25.000000
2.693902 -1.303297 1.241598 21.000000
2.708611 -1.348759 1.252911 32.000000
2.676971 -1.371912 1.243472 31.000000
2.670349 -1.406915 1.245000 37.000000
2.646376 -1.433599 1.239300 34.000000
2.626938 -1.461647 1.235016 33.000000
2.610672 -1.492195 1.232933 35.000000
2.582136 -1.515518 1.225071 27.000000
2.549493 -1.535975 1.215338 21.000000
2.544335 -1.572910 1.218741 33.000000
2.523074 -1.599902 1.214493 32.000000
2.505457 -1.629133 1.212032 35.000000
2.479832 -1.653025 1.205723 30.000000
2.461681 -1.681772 1.203172 34.000000
2.447133 -1.712885 1.202390 33.000000
2.447317 -1.754605 1.209052 22.000000
2.405854 -1.766347 1.195029 10.000000
2.397069 -1.803174 1.198238 22.000000
2.373871 -1.827841 1.193431 31.000000
2.357738 -1.858078 1.192226 35.000000
2.347792 -1.894633 1.195187 31.000000
2.302289 -1.900746 1.179162 33.000000
2.288138 -1.933887 1.180084 35.000000
2.271023 -1.963168 1.178668 26.000000
2.249075 -1.989839 1.175814 23.000000
2.233836 -2.022566 1.176498 32.000000
2.198735 -2.035375 1.165791 30.000000
2.210013 -2.093235 1.180733 34.000000
2.180099 -2.112750 1.174037 29.000000
2.157848 -2.137484 1.170362 33.000000
2.134306 -2.162815 1.167084 32.000000
2.110465 -2.187847 1.163706 25.000000
2.083221 -2.209183 1.158546 22.000000
2.074759 -2.250763 1.163960 30.000000
2.050073 -2.275049 1.160462 31.000000
2.034462 -2.309667 1.162163 35.000000
2.003054 -2.326370 1.155027 30.000000
1.988081 -2.359633 1.156086 31.000000
1.965418 -2.386478 1.154114 31.000000
1.948250 -2.420391 1.155515 26.000000
1.946499 -2.477241 1.167715 28.000000
1.916777 -2.496285 1.161984 30.000000
1.898196 -2.529968 1.163168 25.000000
1.837531 -2.506743 1.138419 25.000000
1.744726 -2.436502 1.093253 21.000000
1.653798 -2.364522 1.048286 21.000000
1.569971 -2.298408 1.006931 16.000000
1.495627 -2.242391 0.971029 10.000000
1.407294 -2.161279 0.925151 10.000000
1.342258 -2.114898 0.894974 12.000000
1.297285 -2.094602 0.876402 12.000000
1.228469 -2.033119 0.841256 16.000000
1.187551 -2.015000 0.824573 16.000000
1.155077 -2.013314 0.814920 23.000000
1.121937 -2.006304 0.803369 29.000000
0.761304 1.391842 0.567649 31.000000
0.774939 1.378022 0.568118 26.000000
0.794405 1.376838 0.573820 29.000000
0.806710 1.363200 0.574436 30.000000
0.821263 1.353482 0.576750 27.000000
0.840672 1.351634 0.582501 33.000000
0.850985 1.333118 0.581121 26.000000
0.867848 1.326811 0.585063 18.000000
0.876863 1.308655 0.583806 29.000000
0.890859 1.298144 0.586011 29.000000
0.907549 1.291312 0.589915 33.000000
0.921433 1.280462 0.592074 29.000000
0.935214 1.269406 0.594183 28.000000
0.951708 1.261981 0.598060 33.000000
0.971036 1.257983 0.603674 29.000000
0.984628 1.246362 0.605749 29.000000
0.992194 1.227375 0.604198 34.000000
1.002526 1.211916 0.604416 30.000000
1.021666 1.207056 0.609968 52.000000
1.034804 1.194849 0.611882 30.000000
1.053918 1.189462 0.617417 34.000000
1.070002 1.180322 0.621159 44.000000
1.082214 1.168006 0.623246 28.000000
1.094947 1.155116 0.625125 24.000000
1.110814 1.145357 0.628732 52.000000
1.123375 1.132063 0.630512 38.000000
1.141823 1.125609 0.636188 52.000000
1.164177 1.121644 0.643473 62.000000
1.176497 1.107678 0.645172 58.000000
1.184764 1.090941 0.645277 72.000000
1.207077 1.086060 0.652458 40.000000
1.225522 1.078140 0.658120 27.000000
1.244477 1.069519 0.663426 32.000000
1.259368 1.058023 0.667142 32.000000
1.274649 1.045902 0.670542 37.000000
1.289397 1.033914 0.674169 36.000000
1.308179 1.024149 0.679370 35.000000
1.333832 1.020162 0.688656 61.000000
1.337335 0.999008 0.686515 33.000000
1.348076 0.983364 0.688167 28.000000
1.366180 0.972915 0.693531 32.000000
1.384233 0.962180 0.698911 36.000000
1.409932 0.956339 0.708091 52.000000
1.427990 0.944879 0.713401 35.000000
1.445990 0.933069 0.718726 45.000000
1.460024 0.918564 0.722080 48.000000
1.466081 0.898977 0.721458 32.000000
1.475870 0.881732 0.722767 27.000000
1.497092 0.871611 0.730187 37.000000
1.514688 0.858540 0.735282 37.000000
1.524089 0.840660 0.736436 46.000000
1.549194 0.831720 0.745686 35.000000
1.586664 0.828679 0.760715 50.000000
1.612154 0.818250 0.769677 57.000000
1.629158 0.803609 0.774860 31.000000
1.646070 0.788597 0.780055 24.000000
1.675388 0.779145 0.791106 32.000000
1.687981 0.761467 0.794243 32.000000
1.704639 0.745470 0.799296 36.000000
1.716963 0.727363 0.802323 35.000000
1.737326 0.712767 0.809562 35.000000
1.753661 0.695808 0.814462 35.000000
1.769568 0.678838 0.819623 25.000000
1.789722 0.663076 0.826655 26.000000
1.822682 0.651584 0.839673 46.000000
1.834037 0.631892 0.842631 34.000000
1.866925 0.619254 0.855565 57.000000
1.873602 0.597586 0.856416 36.000000
1.906311 0.583841 0.869190 35.000000
1.947656 0.572136 0.886189 37.000000
1.958082 0.550800 0.889138 29.000000
1.981807 0.532725 0.897764 24.000000
2.009662 0.515445 0.908544 35.000000
2.041673 0.498809 0.921628 30.000000
2.060446 0.478242 0.928286 33.000000
2.092275 0.460388 0.941199 37.000000
2.110718 0.438831 0.947735 32.000000
2.133282 0.417915 0.956436 34.000000
2.146558 0.395001 0.961337 29.000000
2.209396 0.380196 0.988060 29.000000
2.227061 0.356796 0.994485 35.000000
2.253371 0.334427 1.005179 34.000000
2.279526 0.311458 1.015809 34.000000
2.346127 0.293069 1.044792 37.000000
2.372003 0.268503 1.055135 36.000000
2.383810 0.242027 1.059658 33.000000
2.395396 0.215341 1.064103 25.000000
2.456901 0.192289 1.090649 24.000000
2.499932 0.166567 1.109028 33.000000
2.533475 0.139478 1.123533 42.000000
2.585069 0.112447 1.145974 33.000000
2.613608 0.083440 1.158209 35.000000
2.650781 0.053986 1.174762 33.000000
2.683221 0.023646 1.189030 32.000000
2.719790 -0.007445 1.205325 34.000000
2.774457 -0.039549 1.229449 33.000000
2.819600 -0.072775 1.249515 35.000000
2.855206 -0.106716 1.265621 35.000000
2.922363 -0.143066 1.295801 32.000000
2.961676 -0.179243 1.313627 35.000000
3.023339 -0.218012 1.341863 30.000000
3.057158 -0.255966 1.357747 23.000000
3.131567 -0.298669 1.391726 35.000000
3.200957 -0.342568 1.423555 34.000000
3.246935 -0.385561 1.445361 35.000000
3.297103 -0.429970 1.468732 33.000000
3.292222 -0.468020 1.468066 35.000000
3.264291 -0.502478 1.457088 36.000000
3.254049 -0.539518 1.454520 32.000000
3.175813 -0.564336 1.421597 21.000000
3.183170 -0.603468 1.426350 34.000000
3.153931 -0.635678 1.415418 32.000000
3.137685 -0.670237 1.410643 31.000000
3.125839 -0.705383 1.407455 35.000000
3.109027 -0.739474 1.402476 33.000000
3.087605 -0.771822 1.394963 32.000000
3.087875 -0.809884 1.397807 34.000000
3.007951 -0.826311 1.364889 18.000000
3.020929 -0.867339 1.373444 30.000000
2.993844 -0.896832 1.363875 32.000000
2.966353 -0.926022 1.354738 31.000000
2.942825 -0.956223 1.347404 35.000000
2.923529 -0.987278 1.341974 30.000000
2.899660 -1.016614 1.334459 32.000000
2.888414 -1.050044 1.332823 32.000000
2.855494 -1.075288 1.321152 19.000000
2.843723 -1.108164 1.319325 32.000000
2.822727 -1.137811 1.313840 33.000000
2.802008 -1.166654 1.307859 30.000000
2.788997 -1.199232 1.306145 46.000000
2.763086 -1.226019 1.298510 32.000000
2.757889 -1.261871 1.300543 35.000000
2.735676 -1.289875 1.294695 32.000000
2.692567 -1.307543 1.278835 22.000000
2.690505 -1.344803 1.282633 35.000000
2.667255 -1.372129 1.276920 34.000000
2.648164 -1.400719 1.272676 33.000000
2.632966 -1.431215 1.270292 42.000000
2.612953 -1.459763 1.266357 35.000000
2.588697 -1.485824 1.260385 32.000000
2.592530 -1.527181 1.267519 34.000000
2.524316 -1.526465 1.240039 23.000000
2.530830 -1.570446 1.249397 35.000000
2.501809 -1.592587 1.241142 33.000000
2.491974 -1.626771 1.242542 34.000000
2.458719 -1.645536 1.232391 32.000000
2.452145 -1.681931 1.235506 32.000000
2.445008 -1.718396 1.238596 32.000000
2.445000 -1.760328 1.245382 32.000000
2.377432 -1.753018 1.217723 10.000000
2.365702 -1.786087 1.218600 24.000000
2.360978 -1.824790 1.223252 32.000000
2.333151 -1.846996 1.216908 29.000000
2.327624 -1.885635 1.221319 36.000000
2.295704 -1.904407 1.212905 31.000000
2.275265 -1.930840 1.209662 31.000000
2.239648 -1.945605 1.199316 32.000000
2.215381 -1.968306 1.194127 18.000000
2.224336 -2.022528 1.207881 32.000000
2.206180 -2.051199 1.206180 30.000000
2.186768 -2.080544 1.204964 29.000000
2.173644 -2.116052 1.207237 35.000000
2.141441 -2.131027 1.198021 30.000000
2.121094 -2.159636 1.196487 28.000000
2.103697 -2.191380 1.196775 30.000000
2.057292 -2.192434 1.180496 15.000000
2.065815 -2.250195 1.194766 33.000000
2.025534 -2.257183 1.182083 29.000000
2.013093 -2.295038 1.185748 30.000000
2.000047 -2.332886 1.189168 35.000000
1.974506 -2.356416 1.185448 29.000000
1.957736 -2.390477 1.187006 30.000000
1.937511 -2.420799 1.186641 31.000000
1.951360 -2.495118 1.207625 35.000000
1.895874 -2.480945 1.185737 32.000000
1.899638 -2.544489 1.201118 30.000000
1.841750 -2.525284 1.177480 24.000000
1.732849 -2.432609 1.120608 21.000000
1.658417 -2.383749 1.085019 17.000000
1.574750 -2.317962 1.042686 18.000000
1.482368 -2.234986 0.993599 10.000000
1.394459 -2.153996 0.946583 9.000000
1.337281 -2.119589 0.920909 12.000000
1.292313 -2.099327 0.901863 13.000000
1.228685 -2.046077 0.869249 12.000000
1.182917 -2.020010 0.848719 18.000000
1.140199 -1.997232 0.830023 20.000000
1.114858 -2.007371 0.825272 26.000000
0.775340 1.388154 0.587208 21.000000
0.785576 1.370554 0.586161 28.000000
0.807407 1.373105 0.593765 21.000000
0.819671 1.359290 0.594398 29.000000
0.834258 1.349410 0.596726 23.000000
0.848690 1.339271 0.599054 20.000000
0.864001 1.328564 0.601123 16.000000
0.870505 1.306450 0.598059 16.000000
0.892451 1.307511 0.605675 25.000000
0.898550 1.285276 0.602520 29.000000
0.920487 1.285837 0.610072 20.000000
0.937106 1.278528 0.614050 31.000000
0.945364 1.259764 0.612604 24.000000
0.967492 1.259446 0.620175 24.000000
0.972493 1.236865 0.616782 24.000000
0.980068 1.217908 0.615183 18.000000
0.999157 1.213295 0.620856 32.000000
1.014631 1.205298 0.624969 29.000000
1.027770 1.193142 0.626935 26.000000
1.046893 1.187745 0.632611 34.000000
1.056741 1.171707 0.632675 30.000000
1.072701 1.162405 0.636461 28.000000
1.097497 1.163459 0.646033 27.000000
1.107019 1.146912 0.646050 24.000000
1.119617 1.133579 0.647834 36.000000
1.138005 1.127076 0.653660 34.000000
1.150465 1.113402 0.655455 30.000000
1.172795 1.109104 0.662842 38.000000
1.187851 1.098557 0.666718 30.000000
1.203403 1.087342 0.670336 34.000000
1.221840 1.079425 0.676041 25.000000
1.233798 1.064666 0.677657 25.000000
1.255691 1.059156 0.685263 36.000000
1.259872 1.038568 0.683250 28.000000
1.278615 1.029171 0.688577 30.000000
1.296832 1.019876 0.694193 33.000000
1.311465 1.007442 0.697885 28.000000
1.325940 0.994812 0.701477 29.000000
1.344077 0.984651 0.707031 21.000000
1.362167 0.974151 0.712548 28.000000
1.384034 0.965996 0.719989 35.000000
1.402105 0.954875 0.725433 32.000000
1.412465 0.938322 0.726953 31.000000
1.438079 0.931589 0.736313 35.000000
1.440444 0.909724 0.733780 28.000000
1.465988 0.902309 0.743065 32.000000
1.475544 0.885315 0.744667 22.000000
1.489175 0.870120 0.747915 29.000000
1.498412 0.852850 0.749464 32.000000
1.519794 0.841727 0.756600 32.000000
1.561027 0.841425 0.774047 33.000000
1.570357 0.822883 0.775169 31.000000
1.587317 0.808735 0.780540 29.000000
1.604188 0.794278 0.785866 30.000000
1.645717 0.791352 0.803224 20.000000
1.658447 0.773987 0.806458 23.000000
1.679310 0.760237 0.813674 32.000000
1.699865 0.746320 0.821156 30.000000
1.712125 0.728161 0.824235 28.000000
1.732753 0.713258 0.831311 29.000000
1.744568 0.694867 0.834530 24.000000
1.760493 0.677830 0.839789 27.000000
1.789141 0.665307 0.851103 23.000000
1.809113 0.649076 0.858240 23.000000
1.824743 0.630989 0.863285 30.000000
1.844509 0.614013 0.870318 26.000000
1.868521 0.597995 0.879408 28.000000
1.900980 0.584385 0.892744 27.000000
1.924799 0.567322 0.901672 27.000000
1.939618 0.547442 0.906715 21.000000
1.976228 0.533160 0.921897 22.000000
2.008398 0.517026 0.935049 21.000000
2.035944 0.499194 0.946307 29.000000
2.054591 0.478571 0.953115 25.000000
2.055158 0.453780 0.951902 20.000000
2.095622 0.437326 0.969174 24.000000
2.122627 0.417408 0.980137 20.000000
2.149438 0.396826 0.991040 15.000000
2.194068 0.378823 1.010070 24.000000
2.216002 0.356270 1.019084 23.000000
2.228693 0.331959 1.023747 22.000000
2.286281 0.313471 1.049107 26.000000
2.316704 0.290332 1.061914 24.000000
2.337686 0.265537 1.070746 22.000000
2.372136 0.241707 1.085723 21.000000
2.365472 0.213385 1.081977 9.000000
2.449347 0.192316 1.119534 21.000000
2.474105 0.165406 1.129983 20.000000
2.525653 0.139560 1.153130 19.000000
2.558825 0.111679 1.167905 24.000000
2.596231 0.083120 1.184588 23.000000
2.633312 0.053804 1.201450 25.000000
2.674603 0.023687 1.220304 27.000000
2.720181 -0.007482 1.241058 26.000000
2.765483 -0.039614 1.261719 29.000000
2.796760 -0.072446 1.275964 29.000000
2.836641 -0.106355 1.294541 24.000000
2.898920 -0.142425 1.323390 30.000000
2.960842 -0.179774 1.352132 24.000000
2.981342 -0.215739 1.362401 21.000000
3.055811 -0.256802 1.397345 26.000000
3.120770 -0.298683 1.428022 26.000000
3.189798 -0.342625 1.460538 32.000000
3.253711 -0.387598 1.490845 29.000000
3.267258 -0.427643 1.498685 27.000000
3.284927 -0.468751 1.508368 35.000000
3.234710 -0.499732 1.486909 29.000000
3.224624 -0.536396 1.483855 28.000000
3.187110 -0.568271 1.468737 22.000000
3.144814 -0.598455 1.451353 25.000000
3.138163 -0.634820 1.450495 30.000000
3.117722 -0.668320 1.443237 27.000000
3.101465 -0.702409 1.437836 26.000000
3.102341 -0.740524 1.441101 30.000000
3.072227 -0.770761 1.429323 27.000000
3.054715 -0.804073 1.423941 24.000000
3.010672 -0.829806 1.406248 24.000000
2.988329 -0.860825 1.398737 24.000000
2.978651 -0.895687 1.397592 30.000000
2.951456 -0.924677 1.387843 28.000000
2.936773 -0.957506 1.384453 26.000000
2.908741 -0.985840 1.374836 28.000000
2.880632 -1.013565 1.365133 25.000000
2.865114 -1.045381 1.361462 17.000000
2.845052 -1.075380 1.355658 27.000000
2.816247 -1.101650 1.345698 25.000000
2.808463 -1.135889 1.345808 29.000000
2.791499 -1.167005 1.342162 28.000000
2.765877 -1.194096 1.334471 27.000000
2.748829 -1.224111 1.330137 29.000000
2.735274 -1.256140 1.328329 27.000000
2.696603 -1.276223 1.314227 17.000000
2.682476 -1.307562 1.312238 27.000000
2.655873 -1.332541 1.304021 24.000000
2.653426 -1.369642 1.307860 29.000000
2.633959 -1.398732 1.303967 29.000000
2.614738 -1.427032 1.299583 28.000000
2.598671 -1.457878 1.297600 31.000000
2.570980 -1.480964 1.289044 26.000000
2.522907 -1.492489 1.270960 13.000000
2.518588 -1.528688 1.274184 25.000000
2.489951 -1.550991 1.265988 23.000000
2.488171 -1.590036 1.271459 29.000000
2.466767 -1.616657 1.267033 25.000000
2.448938 -1.645556 1.264486 25.000000
2.449746 -1.687298 1.271669 30.000000
2.419913 -1.707874 1.263021 26.000000
2.386230 -1.725391 1.252441 10.000000
2.382179 -1.764180 1.257321 17.000000
2.374025 -1.800239 1.260216 13.000000
2.361656 -1.833532 1.261141 26.000000
2.330927 -1.852361 1.252157 26.000000
2.320757 -1.888889 1.255298 27.000000
2.296813 -1.912874 1.250101 30.000000
2.258683 -1.924506 1.237120 21.000000
2.230139 -1.945418 1.230435 13.000000
2.216199 -1.977292 1.230840 24.000000
2.194026 -2.003684 1.227799 20.000000
2.189630 -2.044775 1.233688 28.000000
2.163446 -2.067584 1.228625 24.000000
2.127210 -2.080410 1.217791 20.000000
2.134699 -2.134301 1.231056 29.000000
2.098070 -2.146421 1.220142 22.000000
2.093447 -2.191443 1.227947 15.000000
2.060997 -2.205231 1.218340 23.000000
2.036660 -2.229667 1.214665 19.000000
2.024487 -2.267653 1.218530 26.000000
1.993396 -2.284743 1.211123 23.000000
1.983358 -2.326032 1.216581 26.000000
1.956283 -2.345054 1.210421 29.000000
1.930619 -2.368212 1.206512 19.000000
1.994524 -2.503889 1.259241 21.000000
1.944354 -2.498120 1.240448 59.000000
1.900253 -2.498909 1.225389 26.000000
1.878557 -2.528914 1.224796 24.000000
1.820997 -2.509579 1.200604 14.000000
1.737059 -2.451260 1.158563 10.000000
1.646686 -2.379776 1.111414 10.000000
1.555592 -2.302520 1.062695 9.000000
1.510045 -2.289744 1.044465 9.000000
1.400301 -2.178687 0.982451 9.000000
1.354433 -2.159676 0.962748 10.000000
1.287184 -2.103867 0.927332 10.000000
1.226116 -2.054807 0.895669 10.000000
1.173343 -2.016818 0.869388 10.000000
1.130723 -1.994099 0.850243 16.000000
0.780110 1.406266 0.610041 23.000000
0.785980 1.380420 0.605386 16.000000
0.810239 1.386897 0.614976 21.000000
0.820349 1.368971 0.613853 21.000000
0.832624 1.354977 0.614451 18.000000
0.852109 1.352771 0.620463 16.000000
0.854026 1.322788 0.613791 15.000000
0.870881 1.316304 0.617934 21.000000
0.890328 1.313404 0.623869 25.000000
0.901828 1.298761 0.624322 21.000000
0.923969 1.299177 0.632082 28.000000
0.932578 1.280415 0.630634 24.000000
0.952022 1.276567 0.636530 22.000000
0.963023 1.261313 0.636866 22.000000
0.979604 1.253277 0.640874 19.000000
0.993211 1.241397 0.643020 35.000000
0.997909 1.218658 0.639471 26.000000
1.014165 1.210119 0.643434 27.000000
1.036367 1.208378 0.651141 29.000000
1.048860 1.196305 0.653398 26.000000
1.065070 1.187043 0.657298 33.000000
1.074947 1.170742 0.657335 29.000000
1.093446 1.164931 0.663322 22.000000
1.109419 1.155061 0.667145 41.000000
1.118893 1.138322 0.667123 33.000000
1.140683 1.134985 0.674984 34.000000
1.156502 1.124352 0.678734 47.000000
1.171642 1.114014 0.682708 32.000000
1.187388 1.102900 0.686426 40.000000
1.195637 1.085896 0.686457 36.000000
1.204247 1.068329 0.686157 17.000000
1.239880 1.075260 0.701787 36.000000
1.240858 1.051748 0.697780 30.000000
1.263195 1.045463 0.705273 35.000000
1.281501 1.036365 0.711032 36.000000
1.292621 1.021246 0.712785 31.000000
1.318102 1.017171 0.722499 35.000000
1.340053 1.009828 0.730202 33.000000
1.347252 0.991252 0.729877 20.000000
1.350560 0.969979 0.727484 38.000000
1.368583 0.959228 0.733108 35.000000
1.386554 0.948132 0.738693 36.000000
1.408276 0.939284 0.746199 45.000000
1.426163 0.927559 0.751708 37.000000
1.440184 0.913092 0.755209 53.000000
1.449803 0.896302 0.756859 40.000000
1.475302 0.888483 0.766299 26.000000
1.484679 0.871226 0.767910 64.000000
1.494286 0.853565 0.769175 52.000000
1.515338 0.842731 0.776746 53.000000
1.540371 0.833672 0.786387 58.000000
1.573842 0.828012 0.799805 55.000000
1.586767 0.811640 0.803228 56.000000
1.599618 0.794994 0.806598 38.000000
1.546634 0.746510 0.776941 32.000000
1.620729 0.759243 0.811114 42.000000
1.653510 0.751717 0.824959 37.000000
1.674223 0.737740 0.832266 34.000000
1.702934 0.727167 0.843983 37.000000
1.727698 0.713995 0.853282 34.000000
1.747952 0.698928 0.860773 40.000000
1.768127 0.683377 0.868156 32.000000
1.779702 0.664287 0.871386 26.000000
1.803944 0.649587 0.880755 64.000000
1.836646 0.637402 0.894257 63.000000
1.852183 0.618729 0.899420 59.000000
1.871845 0.601176 0.906488 67.000000
1.912889 0.590077 0.924380 45.000000
1.932202 0.571666 0.931685 57.000000
1.955762 0.554053 0.941035 41.000000
1.952883 0.528849 0.937651 21.000000
1.993662 0.515128 0.955301 36.000000
2.034433 0.500448 0.972839 47.000000
2.052965 0.479858 0.980079 37.000000
2.080132 0.460921 0.991478 54.000000
2.098317 0.439468 0.998528 49.000000
2.134058 0.421069 1.013965 46.000000
2.143054 0.396992 1.016664 34.000000
2.173874 0.376753 1.030089 27.000000
2.218210 0.357832 1.049504 66.000000
2.230954 0.333363 1.054344 59.000000
2.265703 0.311772 1.069935 44.000000
2.318441 0.291557 1.093634 56.000000
2.335009 0.266089 1.100309 45.000000
2.369231 0.242148 1.115631 44.000000
2.394264 0.216659 1.126560 35.000000
2.450526 0.193136 1.152599 32.000000
2.488731 0.166975 1.169664 49.000000
2.512927 0.139305 1.180618 54.000000
2.577594 0.112807 1.210606 70.000000
2.596821 0.083469 1.219102 55.000000
2.633635 0.053994 1.236448 53.000000
2.670197 0.023677 1.253624 47.000000
2.724597 -0.007532 1.279121 35.000000
2.719888 -0.039066 1.276813 34.000000
2.787208 -0.072469 1.308492 36.000000
2.808884 -0.105749 1.319019 32.000000
2.879894 -0.141910 1.352808 34.000000
2.918809 -0.177922 1.371626 31.000000
2.957274 -0.214782 1.390636 28.000000
3.009011 -0.253728 1.415401 25.000000
3.082676 -0.295994 1.451058 33.000000
3.151260 -0.339554 1.484467 34.000000
3.201262 -0.382748 1.509589 34.000000
3.255177 -0.427681 1.536709 32.000000
3.214662 -0.460269 1.518658 34.000000
3.213887 -0.498270 1.519900 35.000000
3.176804 -0.530516 1.504648 30.000000
3.130807 -0.560220 1.484530 24.000000
3.124487 -0.596640 1.483781 32.000000
3.108856 -0.631149 1.478592 32.000000
3.101807 -0.667358 1.477524 36.000000
3.063492 -0.696320 1.461585 32.000000
3.069108 -0.735018 1.466532 36.000000
3.047525 -0.767486 1.459153 32.000000
3.034575 -0.801751 1.455886 31.000000
2.999366 -0.829866 1.442007 21.000000
2.981437 -0.862202 1.436446 32.000000
2.937283 -0.886363 1.418098 33.000000
2.940579 -0.924487 1.422734 33.000000
2.917168 -0.954648 1.415210 30.000000
2.893645 -0.984299 1.407492 33.000000
2.856958 -1.009009 1.393417 32.000000
2.837229 -1.039164 1.387615 26.000000
2.838511 -1.077081 1.392142 21.000000
2.826687 -1.110004 1.390308 35.000000
2.801917 -1.137692 1.382136 33.000000
2.780642 -1.167149 1.376461 34.000000
2.759647 -1.195702 1.370090 33.000000
2.750488 -1.229936 1.370446 34.000000
2.724851 -1.255937 1.361822 33.000000
2.706760 -1.285859 1.357848 29.000000
2.668051 -1.305472 1.343377 18.000000
2.657695 -1.338662 1.343245 35.000000
2.639000 -1.367553 1.339000 32.000000
2.627504 -1.401037 1.339160 35.000000
2.604159 -1.427241 1.332675 33.000000
2.588663 -1.457439 1.330191 34.000000
2.572272 -1.488034 1.328105 36.000000
2.544401 -1.510840 1.319216 31.000000
2.500190 -1.524253 1.302716 12.000000
2.514855 -1.572589 1.316103 35.000000
2.482033 -1.592324 1.305629 34.000000
2.471959 -1.626583 1.307111 36.000000
2.450199 -1.653147 1.302527 32.000000
2.431864 -1.681930 1.299866 31.000000
2.420805 -1.715812 1.301122 33.000000
2.394604 -1.738905 1.294247 28.000000
2.360772 -1.756057 1.283295 10.000000
2.370750 -1.805908 1.296310 26.000000
2.347495 -1.830858 1.291147 25.000000
2.331177 -1.861153 1.289963 32.000000
2.296722 -1.876807 1.278870 35.000000
2.275529 -1.904308 1.276012 32.000000
2.233984 -1.912891 1.260840 33.000000
2.223754 -1.948054 1.263316 27.000000
2.191602 -1.965430 1.254492 10.000000
2.207913 -2.025137 1.272378 32.000000
2.168382 -2.035803 1.259452 27.000000
2.163311 -2.076890 1.265425 31.000000
2.136879 -2.099586 1.260208 30.000000
2.121069 -2.130819 1.260206 29.000000
2.107042 -2.166109 1.262506 32.000000
2.063974 -2.171223 1.247475 26.000000
2.053678 -2.208518 1.251078 10.000000
2.022951 -2.226190 1.243571 28.000000
2.010695 -2.264155 1.247514 27.000000
1.996209 -2.297719 1.248911 31.000000
1.964817 -2.314458 1.241211 30.000000
1.948261 -2.348673 1.242965 27.000000
1.916684 -2.364703 1.235283 31.000000
1.907986 -2.409364 1.242417 24.000000
1.926990 -2.490820 1.268255 19.000000
1.871763 -2.476799 1.245290 27.000000
1.853086 -2.510361 1.246567 24.000000
1.809305 -2.509898 1.231169 13.000000
1.747185 -2.482030 1.202853 20.000000
1.664863 -2.422461 1.160023 20.000000
1.576313 -2.349580 1.111890 20.000000
1.497237 -2.286609 1.069545 14.000000
1.437309 -2.249560 1.040101 9.000000
1.334174 -2.140110 0.978218 10.000000
1.281898 -2.108299 0.952807 10.000000
1.228114 -2.071448 0.925770 14.000000
1.168365 -2.021484 0.893555 16.000000
1.132712 -2.011172 0.879289 18.000000
0.766542 1.391608 0.618666 23.000000
0.783872 1.386140 0.622985 25.000000
0.796513 1.372408 0.623661 29.000000
0.811342 1.362574 0.626159 22.000000
0.828438 1.356551 0.630448 30.000000
0.847980 1.354248 0.636602 25.000000
0.855050 1.332135 0.633443 20.000000
0.866861 1.317749 0.633972 29.000000
0.886311 1.314803 0.640050 28.000000
0.895291 1.296323 0.638641 31.000000
0.920049 1.300498 0.648464 29.000000
0.923306 1.274274 0.643155 25.000000
0.945375 1.274108 0.651080 31.000000
0.956448 1.258912 0.651426 25.000000
0.970172 1.247223 0.653618 28.000000
0.980084 1.232233 0.654100 34.000000
0.996421 1.223896 0.658158 35.000000
1.021644 1.225909 0.667968 37.000000
1.029071 1.206435 0.666206 35.000000
1.038536 1.190891 0.666572 32.000000
1.054686 1.181660 0.670510 37.000000
1.073859 1.175595 0.676415 26.000000
1.089246 1.166339 0.680594 35.000000
1.102113 1.153049 0.682553 36.000000
1.114820 1.139600 0.684459 45.000000
1.130034 1.129768 0.688555 85.000000
1.149132 1.122375 0.694328 47.000000
1.167622 1.115147 0.700391 47.000000
1.183328 1.104041 0.704158 62.000000
1.195016 1.090090 0.706205 35.000000
1.210069 1.078972 0.710150 31.000000
1.225513 1.067232 0.713835 32.000000
1.240372 1.055680 0.717747 35.000000
1.255187 1.043883 0.721670 57.000000
1.273503 1.034776 0.727521 36.000000
1.284624 1.019657 0.729328 35.000000
1.306461 1.012767 0.737191 37.000000
1.328260 1.005454 0.745082 33.000000
1.324500 0.978792 0.738569 31.000000
1.346227 0.971041 0.746373 35.000000
1.364235 0.960236 0.752094 43.000000
1.382190 0.949087 0.757776 43.000000
1.403874 0.940181 0.765482 37.000000
1.421801 0.928402 0.771088 52.000000
1.443104 0.919116 0.779011 38.000000
1.445472 0.897050 0.776294 32.000000
1.454945 0.880101 0.777949 32.000000
1.476453 0.869615 0.785455 40.000000
1.481716 0.849982 0.784921 39.000000
1.506699 0.841397 0.794778 69.000000
1.523663 0.827989 0.800419 59.000000
1.556949 0.822463 0.814116 62.000000
1.573901 0.808255 0.819681 36.000000
1.598821 0.797727 0.829470 36.000000
1.599020 0.775195 0.826815 29.000000
1.623856 0.763951 0.836461 35.000000
1.648682 0.752258 0.846069 34.000000
1.669041 0.738530 0.853829 52.000000
1.685419 0.722296 0.859117 33.000000
1.713985 0.711194 0.871037 35.000000
1.742612 0.699540 0.882863 39.000000
1.754302 0.680723 0.886196 27.000000
1.774305 0.664853 0.893674 34.000000
1.798473 0.650094 0.903303 61.000000
1.822582 0.634871 0.912822 41.000000
1.842276 0.617679 0.920154 48.000000
1.870335 0.603090 0.931982 62.000000
1.898279 0.587933 0.943768 37.000000
1.926369 0.571935 0.955240 64.000000
1.928137 0.548157 0.953974 29.000000
1.955537 0.531584 0.965950 31.000000
1.987501 0.515430 0.979622 37.000000
2.023717 0.499673 0.995398 34.000000
2.046500 0.480179 1.004941 36.000000
2.069159 0.460132 1.014355 51.000000
2.087274 0.438746 1.021624 33.000000
2.109657 0.417783 1.030919 40.000000
2.136110 0.397303 1.042534 28.000000
2.175975 0.378401 1.060361 33.000000
2.197658 0.355862 1.069695 52.000000
2.232621 0.334912 1.085388 36.000000
2.245064 0.310000 1.090181 36.000000
2.297377 0.290035 1.114728 54.000000
2.318338 0.265181 1.123640 35.000000
2.352470 0.241367 1.139305 38.000000
2.399810 0.217964 1.161333 30.000000
2.437849 0.192804 1.179278 34.000000
2.466797 0.166117 1.192477 45.000000
2.495366 0.138801 1.205848 39.000000
2.523712 0.110854 1.219055 36.000000
2.578832 0.083149 1.245219 38.000000
2.606543 0.053627 1.258523 35.000000
2.642915 0.023557 1.276091 35.000000
2.670020 -0.007420 1.289134 32.000000
2.687757 -0.038806 1.297739 29.000000
2.754822 -0.071906 1.330065 31.000000
2.794291 -0.105559 1.349625 32.000000
2.851433 -0.141048 1.377685 29.000000
2.908222 -0.177901 1.405539 32.000000
2.932900 -0.213827 1.418473 26.000000
3.020264 -0.255600 1.461302 27.000000
3.057636 -0.294712 1.480428 32.000000
3.130440 -0.338642 1.516797 31.000000
3.175586 -0.381131 1.540341 32.000000
3.242828 -0.427495 1.574056 32.000000
3.224574 -0.463459 1.567000 32.000000
3.188110 -0.496227 1.551064 35.000000
