x y z intensity
1.851736 -0.114914 -0.951383 23.000000
1.806025 -0.133336 -0.928258 9.000000
1.835445 -0.157234 -0.944033 24.000000
1.219587 -0.147863 -0.628640 103.000000
1.195880 -0.159203 -0.616879 100.000000
1.295402 -0.187967 -0.668965 76.000000
1.741926 -0.273664 -0.900632 30.000000
1.848684 -0.312654 -0.956912 10.000000
1.871513 -0.339067 -0.969898 21.000000
1.867604 -0.361154 -0.969442 21.000000
1.872424 -0.384775 -0.973066 21.000000
1.872458 -0.407718 -0.974678 22.000000
1.876619 -0.431697 -0.978486 26.000000
1.876206 -0.454764 -0.979892 25.000000
1.862410 -0.474695 -0.974774 22.000000
1.818497 -0.486160 -0.953389 9.000000
1.847394 -0.517160 -0.970676 21.000000
1.841620 -0.538943 -0.969757 19.000000
1.827111 -0.557988 -0.964267 20.000000
1.833736 -0.583536 -0.969974 22.000000
1.840076 -0.609253 -0.975599 19.000000
1.845861 -0.635336 -0.981410 23.000000
1.830576 -0.653934 -0.975590 21.000000
1.777234 -0.658489 -0.949885 9.000000
1.824123 -0.700283 -0.977875 19.000000
1.816388 -0.721821 -0.976675 17.000000
1.829145 -0.751729 -0.986501 18.000000
1.820917 -0.773244 -0.985085 22.000000
1.824788 -0.800017 -0.990277 17.000000
1.832489 -0.828789 -0.997603 17.000000
1.827232 -0.852470 -0.998520 14.000000
1.753390 -0.842756 -0.961361 9.000000
1.804331 -0.893464 -0.993149 18.000000
1.794397 -0.914840 -0.991642 14.000000
1.800152 -0.944418 -0.998817 17.000000
1.805588 -0.974235 -1.005963 16.000000
1.790991 -0.993395 -1.002023 12.000000
1.803489 -1.027896 -1.013374 14.000000
1.796230 -1.051457 -1.013590 11.000000
1.750092 -1.051732 -0.991947 8.000000
1.780362 -1.098713 -1.014278 16.000000
1.776119 -1.124460 -1.016503 14.000000
1.771560 -1.150244 -1.018638 14.000000
1.762500 -1.173924 -1.018874 15.000000
1.771708 -1.210264 -1.029919 12.000000
1.773633 -1.241309 -1.036084 16.000000
1.752530 -1.257215 -1.029652 10.000000
1.724051 -1.267452 -1.018866 9.000000
1.738954 -1.309805 -1.033708 16.000000
1.731694 -1.336066 -1.035634 14.000000
1.734810 -1.370686 -1.043945 16.000000
1.726846 -1.397045 -1.045668 16.000000
1.725506 -1.429122 -1.051618 10.000000
1.723764 -1.461305 -1.057375 20.000000
1.711349 -1.484756 -1.056747 15.000000
1.702109 -1.511071 -1.058140 9.000000
1.719375 -1.561719 -1.076328 18.000000
1.712554 -1.591380 -1.079570 14.000000
1.697849 -1.615334 -1.078989 24.000000
1.657807 -1.613226 -1.061323 30.000000
1.629969 -1.623792 -1.052288 30.000000
1.593552 -1.623535 -1.036682 49.000000
1.554241 -1.619311 -1.019009 28.000000
1.557922 -1.661530 -1.030579 20.000000
1.534289 -1.673121 -1.023189 36.000000
1.515596 -1.691814 -1.020225 33.000000
1.502762 -1.717148 -1.021347 36.000000
1.472954 -1.720894 -1.009695 36.000000
1.450875 -1.735325 -1.004562 33.000000
1.425906 -1.745916 -0.997419 53.000000
1.410556 -1.766192 -0.995900 33.000000
1.408005 -1.805038 -1.004715 24.000000
1.385316 -1.818560 -0.999431 28.000000
1.362555 -1.831785 -0.994085 24.000000
1.343633 -1.847743 -0.990286 30.000000
1.323344 -1.864156 -0.986866 25.000000
1.302903 -1.880266 -0.983447 26.000000
1.284885 -1.900031 -0.981919 31.000000
1.264099 -1.915716 -0.978340 29.000000
1.260676 -1.958264 -0.988436 18.000000
1.227043 -1.954203 -0.974999 21.000000
1.217825 -1.988916 -0.980946 20.000000
1.184233 -1.984093 -0.967584 26.000000
1.167240 -2.006673 -0.967686 20.000000
1.154397 -2.037098 -0.971513 20.000000
0.719072 1.274830 -0.595056 33.000000
0.728224 1.257849 -0.593589 33.000000
0.744193 1.252771 -0.597739 28.000000
0.757748 1.243542 -0.600046 33.000000
0.778502 1.245924 -0.607993 30.000000
0.772020 1.205214 -0.594920 21.000000
0.779963 1.187945 -0.593244 33.000000
0.795415 1.182136 -0.597292 29.000000
0.808239 1.172329 -0.599414 31.000000
0.825477 1.170379 -0.605619 34.000000
0.840937 1.163906 -0.609661 30.000000
0.853601 1.153575 -0.611708 44.000000
0.863393 1.139438 -0.611788 28.000000
0.873010 1.125178 -0.611807 24.000000
0.885262 1.114488 -0.613747 35.000000
0.893863 1.100473 -0.613936 32.000000
0.905933 1.089487 -0.615822 53.000000
0.926774 1.088877 -0.623705 37.000000
0.938104 1.077927 -0.625800 36.000000
0.946866 1.063036 -0.625597 76.000000
0.958588 1.051409 -0.627400 25.000000
0.947727 1.016658 -0.615227 13.000000
0.927408 0.972000 -0.596604 35.000000
0.931258 0.954471 -0.594373 78.000000
0.925691 0.926917 -0.585728 86.000000
0.945235 0.925499 -0.593620 73.000000
0.952206 0.910798 -0.593029 66.000000
0.965192 0.902621 -0.596762 81.000000
0.968071 0.884971 -0.594316 49.000000
0.974563 0.870074 -0.593610 42.000000
0.966664 0.843556 -0.584818 36.000000
0.965321 0.823173 -0.580086 44.000000
0.974133 0.811678 -0.581534 81.000000
0.975815 0.794321 -0.578802 68.000000
0.980841 0.779830 -0.578060 91.000000
0.992848 0.770905 -0.581507 78.000000
0.997560 0.756288 -0.580714 71.000000
0.998484 0.738976 -0.577760 48.000000
0.984471 0.711098 -0.566335 44.000000
0.988498 0.696711 -0.565362 95.000000
0.988655 0.679726 -0.562260 95.000000
0.999529 0.670642 -0.565680 87.000000
1.010702 0.661144 -0.568866 95.000000
1.006516 0.641711 -0.563481 95.000000
1.013284 0.629868 -0.564650 95.000000
1.020253 0.617703 -0.565576 72.000000
1.011261 0.596521 -0.558118 53.000000
1.013734 0.582331 -0.556999 95.000000
1.023877 0.572559 -0.560181 82.000000
1.030026 0.560419 -0.561133 95.000000
1.036096 0.548239 -0.562085 98.000000
1.038000 0.533919 -0.560793 98.000000
1.047800 0.523602 -0.563831 100.000000
1.049421 0.509219 -0.562452 95.000000
1.030553 0.485223 -0.550195 34.000000
1.039743 0.475049 -0.553261 95.000000
1.040861 0.460863 -0.551777 54.000000
1.045725 0.448626 -0.552588 95.000000
1.038055 0.431137 -0.546799 95.000000
1.051013 0.422282 -0.551942 83.000000
1.051361 0.408273 -0.550403 95.000000
1.051521 0.394287 -0.548859 81.000000
1.064240 0.384944 -0.553865 82.000000
1.064192 0.370893 -0.552203 98.000000
1.063843 0.357018 -0.550690 95.000000
1.063463 0.343051 -0.548943 98.000000
1.058539 0.327934 -0.545137 98.000000
1.066306 0.316774 -0.547874 100.000000
1.074025 0.305475 -0.550615 98.000000
1.077331 0.292823 -0.551033 95.000000
1.058676 0.274619 -0.540526 36.000000
1.057304 0.261072 -0.538682 93.000000
1.060047 0.248688 -0.539127 98.000000
1.053934 0.234322 -0.535094 95.000000
1.056434 0.221966 -0.535462 98.000000
1.058788 0.209536 -0.535756 95.000000
1.056555 0.196362 -0.533935 103.000000
1.067428 0.185518 -0.538754 95.000000
1.069459 0.172963 -0.538902 57.000000
1.075621 0.161145 -0.541537 100.000000
1.077326 0.148538 -0.541759 98.000000
1.070040 0.134812 -0.537447 100.000000
1.084775 0.123795 -0.544361 100.000000
1.081590 0.110643 -0.542352 100.000000
1.082740 0.097999 -0.542464 100.000000
1.088238 0.085670 -0.544771 98.000000
1.053350 0.070545 -0.527089 42.000000
1.058501 0.058476 -0.529467 93.000000
1.054610 0.045914 -0.527305 98.000000
1.081903 0.034415 -0.540711 108.000000
1.860498 -0.027866 -0.929614 32.000000
1.873531 -0.049933 -0.936062 26.000000
1.863952 -0.071519 -0.931594 22.000000
1.880933 -0.094175 -0.940338 27.000000
1.861980 -0.115105 -0.931149 22.000000
1.891877 -0.139099 -0.946456 23.000000
1.858989 -0.158564 -0.930640 17.000000
1.852690 -0.179893 -0.928154 26.000000
1.748339 -0.190395 -0.876478 35.000000
1.559619 -0.188311 -0.782434 89.000000
1.835762 -0.287174 -0.923644 27.000000
1.858899 -0.313232 -0.936740 18.000000
1.895094 -0.342105 -0.956110 21.000000
1.895753 -0.364998 -0.957478 24.000000
1.904776 -0.389922 -0.963613 26.000000
1.896093 -0.411289 -0.960732 22.000000
1.900271 -0.435425 -0.964373 25.000000
1.895492 -0.457594 -0.963510 27.000000
1.885903 -0.478793 -0.960699 21.000000
1.893738 -0.504241 -0.966273 19.000000
1.875174 -0.522832 -0.958779 18.000000
1.882269 -0.548517 -0.964539 21.000000
1.859027 -0.565366 -0.954720 24.000000
1.848603 -0.585747 -0.951460 19.000000
1.850473 -0.610312 -0.955004 23.000000
1.856596 -0.636269 -0.960405 21.000000
1.849528 -0.658074 -0.959338 21.000000
1.859056 -0.686102 -0.967043 14.000000
1.847253 -0.706299 -0.963709 17.000000
1.847827 -0.731294 -0.966875 21.000000
1.844031 -0.754647 -0.967711 22.000000
1.844072 -0.779714 -0.970653 18.000000
1.843834 -0.804840 -0.973515 21.000000
1.859390 -0.837762 -0.985339 21.000000
1.838150 -0.853775 -0.977165 16.000000
1.852987 -0.887146 -0.988802 16.000000
1.810840 -0.893047 -0.970020 12.000000
1.829067 -0.928732 -0.983649 21.000000
1.830854 -0.956519 -0.988527 19.000000
1.828320 -0.982315 -0.991159 18.000000
1.821532 -1.005975 -0.991555 18.000000
1.814486 -1.029588 -0.991803 18.000000
1.814987 -1.057702 -0.996327 15.000000
1.822957 -1.090590 -1.005032 13.000000
1.791431 -1.100487 -0.992709 13.000000
1.802544 -1.135888 -1.003362 19.000000
1.797495 -1.162219 -1.005746 21.000000
1.807140 -1.198669 -1.016603 20.000000
1.798096 -1.222266 -1.016309 18.000000
1.792055 -1.248761 -1.018484 16.000000
1.785607 -1.275359 -1.020568 15.000000
1.775235 -1.299234 -1.020457 16.000000
1.746429 -1.309363 -1.009765 11.000000
1.768052 -1.357712 -1.028436 20.000000
1.746077 -1.373074 -1.021784 16.000000
1.766479 -1.422244 -1.040167 14.000000
1.772077 -1.460459 -1.050054 23.000000
1.756203 -1.481341 -1.047357 19.000000
1.743621 -1.505044 -1.046729 19.000000
1.744477 -1.540657 -1.054187 23.000000
1.733849 -1.567900 -1.055808 10.000000
1.727060 -1.597619 -1.058990 18.000000
1.726464 -1.633531 -1.066231 24.000000
1.678672 -1.625859 -1.045156 28.000000
1.628880 -1.613407 -1.021679 43.000000
1.591550 -1.613650 -1.006743 35.000000
1.568097 -1.625686 -0.999593 38.000000
1.546869 -1.641352 -0.994786 38.000000
1.535772 -1.666138 -0.995574 32.000000
1.514202 -1.681316 -0.990699 45.000000
1.489528 -1.692752 -0.983760 47.000000
1.471736 -1.710093 -0.980381 36.000000
1.455845 -1.731398 -0.979365 51.000000
1.430910 -1.741905 -0.972320 36.000000
1.409901 -1.754956 -0.966901 36.000000
1.393449 -1.775620 -0.965727 34.000000
1.379491 -1.799778 -0.966426 23.000000
1.370815 -1.831216 -0.971006 33.000000
1.348001 -1.844106 -0.965723 31.000000
1.325116 -1.856703 -0.960452 30.000000
1.303444 -1.868254 -0.954743 33.000000
1.275299 -1.872642 -0.945574 28.000000
1.262513 -1.899612 -0.947884 31.000000
1.244373 -1.918790 -0.946328 26.000000
1.221055 -1.929989 -0.940873 22.000000
1.204959 -1.952712 -0.941050 29.000000
1.183691 -1.967319 -0.937493 29.000000
1.164692 -1.985770 -0.935667 26.000000
1.143079 -2.000027 -0.932027 29.000000
0.697897 1.261645 -0.568904 29.000000
0.709225 1.248947 -0.569332 25.000000
0.729727 1.252218 -0.577097 27.000000
0.740865 1.239188 -0.577478 31.000000
0.759002 1.238035 -0.583389 28.000000
0.772327 1.228722 -0.585585 34.000000
0.763015 1.184160 -0.570881 20.000000
0.778323 1.178701 -0.574853 25.000000
0.793669 1.172994 -0.578793 36.000000
0.803734 1.159480 -0.578949 29.000000
0.824329 1.160969 -0.586711 34.000000
0.836877 1.150911 -0.588732 33.000000
0.852136 1.144369 -0.592624 29.000000
0.861785 1.130327 -0.592680 35.000000
0.862700 1.105256 -0.586885 22.000000
0.876894 1.098793 -0.590956 34.000000
0.880157 1.077386 -0.586987 49.000000
0.909628 1.087888 -0.600529 35.000000
0.906559 1.059316 -0.592583 54.000000
0.935685 1.069448 -0.606345 51.000000
0.950491 1.061510 -0.610104 30.000000
0.993164 1.083789 -0.631592 14.000000
1.026465 1.095622 -0.647454 9.000000
1.032139 1.076473 -0.645279 17.000000
0.979792 0.998454 -0.607198 41.000000
0.961042 0.957791 -0.591088 44.000000
0.955199 0.930111 -0.582613 86.000000
0.965012 0.918877 -0.584300 47.000000
0.975180 0.907110 -0.585721 88.000000
0.981432 0.892532 -0.585345 95.000000
0.987484 0.877901 -0.584915 32.000000
0.976569 0.847886 -0.574066 40.000000
0.982112 0.833401 -0.573544 57.000000
0.987505 0.818869 -0.572925 57.000000
0.992749 0.804291 -0.572339 81.000000
1.008532 0.798159 -0.577804 77.000000
1.002711 0.775045 -0.570923 70.000000
1.011067 0.763126 -0.572238 84.000000
1.004630 0.740272 -0.565259 54.000000
0.994179 0.715024 -0.556134 95.000000
0.998212 0.700588 -0.555212 68.000000
1.005859 0.688688 -0.556316 95.000000
1.017164 0.679232 -0.559500 95.000000
1.024553 0.667123 -0.560526 86.000000
1.023943 0.650267 -0.557581 95.000000
1.027211 0.635655 -0.556467 88.000000
1.033908 0.623640 -0.557603 63.000000
1.025156 0.602069 -0.550098 95.000000
1.027616 0.587784 -0.549073 91.000000
1.037870 0.577922 -0.552176 98.000000
1.048011 0.567888 -0.555287 98.000000
1.054352 0.555327 -0.556010 91.000000
1.060331 0.542927 -0.556893 100.000000
1.058082 0.526373 -0.553534 95.000000
1.059503 0.512097 -0.552405 95.000000
1.040479 0.488071 -0.540432 59.000000
1.045789 0.475785 -0.541130 74.000000
1.050789 0.463576 -0.542021 91.000000
1.055866 0.451135 -0.542641 87.000000
1.052320 0.435317 -0.539138 90.000000
1.069556 0.428048 -0.546295 98.000000
1.078320 0.417109 -0.549141 84.000000
1.070123 0.399713 -0.543362 72.000000
1.070162 0.385637 -0.541829 65.000000
1.074353 0.373063 -0.542368 88.000000
1.074111 0.358982 -0.540752 98.000000
1.073608 0.345078 -0.539246 98.000000
1.081541 0.333857 -0.542015 98.000000
1.076571 0.318545 -0.538038 98.000000
1.084328 0.307198 -0.540695 95.000000
1.087494 0.294609 -0.541344 98.000000
1.081935 0.279575 -0.537391 53.000000
1.084962 0.266898 -0.537770 77.000000
1.078990 0.252209 -0.533883 95.000000
1.077258 0.238622 -0.532124 80.000000
1.084208 0.226984 -0.534672 91.000000
1.086610 0.214297 -0.535009 100.000000
1.088825 0.201647 -0.535422 85.000000
1.082132 0.187349 -0.531293 95.000000
1.084068 0.174727 -0.531591 63.000000
1.085930 0.162106 -0.531851 95.000000
1.092100 0.150022 -0.534255 98.000000
1.089169 0.136751 -0.532372 100.000000
1.086151 0.123510 -0.530302 98.000000
1.091887 0.111322 -0.532670 100.000000
1.093041 0.098589 -0.532819 95.000000
1.094009 0.085856 -0.533043 100.000000
1.072502 0.071588 -0.522156 48.000000
1.073195 0.059079 -0.522265 95.000000
1.109721 0.048129 -0.539823 113.000000
1.830121 -0.005962 -0.889754 26.000000
1.874960 -0.027933 -0.911551 21.000000
1.897120 -0.050355 -0.922223 23.000000
1.896411 -0.072441 -0.922159 21.000000
1.895510 -0.094528 -0.922030 21.000000
1.912372 -0.117719 -0.930510 27.000000
1.910877 -0.140015 -0.930445 11.000000
1.882489 -0.159961 -0.916891 17.000000
1.871675 -0.181013 -0.912206 23.000000
1.860688 -0.201855 -0.907461 21.000000
1.827007 -0.219803 -0.892004 28.000000
1.797868 -0.237486 -0.878365 27.000000
1.839645 -0.264868 -0.899782 22.000000
1.876707 -0.292533 -0.918939 26.000000
1.909004 -0.320322 -0.935770 14.000000
1.918623 -0.345020 -0.941836 17.000000
1.914857 -0.367352 -0.941109 25.000000
1.910694 -0.389684 -0.940514 18.000000
1.910802 -0.412901 -0.941958 22.000000
1.906233 -0.435152 -0.941229 21.000000
1.914609 -0.460432 -0.946869 20.000000
1.922516 -0.486151 -0.952698 24.000000
1.917078 -0.508643 -0.951959 10.000000
1.885505 -0.523626 -0.937786 11.000000
1.901400 -0.551898 -0.947719 22.000000
1.899420 -0.575513 -0.949139 19.000000
1.884571 -0.594885 -0.943756 21.000000
1.882376 -0.618215 -0.944772 22.000000
1.892565 -0.646087 -0.952434 20.000000
1.893844 -0.671275 -0.955715 22.000000
1.877964 -0.690295 -0.950271 10.000000
1.887213 -0.718695 -0.957691 18.000000
1.875097 -0.739069 -0.954256 21.000000
1.879557 -0.766032 -0.959373 15.000000
1.887938 -0.794976 -0.966468 21.000000
1.870725 -0.813556 -0.961031 18.000000
1.874302 -0.840859 -0.965831 17.000000
1.869057 -0.864789 -0.966639 19.000000
1.859476 -0.886728 -0.965250 10.000000
1.854031 -0.910247 -0.965563 11.000000
1.848125 -0.933999 -0.966146 24.000000
1.849869 -0.961960 -0.970874 16.000000
1.854980 -0.992485 -0.977971 20.000000
1.852097 -1.018593 -0.980409 21.000000
1.841004 -1.040209 -0.978560 18.000000
1.845476 -1.070724 -0.985023 21.000000
1.813923 -1.081046 -0.972984 10.000000
1.810038 -1.106859 -0.975102 10.000000
1.820807 -1.142804 -0.985826 22.000000
1.827656 -1.176255 -0.994058 16.000000
1.829858 -1.207868 -1.000465 22.000000
1.827779 -1.237218 -1.004694 21.000000
1.817828 -1.261423 -1.004689 17.000000
1.818808 -1.293413 -1.010790 22.000000
1.786114 -1.301454 -0.998255 9.000000
1.797404 -1.341634 -1.010411 10.000000
1.771894 -1.354495 -1.001937 17.000000
1.789460 -1.400625 -1.017946 15.000000
1.795562 -1.438802 -1.027672 18.000000
1.787090 -1.465667 -1.029125 18.000000
1.771185 -1.486668 -1.026500 16.000000
1.789812 -1.537150 -1.044031 25.000000
1.765620 -1.552682 -1.037553 11.000000
1.786423 -1.607059 -1.056873 17.000000
1.765829 -1.624787 -1.051822 24.000000
1.764275 -1.661762 -1.059195 19.000000
1.700374 -1.637822 -1.028177 26.000000
1.629806 -1.606735 -0.993569 33.000000
1.590201 -1.602889 -0.976628 33.000000
1.565942 -1.615439 -0.970041 55.000000
1.544764 -1.630945 -0.965300 29.000000
1.540174 -1.662340 -0.970037 35.000000
1.518657 -1.677437 -0.965217 49.000000
1.494016 -1.688786 -0.958452 36.000000
1.473357 -1.702576 -0.953213 62.000000
1.454629 -1.720260 -0.950303 35.000000
1.438538 -1.741274 -0.949255 66.000000
1.410707 -1.747778 -0.940397 61.000000
1.395509 -1.767675 -0.938903 31.000000
1.367689 -1.773459 -0.930022 28.000000
1.351079 -1.793578 -0.928825 32.000000
1.331502 -1.809819 -0.925637 28.000000
1.309077 -1.822080 -0.920476 32.000000
1.286511 -1.834054 -0.915328 30.000000
1.274347 -1.860953 -0.917658 32.000000
1.241259 -1.857071 -0.904927 33.000000
1.248974 -1.914723 -0.922193 24.000000
1.228212 -1.929768 -0.918733 22.000000
1.199953 -1.932680 -0.909628 25.000000
1.188642 -1.963080 -0.913511 24.000000
1.160296 -1.965393 -0.904442 29.000000
1.136624 -1.975447 -0.899011 21.000000
1.122068 -2.001458 -0.900905 27.000000
0.703999 1.263869 -0.556274 15.000000
0.719890 1.259261 -0.560299 24.000000
0.731056 1.246461 -0.560674 14.000000
0.749246 1.245505 -0.566481 24.000000
0.755290 1.224429 -0.563203 24.000000
0.773419 1.223148 -0.568983 13.000000
0.768860 1.186433 -0.558264 24.000000
0.779045 1.173191 -0.558462 17.000000
0.802165 1.179076 -0.567896 22.000000
0.804243 1.154096 -0.562484 26.000000
0.827508 1.159448 -0.571877 17.000000
0.842798 1.153120 -0.575761 28.000000
0.846969 1.131789 -0.572061 25.000000
0.870477 1.136260 -0.581497 22.000000
0.868499 1.107483 -0.573989 29.000000
0.877662 1.093345 -0.573950 21.000000
0.892480 1.086331 -0.577654 26.000000
0.895385 1.064909 -0.573744 34.000000
0.919012 1.068124 -0.583184 23.000000
0.926992 1.053953 -0.583220 32.000000
0.950892 1.056447 -0.592633 10.000000
0.999951 1.085693 -0.617529 9.000000
1.071272 1.137794 -0.656316 10.000000
1.125298 1.167998 -0.683364 9.000000
1.160768 1.177311 -0.698816 10.000000
1.150273 1.141089 -0.687285 18.000000
1.080254 1.047122 -0.640169 41.000000
0.991163 0.939545 -0.583115 59.000000
0.974564 0.902596 -0.568819 32.000000
0.997709 0.903464 -0.578301 36.000000
1.000845 0.885309 -0.575730 16.000000
0.982485 0.849527 -0.561371 21.000000
0.998518 0.843919 -0.566817 44.000000
1.000881 0.825992 -0.564091 33.000000
0.998987 0.805573 -0.559479 34.000000
1.014814 0.799450 -0.564852 48.000000
1.019748 0.784696 -0.564178 29.000000
1.020877 0.767148 -0.561440 42.000000
1.021801 0.749687 -0.558683 18.000000
1.022438 0.732273 -0.555866 32.000000
1.030369 0.720146 -0.556999 77.000000
1.030665 0.702787 -0.554115 34.000000
1.026878 0.682993 -0.549097 42.000000
1.030504 0.668313 -0.548089 95.000000
1.030054 0.651244 -0.545033 42.000000
1.040823 0.641661 -0.548219 76.000000
1.043947 0.626922 -0.547110 32.000000
1.030913 0.603268 -0.537944 44.000000
1.037550 0.590995 -0.538784 61.000000
1.043826 0.578882 -0.539783 84.000000
1.054031 0.568811 -0.542847 78.000000
1.056299 0.554135 -0.541502 71.000000
1.070325 0.545918 -0.546522 71.000000
1.072129 0.531329 -0.545335 98.000000
1.065573 0.512851 -0.539908 34.000000
1.067008 0.498390 -0.538622 35.000000
1.047385 0.474761 -0.527032 53.000000
1.048398 0.460618 -0.525641 35.000000
1.061602 0.451988 -0.530627 66.000000
1.070762 0.441199 -0.533299 86.000000
1.075431 0.428709 -0.534039 70.000000
1.080022 0.416180 -0.534739 76.000000
1.084458 0.403574 -0.535400 34.000000
1.080238 0.387823 -0.531819 46.000000
1.084446 0.375161 -0.532398 91.000000
1.084197 0.361066 -0.530793 68.000000
1.088119 0.348338 -0.531293 98.000000
1.091772 0.335687 -0.531870 95.000000
1.090963 0.321716 -0.530334 89.000000
1.094410 0.309001 -0.530832 98.000000
1.102077 0.297427 -0.533408 82.000000
1.096497 0.282326 -0.529594 62.000000
1.095150 0.268430 -0.527818 93.000000
1.097962 0.255702 -0.528312 79.000000
1.096201 0.241960 -0.526606 68.000000
1.098774 0.229208 -0.526985 95.000000
1.110077 0.218163 -0.531578 81.000000
1.099093 0.202768 -0.525463 90.000000
1.096707 0.189260 -0.523711 83.000000
1.089839 0.175025 -0.519602 77.000000
1.100611 0.163697 -0.524124 98.000000
1.097782 0.150321 -0.522367 98.000000
1.099390 0.137536 -0.522517 95.000000
1.100848 0.124751 -0.522629 103.000000
1.106617 0.112422 -0.524987 95.000000
1.107781 0.099547 -0.525137 100.000000
1.099742 0.086005 -0.521091 71.000000
1.082593 0.072034 -0.512585 87.000000
1.812503 0.015236 -0.857057 30.000000
1.866806 -0.005987 -0.882641 19.000000
1.925437 -0.028536 -0.910359 26.000000
1.956746 -0.051733 -0.925054 25.000000
1.942467 -0.073946 -0.918579 21.000000
1.950578 -0.096899 -0.922720 26.000000
1.949458 -0.119575 -0.922456 24.000000
1.925396 -0.140539 -0.911714 10.000000
1.941920 -0.164413 -0.919795 22.000000
1.944514 -0.187339 -0.921599 24.000000
1.937908 -0.209397 -0.919071 21.000000
1.890504 -0.226573 -0.897554 18.000000
1.919325 -0.252675 -0.912151 24.000000
1.889715 -0.271026 -0.898720 21.000000
1.931396 -0.299861 -0.919490 20.000000
1.896664 -0.317181 -0.904266 9.000000
1.937707 -0.347079 -0.924813 19.000000
1.929345 -0.368797 -0.922223 18.000000
1.934111 -0.392983 -0.925808 19.000000
1.920868 -0.413564 -0.920899 15.000000
1.929545 -0.438827 -0.926464 19.000000
1.929216 -0.462220 -0.927716 21.000000
1.928395 -0.485783 -0.929164 16.000000
1.940491 -0.512854 -0.936887 9.000000
1.921710 -0.531805 -0.929669 18.000000
1.911448 -0.552836 -0.926618 13.000000
1.940142 -0.585487 -0.942481 18.000000
1.925079 -0.605275 -0.937178 15.000000
1.905356 -0.623451 -0.929983 12.000000
1.915590 -0.651551 -0.937447 19.000000
1.895539 -0.669340 -0.930127 11.000000
1.892434 -0.693005 -0.931075 9.000000
1.914493 -0.726227 -0.944584 12.000000
1.893896 -0.743477 -0.937002 10.000000
1.898389 -0.770614 -0.941969 13.000000
1.893978 -0.794600 -0.942954 11.000000
1.889527 -0.818339 -0.943520 10.000000
1.892856 -0.846024 -0.948516 13.000000
1.875549 -0.864066 -0.942693 10.000000
1.886539 -0.895714 -0.951674 9.000000
1.880753 -0.919775 -0.952274 11.000000
1.878778 -0.945769 -0.954863 10.000000
1.880548 -0.973977 -0.959431 14.000000
1.857489 -0.989758 -0.951902 10.000000
1.874683 -1.026725 -0.964536 14.000000
1.867564 -1.050716 -0.964799 16.000000
1.855731 -1.072804 -0.963222 10.000000
1.844185 -1.094247 -0.961214 9.000000
1.859278 -1.132671 -0.973856 10.000000
1.843323 -1.151723 -0.969708 10.000000
1.849769 -1.185693 -0.978059 13.000000
1.825176 -1.199960 -0.970062 10.000000
1.830854 -1.234179 -0.978219 10.000000
1.836106 -1.268699 -0.986261 11.000000
1.833308 -1.298225 -0.990226 10.000000
1.830263 -1.327791 -0.994091 9.000000
1.815715 -1.349274 -0.991829 9.000000
1.801017 -1.370530 -0.989492 10.000000
1.822247 -1.419730 -1.007062 13.000000
1.803281 -1.438173 -1.002607 10.000000
1.794809 -1.465005 -1.004051 10.000000
1.799369 -1.504166 -1.013719 16.000000
1.807657 -1.546033 -1.024839 11.000000
1.822177 -1.594284 -1.039831 10.000000
1.793974 -1.606957 -1.031433 10.000000
1.793818 -1.643277 -1.038288 13.000000
1.788839 -1.677336 -1.043537 18.000000
1.741123 -1.669402 -1.022878 12.000000
1.640313 -1.609552 -0.971488 16.000000
1.597233 -1.602403 -0.952916 29.000000
1.563393 -1.604995 -0.940616 25.000000
1.548775 -1.627024 -0.939877 26.000000
1.537974 -1.651614 -0.940677 29.000000
1.519768 -1.669969 -0.937917 30.000000
1.498268 -1.684649 -0.933169 32.000000
1.468558 -1.687900 -0.922344 30.000000
1.462004 -1.719497 -0.927063 32.000000
1.428379 -1.719125 -0.914690 30.000000
1.412430 -1.739744 -0.913630 29.000000
1.404891 -1.771174 -0.918127 28.000000
1.385531 -1.787928 -0.915074 21.000000
1.357624 -1.793366 -0.906415 21.000000
1.338087 -1.809499 -0.903233 25.000000
1.304736 -1.806665 -0.890845 21.000000
1.287785 -1.826062 -0.889471 22.000000
1.275876 -1.852960 -0.891843 26.000000
1.266093 -1.883613 -0.895863 22.000000
1.248242 -1.902695 -0.894416 20.000000
1.217606 -1.901858 -0.883695 17.000000
1.211916 -1.940145 -0.891256 18.000000
1.183662 -1.942662 -0.882311 19.000000
1.167429 -1.964905 -0.882487 21.000000
1.141516 -1.970884 -0.875386 17.000000
1.127106 -1.996785 -0.877246 19.000000
0.707669 1.261961 -0.541844 25.000000
0.725917 1.261444 -0.547486 19.000000
0.744149 1.260721 -0.553204 26.000000
0.755244 1.247695 -0.553579 20.000000
0.775964 1.250464 -0.561017 25.000000
0.779351 1.225331 -0.556028 24.000000
0.788201 1.207644 -0.554291 10.000000
0.790796 1.182657 -0.549164 26.000000
0.795598 1.161577 -0.545698 20.000000
0.816160 1.163436 -0.553120 22.000000
0.831396 1.157399 -0.556848 31.000000
0.841105 1.143610 -0.556982 21.000000
0.861832 1.144661 -0.564388 26.000000
0.854325 1.108495 -0.553398 27.000000
0.909484 1.152983 -0.582905 14.000000
0.860702 1.066188 -0.545923 30.000000
0.872270 1.055835 -0.547678 27.000000
0.886112 1.049297 -0.551477 32.000000
0.891430 1.031665 -0.549411 43.000000
0.936464 1.059142 -0.571689 18.000000
0.979088 1.082236 -0.592211 13.000000
1.050630 1.135078 -0.629767 10.000000
1.103754 1.166603 -0.656396 9.000000
1.206665 1.246376 -0.711308 18.000000
1.483078 1.464566 -0.860489 18.000000
0.999964 0.880856 -0.558720 34.000000
0.995734 0.856792 -0.552292 38.000000
0.997772 0.839249 -0.549841 35.000000
1.010268 0.830471 -0.553214 87.000000
1.012319 0.812574 -0.550480 57.000000
1.017347 0.797859 -0.549857 39.000000
1.029574 0.788736 -0.553148 74.000000
1.030646 0.771136 -0.550507 33.000000
1.046355 0.764424 -0.555687 52.000000
1.039658 0.741449 -0.548992 54.000000
1.040138 0.723986 -0.546222 72.000000
1.025189 0.696259 -0.535460 95.000000
1.059503 0.701926 -0.550399 90.000000
1.032439 0.667015 -0.533579 85.000000
1.035839 0.652385 -0.532566 95.000000
1.042928 0.640163 -0.533503 73.000000
1.045760 0.625751 -0.532641 81.000000
1.044705 0.608760 -0.529523 52.000000
1.055131 0.598894 -0.532580 83.000000
1.061723 0.586400 -0.533388 95.000000
1.067950 0.574067 -0.534359 95.000000
1.078352 0.563529 -0.537106 95.000000
1.088436 0.553018 -0.540021 95.000000
1.082087 0.534236 -0.534840 84.000000
1.091928 0.523603 -0.537675 98.000000
1.081022 0.503115 -0.530355 32.000000
1.061462 0.479214 -0.518864 95.000000
1.062338 0.465088 -0.517682 95.000000
1.067377 0.452647 -0.518340 95.000000
1.080742 0.443594 -0.523008 95.000000
1.085469 0.431055 -0.523750 85.000000
1.085781 0.416842 -0.522404 95.000000
1.090217 0.404196 -0.523066 95.000000
1.120290 0.400724 -0.536011 31.000000
1.094429 0.377303 -0.522216 100.000000
1.089849 0.361681 -0.518604 98.000000
1.089431 0.347569 -0.517044 98.000000
1.093069 0.334968 -0.517657 100.000000
1.096746 0.322214 -0.518040 100.000000
1.091389 0.306995 -0.514406 98.000000
1.103449 0.296707 -0.518997 98.000000
1.093363 0.280483 -0.513248 35.000000
1.096315 0.267882 -0.513740 98.000000
1.094759 0.254063 -0.512008 95.000000
1.088548 0.239445 -0.508273 95.000000
1.091053 0.226846 -0.508647 100.000000
1.097909 0.215047 -0.511061 100.000000
1.100198 0.202322 -0.511324 98.000000
1.093413 0.187982 -0.507390 95.000000
1.099876 0.176041 -0.509806 36.000000
1.101707 0.163331 -0.510068 95.000000
1.112435 0.151774 -0.514458 100.000000
1.104997 0.137760 -0.510442 103.000000
1.110934 0.125485 -0.512788 100.000000
1.112210 0.112647 -0.513013 98.000000
1.108848 0.099367 -0.511077 100.000000
1.118917 0.087213 -0.515362 103.000000
1.968946 0.107679 -0.905800 28.000000
1.970006 0.084898 -0.905933 29.000000
1.975408 0.062260 -0.908020 30.000000
1.962246 0.039155 -0.901955 27.000000
1.985291 0.016604 -0.912462 26.000000
1.967185 -0.006277 -0.904109 25.000000
1.962444 -0.028938 -0.901890 21.000000
1.957572 -0.051560 -0.899605 21.000000
1.988631 -0.075388 -0.914149 24.000000
1.992233 -0.098604 -0.916035 25.000000
1.982023 -0.121093 -0.911661 21.000000
1.989621 -0.144690 -0.915700 18.000000
1.960710 -0.165441 -0.902986 13.000000
1.981413 -0.190275 -0.913079 25.000000
1.974755 -0.212712 -0.910594 23.000000
1.972421 -0.235517 -0.910128 23.000000
1.969687 -0.258322 -0.909794 21.000000
1.971254 -0.281770 -0.911408 24.000000
1.959126 -0.303170 -0.906714 20.000000
1.969257 -0.328031 -0.912350 18.000000
1.929688 -0.344479 -0.895330 12.000000
1.948149 -0.371095 -0.905184 20.000000
1.935106 -0.391776 -0.900370 18.000000
1.948531 -0.417977 -0.908000 21.000000
1.952863 -0.442511 -0.911340 24.000000
1.938973 -0.463089 -0.906596 19.000000
1.942792 -0.487628 -0.909796 18.000000
1.937421 -0.510120 -0.908991 16.000000
1.949275 -0.537385 -0.916373 10.000000
1.952135 -0.562468 -0.919548 22.000000
1.954531 -0.587754 -0.922988 18.000000
1.952522 -0.611675 -0.923884 21.000000
1.950005 -0.635765 -0.925049 23.000000
1.938614 -0.656961 -0.922034 19.000000
1.935654 -0.680946 -0.923058 18.000000
1.936739 -0.706526 -0.925988 15.000000
1.924746 -0.727328 -0.922769 10.000000
1.950764 -0.762852 -0.937807 22.000000
1.921339 -0.776849 -0.926205 15.000000
1.929462 -0.806336 -0.933318 18.000000
1.928903 -0.832388 -0.936130 20.000000
1.919989 -0.854568 -0.934586 11.000000
1.910513 -0.876959 -0.933252 14.000000
1.904959 -0.901094 -0.933874 12.000000
1.895041 -0.923252 -0.932397 10.000000
1.909515 -0.957501 -0.942964 21.000000
1.894974 -0.977565 -0.939310 13.000000
1.904166 -1.010549 -0.948023 19.000000
1.889223 -1.030420 -0.944289 16.000000
1.897652 -1.063850 -0.952812 14.000000
1.921938 -1.106311 -0.968945 18.000000
1.901714 -1.124171 -0.963250 12.000000
1.870050 -1.134200 -0.951220 10.000000
1.884717 -1.173074 -0.963406 19.000000
1.863984 -1.190217 -0.957587 13.000000
1.873933 -1.227074 -0.967645 16.000000
1.868005 -1.254160 -0.969592 18.000000
1.865600 -1.283804 -0.973497 10.000000
1.874067 -1.321433 -0.983213 10.000000
1.863327 -1.346054 -0.982971 10.000000
1.815402 -1.343103 -0.963030 9.000000
1.852139 -1.403129 -0.988177 18.000000
1.840519 -1.427526 -0.987741 11.000000
1.850326 -1.468957 -0.998900 13.000000
1.840958 -1.496766 -1.000594 18.000000
1.842566 -1.532880 -1.007690 10.000000
1.833085 -1.560201 -1.008778 19.000000
1.822598 -1.588087 -1.010325 12.000000
1.809093 -1.612186 -1.009369 10.000000
1.825185 -1.664854 -1.026064 22.000000
1.807470 -1.685835 -1.023044 16.000000
1.788694 -1.707304 -1.020350 19.000000
1.683748 -1.644604 -0.968200 26.000000
1.600875 -1.598562 -0.927247 24.000000
1.573478 -1.607591 -0.919037 39.000000
1.539676 -1.609547 -0.907013 29.000000
1.538698 -1.644151 -0.913401 29.000000
1.511217 -1.652058 -0.905109 60.000000
1.489922 -1.666583 -0.900514 36.000000
1.474662 -1.687729 -0.899582 48.000000
1.456164 -1.705196 -0.896781 66.000000
1.426636 -1.707519 -0.886138 35.000000
1.413804 -1.731603 -0.886976 75.000000
1.392041 -1.744702 -0.882202 30.000000
1.373071 -1.761182 -0.879272 26.000000
1.351061 -1.773738 -0.874444 36.000000
1.328985 -1.786008 -0.869628 28.000000
1.315063 -1.809302 -0.870190 35.000000
1.290037 -1.817226 -0.863428 31.000000
1.286290 -1.855545 -0.871165 28.000000
1.245273 -1.839910 -0.853569 33.000000
1.246040 -1.885824 -0.864665 23.000000
1.229387 -1.909116 -0.865272 21.000000
1.203870 -1.915809 -0.858388 31.000000
1.180821 -1.926075 -0.853298 25.000000
1.162513 -1.944168 -0.851667 29.000000
1.146256 -1.966069 -0.851850 29.000000
1.122732 -1.975715 -0.846619 25.000000
0.696779 1.268827 -0.525427 18.000000
0.713610 1.264035 -0.529066 26.000000
0.724742 1.251391 -0.529469 22.000000
0.738136 1.242650 -0.531537 20.000000
0.753829 1.237773 -0.535337 32.000000
0.767031 1.228767 -0.537412 25.000000
0.788569 1.230937 -0.544534 24.000000
0.758071 1.154909 -0.516754 19.000000
0.773062 1.149746 -0.520448 23.000000
0.782694 1.136634 -0.520580 30.000000
0.792198 1.123450 -0.520655 24.000000
0.817989 1.132930 -0.531380 30.000000
0.824617 1.115653 -0.529684 30.000000
0.839444 1.109497 -0.533286 24.000000
0.857117 1.106873 -0.538651 29.000000
0.857477 1.081997 -0.533230 18.000000
0.851512 1.050064 -0.524147 29.000000
0.874786 1.054230 -0.533081 52.000000
0.880197 1.036677 -0.531103 35.000000
0.891425 1.026206 -0.532752 35.000000
0.964383 1.085116 -0.571003 20.000000
1.010558 1.111495 -0.592909 16.000000
1.079049 1.161157 -0.627980 14.000000
1.162125 1.222333 -0.670433 10.000000
1.253191 1.288386 -0.716767 11.000000
1.352383 1.358937 -0.767002 25.000000
1.674287 1.645874 -0.942650 23.000000
1.725800 1.658009 -0.963799 16.000000
1.669632 1.567570 -0.925119 26.000000
1.614462 1.482383 -0.888318 30.000000
1.024747 0.858586 -0.548357 84.000000
1.016378 0.831685 -0.540040 61.000000
1.032438 0.825584 -0.545240 71.000000
1.037961 0.810390 -0.544464 83.000000
1.039270 0.792699 -0.541939 61.000000
1.047777 0.780565 -0.543191 71.000000
1.044916 0.760199 -0.538672 35.000000
1.045597 0.742637 -0.536012 76.000000
1.061151 0.735632 -0.541022 95.000000
1.057643 0.715451 -0.536366 95.000000
1.034609 0.682762 -0.521902 100.000000
1.065239 0.685570 -0.534592 95.000000
1.049304 0.658380 -0.523913 98.000000
1.052518 0.643665 -0.522947 95.000000
1.059511 0.631315 -0.523846 58.000000
1.066177 0.619087 -0.524910 95.000000
1.072965 0.606533 -0.525768 98.000000
1.075561 0.591681 -0.524621 95.000000
1.085887 0.581425 -0.527568 100.000000
1.088028 0.566707 -0.526536 95.000000
1.090163 0.551799 -0.525254 98.000000
1.091928 0.537149 -0.524169 98.000000
1.093568 0.522473 -0.522997 95.000000
1.095004 0.507813 -0.521778 95.000000
1.079580 0.485640 -0.512607 95.000000
1.097430 0.478582 -0.519244 98.000000
1.098382 0.463974 -0.517929 95.000000
1.103262 0.451358 -0.518723 98.000000
1.095395 0.433405 -0.513286 95.000000
1.099983 0.420739 -0.513992 95.000000
1.095859 0.404819 -0.510654 69.000000
1.104492 0.393672 -0.513281 98.000000
1.100049 0.377884 -0.509853 98.000000
1.108466 0.366570 -0.512405 100.000000
1.112395 0.353691 -0.512872 100.000000
1.107454 0.338100 -0.509312 98.000000
1.111044 0.325322 -0.509891 98.000000
1.105670 0.310035 -0.506359 100.000000
1.113459 0.298350 -0.508683 98.000000
1.107788 0.283203 -0.505066 95.000000
1.106282 0.269380 -0.503578 98.000000
1.113625 0.257568 -0.505943 98.000000
1.111830 0.243772 -0.504337 100.000000
1.105538 0.229000 -0.500550 95.000000
1.116921 0.217974 -0.504907 98.000000
1.110173 0.203484 -0.501304 98.000000
1.116863 0.191404 -0.503561 95.000000
1.123418 0.179182 -0.505781 95.000000
1.120761 0.165558 -0.504015 100.000000
1.108923 0.150807 -0.498142 98.000000
1.119520 0.139149 -0.502548 98.000000
1.125529 0.126732 -0.504696 100.000000
1.126815 0.113752 -0.504885 103.000000
1.137085 0.101547 -0.509109 113.000000
1.991092 0.131628 -0.890190 25.000000
1.992359 0.108623 -0.890457 27.000000
1.993426 0.085685 -0.890590 28.000000
1.989663 0.062537 -0.888552 29.000000
1.994759 0.039675 -0.890790 30.000000
1.995026 0.016670 -0.890857 27.000000
1.985962 -0.006306 -0.886780 19.000000
1.999525 -0.029407 -0.892762 19.000000
2.008252 -0.052637 -0.896637 25.000000
2.007581 -0.075800 -0.896570 22.000000
2.002080 -0.098737 -0.894331 23.000000
2.005499 -0.122058 -0.896100 24.000000
1.990358 -0.144231 -0.889923 10.000000
1.997726 -0.167934 -0.893728 20.000000
2.009422 -0.192282 -0.899566 28.000000
2.007264 -0.215416 -0.899161 26.000000
1.995697 -0.237537 -0.894824 24.000000
1.984019 -0.259247 -0.890155 19.000000
1.990192 -0.283392 -0.893750 21.000000
2.000584 -0.308443 -0.899303 29.000000
1.992494 -0.330812 -0.896936 10.000000
1.970786 -0.350609 -0.888351 19.000000
1.975958 -0.374902 -0.891602 21.000000
1.976277 -0.398633 -0.893022 21.000000
1.980643 -0.423424 -0.896599 23.000000
1.962665 -0.443182 -0.889722 22.000000
1.966528 -0.467993 -0.893159 17.000000
1.988096 -0.497178 -0.904258 23.000000
1.987052 -0.521308 -0.905523 10.000000
1.981092 -0.544327 -0.904906 17.000000
1.979530 -0.568405 -0.905960 21.000000
1.977736 -0.592516 -0.906941 21.000000
1.979870 -0.618092 -0.910133 21.000000
1.986024 -0.645286 -0.915256 23.000000
1.970248 -0.665316 -0.910203 21.000000
1.971552 -0.691069 -0.913169 21.000000
1.963967 -0.713822 -0.911986 10.000000
1.968974 -0.741280 -0.916795 19.000000
1.956647 -0.762238 -0.913470 19.000000
1.956628 -0.788449 -0.916406 20.000000
1.952371 -0.812673 -0.916992 22.000000
1.947582 -0.837135 -0.917782 19.000000
1.955129 -0.867137 -0.924377 20.000000
1.941355 -0.887910 -0.921117 19.000000
1.923326 -0.906416 -0.915742 9.000000
1.946425 -0.944717 -0.930055 18.000000
1.936076 -0.967140 -0.928474 21.000000
1.937487 -0.996155 -0.933086 21.000000
1.926710 -1.018504 -0.931423 24.000000
1.911602 -1.038441 -0.927653 18.000000
1.948259 -1.087727 -0.949708 21.000000
1.936122 -1.110521 -0.948080 18.000000
1.924207 -1.132648 -0.946082 10.000000
1.923451 -1.162291 -0.950221 17.000000
1.906728 -1.182277 -0.946490 16.000000
1.901501 -1.209442 -0.948587 17.000000
1.899728 -1.239159 -0.952454 20.000000
1.897641 -1.268921 -0.956298 20.000000
1.887549 -1.293584 -0.956187 18.000000
1.896058 -1.331446 -0.965609 17.000000
1.877756 -1.350734 -0.961544 9.000000
1.877953 -1.383402 -0.966987 12.000000
1.862927 -1.405132 -0.964675 16.000000
1.873359 -1.446484 -0.975625 18.000000
1.864364 -1.474409 -0.977318 20.000000
1.877212 -1.519181 -0.989981 17.000000
1.874501 -1.553295 -0.995319 23.000000
1.868403 -1.583787 -0.998333 22.000000
1.843728 -1.599913 -0.992146 10.000000
1.857876 -1.648746 -1.006227 23.000000
1.853201 -1.683133 -1.011264 24.000000
1.842119 -1.710704 -1.011949 24.000000
1.826543 -1.735651 -1.011165 24.000000
1.734096 -1.686079 -0.967653 21.000000
1.637227 -1.627293 -0.920120 31.000000
1.583415 -1.610186 -0.897308 37.000000
1.552805 -1.615394 -0.887349 29.000000
1.535007 -1.633708 -0.884775 62.000000
1.505347 -1.637436 -0.874442 51.000000
1.493628 -1.662158 -0.875464 69.000000
1.463168 -1.665666 -0.865481 82.000000
1.447973 -1.686488 -0.864606 46.000000
1.423565 -1.696377 -0.858227 89.000000
1.410999 -1.720333 -0.859002 64.000000
1.392293 -1.736928 -0.856163 33.000000
1.376248 -1.756980 -0.855041 32.000000
1.345782 -1.758333 -0.844992 32.000000
1.335158 -1.785402 -0.847429 34.000000
1.315797 -1.801123 -0.844372 37.000000
1.288138 -1.805201 -0.836096 31.000000
1.271286 -1.824158 -0.834816 36.000000
1.254279 -1.842960 -0.833450 34.000000
1.236971 -1.861680 -0.832072 30.000000
1.224609 -1.888037 -0.834155 28.000000
1.200497 -1.899160 -0.829494 31.000000
1.187496 -1.925249 -0.831453 32.000000
1.159567 -1.927227 -0.822989 30.000000
1.146015 -1.953050 -0.824834 30.000000
1.125054 -1.966656 -0.821524 34.000000
1.106976 -1.988923 -0.821831 29.000000
0.702653 1.270848 -0.512691 22.000000
0.718514 1.266487 -0.516430 21.000000
0.730569 1.253365 -0.516639 23.000000
0.729379 1.220377 -0.508556 27.000000
0.759581 1.239800 -0.522371 24.000000
0.755277 1.202867 -0.512519 30.000000
0.776555 1.205275 -0.519425 24.000000
0.758341 1.149002 -0.500867 15.000000
0.768006 1.136080 -0.500984 27.000000
0.785513 1.134665 -0.506255 25.000000
0.797671 1.125379 -0.508094 32.000000
0.815247 1.123459 -0.513357 28.000000
0.827306 1.113794 -0.515164 31.000000
0.844946 1.111452 -0.520418 32.000000
0.859734 1.105099 -0.523943 24.000000
0.854822 1.072551 -0.514950 24.000000
0.857486 1.051524 -0.511314 31.000000
0.871810 1.044937 -0.514765 32.000000
0.879478 1.031479 -0.514810 60.000000
0.930554 1.066806 -0.539552 25.000000
0.985643 1.104537 -0.566223 25.000000
1.047993 1.148041 -0.596581 21.000000
1.136870 1.217437 -0.641430 12.000000
1.195209 1.251197 -0.668509 9.000000
1.751059 1.713577 -0.956072 22.000000
1.769760 1.692790 -0.958640 25.000000
1.761102 1.646335 -0.946510 20.000000
1.750868 1.600987 -0.934616 27.000000
1.723453 1.539854 -0.913068 19.000000
1.056660 0.841172 -0.541185 95.000000
1.047276 0.814718 -0.533195 81.000000
1.059653 0.805348 -0.536373 76.000000
1.061140 0.787212 -0.533679 53.000000
1.069576 0.774905 -0.534897 54.000000
1.074100 0.759792 -0.534233 64.000000
1.082247 0.747268 -0.535403 95.000000
1.078790 0.726897 -0.530863 98.000000
1.078903 0.709250 -0.528148 90.000000
1.059304 0.679170 -0.515935 95.000000
1.062729 0.664350 -0.514989 95.000000
1.065976 0.649539 -0.514037 95.000000
1.076995 0.639457 -0.516891 52.000000
1.079942 0.624532 -0.515849 55.000000
1.082715 0.609617 -0.514801 98.000000
1.089159 0.597180 -0.515786 95.000000
1.095727 0.584415 -0.516566 98.000000
1.097828 0.569688 -0.515586 98.000000
1.095846 0.552651 -0.512469 98.000000
1.101731 0.539988 -0.513321 98.000000
1.099167 0.523279 -0.510267 72.000000
1.108951 0.512483 -0.512968 51.000000
1.118656 0.501510 -0.515635 98.000000
1.128321 0.490399 -0.518307 95.000000
1.108103 0.466555 -0.507296 95.000000
1.113161 0.453691 -0.507934 95.000000
1.113657 0.439218 -0.506741 90.000000
1.114155 0.424645 -0.505346 98.000000
1.105703 0.407031 -0.500156 74.000000
1.118672 0.397377 -0.504694 94.000000
1.118571 0.382975 -0.503286 100.000000
1.122689 0.370034 -0.503835 95.000000
1.126649 0.357053 -0.504345 100.000000
1.126094 0.342695 -0.502852 100.000000
1.125391 0.328361 -0.501276 95.000000
1.124427 0.314167 -0.499853 103.000000
1.127722 0.301222 -0.500318 95.000000
1.122034 0.285969 -0.496802 77.000000
1.129536 0.274094 -0.499198 98.000000
1.127994 0.260052 -0.497532 93.000000
1.130724 0.247093 -0.497994 95.000000
1.133377 0.234020 -0.498224 100.000000
1.135838 0.220984 -0.498571 98.000000
1.133667 0.207047 -0.496899 98.000000
1.135812 0.194064 -0.497281 86.000000
1.133347 0.180244 -0.495491 87.000000
1.135216 0.167198 -0.495796 100.000000
1.132423 0.153535 -0.494041 98.000000
1.143127 0.141632 -0.498201 98.000000
1.135500 0.127433 -0.494345 103.000000
2.026474 0.156959 -0.880308 15.000000
2.014227 0.132800 -0.874683 27.000000
2.024799 0.110068 -0.878658 24.000000
2.030462 0.086997 -0.880782 24.000000
2.012932 0.063101 -0.872896 26.000000
2.022641 0.040173 -0.877074 25.000000
2.018390 0.016852 -0.875153 29.000000
2.018457 -0.006311 -0.875085 24.000000
2.027430 -0.029675 -0.878996 22.000000
2.022506 -0.052824 -0.876805 16.000000
2.030935 -0.076452 -0.880646 21.000000
2.016242 -0.099097 -0.874548 18.000000
2.019613 -0.122537 -0.876469 17.000000
2.027352 -0.146414 -0.880106 14.000000
2.007372 -0.168135 -0.871891 18.000000
2.032838 -0.193859 -0.883536 26.000000
2.026102 -0.216661 -0.881144 23.000000
2.014480 -0.238886 -0.876905 17.000000
2.034472 -0.264983 -0.886415 25.000000
2.026994 -0.287733 -0.884024 22.000000
2.010183 -0.308916 -0.877537 16.000000
2.011130 -0.332783 -0.879111 12.000000
2.007539 -0.355818 -0.878366 16.000000
2.003542 -0.378920 -0.877824 18.000000
2.003844 -0.402792 -0.879190 22.000000
2.012774 -0.428818 -0.884639 20.000000
1.990128 -0.447821 -0.875927 17.000000
2.016411 -0.478141 -0.889049 23.000000
2.024490 -0.504668 -0.894270 18.000000
2.014431 -0.526781 -0.891470 10.000000
2.008625 -0.549937 -0.890572 17.000000
2.007032 -0.574220 -0.891568 18.000000
2.013879 -0.601305 -0.896692 22.000000
2.007185 -0.624526 -0.895786 16.000000
2.004589 -0.649094 -0.896837 18.000000
1.997460 -0.672156 -0.895859 20.000000
2.003088 -0.699632 -0.900602 16.000000
1.999749 -0.724201 -0.901427 11.000000
1.987542 -0.745566 -0.898210 15.000000
1.987828 -0.771902 -0.901118 16.000000
1.992318 -0.799800 -0.905605 23.000000
1.974917 -0.819236 -0.900515 17.000000
1.999748 -0.856551 -0.914817 24.000000
1.981808 -0.875943 -0.909650 21.000000
1.980591 -0.902573 -0.912152 13.000000
1.979074 -0.929325 -0.914643 12.000000
1.964795 -0.950099 -0.911198 17.000000
1.970929 -0.980916 -0.917302 20.000000
1.980483 -1.014365 -0.925593 26.000000
1.965439 -1.034940 -0.921985 16.000000
1.974227 -1.068835 -0.930086 20.000000
1.962732 -1.091379 -0.928232 18.000000
1.946557 -1.111853 -0.924768 15.000000
1.962189 -1.150873 -0.936464 15.000000
1.949427 -1.173620 -0.934737 18.000000
1.952258 -1.206018 -0.940596 18.000000
1.942923 -1.231125 -0.940596 22.000000
1.925542 -1.251050 -0.936812 16.000000
1.934970 -1.288780 -0.946152 18.000000
1.936182 -1.321594 -0.951684 20.000000
1.917946 -1.341252 -0.947645 12.000000
1.933535 -1.385044 -0.960466 14.000000
1.903546 -1.396302 -0.950725 13.000000
1.917529 -1.441046 -0.963695 16.000000
1.901909 -1.463135 -0.961328 22.000000
1.886211 -1.484987 -0.958883 16.000000
1.916576 -1.545051 -0.980811 23.000000
1.903582 -1.570005 -0.980068 21.000000
1.900288 -1.604445 -0.985165 21.000000
1.904264 -1.644397 -0.993407 26.000000
1.861618 -1.645202 -0.978109 15.000000
1.874351 -1.695218 -0.992108 23.000000
1.873549 -1.732318 -0.998317 26.000000
1.861084 -1.760712 -0.999275 24.000000
1.801433 -1.743722 -0.974846 19.000000
1.667124 -1.649394 -0.908587 22.000000
1.583443 -1.602605 -0.869954 25.000000
1.559272 -1.614391 -0.863856 35.000000
1.538379 -1.629346 -0.859570 45.000000
1.523676 -1.650795 -0.858792 64.000000
1.480579 -1.640805 -0.841911 91.000000
1.471884 -1.668716 -0.844636 43.000000
1.432348 -1.661137 -0.829567 75.000000
1.418190 -1.680815 -0.828323 61.000000
1.396995 -1.693770 -0.823842 49.000000
1.378532 -1.710087 -0.821122 52.000000
1.376381 -1.748924 -0.829163 27.000000
1.348818 -1.753867 -0.821045 36.000000
1.329877 -1.769640 -0.818236 40.000000
1.316273 -1.792761 -0.818738 31.000000
1.291489 -1.800537 -0.812402 33.000000
1.266653 -1.807896 -0.805948 34.000000
1.252526 -1.830498 -0.806424 32.000000
1.230180 -1.841209 -0.801698 31.000000
1.225835 -1.879221 -0.808780 23.000000
1.201912 -1.890243 -0.804252 29.000000
1.186612 -1.912335 -0.804495 32.000000
1.166117 -1.926193 -0.801286 28.000000
1.145549 -1.939833 -0.798077 31.000000
1.123376 -1.953982 -0.795159 27.000000
1.104676 -1.971300 -0.793534 26.000000
0.684807 1.264827 -0.491514 10.000000
0.706134 1.268595 -0.498238 12.000000
0.719625 1.260210 -0.500252 19.000000
0.728247 1.243484 -0.498994 15.000000
0.737434 1.226314 -0.497479 18.000000
0.750426 1.217622 -0.499467 14.000000
0.763372 1.208745 -0.501409 18.000000
0.778787 1.203643 -0.504966 20.000000
0.766358 1.154718 -0.490015 10.000000
0.776001 1.141804 -0.490181 24.000000
0.785516 1.128773 -0.490290 20.000000
0.797591 1.119506 -0.492073 18.000000
0.812304 1.113906 -0.495502 26.000000
0.821428 1.100569 -0.495548 13.000000
0.851039 1.112862 -0.507277 23.000000
0.862952 1.102813 -0.509005 20.000000
0.865968 1.081673 -0.505546 10.000000
0.856802 1.046074 -0.495176 29.000000
0.865038 1.032370 -0.495077 21.000000
0.897531 1.047097 -0.508767 23.000000
0.958296 1.092966 -0.538110 21.000000
1.029531 1.147956 -0.572848 13.000000
1.089487 1.187591 -0.600803 14.000000
1.172846 1.249915 -0.641070 10.000000
1.234983 1.286724 -0.669320 8.000000
1.376074 1.402991 -0.740204 10.000000
1.749177 1.743296 -0.933120 18.000000
1.788202 1.742247 -0.946331 11.000000
1.786882 1.701804 -0.938196 13.000000
1.781557 1.658414 -0.928143 12.000000
1.781623 1.622342 -0.921991 10.000000
1.813367 1.613654 -0.931439 13.000000
1.725423 1.500371 -0.879796 9.000000
1.645255 1.398976 -0.833649 16.000000
1.570988 1.305058 -0.790440 30.000000
1.073034 0.812063 -0.526485 32.000000
1.062963 0.785836 -0.518589 29.000000
1.075447 0.775948 -0.521416 26.000000
1.087512 0.766234 -0.524467 54.000000
1.099591 0.756257 -0.527440 34.000000
1.092255 0.733150 -0.521211 61.000000
1.092339 0.715406 -0.518600 43.000000
1.103972 0.705215 -0.521478 56.000000
1.099763 0.685026 -0.516952 68.000000
1.107171 0.672255 -0.517889 42.000000
1.118445 0.661719 -0.520685 53.000000
1.117582 0.644097 -0.517899 55.000000
1.100310 0.617454 -0.507551 60.000000
1.111104 0.606852 -0.510250 98.000000
1.113425 0.591970 -0.509336 91.000000
1.111665 0.574722 -0.506332 91.000000
1.105343 0.555707 -0.501603 93.000000
1.119739 0.546858 -0.506058 71.000000
1.117199 0.529999 -0.503110 77.000000
1.127067 0.519062 -0.505771 40.000000
1.141081 0.509834 -0.510287 69.000000
1.142314 0.494852 -0.509136 89.000000
1.147650 0.481635 -0.509793 64.000000
1.157149 0.470119 -0.512347 88.000000
1.149303 0.451654 -0.507266 95.000000
1.145425 0.435210 -0.504153 67.000000
1.150156 0.421947 -0.504679 66.000000
1.119787 0.396386 -0.490071 41.000000
1.132730 0.386508 -0.494478 94.000000
1.136840 0.373506 -0.495031 95.000000
1.132022 0.357602 -0.491718 95.000000
1.135865 0.344583 -0.492189 95.000000
1.144025 0.332775 -0.494497 98.000000
1.138633 0.317187 -0.491211 95.000000
1.142070 0.304023 -0.491562 95.000000
1.140800 0.289801 -0.490070 69.000000
1.139388 0.275603 -0.488536 81.000000
