x y z intensity
1.590179 -1.174322 -0.965588 10.000000
1.566401 -1.185320 -0.956871 9.000000
1.578214 -1.223412 -0.970031 10.000000
1.568323 -1.245112 -0.969974 10.000000
1.558101 -1.266761 -0.969840 12.000000
1.551211 -1.291172 -0.971797 12.000000
1.557715 -1.327238 -0.982318 10.000000
1.553434 -1.354766 -0.986299 10.000000
1.548822 -1.382330 -0.990106 10.000000
1.523938 -1.391655 -0.980999 9.000000
1.548496 -1.446804 -1.003967 16.000000
1.519821 -1.452770 -0.992567 10.000000
1.529296 -1.496674 -1.007117 11.000000
1.522872 -1.524469 -1.010527 11.000000
1.509767 -1.545796 -1.009593 10.000000
1.514346 -1.587312 -1.021676 11.000000
1.494340 -1.601942 -1.016396 10.000000
1.491715 -1.637067 -1.024014 9.000000
1.501632 -1.685232 -1.039487 18.000000
1.482825 -1.703660 -1.036453 18.000000
1.479589 -1.738494 -1.043357 28.000000
1.457377 -1.753148 -1.038067 32.000000
1.443700 -1.778107 -1.038988 33.000000
1.416550 -1.784439 -1.029129 34.000000
1.396866 -1.801834 -1.025848 29.000000
1.379707 -1.822638 -1.024536 10.000000
1.360748 -1.838921 -1.020714 31.000000
1.332463 -1.844551 -1.011183 23.000000
1.317444 -1.868362 -1.011734 28.000000
1.289063 -1.873305 -1.002175 29.000000
1.268512 -1.889231 -0.998611 25.000000
1.246660 -1.900264 -0.992666 26.000000
1.248167 -1.950387 -1.006902 23.000000
1.217029 -1.950227 -0.995257 10.000000
1.202860 -1.977056 -0.997449 24.000000
1.185938 -1.999880 -0.997546 21.000000
1.170911 -2.026571 -0.999577 26.000000
0.696023 1.244609 -0.594510 31.000000
0.709555 1.235840 -0.596820 23.000000
0.725333 1.230899 -0.601070 30.000000
0.733953 1.213887 -0.599448 31.000000
0.759193 1.224280 -0.611424 24.000000
0.755195 1.187655 -0.599991 21.000000
0.760551 1.166718 -0.596282 15.000000
0.780875 1.168698 -0.604333 26.000000
0.785795 1.147624 -0.600489 30.000000
0.803594 1.145379 -0.606547 23.000000
0.810715 1.127974 -0.604650 36.000000
0.830415 1.129430 -0.612925 28.000000
0.859266 1.141102 -0.626990 27.000000
0.813109 1.054351 -0.586698 26.000000
0.796315 1.008386 -0.568337 18.000000
0.803821 0.995398 -0.568323 38.000000
0.806029 0.974885 -0.563924 33.000000
0.813816 0.961469 -0.563615 30.000000
0.808873 0.934540 -0.555265 52.000000
0.813165 0.917751 -0.552727 36.000000
0.820243 0.904320 -0.552267 71.000000
0.817306 0.881195 -0.545757 28.000000
0.827054 0.871124 -0.547247 28.000000
0.833071 0.857993 -0.546820 87.000000
0.835697 0.841631 -0.544294 39.000000
0.848294 0.834501 -0.547779 71.000000
0.857169 0.824347 -0.549338 89.000000
0.859750 0.807581 -0.546454 67.000000
0.851621 0.781972 -0.537424 95.000000
0.863359 0.774805 -0.540977 28.000000
0.854616 0.749522 -0.531789 30.000000
0.862659 0.739296 -0.533168 53.000000
0.870587 0.728956 -0.534509 42.000000
0.874939 0.715637 -0.533676 95.000000
0.865029 0.691006 -0.524236 69.000000
0.876067 0.683392 -0.527577 89.000000
0.876317 0.667374 -0.524442 95.000000
0.883577 0.656837 -0.525596 37.000000
0.872472 0.632947 -0.515883 64.000000
0.868327 0.614631 -0.510452 69.000000
0.878480 0.606965 -0.513845 74.000000
0.873965 0.588820 -0.508269 98.000000
0.880428 0.578287 -0.509233 82.000000
0.878992 0.563008 -0.505942 93.000000
0.884939 0.552635 -0.507004 98.000000
0.891063 0.541909 -0.507819 61.000000
0.889137 0.526779 -0.504423 65.000000
0.894753 0.516216 -0.505336 91.000000
0.900298 0.505582 -0.506248 98.000000
0.905737 0.494878 -0.507126 98.000000
0.907146 0.481999 -0.505725 90.000000
0.912352 0.471201 -0.506528 95.000000
0.917489 0.460299 -0.507297 98.000000
0.926514 0.451324 -0.510214 95.000000
0.911041 0.430870 -0.499981 62.000000
0.911675 0.418086 -0.498374 63.000000
0.924298 0.410991 -0.503617 88.000000
0.924568 0.398323 -0.502110 98.000000
0.912313 0.380484 -0.493891 78.000000
0.924686 0.373039 -0.499007 83.000000
0.916208 0.357211 -0.492899 95.000000
0.920068 0.346368 -0.493436 95.000000
0.932227 0.338508 -0.498463 98.000000
0.935783 0.327533 -0.499107 100.000000
0.939374 0.316422 -0.499547 98.000000
0.946940 0.306754 -0.502376 98.000000
0.945946 0.294268 -0.500631 100.000000
0.940546 0.280539 -0.496625 98.000000
0.939278 0.268203 -0.494802 103.000000
0.946487 0.258282 -0.497430 95.000000
0.931915 0.242677 -0.488881 91.000000
0.930258 0.230563 -0.486913 78.000000
0.932686 0.219639 -0.487339 95.000000
0.926317 0.206708 -0.483163 95.000000
0.932887 0.196707 -0.485725 90.000000
0.930542 0.184899 -0.483878 98.000000
0.928147 0.173130 -0.481800 95.000000
0.929958 0.162228 -0.482124 98.000000
0.936068 0.152008 -0.484658 95.000000
0.933258 0.140328 -0.482609 95.000000
0.939155 0.129940 -0.485048 100.000000
0.940488 0.118922 -0.485341 98.000000
0.937302 0.107365 -0.483256 95.000000
0.942828 0.096821 -0.485698 98.000000
0.943835 0.085738 -0.485828 100.000000
0.949181 0.075006 -0.488174 100.000000
0.918828 0.061782 -0.472364 87.000000
0.906134 0.050240 -0.465612 95.000000
0.911076 0.039789 -0.467957 98.000000
0.915929 0.029233 -0.470239 100.000000
1.614656 -0.005317 -0.828847 26.000000
1.098000 -0.042287 -0.563755 103.000000
1.084142 -0.054507 -0.556834 98.000000
1.083510 -0.067240 -0.556685 52.000000
1.082728 -0.079936 -0.556498 95.000000
1.081760 -0.092669 -0.556387 95.000000
1.080680 -0.105365 -0.556238 98.000000
1.088337 -0.119029 -0.560572 95.000000
1.082604 -0.131255 -0.558031 95.000000
1.081146 -0.143929 -0.557695 100.000000
1.079501 -0.156639 -0.557471 98.000000
1.709344 -0.309686 -0.885855 21.000000
1.718895 -0.332397 -0.892250 24.000000
1.732756 -0.356074 -0.900483 22.000000
1.711339 -0.372635 -0.890810 24.000000
1.733266 -0.398720 -0.903741 25.000000
1.711550 -0.414854 -0.893897 26.000000
1.724133 -0.439450 -0.902401 22.000000
1.680601 -0.449295 -0.881094 10.000000
1.697024 -0.475066 -0.891667 18.000000
1.696003 -0.496329 -0.893079 18.000000
1.677698 -0.512358 -0.885413 17.000000
1.684825 -0.536149 -0.891205 18.000000
1.683203 -0.557312 -0.892426 16.000000
1.698023 -0.584451 -0.902807 21.000000
1.679080 -0.599815 -0.894852 17.000000
1.664061 -0.616557 -0.889397 10.000000
1.678026 -0.644196 -0.899556 16.000000
1.666754 -0.662357 -0.896217 13.000000
1.688441 -0.693904 -0.910616 20.000000
1.680846 -0.713763 -0.909309 23.000000
1.668963 -0.731701 -0.905714 14.000000
1.685564 -0.762338 -0.917617 16.000000
1.672933 -0.780484 -0.914200 14.000000
1.624108 -0.780617 -0.890478 9.000000
1.655645 -0.819838 -0.911309 17.000000
1.650525 -0.841490 -0.912134 13.000000
1.641199 -0.861026 -0.910622 13.000000
1.655452 -0.893227 -0.922317 17.000000
1.637814 -0.908433 -0.916323 12.000000
1.659054 -0.945576 -0.932217 16.000000
1.660446 -0.971973 -0.936968 12.000000
1.595899 -0.959068 -0.904551 9.000000
1.638699 -1.011288 -0.933572 14.000000
1.623989 -1.028146 -0.929437 11.000000
1.631799 -1.059499 -0.938276 12.000000
1.631250 -1.086504 -0.943000 16.000000
1.633991 -1.116189 -0.949863 11.000000
1.622135 -1.135280 -0.947585 15.000000
1.598543 -1.146749 -0.939180 10.000000
1.593110 -1.171190 -0.941483 8.000000
1.601858 -1.206542 -0.952213 13.000000
1.592157 -1.228408 -0.952184 11.000000
1.596451 -1.261368 -0.960686 14.000000
1.593200 -1.288924 -0.964740 16.000000
1.589557 -1.316525 -0.968763 10.000000
1.582132 -1.341238 -0.970496 16.000000
1.564173 -1.357067 -0.965867 12.000000
1.546139 -1.372606 -0.961179 8.000000
1.564900 -1.421408 -0.979627 12.000000
1.562913 -1.452327 -0.985239 11.000000
1.556362 -1.480723 -0.989074 13.000000
1.540556 -1.499128 -0.986259 12.000000
1.539773 -1.533938 -0.994058 11.000000
1.542558 -1.571582 -1.003508 20.000000
1.525867 -1.589750 -1.000406 10.000000
1.548575 -1.651560 -1.024395 9.000000
1.531208 -1.669761 -1.021134 27.000000
1.509509 -1.685019 -1.016128 25.000000
1.499756 -1.713713 -1.019304 35.000000
1.475924 -1.724363 -1.011730 35.000000
1.450875 -1.735325 -1.004562 35.000000
1.428798 -1.749458 -0.999442 43.000000
1.416267 -1.773342 -0.999932 34.000000
1.413637 -1.812259 -1.008734 24.000000
1.376987 -1.807627 -0.993423 25.000000
1.368027 -1.839142 -0.998077 24.000000
1.349030 -1.855164 -0.994263 30.000000
1.320687 -1.860413 -0.984884 24.000000
1.305520 -1.884042 -0.985421 27.000000
1.279736 -1.892416 -0.977983 28.000000
1.264099 -1.915716 -0.978340 26.000000
1.263168 -1.962134 -0.990389 20.000000
1.231942 -1.962004 -0.978891 22.000000
1.220232 -1.992847 -0.982885 21.000000
1.184233 -1.984093 -0.967584 24.000000
1.167240 -2.006673 -0.967686 17.000000
1.158950 -2.045134 -0.975345 20.000000
0.698592 1.238521 -0.578108 32.000000
0.707351 1.221796 -0.576575 33.000000
0.722931 1.216977 -0.580660 29.000000
0.716853 1.176431 -0.567662 34.000000
0.756469 1.210662 -0.590785 32.000000
0.752097 1.174112 -0.579568 19.000000
0.759705 1.157089 -0.577835 33.000000
0.777396 1.155356 -0.583761 29.000000
0.792545 1.149565 -0.587775 33.000000
0.804243 1.140272 -0.590040 32.000000
0.819375 1.134063 -0.594028 28.000000
0.828978 1.120299 -0.594062 38.000000
0.841184 1.110128 -0.596050 29.000000
0.816687 1.052586 -0.572336 23.000000
0.808158 1.017420 -0.560291 31.000000
0.812866 1.000754 -0.558304 32.000000
0.820911 0.987238 -0.558026 68.000000
0.828750 0.973707 -0.557736 36.000000
0.832868 0.957006 -0.555598 41.000000
0.822038 0.922893 -0.543123 70.000000
0.826050 0.906038 -0.540654 37.000000
0.832379 0.892920 -0.540347 47.000000
0.839083 0.879428 -0.539785 36.000000
0.848338 0.869484 -0.541449 88.000000
0.845056 0.846175 -0.534706 95.000000
0.857230 0.839332 -0.538352 80.000000
0.869835 0.832009 -0.541728 95.000000
0.868672 0.812359 -0.537086 81.000000
0.877315 0.802005 -0.538599 77.000000
0.879484 0.785189 -0.535697 65.000000
0.870683 0.759799 -0.526751 42.000000
0.871902 0.743511 -0.523949 57.000000
0.876371 0.730219 -0.523172 85.000000
0.877176 0.714028 -0.520295 69.000000
0.877782 0.697891 -0.517322 95.000000
0.888904 0.690197 -0.520627 79.000000
0.892744 0.676823 -0.519697 95.000000
0.896450 0.663460 -0.518719 74.000000
0.881616 0.636804 -0.507165 42.000000
0.881133 0.621038 -0.503956 98.000000
0.876732 0.602776 -0.498608 92.000000
0.886800 0.595005 -0.501882 98.000000
0.893354 0.584382 -0.502818 98.000000
0.892139 0.568790 -0.499449 95.000000
0.901976 0.560678 -0.502624 95.000000
0.912044 0.552189 -0.505591 95.000000
0.894577 0.527692 -0.493719 33.000000
0.904141 0.519376 -0.496783 98.000000
0.905737 0.506494 -0.495544 95.000000
0.915139 0.497910 -0.498545 98.000000
0.928502 0.491307 -0.503715 100.000000
0.933799 0.480321 -0.504497 100.000000
0.930930 0.465200 -0.500942 98.000000
0.944074 0.458100 -0.505990 98.000000
0.928720 0.437276 -0.495828 81.000000
0.929219 0.424551 -0.494450 79.000000
0.925667 0.409859 -0.490711 65.000000
0.934126 0.400749 -0.493616 98.000000
0.925945 0.384574 -0.487744 95.000000
0.934233 0.375361 -0.490615 98.000000
0.934078 0.362729 -0.489003 95.000000
0.946369 0.354858 -0.493973 95.000000
0.950214 0.343700 -0.494522 67.000000
0.941237 0.328041 -0.488403 98.000000
0.948948 0.318460 -0.491215 98.000000
0.948148 0.305853 -0.489419 100.000000
0.947114 0.293414 -0.487754 98.000000
0.954516 0.283564 -0.490435 103.000000
0.948938 0.269897 -0.486487 100.000000
0.956185 0.259895 -0.489069 98.000000
0.950205 0.246482 -0.485144 74.000000
0.944176 0.233139 -0.481045 95.000000
0.937902 0.220032 -0.477005 98.000000
0.935858 0.208070 -0.475146 98.000000
0.938079 0.197098 -0.475472 98.000000
0.944562 0.186931 -0.477956 100.000000
0.937693 0.174272 -0.473868 103.000000
0.948334 0.164819 -0.478645 95.000000
0.950139 0.153665 -0.478777 72.000000
0.947254 0.141913 -0.476909 103.000000
0.953190 0.131422 -0.479334 100.000000
0.945720 0.119149 -0.475005 105.000000
0.951401 0.108574 -0.477431 100.000000
0.956963 0.097894 -0.479859 100.000000
0.957980 0.086707 -0.479958 103.000000
0.958898 0.075488 -0.480023 100.000000
0.946230 0.063371 -0.473487 70.000000
0.924513 0.051074 -0.462446 95.000000
0.933956 0.040661 -0.466978 105.000000
1.529596 0.012890 -0.764355 57.000000
1.641465 -0.005376 -0.820228 26.000000
1.681604 -0.025187 -0.840228 34.000000
1.102899 -0.068180 -0.551544 103.000000
1.093184 -0.080376 -0.546891 94.000000
1.092212 -0.093161 -0.546779 95.000000
1.091128 -0.105946 -0.546629 98.000000
1.094380 -0.119179 -0.548635 98.000000
1.097510 -0.132515 -0.550602 100.000000
1.095965 -0.145367 -0.550413 98.000000
1.240509 -0.179315 -0.623694 98.000000
1.736435 -0.313464 -0.876063 25.000000
1.724211 -0.331970 -0.870839 21.000000
1.733610 -0.354883 -0.877021 25.000000
1.747208 -0.378994 -0.885293 23.000000
1.760481 -0.403394 -0.893431 29.000000
1.751696 -0.422880 -0.890416 26.000000
1.729468 -0.439078 -0.881010 17.000000
1.742065 -0.463856 -0.888883 16.000000
1.728271 -0.481873 -0.883667 19.000000
1.735822 -0.505841 -0.889495 20.000000
1.717346 -0.522278 -0.881958 24.000000
1.707391 -0.541003 -0.878779 19.000000
1.709769 -0.563906 -0.882388 24.000000
1.695153 -0.580941 -0.876892 18.000000
1.701397 -0.605368 -0.882503 22.000000
1.694649 -0.625426 -0.881522 13.000000
1.700313 -0.650116 -0.887050 18.000000
1.697325 -0.671731 -0.888125 19.000000
1.694177 -0.693321 -0.889070 20.000000
1.699033 -0.718388 -0.894310 17.000000
1.695337 -0.740021 -0.895112 21.000000
1.686996 -0.760089 -0.893983 19.000000
1.682928 -0.781678 -0.894649 15.000000
1.710762 -0.819054 -0.912908 16.000000
1.669368 -0.823278 -0.894237 15.000000
1.668270 -0.847085 -0.897174 18.000000
1.662959 -0.868804 -0.897876 16.000000
1.673311 -0.899032 -0.907126 19.000000
1.683238 -0.929600 -0.916274 21.000000
1.684880 -0.956046 -0.920960 18.000000
1.678375 -0.978090 -0.921335 15.000000
1.675569 -1.002414 -0.923774 10.000000
1.648887 -1.012921 -0.913719 14.000000
1.653288 -1.041833 -0.920281 19.000000
1.653088 -1.068848 -0.924946 22.000000
1.641140 -1.088562 -0.923220 17.000000
1.640762 -1.115317 -0.927382 16.000000
1.632183 -1.137357 -0.927623 13.000000
1.641725 -1.172593 -0.938332 10.000000
1.636144 -1.197438 -0.940503 10.000000
1.619350 -1.214087 -0.936290 12.000000
1.624016 -1.247104 -0.944653 19.000000
1.621102 -1.274797 -0.948650 18.000000
1.614258 -1.299686 -0.950533 14.000000
1.617678 -1.333211 -0.958564 21.000000
1.603188 -1.352274 -0.956102 17.000000
1.605786 -1.386068 -0.963983 13.000000
1.601095 -1.414028 -0.967542 18.000000
1.578377 -1.427309 -0.961135 10.000000
1.586485 -1.467580 -0.972794 14.000000
1.587287 -1.501845 -0.980278 18.000000
1.567197 -1.517892 -0.975751 16.000000
1.570474 -1.555556 -0.985045 25.000000
1.562671 -1.584370 -0.988476 23.000000
1.558574 -1.615814 -0.993523 25.000000
1.553144 -1.648011 -0.998822 31.000000
1.535772 -1.666138 -0.995574 31.000000
1.508071 -1.674509 -0.986688 42.000000
1.486501 -1.689311 -0.981760 37.000000
1.474727 -1.713569 -0.982374 36.000000
1.458799 -1.734910 -0.981352 62.000000
1.425081 -1.734810 -0.968360 34.000000
1.415656 -1.762119 -0.970847 36.000000
1.393449 -1.775620 -0.965727 33.000000
1.379491 -1.799778 -0.966426 23.000000
1.362540 -1.820163 -0.965145 31.000000
1.345283 -1.840388 -0.963776 30.000000
1.322439 -1.852952 -0.958512 28.000000
1.300805 -1.864472 -0.952810 32.000000
1.277897 -1.876456 -0.947499 30.000000
1.265069 -1.903457 -0.949802 31.000000
1.241859 -1.914913 -0.944416 25.000000
1.230942 -1.945616 -0.948492 21.000000
1.207388 -1.956649 -0.942947 28.000000
1.181305 -1.963353 -0.935603 26.000000
1.167036 -1.989766 -0.937549 27.000000
1.140779 -1.996003 -0.930151 29.000000
0.675385 1.220947 -0.550552 29.000000
0.690863 1.216612 -0.554592 27.000000
0.708677 1.216096 -0.560450 29.000000
0.719425 1.203327 -0.560766 30.000000
0.737178 1.202437 -0.566614 28.000000
0.745185 1.185540 -0.565006 34.000000
0.740426 1.149103 -0.553980 19.000000
0.747701 1.132326 -0.552236 26.000000
0.762545 1.126994 -0.556095 35.000000
0.774747 1.117663 -0.558069 29.000000
0.789536 1.111967 -0.561948 32.000000
0.798837 1.098597 -0.561972 35.000000
0.819043 1.099928 -0.569610 29.000000
0.831007 1.089958 -0.571513 32.000000
0.845673 1.083442 -0.575302 10.000000
0.833768 1.044754 -0.561893 23.000000
0.827698 1.013171 -0.552001 35.000000
0.835795 0.999586 -0.551784 36.000000
0.840736 0.982402 -0.549557 44.000000
0.847870 0.969080 -0.549438 46.000000
0.849310 0.948510 -0.545158 52.000000
0.850397 0.927994 -0.540800 40.000000
0.863235 0.921394 -0.544495 26.000000
0.854293 0.890989 -0.534092 71.000000
0.854507 0.870783 -0.529557 91.000000
0.866886 0.863953 -0.533177 91.000000
0.866572 0.843812 -0.528556 95.000000
0.878791 0.836778 -0.532095 70.000000
0.881349 0.819828 -0.529363 95.000000
0.879904 0.800201 -0.524792 95.000000
0.891811 0.792845 -0.528245 53.000000
0.879948 0.763996 -0.517268 57.000000
0.884597 0.750652 -0.516596 56.000000
0.889106 0.737273 -0.515836 95.000000
0.882838 0.715244 -0.508973 75.000000
0.897665 0.710419 -0.514287 80.000000
0.905325 0.699771 -0.515474 98.000000
0.909233 0.686264 -0.514603 73.000000
0.905634 0.667325 -0.509558 80.000000
0.901783 0.648572 -0.504449 84.000000
0.905095 0.635235 -0.503420 74.000000
0.893263 0.611596 -0.494042 95.000000
0.899945 0.600956 -0.495022 95.000000
0.898864 0.585283 -0.491763 85.000000
0.908893 0.577203 -0.494931 98.000000
0.911360 0.563964 -0.493707 95.000000
0.921188 0.555650 -0.496812 95.000000
0.911685 0.535428 -0.489209 91.000000
0.909499 0.520222 -0.485961 95.000000
0.926952 0.516160 -0.493165 98.000000
0.932451 0.505269 -0.494058 98.000000
0.938092 0.494094 -0.494701 95.000000
0.947444 0.485125 -0.497604 103.000000
0.952679 0.473937 -0.498392 98.000000
0.949478 0.458918 -0.495040 98.000000
0.942166 0.441954 -0.489368 54.000000
0.934622 0.425209 -0.483608 63.000000
0.934954 0.412473 -0.482271 95.000000
0.935314 0.399628 -0.480686 78.000000
0.935396 0.386948 -0.479233 95.000000
0.947920 0.379368 -0.484167 98.000000
0.951955 0.368229 -0.484788 95.000000
0.955920 0.357056 -0.485374 95.000000
0.951255 0.342788 -0.481626 33.000000
0.959244 0.333092 -0.484257 95.000000
0.962849 0.321796 -0.484737 103.000000
0.957659 0.307809 -0.481007 98.000000
0.960891 0.296614 -0.481552 100.000000
0.964158 0.285283 -0.481858 100.000000
0.962883 0.272791 -0.480137 98.000000
0.970045 0.262791 -0.482879 100.000000
0.959781 0.248010 -0.476718 32.000000
0.953717 0.234612 -0.472717 84.000000
0.960564 0.224527 -0.475286 98.000000
0.958540 0.212325 -0.473482 84.000000
0.965209 0.202071 -0.475988 95.000000
0.962931 0.189905 -0.474114 98.000000
0.956041 0.177056 -0.470127 72.000000
0.962388 0.166617 -0.472502 98.000000
0.959667 0.154676 -0.470588 34.000000
0.965765 0.144168 -0.472999 98.000000
0.962831 0.132264 -0.471017 100.000000
0.964182 0.121058 -0.471280 98.000000
0.965467 0.109786 -0.471379 100.000000
0.962113 0.098091 -0.469361 100.000000
0.967610 0.087275 -0.471676 95.000000
0.972950 0.076355 -0.474058 103.000000
0.969291 0.064698 -0.471907 67.000000
0.956446 0.052652 -0.465450 110.000000
1.641208 0.013812 -0.797992 28.000000
1.699720 -0.005537 -0.826356 23.000000
1.708597 -0.025455 -0.830670 17.000000
1.690325 -0.044866 -0.821697 32.000000
1.143835 -0.083812 -0.556956 36.000000
1.111565 -0.094453 -0.541403 98.000000
1.105990 -0.106962 -0.539031 95.000000
1.109257 -0.120337 -0.540986 98.000000
1.112286 -0.133816 -0.543054 95.000000
1.249139 -0.165002 -0.610278 98.000000
1.636560 -0.255100 -0.801350 35.000000
1.691466 -0.283820 -0.829135 14.000000
1.772400 -0.318726 -0.870056 18.000000
1.773343 -0.340204 -0.871558 26.000000
1.769488 -0.360885 -0.871008 19.000000
1.774317 -0.383408 -0.874675 22.000000
1.765682 -0.403067 -0.871830 22.000000
1.761265 -0.423555 -0.871033 19.000000
1.765219 -0.446375 -0.874750 23.000000
1.742798 -0.462402 -0.865417 10.000000
1.742137 -0.483811 -0.866480 11.000000
1.754139 -0.509154 -0.874319 21.000000
1.739696 -0.527117 -0.869325 18.000000
1.721069 -0.543274 -0.861877 19.000000
1.719437 -0.564702 -0.862992 24.000000
1.734495 -0.592125 -0.872885 18.000000
1.719355 -0.609428 -0.867661 21.000000
1.729592 -0.635757 -0.875193 10.000000
1.722557 -0.655990 -0.874134 16.000000
1.732153 -0.682727 -0.881510 21.000000
1.724672 -0.702907 -0.880316 16.000000
1.729568 -0.728289 -0.885396 21.000000
1.717251 -0.746812 -0.882188 22.000000
1.721550 -0.772331 -0.887118 16.000000
1.729392 -0.800167 -0.894407 20.000000
1.704180 -0.812672 -0.884636 10.000000
1.691396 -0.830400 -0.880864 12.000000
1.702540 -0.860424 -0.890038 23.000000
1.680968 -0.874129 -0.882229 13.000000
1.691071 -0.904787 -0.891556 19.000000
1.712991 -0.942089 -0.906773 21.000000
1.698781 -0.959849 -0.902963 17.000000
1.696267 -0.984155 -0.905383 18.000000
1.677391 -0.999676 -0.899748 10.000000
1.682134 -1.028644 -0.906197 12.000000
1.670677 -1.048577 -0.904542 19.000000
1.678537 -1.080285 -0.912953 18.000000
1.674206 -1.105124 -0.915363 20.000000
1.673265 -1.132628 -0.919761 18.000000
1.679434 -1.165388 -0.928200 15.000000
1.662910 -1.182549 -0.924150 21.000000
1.649853 -1.202168 -0.922100 9.000000
1.636660 -1.221650 -0.920049 10.000000
1.645071 -1.257547 -0.930223 18.000000
1.631355 -1.276875 -0.928007 15.000000
1.638806 -1.313193 -0.937955 18.000000
1.638755 -1.344011 -0.943704 18.000000
1.610168 -1.351517 -0.933182 13.000000
1.626786 -1.397139 -0.948935 20.000000
1.607607 -1.413726 -0.944698 10.000000
1.612884 -1.450945 -0.954206 11.000000
1.614184 -1.485254 -0.961494 18.000000
1.600854 -1.507837 -0.961084 14.000000
1.604625 -1.545595 -0.970279 24.000000
1.597144 -1.574536 -0.973657 30.000000
1.583737 -1.596373 -0.972658 36.000000
1.559551 -1.608845 -0.966082 37.000000
1.547923 -1.634280 -0.967274 30.000000
1.530801 -1.652225 -0.964134 33.000000
1.515570 -1.674027 -0.963255 42.000000
1.487918 -1.681893 -0.954540 35.000000
1.467331 -1.695612 -0.949314 55.000000
1.454629 -1.720260 -0.950303 35.000000
1.435602 -1.737720 -0.947318 64.000000
1.404913 -1.740601 -0.936535 46.000000
1.392649 -1.764052 -0.936979 29.000000
1.370509 -1.777115 -0.931940 27.000000
1.351079 -1.793578 -0.928825 31.000000
1.336981 -1.817267 -0.929446 27.000000
1.314475 -1.829594 -0.924272 32.000000
1.291827 -1.841633 -0.919111 29.000000
1.287431 -1.880059 -0.927079 31.000000
1.251560 -1.872482 -0.912436 34.000000
1.243908 -1.906955 -0.918452 20.000000
1.228212 -1.929768 -0.918733 21.000000
1.209748 -1.948457 -0.917054 26.000000
1.188642 -1.963080 -0.913511 23.000000
1.160296 -1.965393 -0.904442 26.000000
1.143583 -1.987542 -0.904515 21.000000
1.131172 -2.017697 -0.908214 29.000000
0.688103 1.235330 -0.543713 20.000000
0.692113 1.210673 -0.538680 24.000000
0.714548 1.218316 -0.548013 17.000000
0.730034 1.213569 -0.551956 27.000000
0.735736 1.192729 -0.548621 24.000000
0.753524 1.191685 -0.554347 16.000000
0.738510 1.139600 -0.536227 24.000000
0.758476 1.142216 -0.543717 16.000000
0.770810 1.132988 -0.545698 20.000000
0.775046 1.112198 -0.542064 26.000000
0.808640 1.133011 -0.558838 18.000000
0.807226 1.104450 -0.551459 26.000000
0.821976 1.098392 -0.555181 22.000000
0.856392 1.117874 -0.572087 10.000000
0.871355 1.111126 -0.575877 10.000000
0.895042 1.114995 -0.585316 9.000000
0.898352 1.093477 -0.581454 10.000000
0.874562 1.040143 -0.560402 19.000000
0.846696 0.984075 -0.537294 14.000000
0.859907 0.977680 -0.541013 34.000000
0.864447 0.960406 -0.538757 26.000000
0.871832 0.946589 -0.538408 29.000000
0.881667 0.936414 -0.540154 27.000000
0.866351 0.899226 -0.526113 25.000000
0.869768 0.882164 -0.523626 35.000000
0.879044 0.872025 -0.525226 33.000000
0.888649 0.861394 -0.526622 38.000000
0.887708 0.841478 -0.522251 56.000000
0.883514 0.818270 -0.515677 37.000000
0.895555 0.810959 -0.519089 60.000000
0.901105 0.797082 -0.518355 14.000000
0.885278 0.765475 -0.505829 23.000000
0.893411 0.755086 -0.507152 42.000000
0.898317 0.741350 -0.506287 30.000000
0.895520 0.722138 -0.501533 44.000000
0.910454 0.717237 -0.506764 65.000000
0.910878 0.700920 -0.503946 32.000000
0.918423 0.690158 -0.505095 62.000000
0.918514 0.673906 -0.502210 20.000000
0.925771 0.663040 -0.503312 37.000000
0.917965 0.641585 -0.496236 65.000000
0.924956 0.630706 -0.497282 34.000000
0.912781 0.607104 -0.488086 94.000000
0.915578 0.593780 -0.486964 95.000000
0.918175 0.580510 -0.485834 54.000000
0.920429 0.567439 -0.484806 74.000000
0.926649 0.556481 -0.485637 34.000000
0.928609 0.543402 -0.484561 83.000000
0.926667 0.527835 -0.481204 62.000000
0.928288 0.514807 -0.480036 58.000000
0.941814 0.508253 -0.485053 95.000000
0.939381 0.492800 -0.481565 60.000000
0.952751 0.485950 -0.486488 83.000000
0.949833 0.470721 -0.483129 98.000000
0.954917 0.459593 -0.483840 60.000000
0.964015 0.450283 -0.486631 52.000000
0.960448 0.435354 -0.483286 56.000000
0.961031 0.422233 -0.481837 52.000000
0.948754 0.403942 -0.474221 73.000000
0.953188 0.392754 -0.474741 78.000000
0.961562 0.383317 -0.477493 90.000000
0.961432 0.370482 -0.476022 82.000000
0.965380 0.359260 -0.476611 49.000000
0.964955 0.346435 -0.475063 77.000000
0.968714 0.335124 -0.475581 95.000000
0.968033 0.322380 -0.473923 95.000000
0.967217 0.309634 -0.472261 98.000000
0.966131 0.297057 -0.470663 95.000000
0.969262 0.285828 -0.471173 95.000000
0.976685 0.275762 -0.473730 98.000000
0.975251 0.263200 -0.472024 98.000000
0.964917 0.248447 -0.466043 45.000000
0.972001 0.238245 -0.468465 68.000000
0.978906 0.227975 -0.471025 93.000000
0.972437 0.214642 -0.467151 89.000000
0.974719 0.203329 -0.467487 78.000000
0.976868 0.191983 -0.467789 84.000000
0.978949 0.180603 -0.468024 98.000000
0.976337 0.168487 -0.466230 95.000000
0.973709 0.156375 -0.464235 95.000000
0.975338 0.145065 -0.464467 95.000000
0.976802 0.133755 -0.464800 98.000000
0.978232 0.122379 -0.464933 98.000000
0.975036 0.110493 -0.462900 100.000000
0.976162 0.099169 -0.463098 95.000000
0.972685 0.087407 -0.461096 98.000000
0.982557 0.076840 -0.465565 95.000000
0.992377 0.066031 -0.469870 108.000000
1.649562 0.032971 -0.780003 29.000000
1.717584 0.014438 -0.812173 28.000000
1.731202 -0.005552 -0.818527 18.000000
1.767244 -0.026192 -0.835564 26.000000
1.762427 -0.046596 -0.833189 26.000000
1.739185 -0.066207 -0.822449 26.000000
1.693211 -0.084114 -0.800972 34.000000
1.138801 -0.109715 -0.539733 105.000000
1.124077 -0.121460 -0.533104 81.000000
1.721268 -0.267237 -0.819453 27.000000
1.744931 -0.291806 -0.831925 9.000000
1.786254 -0.319951 -0.852529 19.000000
1.778198 -0.339905 -0.849976 17.000000
1.783286 -0.362337 -0.853612 19.000000
1.779238 -0.383070 -0.852999 18.000000
1.766174 -0.401672 -0.848022 16.000000
1.770650 -0.424230 -0.851465 20.000000
1.779043 -0.448160 -0.857201 19.000000
1.760897 -0.465389 -0.850177 9.000000
1.768847 -0.489503 -0.855718 18.000000
1.767763 -0.511279 -0.856964 13.000000
1.753506 -0.529165 -0.851818 16.000000
1.765016 -0.554949 -0.859255 17.000000
1.741547 -0.569851 -0.850030 13.000000
1.752378 -0.596038 -0.857574 21.000000
1.745779 -0.616458 -0.856641 10.000000
1.743255 -0.638376 -0.857679 9.000000
1.753183 -0.665037 -0.864996 12.000000
1.750163 -0.687052 -0.865890 10.000000
1.742646 -0.707393 -0.864690 18.000000
1.751510 -0.734829 -0.872024 14.000000
1.743538 -0.755112 -0.870621 10.000000
1.743420 -0.779233 -0.873633 14.000000
1.730958 -0.797453 -0.870018 10.000000
1.697474 -0.805947 -0.856299 9.000000
1.737652 -0.849792 -0.879818 13.000000
1.712047 -0.861837 -0.870124 10.000000
1.726869 -0.894383 -0.881026 11.000000
1.716770 -0.914777 -0.879788 11.000000
1.706801 -0.934779 -0.878159 10.000000
1.724517 -0.970235 -0.890900 15.000000
1.701745 -0.983784 -0.883295 10.000000
1.702928 -1.010433 -0.887589 9.000000
1.711159 -1.042437 -0.896274 10.000000
1.711657 -1.069457 -0.900443 10.000000
1.684405 -1.079695 -0.890623 10.000000
1.687715 -1.109586 -0.897003 10.000000
1.690602 -1.139636 -0.903283 10.000000
1.689368 -1.167307 -0.907441 10.000000
1.680222 -1.189819 -0.907539 10.000000
1.667244 -1.209526 -0.905548 9.000000
1.657667 -1.231827 -0.905496 10.000000
1.666122 -1.267879 -0.915381 10.000000
1.655931 -1.290152 -0.915147 10.000000
1.667049 -1.329524 -0.926864 10.000000
1.652646 -1.348966 -0.924522 10.000000
1.651476 -1.380536 -0.930400 12.000000
1.650621 -1.411725 -0.935809 10.000000
1.642380 -1.436974 -0.937229 9.000000
1.626217 -1.456688 -0.934982 10.000000
1.624270 -1.487958 -0.940152 10.000000
1.621030 -1.519988 -0.945644 14.000000
1.618181 -1.551525 -0.950652 20.000000
1.607441 -1.577297 -0.952019 31.000000
1.584221 -1.589349 -0.945153 34.000000
1.560176 -1.601693 -0.938681 27.000000
1.548775 -1.627024 -0.939877 24.000000
1.534829 -1.648236 -0.938754 29.000000
1.516660 -1.666554 -0.935999 29.000000
1.492127 -1.677744 -0.929344 32.000000
1.465523 -1.684412 -0.920439 29.000000
1.447025 -1.701879 -0.917564 29.000000
1.422464 -1.712007 -0.910903 29.000000
1.406593 -1.732555 -0.909854 27.000000
1.399134 -1.763915 -0.914365 27.000000
1.368496 -1.765946 -0.903823 21.000000
1.363222 -1.800762 -0.910153 21.000000
1.329810 -1.798306 -0.897646 24.000000
1.307454 -1.810429 -0.892701 21.000000
1.287785 -1.826062 -0.889471 22.000000
1.273240 -1.849132 -0.890001 25.000000
1.263498 -1.879753 -0.894027 21.000000
1.245690 -1.898804 -0.892587 18.000000
1.227648 -1.917543 -0.890983 18.000000
1.206980 -1.932242 -0.887626 18.000000
1.186088 -1.946643 -0.884119 19.000000
1.165046 -1.960895 -0.880686 21.000000
1.146194 -1.978961 -0.878973 18.000000
1.124811 -1.992719 -0.875459 18.000000
0.696218 1.241541 -0.533076 26.000000
0.714246 1.241164 -0.538684 19.000000
0.717997 1.216414 -0.533763 25.000000
0.723776 1.195708 -0.530513 19.000000
0.751331 1.210767 -0.543207 24.000000
0.754291 1.185932 -0.538150 24.000000
0.775447 1.188103 -0.545322 10.000000
0.762275 1.140004 -0.529358 26.000000
0.766619 1.119268 -0.525821 22.000000
0.776021 1.106218 -0.525917 23.000000
0.793358 1.104446 -0.531371 30.000000
0.802497 1.091117 -0.531416 23.000000
0.822658 1.092631 -0.538734 19.000000
0.865678 1.123226 -0.560752 10.000000
0.918118 1.163929 -0.588439 9.000000
0.930725 1.152929 -0.590337 17.000000
0.993501 1.202578 -0.623796 11.000000
1.023819 1.212363 -0.637180 11.000000
0.991488 1.147464 -0.611079 26.000000
0.890408 1.007053 -0.543573 26.000000
0.845435 0.934502 -0.511370 31.000000
0.846166 0.914180 -0.507207 28.000000
0.855648 0.904370 -0.508849 23.000000
0.878452 0.907362 -0.517832 36.000000
0.888366 0.896823 -0.519248 33.000000
0.897739 0.886533 -0.520873 81.000000
0.894231 0.862872 -0.514554 39.000000
0.903713 0.852159 -0.515868 70.000000
0.899090 0.829095 -0.509693 75.000000
0.908269 0.818299 -0.510906 43.000000
0.910002 0.801609 -0.508455 62.000000
0.901402 0.775622 -0.499969 31.000000
0.899052 0.756214 -0.495440 35.000000
0.907107 0.745670 -0.496724 81.000000
0.911805 0.731893 -0.495822 71.000000
0.923215 0.724036 -0.498981 61.000000
0.927346 0.710422 -0.498225 83.000000
0.931262 0.696777 -0.497422 35.000000
0.942462 0.688524 -0.500512 78.000000
0.931204 0.664104 -0.491723 26.000000
0.930848 0.647915 -0.488829 71.000000
0.934061 0.634369 -0.487863 98.000000
0.940930 0.623371 -0.488802 79.000000
0.924573 0.597327 -0.477832 98.000000
0.927212 0.583970 -0.476716 95.000000
0.925745 0.568234 -0.473559 93.000000
0.931748 0.557530 -0.474571 95.000000
0.953689 0.555724 -0.483390 32.000000
0.951609 0.540135 -0.480327 98.000000
0.949540 0.524441 -0.477030 95.000000
0.955110 0.513411 -0.477898 95.000000
0.956733 0.499973 -0.476530 95.000000
0.962063 0.488810 -0.477322 95.000000
0.967321 0.477574 -0.478115 95.000000
0.968314 0.464327 -0.476806 100.000000
0.960908 0.447213 -0.471427 55.000000
0.944910 0.426595 -0.461890 95.000000
0.941048 0.411987 -0.458576 98.000000
0.949713 0.402749 -0.461201 95.000000
0.958314 0.393343 -0.463761 98.000000
0.962505 0.382224 -0.464419 83.000000
0.962300 0.369436 -0.462994 98.000000
0.966231 0.358229 -0.463580 98.000000
0.970059 0.346987 -0.464132 58.000000
0.973784 0.335710 -0.464649 103.000000
0.973080 0.322929 -0.463039 98.000000
0.972241 0.310181 -0.461426 100.000000
0.966779 0.296266 -0.457848 100.000000
0.974400 0.286270 -0.460251 100.000000
0.977428 0.274939 -0.460693 103.000000
0.975959 0.262426 -0.459034 100.000000
0.978736 0.251078 -0.459440 90.000000
0.972537 0.237637 -0.455737 98.000000
0.975089 0.226291 -0.456039 95.000000
0.973029 0.214034 -0.454334 95.000000
0.970815 0.201847 -0.452592 100.000000
0.977407 0.191445 -0.454969 100.000000
0.974973 0.179294 -0.453124 98.000000
0.976902 0.167951 -0.453324 98.000000
0.983154 0.157359 -0.455704 95.000000
0.971301 0.143998 -0.449692 98.000000
0.977321 0.133340 -0.451973 100.000000
0.974202 0.121454 -0.450022 103.000000
0.975454 0.110182 -0.450253 100.000000
0.976575 0.098910 -0.450450 98.000000
0.977596 0.087605 -0.450582 105.000000
1.799936 0.119337 -0.828396 25.000000
1.810161 0.098995 -0.832752 28.000000
1.820213 0.078443 -0.837048 32.000000
1.811926 0.057108 -0.832874 32.000000
1.812352 0.036164 -0.833056 27.000000
1.812657 0.015160 -0.833117 27.000000
1.817261 -0.005798 -0.835205 26.000000
1.812535 -0.026727 -0.832995 21.000000
1.807689 -0.047612 -0.830725 19.000000
1.820641 -0.069020 -0.836926 24.000000
1.810709 -0.089619 -0.832569 21.000000
1.805138 -0.110286 -0.830300 21.000000
1.808334 -0.131506 -0.832265 16.000000
1.775054 -0.149775 -0.817484 15.000000
1.624035 -0.155956 -0.748391 35.000000
1.581612 -0.170364 -0.729309 38.000000
1.769311 -0.211265 -0.816407 20.000000
1.789396 -0.234677 -0.826518 22.000000
1.804732 -0.257968 -0.834417 22.000000
1.806350 -0.279528 -0.836007 19.000000
1.807769 -0.301131 -0.837534 17.000000
1.781939 -0.318104 -0.826778 15.000000
1.791761 -0.341305 -0.832520 23.000000
1.787967 -0.361987 -0.831909 21.000000
1.788377 -0.383622 -0.833370 22.000000
1.793083 -0.406306 -0.836776 24.000000
1.784032 -0.426084 -0.834151 21.000000
1.783836 -0.447731 -0.835358 20.000000
1.787711 -0.470701 -0.838750 19.000000
1.778055 -0.490182 -0.835881 14.000000
1.790186 -0.515806 -0.843263 23.000000
1.780020 -0.535276 -0.840579 23.000000
1.769881 -0.554458 -0.837463 19.000000
1.768004 -0.576427 -0.838711 23.000000
1.787498 -0.605750 -0.850160 21.000000
1.776500 -0.624957 -0.847162 20.000000
1.791055 -0.653380 -0.856334 19.000000
1.771108 -0.669271 -0.849111 10.000000
1.763763 -0.689725 -0.847908 21.000000
1.773219 -0.716960 -0.854802 17.000000
1.773588 -0.741195 -0.857919 21.000000
1.773752 -0.765435 -0.860832 21.000000
1.753033 -0.780258 -0.853317 10.000000
1.748535 -0.802608 -0.854128 12.000000
1.764463 -0.834636 -0.864998 16.000000
1.734723 -0.845146 -0.853517 10.000000
1.741870 -0.873438 -0.860177 18.000000
1.748581 -0.902045 -0.866745 14.000000
1.754582 -0.931164 -0.873549 17.000000
1.752556 -0.955879 -0.875978 17.000000
1.721869 -0.965304 -0.864552 10.000000
1.743246 -1.003451 -0.878857 16.000000
1.739950 -1.028547 -0.881314 10.000000
1.728914 -1.048600 -0.879429 10.000000
1.728955 -1.076126 -0.883786 17.000000
1.728633 -1.103790 -0.888052 15.000000
1.716492 -1.123980 -0.886347 12.000000
1.723140 -1.156898 -0.894399 18.000000
1.706665 -1.174433 -0.890563 10.000000
1.712574 -1.207562 -0.898488 10.000000
1.706807 -1.232985 -0.900402 10.000000
1.678600 -1.241891 -0.890460 9.000000
1.698100 -1.286433 -0.905992 21.000000
1.687749 -1.309036 -0.905754 11.000000
1.691623 -1.342965 -0.913225 15.000000
1.687247 -1.371793 -0.917050 20.000000
1.668939 -1.388435 -0.912735 11.000000
1.671549 -1.422712 -0.919882 16.000000
1.648686 -1.436552 -0.913920 10.000000
1.643691 -1.464787 -0.917084 10.000000
1.668253 -1.521708 -0.937842 23.000000
1.668954 -1.556640 -0.944642 20.000000
1.641586 -1.566890 -0.936433 33.000000
1.601049 -1.563827 -0.920646 45.000000
1.574685 -1.572410 -0.912077 31.000000
1.557290 -1.591052 -0.909581 39.000000
1.536474 -1.606201 -0.905127 29.000000
1.532366 -1.637385 -0.909642 29.000000
1.508089 -1.648638 -0.903235 56.000000
1.483740 -1.659668 -0.896777 36.000000
1.468556 -1.680740 -0.895857 49.000000
1.453149 -1.701665 -0.894924 56.000000
1.420679 -1.700390 -0.882438 35.000000
1.404986 -1.720803 -0.881444 62.000000
1.386241 -1.737432 -0.878526 29.000000
1.367350 -1.753843 -0.875609 25.000000
1.345420 -1.766332 -0.870793 34.000000
1.326205 -1.782272 -0.867809 26.000000
1.301365 -1.790455 -0.861126 35.000000
1.295434 -1.824829 -0.867041 32.000000
1.273002 -1.836376 -0.862165 30.000000
1.245273 -1.839910 -0.853569 33.000000
1.240891 -1.878032 -0.861092 19.000000
1.224327 -1.901260 -0.861711 21.000000
1.198895 -1.907892 -0.854841 30.000000
1.183265 -1.930062 -0.855065 25.000000
1.164915 -1.948185 -0.853427 28.000000
1.143897 -1.962024 -0.850097 29.000000
1.125047 -1.979788 -0.848364 26.000000
0.674156 1.227631 -0.508368 20.000000
0.681278 1.206765 -0.505096 26.000000
0.698858 1.206698 -0.510559 24.000000
0.711774 1.198269 -0.512553 24.000000
0.717235 1.177687 -0.509350 34.000000
0.732278 1.173095 -0.513063 24.000000
0.755712 1.179648 -0.521845 29.000000
0.752932 1.147080 -0.513251 17.000000
0.754780 1.122556 -0.508140 24.000000
0.764121 1.109663 -0.508228 30.000000
0.778725 1.104344 -0.511800 25.000000
0.796103 1.102617 -0.517163 29.000000
0.810735 1.096871 -0.520767 27.000000
0.850711 1.124390 -0.540444 11.000000
0.885687 1.143768 -0.556606 10.000000
0.921208 1.162416 -0.572862 10.000000
0.957217 1.180417 -0.589214 12.000000
1.023560 1.233520 -0.623741 20.000000
1.082160 1.274544 -0.652966 16.000000
1.123440 1.293301 -0.671414 18.000000
1.125114 1.265969 -0.666171 21.000000
0.883599 0.929377 -0.509751 25.000000
0.890511 0.915520 -0.509331 37.000000
0.900497 0.904861 -0.510715 69.000000
0.909939 0.894497 -0.512310 54.000000
0.909724 0.873989 -0.508049 81.000000
0.902412 0.847249 -0.500014 41.000000
0.911335 0.836779 -0.501440 88.000000
0.923990 0.828994 -0.504586 75.000000
0.922259 0.809120 -0.500312 37.000000
0.906638 0.777000 -0.488238 74.000000
0.914826 0.766489 -0.489537 85.000000
0.912593 0.746759 -0.484895 79.000000
0.927751 0.741871 -0.489953 95.000000
0.932344 0.727930 -0.489062 68.000000
0.951134 0.725473 -0.495979 95.000000
0.951515 0.708852 -0.493287 84.000000
0.947888 0.689609 -0.488652 52.000000
0.936524 0.665168 -0.480097 68.000000
0.947456 0.656815 -0.483055 76.000000
0.946915 0.640548 -0.480212 95.000000
0.926917 0.611693 -0.467577 100.000000
0.949031 0.610780 -0.476273 98.000000
0.932281 0.584955 -0.465484 95.000000
0.938626 0.574014 -0.466359 95.000000
0.940909 0.560645 -0.465207 78.000000
0.958763 0.556717 -0.472027 98.000000
0.960864 0.543164 -0.470837 95.000000
0.962768 0.529632 -0.469605 98.000000
0.968385 0.518509 -0.470480 100.000000
0.969853 0.505154 -0.469347 98.000000
0.971311 0.491640 -0.467990 98.000000
0.972434 0.478367 -0.466807 100.000000
0.969299 0.463101 -0.463565 98.000000
0.953444 0.442164 -0.454324 79.000000
0.966600 0.434817 -0.458962 95.000000
0.971288 0.423573 -0.459561 98.000000
0.967422 0.408654 -0.456176 98.000000
0.971720 0.397542 -0.456875 100.000000
0.976052 0.386186 -0.457364 95.000000
0.971581 0.371625 -0.453993 98.000000
0.975529 0.360368 -0.454582 98.000000
0.988003 0.352152 -0.459146 98.000000
0.987446 0.339203 -0.457663 98.000000
0.986752 0.326319 -0.456141 100.000000
0.985888 0.313467 -0.454545 98.000000
0.989267 0.302018 -0.454959 100.000000
0.979300 0.286746 -0.449430 98.000000
0.982328 0.275449 -0.449872 100.000000
0.985323 0.264016 -0.450144 100.000000
0.983716 0.251484 -0.448499 83.000000
0.981881 0.239088 -0.446950 103.000000
0.993353 0.229751 -0.451301 103.000000
0.982340 0.215381 -0.445599 100.000000
0.984689 0.203967 -0.445834 95.000000
0.986838 0.192587 -0.446103 98.000000
0.988818 0.181241 -0.446506 100.000000
0.990765 0.169794 -0.446707 98.000000
0.988066 0.157593 -0.444844 95.000000
0.980665 0.144863 -0.441013 98.000000
0.977662 0.132957 -0.439178 100.000000
0.988079 0.122811 -0.443544 98.000000
0.980299 0.110380 -0.439574 100.000000
0.995051 0.100451 -0.445846 113.000000
1.100698 0.098298 -0.492818 125.000000
1.831622 0.121086 -0.818893 25.000000
1.832788 0.099923 -0.819139 28.000000
1.829208 0.078626 -0.817223 27.000000
1.839069 0.057803 -0.821299 32.000000
1.830431 0.036407 -0.817407 32.000000
1.830676 0.015297 -0.817468 27.000000
1.821606 -0.005784 -0.813391 22.000000
1.821485 -0.026788 -0.813269 17.000000
1.821119 -0.047732 -0.813087 22.000000
1.815948 -0.068564 -0.810988 21.000000
1.837900 -0.090641 -0.820992 24.000000
1.823181 -0.110962 -0.814636 21.000000
1.830948 -0.132679 -0.818648 10.000000
1.838454 -0.154545 -0.822474 20.000000
1.818481 -0.174011 -0.814087 26.000000
1.798363 -0.192997 -0.805583 21.000000
1.827877 -0.217562 -0.819578 23.000000
1.820949 -0.237939 -0.816992 19.000000
1.831881 -0.260850 -0.822656 21.000000
1.838008 -0.283377 -0.826222 28.000000
1.812177 -0.300874 -0.815765 10.000000
1.813303 -0.322592 -0.817364 18.000000
1.818780 -0.345081 -0.820679 22.000000
1.814948 -0.366092 -0.820122 24.000000
1.819688 -0.389015 -0.823738 24.000000
1.811004 -0.408936 -0.820970 24.000000
1.806358 -0.429876 -0.820413 18.000000
1.819463 -0.455006 -0.827557 24.000000
1.796756 -0.471383 -0.818802 10.000000
1.804603 -0.495835 -0.824291 20.000000
1.799173 -0.516617 -0.823417 21.000000
1.797942 -0.538651 -0.824492 24.000000
1.813789 -0.566243 -0.833787 22.000000
1.798746 -0.584436 -0.828949 23.000000
1.814016 -0.612560 -0.838028 23.000000
1.807256 -0.633480 -0.837071 22.000000
1.795996 -0.652771 -0.833987 10.000000
1.801675 -0.678296 -0.838898 18.000000
1.802850 -0.702325 -0.841669 21.000000
1.812008 -0.730172 -0.848672 25.000000
1.787202 -0.743922 -0.839415 20.000000
1.804253 -0.775528 -0.850240 21.000000
1.791503 -0.794566 -0.847015 19.000000
1.791057 -0.819169 -0.849804 19.000000
1.753010 -0.826150 -0.834650 10.000000
1.789389 -0.868497 -0.855019 18.000000
1.779875 -0.889111 -0.853566 22.000000
1.773986 -0.912091 -0.854345 20.000000
1.760054 -0.930406 -0.850857 21.000000
1.770152 -0.961600 -0.859011 21.000000
1.763476 -0.984561 -0.859632 16.000000
1.760474 -1.009773 -0.862068 15.000000
1.765510 -1.039234 -0.868054 10.000000
1.777615 -1.074167 -0.878175 16.000000
1.761864 -1.092453 -0.874580 16.000000
1.753736 -1.115457 -0.874872 16.000000
1.753001 -1.143452 -0.878891 21.000000
1.740463 -1.163818 -0.877090 19.000000
1.742938 -1.194479 -0.882930 19.000000
1.737424 -1.220050 -0.884821 19.000000
1.716591 -1.234802 -0.879017 10.000000
1.718048 -1.265608 -0.884649 16.000000
1.707991 -1.288270 -0.884445 19.000000
1.716026 -1.325002 -0.893688 18.000000
1.715650 -1.356800 -0.899361 21.000000
1.708191 -1.382397 -0.900845 17.000000
1.696316 -1.405644 -0.900707 18.000000
1.702401 -1.443073 -0.909634 21.000000
1.682795 -1.460262 -0.905545 10.000000
1.691499 -1.501097 -0.916117 19.000000
1.709063 -1.552223 -0.932610 24.000000
1.699371 -1.578140 -0.933533 26.000000
1.654990 -1.572634 -0.916194 41.000000
1.614274 -1.569575 -0.900790 36.000000
1.581226 -1.571631 -0.888647 67.000000
1.560609 -1.586994 -0.884384 59.000000
1.536698 -1.598637 -0.878144 30.000000
1.512714 -1.609982 -0.871925 48.000000
1.508496 -1.640862 -0.876271 41.000000
1.484293 -1.651770 -0.869992 60.000000
1.447799 -1.648169 -0.856390 70.000000
1.432795 -1.668810 -0.855543 42.000000
1.423565 -1.696377 -0.858227 84.000000
1.399167 -1.705906 -0.851798 54.000000
1.392293 -1.736928 -0.856163 33.000000
1.367611 -1.745953 -0.849674 31.000000
1.348621 -1.762043 -0.846775 32.000000
1.329559 -1.777916 -0.843876 34.000000
1.313038 -1.797347 -0.842602 34.000000
1.282703 -1.797584 -0.832568 30.000000
1.271286 -1.824158 -0.834816 35.000000
1.249009 -1.835217 -0.829948 31.000000
1.229192 -1.849971 -0.826838 30.000000
1.222058 -1.884104 -0.832417 26.000000
1.197990 -1.895195 -0.827762 30.000000
1.185032 -1.921255 -0.829728 31.000000
1.157146 -1.923203 -0.821271 29.000000
1.143637 -1.948998 -0.823122 29.000000
1.125054 -1.966656 -0.821524 32.000000
1.104689 -1.984813 -0.820133 29.000000
0.672996 1.217208 -0.491051 23.000000
0.683634 1.205007 -0.491361 20.000000
0.697362 1.196394 -0.493155 22.000000
0.707642 1.184009 -0.493400 24.000000
0.720250 1.175603 -0.495323 23.000000
0.735269 1.171002 -0.498942 31.000000
0.758732 1.177613 -0.507504 22.000000
0.742812 1.125473 -0.490610 16.000000
0.746965 1.104955 -0.487258 24.000000
0.766811 1.107649 -0.494201 26.000000
0.781392 1.102412 -0.497725 34.000000
0.795967 1.096891 -0.501217 25.000000
0.818921 1.102505 -0.509942 17.000000
0.867629 1.141290 -0.534389 15.000000
0.911491 1.171627 -0.555485 10.000000
0.945264 1.186029 -0.569432 10.000000
1.002371 1.229196 -0.597709 17.000000
1.045573 1.253207 -0.617364 10.000000
1.116028 1.308911 -0.653276 21.000000
1.167032 1.337909 -0.676666 16.000000
1.284134 1.439034 -0.737698 29.000000
0.915920 0.916175 -0.503773 50.000000
0.915478 0.895882 -0.499847 86.000000
0.921890 0.881795 -0.499368 66.000000
0.928148 0.867663 -0.498837 93.000000
0.937229 0.856999 -0.500295 69.000000
0.936282 0.836540 -0.496033 48.000000
0.941968 0.822360 -0.495386 68.000000
0.936493 0.799456 -0.489354 32.000000
0.923905 0.770447 -0.479341 84.000000
0.932046 0.759777 -0.480606 91.000000
0.936833 0.745781 -0.479813 77.000000
0.952069 0.740652 -0.484723 98.000000
0.959964 0.729584 -0.485913 92.000000
0.960611 0.712634 -0.483120 79.000000
0.964495 0.698774 -0.482346 71.000000
0.960639 0.679532 -0.477800 47.000000
0.964115 0.665700 -0.476962 95.000000
0.963617 0.649292 -0.474187 98.000000
0.966759 0.635529 -0.473251 95.000000
0.969731 0.621740 -0.472308 98.000000
0.968613 0.605515 -0.469381 95.000000
0.951482 0.579774 -0.458825 98.000000
0.981615 0.582826 -0.471115 93.000000
0.967948 0.559765 -0.462354 52.000000
0.965991 0.543896 -0.459302 98.000000
0.971741 0.532800 -0.460181 98.000000
0.977600 0.521411 -0.460876 100.000000
0.979033 0.508043 -0.459795 98.000000
0.976374 0.492400 -0.456598 100.000000
0.981617 0.481117 -0.457358 100.000000
0.982589 0.467780 -0.456148 95.000000
0.991779 0.458334 -0.458768 52.000000
1.000903 0.448719 -0.461357 98.000000
0.980414 0.426114 -0.450364 95.000000
0.984980 0.414716 -0.450930 98.000000
1.006536 0.410234 -0.459281 98.000000
0.989441 0.390228 -0.450220 95.000000
0.985103 0.375459 -0.446811 98.000000
0.980448 0.360922 -0.443498 95.000000
0.997266 0.354251 -0.449921 82.000000
1.005408 0.344230 -0.452370 103.000000
1.004741 0.331158 -0.450903 98.000000
0.995134 0.315374 -0.445472 100.000000
0.998528 0.303874 -0.445888 98.000000
1.001819 0.292305 -0.446234 100.000000
0.996048 0.278297 -0.442783 100.000000
1.003406 0.268016 -0.445165 100.000000
0.997363 0.254194 -0.441602 81.000000
0.995599 0.241592 -0.440004 98.000000
0.998185 0.230125 -0.440277 98.000000
1.000601 0.218658 -0.440685 98.000000
1.002949 0.207089 -0.440889 103.000000
1.000619 0.194677 -0.439217 98.000000
1.007202 0.183950 -0.441468 98.000000
1.009108 0.172415 -0.441808 95.000000
0.988278 0.157173 -0.432068 66.000000
0.994449 0.146466 -0.434317 103.000000
0.995986 0.135037 -0.434518 95.000000
0.997390 0.123575 -0.434685 103.000000
1.026054 0.115150 -0.446697 115.000000
1.834347 0.142078 -0.796848 11.000000
1.849427 0.121935 -0.803118 27.000000
1.859883 0.101104 -0.807094 26.000000
1.851708 0.079338 -0.803241 27.000000
1.847862 0.057926 -0.801314 28.000000
1.862114 0.036985 -0.807465 24.000000
1.853249 0.015473 -0.803549 26.000000
1.848723 -0.005780 -0.801499 21.000000
1.839365 -0.026923 -0.797460 20.000000
1.871162 -0.048871 -0.811194 19.000000
1.865893 -0.070239 -0.809081 21.000000
1.865023 -0.091664 -0.808957 19.000000
1.859326 -0.112812 -0.806908 16.000000
1.853448 -0.133855 -0.804611 10.000000
1.842758 -0.154347 -0.800392 16.000000
1.863816 -0.177740 -0.810073 22.000000
1.848134 -0.197630 -0.803746 20.000000
1.850405 -0.219429 -0.805483 16.000000
1.856968 -0.241864 -0.809077 21.000000
1.858835 -0.263863 -0.810686 23.000000
1.855902 -0.285207 -0.810186 19.000000
1.839006 -0.304302 -0.803872 10.000000
1.840244 -0.326166 -0.805169 20.000000
1.832067 -0.346490 -0.802695 18.000000
1.841735 -0.370207 -0.808065 22.000000
1.833061 -0.390531 -0.805653 18.000000
1.828766 -0.411511 -0.804906 16.000000
1.833101 -0.434674 -0.808226 19.000000
1.850580 -0.461315 -0.817449 19.000000
1.836557 -0.480266 -0.812753 10.000000
1.817961 -0.497736 -0.806036 21.000000
1.839043 -0.526157 -0.816943 19.000000
1.824390 -0.544727 -0.812321 23.000000
1.840286 -0.572596 -0.821300 18.000000
1.838269 -0.595239 -0.822427 18.000000
1.836093 -0.617856 -0.823486 21.000000
1.829284 -0.638926 -0.822458 16.000000
1.826610 -0.661500 -0.823382 10.000000
1.828021 -0.685726 -0.826119 19.000000
1.828974 -0.710217 -0.829106 18.000000
1.829854 -0.734580 -0.831758 23.000000
1.813178 -0.752143 -0.826766 16.000000
1.826042 -0.782148 -0.835352 21.000000
1.821577 -0.805122 -0.836103 23.000000
1.812744 -0.826084 -0.834851 16.000000
