x y z intensity
1.584756 -1.941006 1.721226 19.000000
1.492392 -1.871973 1.636649 10.000000
1.448411 -1.863313 1.606547 21.000000
1.391527 -1.833368 1.559084 23.000000
1.341489 -1.812725 1.520703 21.000000
1.289662 -1.787798 1.479744 24.000000
1.244934 -1.767743 1.444012 21.000000
1.192269 -1.737136 1.400580 25.000000
1.158981 -1.733170 1.379471 24.000000
1.130637 -1.735500 1.363818 19.000000
0.809373 1.240479 0.996109 19.000000
0.827711 1.235596 1.005031 16.000000
0.842651 1.227502 1.011456 27.000000
0.861087 1.222059 1.020334 26.000000
0.874675 1.209686 1.023538 24.000000
0.887158 1.197534 1.027018 24.000000
0.902958 1.188103 1.033012 25.000000
0.930439 1.195072 1.053578 24.000000
0.943896 1.181728 1.056562 23.000000
0.953635 1.165554 1.057124 27.000000
0.973750 1.161809 1.069025 32.000000
0.986941 1.147940 1.071912 31.000000
1.001805 1.137411 1.078037 26.000000
1.027523 1.138720 1.095748 32.000000
1.036846 1.121586 1.095940 29.000000
1.062842 1.122025 1.113653 29.000000
1.075748 1.107025 1.116269 19.000000
1.093434 1.097993 1.125109 21.000000
1.107305 1.086211 1.131445 29.000000
1.127884 1.079403 1.143178 29.000000
1.145584 1.069370 1.151876 28.000000
1.166202 1.061826 1.163571 28.000000
1.177926 1.045796 1.166262 29.000000
1.206887 1.045831 1.187271 26.000000
1.221548 1.031838 1.192811 16.000000
1.241528 1.023157 1.204785 22.000000
1.259294 1.011171 1.213245 30.000000
1.279327 1.001664 1.225173 30.000000
1.305794 0.996618 1.242991 31.000000
1.319551 0.981518 1.248781 28.000000
1.346177 0.975478 1.266578 31.000000
1.350146 0.952783 1.263120 25.000000
1.389862 0.954849 1.292976 15.000000
1.396943 0.934034 1.292392 25.000000
1.433716 0.932476 1.319150 29.000000
1.454027 0.919569 1.330634 29.000000
1.470181 0.904526 1.339553 27.000000
1.500573 0.896869 1.360040 32.000000
1.516786 0.881023 1.368829 27.000000
1.543854 0.870255 1.386131 26.000000
1.570311 0.859235 1.403963 14.000000
1.586418 0.842092 1.412435 21.000000
1.612869 0.830086 1.430144 24.000000
1.635935 0.815656 1.444660 24.000000
1.680120 0.810934 1.477767 26.000000
1.696077 0.791950 1.485873 24.000000
1.693478 0.764874 1.478939 24.000000
1.730696 0.754835 1.505616 17.000000
1.774577 0.747293 1.538970 13.000000
1.804093 0.732784 1.559832 23.000000
1.851801 0.724658 1.596240 24.000000
1.874795 0.705479 1.610015 20.000000
1.900080 0.687634 1.628052 22.000000
1.922226 0.667716 1.642276 21.000000
1.948015 0.648479 1.659426 17.000000
1.999045 0.637180 1.699201 15.000000
2.058311 0.626648 1.744522 13.000000
2.072189 0.601847 1.752601 14.000000
2.097244 0.579867 1.769988 13.000000
2.129653 0.559194 1.793547 13.000000
2.180841 0.542511 1.832855 10.000000
2.220703 0.521900 1.862464 13.000000
2.244721 0.497145 1.879997 10.000000
2.276951 0.473108 1.902977 9.000000
2.365244 0.459626 1.974158 10.000000
2.392822 0.432860 1.994418 10.000000
2.450692 0.410509 2.039888 10.000000
2.508562 0.386765 2.085305 10.000000
2.547194 0.358731 2.114583 10.000000
2.588844 0.330491 2.147674 10.000000
2.646460 0.302696 2.192468 10.000000
2.710844 0.274489 2.244278 9.000000
2.725067 0.240062 2.254571 10.000000
2.704473 0.202846 2.236028 10.000000
2.695068 0.166840 2.226700 10.000000
2.677727 0.130758 2.210901 10.000000
2.663159 0.095316 2.198809 10.000000
2.636806 0.060013 2.177056 10.000000
2.640975 0.025608 2.180448 12.000000
2.641080 -0.008780 2.180448 16.000000
2.637120 -0.043105 2.177056 19.000000
2.621283 -0.076990 2.163910 20.000000
2.608995 -0.110636 2.153744 19.000000
2.611194 -0.144940 2.156925 23.000000
2.593834 -0.177921 2.143994 21.000000
2.568604 -0.209769 2.124398 13.000000
2.562418 -0.242838 2.120607 19.000000
2.548258 -0.274978 2.110157 21.000000
2.536946 -0.307383 2.103600 21.000000
2.545297 -0.341856 2.111813 25.000000
2.518310 -0.371753 2.092055 22.000000
2.521515 -0.405863 2.097497 26.000000
2.509360 -0.437416 2.090044 23.000000
2.493132 -0.467957 2.079228 13.000000
2.472857 -0.497337 2.065157 19.000000
2.455536 -0.527332 2.054764 22.000000
2.461316 -0.561805 2.062372 26.000000
2.443554 -0.591305 2.051595 25.000000
2.433065 -0.622233 2.046951 26.000000
2.429888 -0.655080 2.048426 27.000000
2.415193 -0.684653 2.040336 26.000000
2.396624 -0.712826 2.028812 10.000000
2.391980 -0.745525 2.030585 22.000000
2.376616 -0.774218 2.021835 25.000000
2.364103 -0.804263 2.016928 23.000000
2.358661 -0.836520 2.018107 26.000000
2.346470 -0.865783 2.012030 26.000000
2.332447 -0.895538 2.007331 25.000000
2.315419 -0.923165 1.998630 24.000000
2.298161 -0.950407 1.989653 10.000000
2.288052 -0.980441 1.986834 24.000000
2.280351 -1.012256 1.987714 25.000000
2.273200 -1.043679 1.987710 27.000000
2.243804 -1.065309 1.969641 24.000000
2.245986 -1.101819 1.979342 27.000000
2.230219 -1.129641 1.973324 28.000000
2.224741 -1.162634 1.976497 26.000000
2.198219 -1.184424 1.960927 10.000000
2.181987 -1.211484 1.954453 20.000000
2.185154 -1.250387 1.967136 10.000000
2.164999 -1.275050 1.957286 14.000000
2.157269 -1.308012 1.960409 29.000000
2.143520 -1.336288 1.956411 29.000000
2.128505 -1.364856 1.952998 29.000000
2.113294 -1.393230 1.949586 25.000000
2.101172 -1.423535 1.948926 10.000000
2.072415 -1.442490 1.932960 24.000000
2.089032 -1.493165 1.959410 24.000000
2.063141 -1.513801 1.946190 26.000000
2.056306 -1.548464 1.951031 22.000000
2.058591 -1.590305 1.964775 26.000000
2.044810 -1.620145 1.963205 28.000000
2.016968 -1.640274 1.950218 23.000000
1.993557 -1.661825 1.939373 10.000000
1.990008 -1.701849 1.950252 21.000000
1.972272 -1.728154 1.945070 21.000000
1.964905 -1.765707 1.952574 27.000000
1.948317 -1.795002 1.950927 23.000000
1.928437 -1.821408 1.946108 25.000000
1.934459 -1.872884 1.967841 25.000000
1.912555 -1.895482 1.959098 22.000000
1.888983 -1.918511 1.950982 10.000000
1.880695 -1.959517 1.961050 23.000000
1.870531 -1.996824 1.967307 24.000000
1.851780 -2.025227 1.964664 26.000000
1.819100 -2.038208 1.947391 16.000000
1.781322 -2.044436 1.924194 14.000000
1.710301 -2.013385 1.867174 18.000000
1.641892 -1.979926 1.809661 12.000000
1.608179 -1.986372 1.789563 9.000000
1.481341 -1.876940 1.667265 10.000000
1.426667 -1.851577 1.621845 11.000000
1.368770 -1.822293 1.574355 16.000000
1.327822 -1.810984 1.543540 16.000000
1.273943 -1.782775 1.499190 15.000000
1.223231 -1.756755 1.457902 17.000000
1.179539 -1.735850 1.421837 17.000000
1.139604 -1.721450 1.392038 10.000000
0.829515 1.253128 1.035362 25.000000
0.841183 1.237587 1.035858 24.000000
0.851557 1.222389 1.036668 17.000000
0.879596 1.229925 1.057069 29.000000
0.883650 1.203950 1.048840 25.000000
0.903547 1.201379 1.060998 25.000000
0.922008 1.194754 1.069926 24.000000
0.931959 1.178687 1.070469 17.000000
0.952024 1.175158 1.082635 27.000000
0.968015 1.164544 1.088505 33.000000
0.977681 1.147969 1.088879 25.000000
0.997868 1.143551 1.100922 35.000000
1.020829 1.141696 1.115903 35.000000
1.035757 1.130444 1.122037 30.000000
1.045176 1.113127 1.122207 27.000000
1.065573 1.107308 1.134179 15.000000
1.091626 1.106802 1.152095 28.000000
1.100821 1.088864 1.152063 30.000000
1.115601 1.076391 1.157941 27.000000
1.141978 1.074626 1.175773 35.000000
1.152983 1.059194 1.179003 30.000000
1.191448 1.067175 1.208886 33.000000
1.203318 1.050716 1.211578 29.000000
1.208154 1.029281 1.208641 17.000000
1.240315 1.030735 1.232881 36.000000
1.254983 1.016072 1.238401 35.000000
1.271946 1.004027 1.247357 33.000000
1.295099 0.996453 1.262456 34.000000
1.315234 0.986045 1.274355 34.000000
1.332209 0.972863 1.283225 37.000000
1.352370 0.961665 1.295004 33.000000
1.382199 0.956802 1.316066 20.000000
1.382839 0.931511 1.309278 33.000000
1.412775 0.925665 1.330168 36.000000
1.449485 0.923372 1.357255 35.000000
1.462373 0.906188 1.363100 34.000000
1.492613 0.898406 1.383903 35.000000
1.505427 0.880485 1.389599 34.000000
1.535059 0.871984 1.410845 36.000000
1.558037 0.859036 1.425765 18.000000
1.580899 0.845584 1.440659 34.000000
1.603850 0.831555 1.455381 35.000000
1.626817 0.817086 1.470070 37.000000
1.670695 0.812299 1.503596 43.000000
1.700750 0.799823 1.524390 35.000000
1.723071 0.783796 1.539446 35.000000
1.753151 0.770066 1.560107 33.000000
1.771912 0.751385 1.571856 22.000000
1.794124 0.733810 1.586648 37.000000
1.841484 0.725547 1.623516 47.000000
1.870968 0.709310 1.644438 35.000000
1.893142 0.689777 1.658889 35.000000
1.929838 0.674792 1.685930 53.000000
1.962947 0.657730 1.709754 36.000000
1.998927 0.641333 1.737304 35.000000
2.038699 0.625127 1.767938 28.000000
2.060656 0.602309 1.781724 37.000000
2.115199 0.588548 1.824889 41.000000
2.143764 0.566470 1.845650 36.000000
2.186471 0.547715 1.879697 38.000000
2.241028 0.530273 1.922516 42.000000
2.265703 0.504874 1.939552 35.000000
2.308315 0.482909 1.973206 32.000000
2.362091 0.462165 2.016449 30.000000
2.394040 0.435729 2.039410 36.000000
2.458335 0.414623 2.092685 37.000000
2.504420 0.388699 2.128954 36.000000
2.542768 0.360503 2.158614 35.000000
2.603798 0.334333 2.207392 35.000000
2.671649 0.307648 2.263275 33.000000
2.708785 0.276061 2.293227 32.000000
2.719227 0.241101 2.300432 32.000000
2.706485 0.204324 2.288086 36.000000
2.681947 0.167126 2.265849 35.000000
2.680060 0.131646 2.262626 37.000000
2.650365 0.095412 2.237582 36.000000
2.639541 0.060416 2.228332 36.000000
2.632321 0.025652 2.222092 33.000000
2.628606 -0.008818 2.218972 31.000000
2.597833 -0.042853 2.192963 32.000000
2.601238 -0.076999 2.195772 33.000000
2.592873 -0.110756 2.188598 35.000000
2.575951 -0.143887 2.175705 32.000000
2.570283 -0.177509 2.172276 33.000000
2.575641 -0.211766 2.178309 30.000000
2.542815 -0.242692 2.151817 23.000000
2.540165 -0.276023 2.151001 32.000000
2.533411 -0.308789 2.146662 33.000000
2.521959 -0.341145 2.139718 35.000000
2.510226 -0.373099 2.132675 32.000000
2.505876 -0.406079 2.131765 35.000000
2.502032 -0.438857 2.129843 33.000000
2.492601 -0.471125 2.126125 31.000000
2.465005 -0.499287 2.105354 21.000000
2.440952 -0.527467 2.087618 34.000000
2.427115 -0.557932 2.080215 34.000000
2.416948 -0.589010 2.075724 34.000000
2.429619 -0.625340 2.089448 33.000000
2.392866 -0.649271 2.062177 33.000000
2.389380 -0.681821 2.063600 31.000000
2.370140 -0.710149 2.052840 29.000000
2.362487 -0.741251 2.050583 20.000000
2.372948 -0.778261 2.064056 32.000000
2.338511 -0.800859 2.040097 32.000000
2.336585 -0.834362 2.044500 31.000000
2.323645 -0.863922 2.039165 30.000000
2.314045 -0.894584 2.036814 30.000000
2.304249 -0.925148 2.034365 30.000000
2.287012 -0.952539 2.025293 27.000000
2.258970 -0.974940 2.006660 16.000000
2.254810 -1.008240 2.010745 29.000000
2.247739 -1.039417 2.010786 32.000000
2.228950 -1.066049 2.001960 33.000000
2.237831 -1.105985 2.018103 32.000000
2.222119 -1.133996 2.012026 30.000000
2.206054 -1.161621 2.005859 30.000000
2.193359 -1.190918 2.002637 26.000000
2.170248 -1.214301 1.989847 15.000000
2.163899 -1.246974 1.992585 15.000000
2.147273 -1.273547 1.985767 18.000000
2.152726 -1.314709 2.001396 33.000000
2.122265 -1.332680 1.981859 30.000000
2.113845 -1.365509 1.984639 30.000000
2.108408 -1.400397 1.990390 32.000000
2.086284 -1.424261 1.980584 27.000000
2.086737 -1.463589 1.992159 19.000000
2.077045 -1.496237 1.994257 27.000000
2.063881 -1.526413 1.993164 28.000000
2.056767 -1.561257 1.998079 29.000000
2.033679 -1.583892 1.987489 27.000000
2.022889 -1.616059 1.989011 27.000000
2.007426 -1.646277 1.988166 27.000000
1.989962 -1.673121 1.983276 23.000000
1.960335 -1.689270 1.966187 14.000000
1.953238 -1.726609 1.973895 29.000000
1.936835 -1.756035 1.972416 26.000000
1.930362 -1.792802 1.979031 28.000000
1.933645 -1.841232 1.998272 27.000000
1.918924 -1.873294 1.999262 28.000000
1.903979 -1.905310 2.000120 28.000000
1.877479 -1.925560 1.988952 24.000000
1.853675 -1.948367 1.980679 15.000000
1.854523 -1.997488 1.998829 27.000000
1.838284 -2.028848 1.999156 30.000000
1.808315 -2.045002 1.984543 20.000000
1.765205 -2.045191 1.955221 21.000000
1.698990 -2.016670 1.899635 22.000000
1.637109 -1.993677 1.850856 23.000000
1.565089 -1.952655 1.786931 18.000000
1.511889 -1.932415 1.743555 10.000000
1.403311 -1.840310 1.637427 12.000000
1.364490 -1.833451 1.608950 11.000000
1.315000 -1.813123 1.569654 18.000000
1.263703 -1.788365 1.527623 16.000000
1.205487 -1.748393 1.473785 13.000000
1.169710 -1.741841 1.449239 18.000000
0.809518 1.235870 1.036906 25.000000
0.835964 1.244595 1.057891 30.000000
0.849964 1.232219 1.061251 37.000000
0.861498 1.216351 1.061655 33.000000
0.881285 1.213991 1.073960 31.000000
0.886685 1.191723 1.068803 34.000000
0.914901 1.198033 1.089503 27.000000
0.952377 1.216949 1.122405 24.000000
0.929827 1.159433 1.084695 30.000000
0.958512 1.164527 1.105405 35.000000
0.973434 1.154137 1.111679 43.000000
0.980480 1.134322 1.109051 35.000000
1.003305 1.132565 1.124166 42.000000
1.028910 1.133305 1.142339 45.000000
1.052053 1.130565 1.157482 29.000000
1.064304 1.115781 1.160603 24.000000
1.076437 1.100821 1.163666 30.000000
1.091272 1.088556 1.169633 32.000000
1.111812 1.081641 1.181676 39.000000
1.122821 1.066466 1.185008 36.000000
1.149210 1.064227 1.203033 33.000000
1.160120 1.048556 1.206228 34.000000
1.195607 1.053251 1.233363 24.000000
1.206553 1.036955 1.236500 28.000000
1.227367 1.027700 1.248306 35.000000
1.241196 1.013401 1.254362 34.000000
1.264244 1.006303 1.269575 37.000000
1.278070 0.991400 1.275555 33.000000
1.301206 0.983442 1.290732 30.000000
1.318113 0.970248 1.299617 35.000000
1.347709 0.965930 1.320924 27.000000
1.361458 0.949726 1.326633 29.000000
1.384745 0.939878 1.341607 34.000000
1.404910 0.927400 1.353362 35.000000
1.434113 0.921166 1.375032 48.000000
1.457529 0.909818 1.389815 35.000000
1.480315 0.898247 1.405115 35.000000
1.506476 0.888223 1.423551 56.000000
1.516592 0.867578 1.425478 26.000000
1.549496 0.860287 1.450049 28.000000
1.572334 0.846793 1.465110 31.000000
1.595262 0.832722 1.479999 33.000000
1.610464 0.815015 1.489136 34.000000
1.643684 0.805172 1.513439 35.000000
1.676953 0.794459 1.537655 32.000000
1.706094 0.781786 1.559327 35.000000
1.721983 0.761812 1.567363 24.000000
1.765213 0.753937 1.601639 31.000000
1.787410 0.736205 1.616605 35.000000
1.837998 0.729247 1.657143 44.000000
1.856603 0.708778 1.668678 36.000000
1.889430 0.693136 1.692950 49.000000
1.911481 0.672932 1.707442 34.000000
1.940072 0.654951 1.728979 35.000000
1.980132 0.639503 1.759341 25.000000
2.015864 0.622226 1.787107 27.000000
2.069990 0.609476 1.830933 37.000000
2.094724 0.587066 1.848762 34.000000
2.126842 0.566129 1.872926 34.000000
2.169919 0.547123 1.906675 36.000000
2.224037 0.529690 1.950022 35.000000
2.258939 0.506911 1.977744 35.000000
2.271485 0.478556 1.985918 22.000000
2.344161 0.461557 2.045094 31.000000
2.397508 0.439357 2.088636 41.000000
2.443369 0.414602 2.125518 33.000000
2.480884 0.387689 2.156530 34.000000
2.530174 0.361189 2.196342 36.000000
2.586929 0.334468 2.242488 35.000000
2.642890 0.306354 2.289298 32.000000
2.698657 0.276847 2.335937 22.000000
2.693842 0.240448 2.330174 30.000000
2.685019 0.204070 2.320926 34.000000
2.672071 0.167537 2.308085 35.000000
2.662666 0.131699 2.298398 35.000000
2.652282 0.096161 2.289246 35.000000
2.630217 0.060554 2.270182 35.000000
2.630535 0.025770 2.270394 34.000000
2.585220 -0.008754 2.231193 26.000000
2.600151 -0.043189 2.244051 28.000000
2.584595 -0.077017 2.230568 33.000000
2.572619 -0.110712 2.220148 31.000000
2.551952 -0.143578 2.203823 28.000000
2.557654 -0.177886 2.210146 31.000000
2.555485 -0.211666 2.209733 24.000000
2.511524 -0.241356 2.173118 19.000000
2.520183 -0.275824 2.182090 29.000000
2.498409 -0.306691 2.164667 26.000000
2.498316 -0.340334 2.167419 30.000000
2.482904 -0.371628 2.157036 30.000000
2.475522 -0.403745 2.152062 31.000000
2.467145 -0.435764 2.147699 28.000000
2.477234 -0.471232 2.159398 27.000000
2.419250 -0.493530 2.113274 21.000000
2.421422 -0.527084 2.118085 29.000000
2.426966 -0.561491 2.125932 31.000000
2.405688 -0.590148 2.111657 29.000000
2.398834 -0.622034 2.110267 29.000000
2.388206 -0.652817 2.105339 31.000000
2.384629 -0.685509 2.106790 31.000000
2.377080 -0.716998 2.104704 26.000000
2.358512 -0.745038 2.092830 24.000000
2.342460 -0.774084 2.084793 29.000000
2.337990 -0.806183 2.085355 29.000000
2.321512 -0.834792 2.076940 29.000000
2.312162 -0.865695 2.074873 31.000000
2.288238 -0.890843 2.059659 29.000000
2.281914 -0.922699 2.060423 29.000000
2.282439 -0.957422 2.067295 27.000000
2.254590 -0.980078 2.048437 25.000000
2.239659 -1.008773 2.043092 30.000000
2.235910 -1.041664 2.046259 30.000000
2.210196 -1.065004 2.030962 27.000000
2.211947 -1.101523 2.040977 31.000000
2.214432 -1.137726 2.049973 29.000000
2.201736 -1.167350 2.046922 30.000000
2.188941 -1.196876 2.043674 29.000000
2.152335 -1.212800 2.018088 20.000000
2.138122 -1.242005 2.015362 13.000000
2.141436 -1.280486 2.027428 22.000000
2.114562 -1.300894 2.010916 29.000000
2.112885 -1.337883 2.020266 29.000000
2.095591 -1.363917 2.013009 31.000000
2.096511 -1.403071 2.025133 32.000000
2.077597 -1.429291 2.018257 27.000000
2.068110 -1.461896 2.020649 24.000000
2.067827 -1.501473 2.032255 30.000000
2.041862 -1.522346 2.018753 32.000000
2.037762 -1.559557 2.026785 31.000000
2.017807 -1.584673 2.019202 32.000000
2.006897 -1.616811 2.020789 32.000000
1.992644 -1.646406 2.019070 29.000000
1.985861 -1.684140 2.027252 29.000000
1.947163 -1.692782 2.000769 25.000000
1.939742 -1.730219 2.008614 30.000000
1.930472 -1.764404 2.012448 33.000000
1.916422 -1.796519 2.013900 31.000000
1.900804 -1.825030 2.011276 31.000000
1.900323 -1.870880 2.027502 32.000000
1.888089 -1.905649 2.031446 33.000000
1.872585 -1.937473 2.032230 29.000000
1.848625 -1.960520 2.023769 24.000000
1.824523 -1.983181 2.015221 31.000000
1.813673 -2.020380 2.021517 32.000000
1.783936 -2.036419 2.006799 23.000000
1.746243 -2.042855 1.983125 27.000000
1.667539 -1.998937 1.912095 27.000000
1.616471 -1.988444 1.874498 27.000000
1.542589 -1.944421 1.806885 24.000000
1.455050 -1.879339 1.721876 10.000000
1.401805 -1.858213 1.678925 24.000000
1.346237 -1.828674 1.629592 24.000000
1.291436 -1.797866 1.580552 20.000000
1.235969 -1.766535 1.532289 21.000000
1.197562 -1.757469 1.504426 19.000000
1.145248 -1.723238 1.455939 22.000000
0.827068 1.244280 1.073801 33.000000
0.842322 1.235668 1.080492 31.000000
0.856342 1.223056 1.083814 31.000000
0.873777 1.217287 1.093368 31.000000
0.882861 1.197831 1.090683 28.000000
0.907550 1.201222 1.109114 33.000000
0.915298 1.181856 1.106702 26.000000
0.931305 1.171487 1.112751 32.000000
0.946242 1.161331 1.119215 35.000000
0.963810 1.154001 1.128585 32.000000
0.981337 1.146355 1.137934 32.000000
0.993623 1.132397 1.141164 40.000000
1.013833 1.127141 1.153476 35.000000
1.036814 1.124405 1.168817 50.000000
1.049092 1.109718 1.171931 26.000000
1.063950 1.097699 1.178037 28.000000
1.083438 1.091451 1.190695 35.000000
1.098303 1.078903 1.196672 31.000000
1.118805 1.071491 1.208816 32.000000
1.132714 1.058827 1.215198 42.000000
1.150367 1.048068 1.224086 31.000000
1.190568 1.058303 1.258280 36.000000
1.205487 1.044080 1.264050 29.000000
1.213428 1.024974 1.263980 33.000000
1.233316 1.015697 1.276377 35.000000
1.256280 1.008427 1.291822 33.000000
1.279391 1.000696 1.307197 36.000000
1.296332 0.987785 1.316280 36.000000
1.316367 0.976892 1.328473 32.000000
1.339570 0.967821 1.343730 32.000000
1.343827 0.944839 1.339945 25.000000
1.367019 0.935074 1.355068 31.000000
1.395918 0.929442 1.377044 41.000000
1.432170 0.926948 1.404788 35.000000
1.448339 0.911631 1.413990 37.000000
1.471846 0.899678 1.428848 37.000000
1.484586 0.881680 1.434709 35.000000
1.500626 0.865375 1.443646 32.000000
1.543326 0.863742 1.478118 25.000000
1.562786 0.848264 1.490073 30.000000
1.578766 0.830589 1.498771 35.000000
1.601497 0.816060 1.513788 34.000000
1.630367 0.804688 1.535728 30.000000
1.666852 0.795687 1.563532 35.000000
1.692354 0.781299 1.582147 32.000000
1.708191 0.761344 1.590341 29.000000
1.754656 0.754884 1.628268 29.000000
1.780256 0.738576 1.646574 33.000000
1.819889 0.727278 1.677850 32.000000
1.849015 0.710884 1.699272 46.000000
1.874607 0.692524 1.717317 32.000000
1.895803 0.672582 1.732702 32.000000
1.942768 0.660381 1.770085 33.000000
1.963937 0.639094 1.785231 29.000000
2.006694 0.624075 1.819879 30.000000
2.053749 0.608822 1.856922 30.000000
2.082039 0.587461 1.878233 34.000000
2.127711 0.570491 1.916517 36.000000
2.170580 0.551256 1.950694 32.000000
2.209724 0.530072 1.981446 34.000000
2.237008 0.505610 2.002928 32.000000
2.246545 0.476376 2.007054 26.000000
2.328892 0.461773 2.077594 28.000000
2.374389 0.438279 2.115085 26.000000
2.405031 0.410973 2.139236 16.000000
2.483740 0.390563 2.206079 22.000000
2.520774 0.362401 2.237412 24.000000
2.562258 0.333523 2.270832 35.000000
2.587780 0.302015 2.291907 34.000000
2.616877 0.270298 2.315880 22.000000
2.671867 0.240130 2.362895 28.000000
2.666896 0.203991 2.356830 34.000000
2.657950 0.167815 2.347130 32.000000
2.641168 0.131456 2.330708 34.000000
2.627038 0.095840 2.318126 33.000000
2.623932 0.060776 2.315353 34.000000
2.598010 0.025590 2.292411 34.000000
2.601865 -0.009001 2.295719 26.000000
2.586763 -0.043272 2.282277 27.000000
2.578845 -0.077476 2.275242 28.000000
2.551880 -0.110563 2.251469 27.000000
2.546472 -0.144330 2.248163 29.000000
2.522049 -0.176686 2.228120 27.000000
2.534844 -0.211461 2.240930 26.000000
2.498746 -0.241933 2.210469 16.000000
2.496092 -0.275109 2.209652 24.000000
2.489405 -0.307825 2.205228 29.000000
2.481811 -0.340441 2.201519 28.000000
2.482066 -0.373976 2.203291 31.000000
2.459137 -0.403955 2.185889 30.000000
2.447080 -0.435415 2.178286 29.000000
2.442238 -0.467993 2.176975 25.000000
2.407599 -0.494413 2.149133 18.000000
2.401520 -0.526597 2.148336 26.000000
2.399710 -0.559337 2.149729 28.000000
2.378487 -0.587753 2.135292 27.000000
2.375292 -0.620544 2.137186 28.000000
2.380051 -0.654938 2.144540 32.000000
2.350997 -0.680471 2.122987 27.000000
2.360768 -0.717507 2.138172 23.000000
2.324169 -0.739817 2.109812 18.000000
2.319887 -0.771916 2.110718 26.000000
2.317972 -0.805551 2.115472 29.000000
2.298974 -0.832528 2.102824 29.000000
2.282426 -0.860656 2.094244 26.000000
2.269276 -0.889882 2.088636 26.000000
2.269940 -0.924550 2.095935 27.000000
2.259803 -0.954961 2.093278 22.000000
2.232031 -0.977539 2.074121 18.000000
2.224075 -1.009289 2.075210 28.000000
2.216867 -1.040644 2.075215 30.000000
2.204916 -1.070620 2.072668 32.000000
2.200582 -1.103436 2.075587 31.000000
2.184803 -1.131353 2.069421 29.000000
2.175622 -1.162592 2.069593 28.000000
2.152675 -1.186421 2.056724 21.000000
2.153018 -1.223055 2.066114 19.000000
2.119827 -1.240344 2.043384 10.000000
2.113062 -1.272884 2.046063 20.000000
2.111485 -1.309959 2.055780 31.000000
2.097608 -1.338304 2.051646 30.000000
2.072668 -1.360586 2.038773 30.000000
2.058464 -1.388407 2.034463 28.000000
2.087436 -1.447412 2.075024 24.000000
2.055533 -1.464690 2.055335 21.000000
2.042375 -1.495095 2.054413 27.000000
2.035281 -1.529959 2.059668 32.000000
2.012427 -1.552987 2.048995 33.000000
2.001600 -1.585329 2.050773 30.000000
1.984509 -1.612614 2.046175 29.000000
1.976229 -1.647108 2.050728 30.000000
1.958658 -1.674016 2.045808 21.000000
1.930639 -1.693569 2.032183 20.000000
1.918589 -1.725106 2.033175 27.000000
1.922164 -1.773205 2.053366 32.000000
1.909422 -1.804796 2.053944 31.000000
1.900498 -1.842445 2.061449 32.000000
1.879918 -1.868963 2.056330 29.000000
1.863545 -1.897383 2.053447 32.000000
1.850750 -1.932014 2.057259 22.000000
1.813168 -1.940463 2.033664 24.000000
1.773185 -1.945312 2.006930 31.000000
1.744033 -1.961132 1.992204 33.000000
1.696574 -1.955536 1.956428 29.000000
1.670219 -1.973204 1.944672 30.000000
1.636250 -1.981172 1.923962 30.000000
1.579774 -1.960392 1.876257 26.000000
1.522446 -1.939080 1.829371 18.000000
1.443130 -1.883902 1.752373 10.000000
1.374989 -1.839697 1.687491 18.000000
1.325352 -1.820550 1.647112 22.000000
1.273423 -1.793135 1.600391 22.000000
1.220595 -1.765265 1.554513 19.000000
1.183931 -1.755665 1.525712 21.000000
0.833313 1.235234 1.096405 24.000000
0.850816 1.229650 1.106078 33.000000
0.860243 1.210280 1.103406 24.000000
0.875305 1.200983 1.110067 28.000000
0.899954 1.204318 1.128700 27.000000
0.929682 1.213414 1.153395 18.000000
0.926403 1.177639 1.135413 29.000000
0.941465 1.167368 1.141941 31.000000
0.953948 1.153792 1.145335 33.000000
0.971500 1.146091 1.154766 33.000000
0.989009 1.138070 1.164231 28.000000
1.004021 1.126835 1.170551 32.000000
1.032223 1.129851 1.192134 32.000000
1.055366 1.126605 1.207654 20.000000
1.055905 1.100545 1.198883 27.000000
1.070735 1.088246 1.205000 26.000000
1.099546 1.089420 1.226600 32.000000
1.116320 1.079610 1.236263 29.000000
1.136963 1.071655 1.248474 30.000000
1.156682 1.063766 1.261158 31.000000
1.183173 1.060279 1.279545 27.000000
1.197244 1.046402 1.285926 20.000000
1.205336 1.027159 1.285833 26.000000
1.225173 1.017842 1.298360 29.000000
1.245108 1.008089 1.310806 34.000000
1.265011 0.997960 1.323232 33.000000
1.281947 0.985036 1.332391 29.000000
1.295709 0.969507 1.338263 31.000000
1.315614 0.958230 1.350468 31.000000
1.348080 0.955519 1.375441 24.000000
1.367330 0.943620 1.388142 25.000000
1.396928 0.937403 1.409789 31.000000
1.422662 0.928771 1.428827 32.000000
1.446074 0.917178 1.443955 33.000000
1.452464 0.895350 1.443460 32.000000
1.471756 0.881378 1.455757 29.000000
1.497620 0.870760 1.474501 32.000000
1.516929 0.855885 1.486669 24.000000
1.559548 0.853292 1.521557 23.000000
1.572183 0.833717 1.527098 27.000000
1.608390 0.825958 1.555258 26.000000
1.630318 0.810939 1.571015 25.000000
1.649644 0.793472 1.582808 22.000000
1.685244 0.783915 1.611447 24.000000
1.694178 0.760792 1.613174 19.000000
1.736808 0.752816 1.648183 16.000000
1.772658 0.740845 1.676628 21.000000
1.808605 0.728042 1.704904 24.000000
1.827030 0.707535 1.716686 21.000000
1.865788 0.694768 1.748848 23.000000
1.898215 0.678215 1.773585 19.000000
1.929932 0.661240 1.798945 19.000000
1.955293 0.640762 1.816820 16.000000
1.958421 0.613339 1.815434 10.000000
2.032984 0.607265 1.880195 17.000000
2.075443 0.590066 1.914940 17.000000
2.107126 0.568798 1.939686 12.000000
2.142314 0.547773 1.967612 14.000000
2.165874 0.523432 1.986144 10.000000
2.200898 0.500813 2.013774 10.000000
2.184098 0.466598 1.995357 8.000000
2.305881 0.460618 2.103398 7.000000
2.387596 0.443912 2.174693 9.000000
2.421726 0.416830 2.202484 15.000000
2.448314 0.387795 2.223421 20.000000
2.459234 0.356037 2.231729 22.000000
2.489227 0.326294 2.255527 24.000000
2.484933 0.292158 2.249974 18.000000
2.502594 0.260321 2.264277 18.000000
2.542181 0.230097 2.298456 10.000000
2.552105 0.196599 2.305568 14.000000
2.580158 0.163975 2.329310 16.000000
2.589595 0.129831 2.336004 13.000000
2.597870 0.095383 2.343445 16.000000
2.590980 0.060389 2.337175 13.000000
2.576555 0.025521 2.324100 10.000000
2.565418 -0.008962 2.314053 17.000000
2.550462 -0.043084 2.300448 18.000000
2.557467 -0.077378 2.306724 19.000000
2.541992 -0.111003 2.292601 18.000000
2.532799 -0.144654 2.285907 19.000000
2.523407 -0.178002 2.279006 18.000000
2.513821 -0.211255 2.271898 17.000000
2.481746 -0.242042 2.244516 10.000000
2.475389 -0.274805 2.240251 18.000000
2.468836 -0.307469 2.235887 21.000000
2.450117 -0.338609 2.222112 22.000000
2.446667 -0.371384 2.220590 23.000000
2.438632 -0.403551 2.216339 22.000000
2.422974 -0.434306 2.205216 19.000000
2.429006 -0.468901 2.214009 20.000000
2.372833 -0.490852 2.165840 10.000000
2.400358 -0.529927 2.194119 25.000000
2.372127 -0.557087 2.173146 22.000000
2.369972 -0.589674 2.174378 24.000000
2.363186 -0.621607 2.172981 25.000000
2.345193 -0.650344 2.161325 23.000000
2.341533 -0.682980 2.162854 22.000000
2.330492 -0.713323 2.157451 20.000000
2.304904 -0.738894 2.138712 15.000000
2.296032 -0.770141 2.137135 22.000000
2.284408 -0.799656 2.131268 22.000000
2.278684 -0.831847 2.132600 24.000000
2.259566 -0.858301 2.119753 24.000000
2.253450 -0.890197 2.120790 20.000000
2.250492 -0.923519 2.124813 22.000000
2.250743 -0.958309 2.132007 20.000000
2.216181 -0.977949 2.106171 13.000000
2.218457 -1.014501 2.117026 27.000000
2.207613 -1.044368 2.113872 26.000000
2.192189 -1.072769 2.108041 24.000000
2.184350 -1.103905 2.107662 26.000000
2.165206 -1.130164 2.098287 21.000000
2.155872 -1.161445 2.098494 22.000000
2.136334 -1.187081 2.088749 21.000000
2.116681 -1.212340 2.078829 10.000000
2.116603 -1.248841 2.088160 10.000000
2.109641 -1.281541 2.090883 18.000000
2.095918 -1.310171 2.087033 26.000000
2.074381 -1.334958 2.077334 27.000000
2.066597 -1.367332 2.079530 26.000000
2.066948 -1.406651 2.092019 23.000000
2.055471 -1.436807 2.090644 20.000000
2.026937 -1.456130 2.073877 11.000000
2.016892 -1.488630 2.076294 25.000000
2.000402 -1.516444 2.072023 25.000000
1.995903 -1.553446 2.080456 26.000000
1.979012 -1.580931 2.075859 25.000000
1.970807 -1.615582 2.080748 23.000000
1.956406 -1.645187 2.079084 21.000000
1.941751 -1.674673 2.077304 18.000000
1.923926 -1.701361 2.072168 10.000000
1.907274 -1.731070 2.070870 27.000000
1.889119 -1.757294 2.065423 27.000000
1.852182 -1.767728 2.041978 22.000000
1.828292 -1.787739 2.030163 25.000000
1.797089 -1.802437 2.012874 26.000000
1.768772 -1.819339 1.998543 22.000000
1.728468 -1.820854 1.968049 17.000000
1.694929 -1.830732 1.947410 12.000000
1.669450 -1.848922 1.936058 22.000000
1.633549 -1.854706 1.912403 23.000000
1.605587 -1.868866 1.897814 21.000000
1.587730 -1.894686 1.895351 23.000000
1.567291 -1.917121 1.889743 28.000000
1.524319 -1.911349 1.856822 25.000000
1.494776 -1.924292 1.842715 15.000000
1.428420 -1.885049 1.779722 9.000000
1.360787 -1.841090 1.714097 13.000000
1.301374 -1.805257 1.657734 11.000000
1.257468 -1.791691 1.623042 14.000000
1.206693 -1.763248 1.576001 16.000000
0.836018 1.222948 1.116351 24.000000
0.854640 1.216678 1.125727 27.000000
0.867560 1.204043 1.129427 32.000000
0.896829 1.213650 1.154333 10.000000
0.898876 1.184292 1.142349 29.000000
0.916383 1.177377 1.152008 27.000000
0.933910 1.170149 1.161647 30.000000
0.953951 1.165713 1.174340 34.000000
0.961481 1.145752 1.171613 30.000000
0.989266 1.149648 1.193469 34.000000
0.994026 1.126453 1.187466 34.000000
1.042113 1.153091 1.234688 19.000000
1.038832 1.120748 1.219250 32.000000
1.043117 1.097230 1.213033 27.000000
1.068853 1.096078 1.231723 29.000000
1.088372 1.089278 1.244630 36.000000
1.097798 1.070856 1.244440 27.000000
1.122925 1.068787 1.263550 32.000000
1.140685 1.057814 1.272689 32.000000
1.171781 1.059945 1.298158 23.000000
1.171383 1.033264 1.288614 31.000000
1.199837 1.031890 1.310903 32.000000
1.219713 1.022429 1.323504 33.000000
1.236587 1.010103 1.332881 35.000000
1.259500 1.002255 1.348645 36.000000
1.279469 0.991600 1.361118 33.000000
1.299464 0.980497 1.373567 33.000000
1.322491 0.971266 1.389154 26.000000
1.333252 0.952698 1.391778 32.000000
1.343028 0.934326 1.394862 34.000000
1.381789 0.934657 1.426469 35.000000
1.416860 0.932250 1.455465 37.000000
1.436188 0.918869 1.468117 32.000000
1.456407 0.904673 1.480047 37.000000
1.465946 0.884558 1.482743 35.000000
1.478673 0.866213 1.488510 26.000000
1.527356 0.868133 1.530414 30.000000
1.543409 0.850649 1.539338 30.000000
1.561927 0.834973 1.552081 28.000000
1.591140 0.823701 1.574036 33.000000
1.610449 0.806763 1.585986 35.000000
1.655821 0.802775 1.624954 34.000000
1.674305 0.784915 1.637445 35.000000
1.690166 0.764783 1.645740 28.000000
1.722232 0.752167 1.671268 29.000000
1.757810 0.740192 1.699954 36.000000
1.793486 0.727310 1.728627 46.000000
1.824980 0.712559 1.754510 37.000000
1.850268 0.694053 1.772971 36.000000
1.875542 0.674989 1.791301 35.000000
1.903484 0.656824 1.813586 37.000000
1.931412 0.638007 1.835753 27.000000
1.987530 0.627379 1.884624 34.000000
2.023389 0.608652 1.912495 35.000000
2.054048 0.588481 1.938359 30.000000
2.071188 0.563486 1.949942 22.000000
2.120454 0.546328 1.991641 16.000000
2.154510 0.524689 2.020477 21.000000
2.200163 0.504381 2.058452 27.000000
2.208900 0.475417 2.063408 21.000000
2.253641 0.453542 2.102017 30.000000
2.272894 0.425743 2.116756 34.000000
2.277486 0.394937 2.117809 35.000000
2.289070 0.365195 2.125332 36.000000
2.307008 0.336416 2.140393 36.000000
2.310968 0.305218 2.140779 35.000000
2.321176 0.274886 2.148609 34.000000
2.312910 0.242343 2.139326 25.000000
2.330072 0.212433 2.153545 30.000000
2.339638 0.181462 2.160707 32.000000
2.341683 0.149921 2.160999 31.000000
2.339762 0.118096 2.157612 34.000000
2.347888 0.086778 2.165069 35.000000
2.352148 0.055176 2.168848 32.000000
2.385523 0.023767 2.199644 33.000000
2.385622 -0.008418 2.199644 33.000000
2.385423 -0.040602 2.199446 34.000000
2.407177 -0.073460 2.219380 35.000000
2.428521 -0.106912 2.239004 35.000000
2.434251 -0.140115 2.245779 34.000000
2.447003 -0.173935 2.259125 36.000000
2.459425 -0.208254 2.272263 33.000000
2.446085 -0.240348 2.261492 29.000000
2.454306 -0.274601 2.270727 35.000000
2.458746 -0.308588 2.276469 36.000000
2.436504 -0.339321 2.259148 35.000000
2.425855 -0.371028 2.250860 35.000000
2.421384 -0.403750 2.249945 33.000000
2.413080 -0.435818 2.245552 33.000000
2.411730 -0.469196 2.247608 30.000000
2.384866 -0.497195 2.225848 24.000000
2.383134 -0.530123 2.227607 32.000000
2.383870 -0.564201 2.233335 34.000000
2.363656 -0.592774 2.217750 33.000000
2.360394 -0.625699 2.219604 32.000000
2.342447 -0.654734 2.207911 31.000000
2.343142 -0.688302 2.211917 32.000000
2.334595 -0.720278 2.210711 29.000000
2.291445 -0.740543 2.174986 24.000000
2.280004 -0.770251 2.169261 29.000000
2.275303 -0.802337 2.169935 29.000000
2.265994 -0.833334 2.168054 29.000000
2.259964 -0.865562 2.169212 29.000000
2.254600 -0.897390 2.169371 30.000000
2.241119 -0.926659 2.163559 29.000000
2.234336 -0.958580 2.164106 24.000000
2.196577 -0.976823 2.134666 25.000000
2.195194 -1.011741 2.142457 30.000000
2.184350 -1.041509 2.139205 29.000000
2.169946 -1.069423 2.132547 28.000000
2.164433 -1.102652 2.136395 30.000000
2.151895 -1.132368 2.133532 30.000000
2.143553 -1.163287 2.132875 28.000000
2.143752 -1.200115 2.142758 25.000000
2.110915 -1.218150 2.119589 18.000000
2.104102 -1.250892 2.122591 10.000000
2.093781 -1.281739 2.122005 20.000000
2.065917 -1.302775 2.105875 26.000000
2.055222 -1.333085 2.105099 28.000000
2.047445 -1.365392 2.107364 29.000000
2.031822 -1.393967 2.103805 24.000000
2.042192 -1.439204 2.125173 25.000000
2.004358 -1.451971 2.098535 18.000000
1.969737 -1.466216 2.075111 22.000000
1.962564 -1.500558 2.080653 29.000000
1.943090 -1.525497 2.073102 26.000000
1.917399 -1.545341 2.059051 26.000000
1.885748 -1.559744 2.038447 25.000000
1.860034 -1.578422 2.024203 22.000000
1.843104 -1.604348 2.019366 21.000000
1.788445 -1.596467 1.973127 13.000000
1.782990 -1.631737 1.980877 21.000000
1.752911 -1.646594 1.963840 24.000000
1.727280 -1.662780 1.949167 24.000000
1.705656 -1.684756 1.941494 23.000000
1.666349 -1.686236 1.910931 24.000000
1.650098 -1.712833 1.909415 23.000000
1.638944 -1.744921 1.913848 17.000000
1.603730 -1.751090 1.890206 12.000000
1.570270 -1.755790 1.865836 15.000000
1.548340 -1.775299 1.857605 22.000000
1.518647 -1.785563 1.840037 18.000000
1.491639 -1.798201 1.825527 18.000000
1.467219 -1.813509 1.813959 16.000000
1.442752 -1.828312 1.802338 17.000000
1.427901 -1.855352 1.802958 18.000000
1.384843 -1.848056 1.770617 10.000000
1.346276 -1.842360 1.740673 12.000000
1.291903 -1.813236 1.689726 17.000000
1.250458 -1.803093 1.657570 13.000000
0.842062 1.213206 1.138932 32.000000
0.854924 1.200628 1.142631 30.000000
0.870114 1.191006 1.149404 32.000000
0.886288 1.180801 1.155682 22.000000
0.901388 1.170812 1.162320 35.000000
0.930968 1.178992 1.187524 39.000000
0.938780 1.159173 1.184870 35.000000
0.951337 1.145337 1.188300 36.000000
0.972839 1.143674 1.204594 37.000000
0.990530 1.135206 1.214217 33.000000
1.013297 1.132203 1.230049 34.000000
1.020579 1.111632 1.226962 19.000000
1.045180 1.111191 1.246400 32.000000
1.052196 1.090298 1.243183 31.000000
1.069829 1.080410 1.252532 32.000000
1.094729 1.078717 1.271898 35.000000
1.105932 1.063131 1.275307 33.000000
1.140464 1.067990 1.303734 29.000000
1.157365 1.057012 1.313448 33.000000
1.174250 1.045624 1.323069 23.000000
1.194066 1.036453 1.335948 34.000000
1.210942 1.024385 1.345513 36.000000
1.227862 1.012025 1.354979 32.000000
1.253651 1.006510 1.374156 35.000000
1.270603 0.993370 1.383507 32.000000
1.293559 0.984521 1.399343 34.000000
1.304425 0.966193 1.402027 32.000000
1.323501 0.954690 1.415061 19.000000
1.337268 0.938070 1.420847 30.000000
1.374978 0.938549 1.453415 34.000000
1.395038 0.925295 1.465656 32.000000
1.423689 0.918089 1.488308 34.000000
1.442927 0.904245 1.500979 34.000000
1.462154 0.889928 1.513617 33.000000
1.478219 0.873372 1.522763 29.000000
1.503879 0.862070 1.541899 23.000000
1.532864 0.851918 1.564204 27.000000
1.551309 0.836209 1.577076 28.000000
1.580416 0.824889 1.599274 32.000000
1.612930 0.814548 1.624721 28.000000
1.637990 0.800452 1.644059 32.000000
1.653012 0.781070 1.653238 28.000000
1.688245 0.770581 1.682512 30.000000
1.704041 0.750018 1.690763 23.000000
1.735071 0.736876 1.717172 31.000000
1.784100 0.729682 1.759567 32.000000
1.816177 0.714525 1.785101 35.000000
1.837880 0.694634 1.800388 33.000000
1.872648 0.679552 1.829804 32.000000
1.897787 0.659672 1.848132 26.000000
1.904618 0.633762 1.850215 10.000000
1.963791 0.624380 1.903014 10.000000
1.998481 0.605934 1.931975 17.000000
2.029746 0.585703 1.957324 24.000000
2.057372 0.563653 1.979223 29.000000
2.080511 0.540281 1.998376 31.000000
2.100910 0.515195 2.013076 33.000000
2.109614 0.487341 2.018198 31.000000
2.107439 0.457066 2.012911 26.000000
2.145161 0.434699 2.044255 26.000000
2.160590 0.407390 2.055596 32.000000
2.171362 0.379343 2.064269 33.000000
2.175602 0.349667 2.065098 33.000000
2.186782 0.321050 2.072491 34.000000
2.200674 0.292810 2.083959 33.000000
2.207080 0.263226 2.088405 35.000000
2.195197 0.231725 2.075543 26.000000
2.222892 0.204096 2.100172 24.000000
2.221414 0.173600 2.097213 33.000000
2.219742 0.143110 2.093973 32.000000
2.228785 0.113273 2.100827 30.000000
2.233170 0.083102 2.104910 32.000000
2.237277 0.052833 2.108807 32.000000
2.270398 0.022756 2.139858 34.000000
2.259483 -0.008054 2.129571 26.000000
2.241196 -0.038444 2.112236 26.000000
2.251733 -0.069233 2.122145 30.000000
2.265714 -0.100481 2.135193 26.000000
2.275000 -0.131913 2.145571 28.000000
2.276817 -0.163122 2.148807 28.000000
2.271179 -0.193810 2.144997 24.000000
2.268887 -0.224663 2.144329 18.000000
2.280885 -0.257149 2.157262 26.000000
2.299793 -0.290847 2.176739 32.000000
2.304105 -0.323108 2.182319 30.000000
2.303622 -0.355011 2.185154 30.000000
2.295733 -0.385802 2.180956 29.000000
2.302811 -0.418817 2.189353 29.000000
2.308872 -0.452321 2.198322 25.000000
2.317280 -0.486870 2.211383 17.000000
2.301336 -0.516012 2.199472 27.000000
2.302943 -0.549006 2.204515 28.000000
2.299977 -0.581396 2.206736 29.000000
2.290504 -0.611597 2.201060 28.000000
2.297612 -0.646868 2.212979 29.000000
2.290261 -0.678257 2.211191 29.000000
2.286218 -0.710638 2.212598 23.000000
2.267974 -0.738364 2.200139 16.000000
2.256570 -0.768076 2.194376 24.000000
2.250941 -0.800357 2.196079 25.000000
2.245979 -0.832237 2.196587 26.000000
2.236359 -0.863083 2.194504 26.000000
2.229965 -0.895204 2.195496 26.000000
2.216522 -0.924377 2.189644 26.000000
2.207298 -0.954430 2.186073 19.000000
2.172146 -0.974468 2.160569 13.000000
2.164912 -1.005759 2.160882 28.000000
2.160891 -1.038651 2.164340 28.000000
2.146523 -1.066470 2.157545 28.000000
2.134220 -1.096291 2.154888 27.000000
2.105273 -1.117090 2.135351 26.000000
2.093750 -1.145801 2.131445 29.000000
2.087460 -1.178476 2.134873 22.000000
2.055044 -1.196091 2.111525 10.000000
2.012952 -1.207197 2.078105 10.000000
2.018885 -1.246856 2.094321 24.000000
1.999123 -1.270743 2.083852 26.000000
1.982304 -1.296222 2.076608 28.000000
1.951790 -1.313591 2.056789 28.000000
1.934766 -1.338340 2.049309 26.000000
1.922607 -1.367760 2.048969 21.000000
1.893130 -1.383023 2.028036 15.000000
1.859445 -1.395966 2.004569 26.000000
1.834883 -1.415156 1.990859 25.000000
1.819127 -1.440981 1.986757 26.000000
1.800326 -1.464127 1.979224 26.000000
1.775542 -1.482026 1.965136 26.000000
1.762324 -1.509517 1.963921 27.000000
1.723022 -1.514008 1.933502 15.000000
1.712507 -1.543397 1.935262 13.000000
1.693247 -1.564768 1.927279 23.000000
1.666819 -1.581229 1.913461 25.000000
1.644602 -1.599313 1.901969 26.000000
1.622406 -1.616968 1.890511 24.000000
1.601397 -1.637591 1.882804 23.000000
1.588277 -1.666265 1.884524 26.000000
1.552634 -1.668733 1.856969 13.000000
1.528754 -1.685412 1.845825 12.000000
1.507400 -1.704584 1.837765 22.000000
1.483476 -1.720551 1.826501 21.000000
1.453555 -1.726521 1.805103 25.000000
1.427235 -1.738529 1.790558 23.000000
1.405834 -1.756176 1.782189 24.000000
1.377077 -1.764203 1.764464 23.000000
1.358029 -1.784294 1.759158 10.000000
1.332377 -1.798401 1.748132 18.000000
1.303716 -1.805186 1.730314 22.000000
1.279799 -1.817822 1.718604 21.000000
0.853522 1.213146 1.171214 35.000000
0.873435 1.209752 1.184288 24.000000
0.900417 1.215398 1.206659 18.000000
0.898105 1.179730 1.188022 32.000000
0.913316 1.169289 1.194753 33.000000
0.937023 1.171264 1.214437 34.000000
0.942422 1.148252 1.208505 36.000000
0.959915 1.140149 1.218223 34.000000
0.982531 1.137571 1.234263 42.000000
1.013082 1.143116 1.259797 26.000000
1.027271 1.131404 1.266794 21.000000
1.026775 1.102081 1.254010 28.000000
1.048672 1.098402 1.270431 31.000000
1.066418 1.088342 1.279884 33.000000
1.085838 1.081065 1.293019 35.000000
1.117306 1.083625 1.318579 31.000000
1.128699 1.067626 1.322003 33.000000
1.142823 1.053954 1.328551 26.000000
1.165281 1.047688 1.344821 22.000000
1.182195 1.035917 1.354500 29.000000
1.201967 1.026312 1.367417 30.000000
1.215967 1.011505 1.373693 31.000000
1.238677 1.003541 1.389841 35.000000
1.249714 0.985726 1.392681 29.000000
1.278438 0.981576 1.415250 34.000000
1.294460 0.968132 1.425136 25.000000
1.329473 0.967212 1.454268 19.000000
1.333351 0.944202 1.450710 32.000000
1.362474 0.937765 1.473129 33.000000
1.381636 0.924857 1.486100 30.000000
1.403847 0.913513 1.502312 32.000000
1.422952 0.899765 1.515092 33.000000
1.451604 0.891372 1.537821 33.000000
1.467637 0.874715 1.547124 24.000000
1.493154 0.863369 1.566464 18.000000
1.515581 0.849551 1.582277 26.000000
1.544443 0.838752 1.604800 26.000000
1.579115 0.831063 1.634578 29.000000
1.601622 0.815518 1.650172 28.000000
1.623234 0.799755 1.666326 29.000000
1.648224 0.785132 1.685762 29.000000
1.669822 0.768364 1.701776 16.000000
1.698174 0.754048 1.724400 18.000000
1.736587 0.743340 1.757215 26.000000
1.744697 0.719169 1.759184 17.000000
1.786615 0.708305 1.795203 18.000000
1.831270 0.698044 1.835285 14.000000
1.849411 0.676236 1.847104 16.000000
1.880479 0.659211 1.873301 18.000000
1.897675 0.636642 1.885674 13.000000
1.928626 0.618228 1.911543 21.000000
1.952628 0.596851 1.930503 31.000000
1.959059 0.569924 1.932132 29.000000
1.965319 0.542825 1.933504 29.000000
1.981931 0.518394 1.945119 31.000000
1.987104 0.491151 1.946929 28.000000
2.002595 0.466284 1.958914 30.000000
2.015213 0.440181 1.966507 19.000000
2.033997 0.415330 1.981621 26.000000
2.045478 0.388740 1.989668 29.000000
2.060373 0.362493 2.001003 32.000000
2.063642 0.334310 2.002505 30.000000
2.078242 0.307447 2.013502 33.000000
2.091810 0.280378 2.025041 33.000000
2.098069 0.252155 2.029486 32.000000
2.112135 0.224416 2.039876 22.000000
2.114472 0.195477 2.040505 26.000000
2.119322 0.166820 2.045140 28.000000
2.131999 0.138441 2.055720 29.000000
2.133718 0.109215 2.055720 29.000000
2.134442 0.079988 2.056353 33.000000
2.138494 0.050847 2.060274 28.000000
2.145967 0.021644 2.067393 28.000000
2.164062 -0.007795 2.084829 26.000000
2.160370 -0.037445 2.081085 25.000000
2.160004 -0.067017 2.080719 25.000000
2.170252 -0.097071 2.090570 27.000000
2.165091 -0.126580 2.087104 24.000000
2.177720 -0.157289 2.100786 26.000000
2.176518 -0.187063 2.099584 21.000000
2.163535 -0.215765 2.088638 15.000000
2.167480 -0.246298 2.095566 24.000000
2.164895 -0.275932 2.094643 23.000000
2.176327 -0.307585 2.107283 24.000000
2.183126 -0.339170 2.117104 28.000000
2.172734 -0.367754 2.108603 22.000000
2.175562 -0.398842 2.114489 26.000000
2.178081 -0.430126 2.120275 21.000000
2.148526 -0.454676 2.094713 15.000000
2.156904 -0.487506 2.107771 24.000000
2.162248 -0.519599 2.116340 26.000000
2.142856 -0.545627 2.100691 25.000000
2.146847 -0.577961 2.109713 25.000000
2.136714 -0.606528 2.104777 24.000000
2.129804 -0.635944 2.103003 26.000000
2.122707 -0.665266 2.101135 23.000000
2.115423 -0.694495 2.099081 13.000000
2.114747 -0.725902 2.103598 24.000000
2.103633 -0.753716 2.097740 26.000000
2.098164 -0.784177 2.099382 23.000000
2.103629 -0.818235 2.110230 26.000000
2.097682 -0.848745 2.111378 26.000000
2.084769 -0.876324 2.105609 24.000000
2.074962 -0.905179 2.103063 20.000000
2.038235 -0.921851 2.073140 16.000000
2.034926 -0.953075 2.077042 23.000000
2.011421 -0.974770 2.060405 22.000000
2.001030 -1.002510 2.057251 22.000000
1.992706 -1.032222 2.058033 25.000000
1.972163 -1.054416 2.044381 24.000000
1.953765 -1.078400 2.034684 22.000000
1.935171 -1.102019 2.025008 18.000000
1.916473 -1.125366 2.015076 18.000000
1.900849 -1.150179 2.008335 25.000000
1.885083 -1.174721 2.001515 25.000000
1.863006 -1.194975 1.987842 21.000000
1.856333 -1.225045 1.990789 26.000000
1.830956 -1.242535 1.973560 24.000000
1.825759 -1.274921 1.980179 24.000000
1.815432 -1.302567 1.979311 21.000000
1.782487 -1.314997 1.955812 12.000000
1.756898 -1.330638 1.938186 21.000000
1.742029 -1.355539 1.934334 20.000000
1.729834 -1.382701 1.933771 23.000000
1.711665 -1.404802 1.926362 22.000000
1.690391 -1.424206 1.915604 23.000000
1.671996 -1.445742 1.907963 23.000000
1.653476 -1.466930 1.900248 21.000000
1.617978 -1.472520 1.872949 15.000000
1.605028 -1.498143 1.871535 23.000000
1.586338 -1.518223 1.863545 23.000000
1.563400 -1.535986 1.852958 22.000000
1.547197 -1.558145 1.847965 23.000000
1.516095 -1.566973 1.827527 19.000000
1.502495 -1.591296 1.825520 25.000000
1.476678 -1.604810 1.811413 18.000000
1.444787 -1.608543 1.786938 10.000000
1.439441 -1.644212 1.798114 22.000000
1.413685 -1.656458 1.783687 19.000000
1.397866 -1.680227 1.781863 22.000000
1.372026 -1.691663 1.767335 23.000000
1.345415 -1.699064 1.749039 20.000000
1.322122 -1.712695 1.737593 20.000000
1.306489 -1.739095 1.739180 18.000000
1.278289 -1.745845 1.721374 16.000000
1.250362 -1.752065 1.703478 23.000000
0.873903 1.225083 1.216284 22.000000
0.873435 1.192950 1.201206 20.000000
0.888726 1.182733 1.207972 19.000000
0.911049 1.181453 1.224273 30.000000
0.916766 1.158538 1.218323 27.000000
0.936728 1.153653 1.231400 25.000000
0.956770 1.148374 1.244413 30.000000
0.979442 1.145610 1.260687 29.000000
1.003624 1.145732 1.280613 26.000000
1.003668 1.116406 1.267763 18.000000
1.015122 1.101774 1.271481 20.000000
1.035379 1.094837 1.284269 29.000000
1.054669 1.087971 1.297590 27.000000
1.080461 1.085639 1.316933 27.000000
1.099911 1.077864 1.330190 28.000000
1.124991 1.074886 1.349926 26.000000
1.139128 1.061174 1.356606 22.000000
1.150471 1.044600 1.359883 16.000000
1.164501 1.030388 1.366334 23.000000
1.184139 1.020802 1.379353 26.000000
1.209605 1.015656 1.398983 29.000000
1.223573 1.000507 1.405267 26.000000
1.237529 0.985081 1.411500 26.000000
1.269075 0.983127 1.437631 27.000000
1.285006 0.969651 1.447606 26.000000
1.307879 0.959805 1.463646 14.000000
1.329877 0.949883 1.480206 22.000000
1.361035 0.945752 1.506777 29.000000
1.371904 0.926064 1.509170 27.000000
1.384832 0.908606 1.515416 25.000000
1.403810 0.894882 1.528300 26.000000
1.432228 0.886564 1.551313 26.000000
1.451317 0.871902 1.564077 26.000000
1.501140 0.875659 1.611366 11.000000
1.504457 0.850718 1.606943 21.000000
1.545965 0.846898 1.643342 23.000000
1.561095 0.828699 1.652967 23.000000
1.580209 0.811468 1.665294 20.000000
1.595204 0.792566 1.674744 13.000000
1.610120 0.773331 1.684066 9.000000
1.628174 0.755367 1.696768 8.000000
1.669438 0.747279 1.733346 8.000000
1.727519 0.745445 1.787151 9.000000
1.739020 0.722522 1.792578 10.000000
1.779822 0.711832 1.829719 23.000000
1.801321 0.691945 1.845240 27.000000
1.815101 0.669427 1.854523 28.000000
1.836475 0.648715 1.869846 26.000000
1.836404 0.620864 1.864890 23.000000
1.856674 0.599677 1.880658 10.000000
