x y z intensity
2.645683 -0.655609 0.364731 69.000000
2.662367 -0.690701 0.367792 63.000000
2.625962 -0.711968 0.363481 27.000000
2.737396 -0.774168 0.379508 10.000000
2.876187 -0.847550 0.399727 9.000000
2.999448 -0.919616 0.417744 3.000000
3.192371 -1.016950 0.445605 1.000000
3.369470 -1.113943 0.471426 1.000000
3.314925 -1.136080 0.464961 1.000000
3.377258 -1.198638 0.474932 1.000000
3.094052 -1.136576 0.436325 2.000000
3.290098 -1.249347 0.465201 1.000000
3.174924 -1.245278 0.450156 1.000000
3.243769 -1.313516 0.461395 1.000000
3.284333 -1.371668 0.468470 1.000000
3.219128 -1.386145 0.460754 1.000000
3.280956 -1.455159 0.471060 1.000000
3.174639 -1.449980 0.457402 1.000000
3.266536 -1.534958 0.472107 1.000000
3.146876 -1.521103 0.456546 1.000000
3.214451 -1.597559 0.468187 1.000000
3.016055 -1.539918 0.440840 3.000000
2.977009 -1.561440 0.436889 6.000000
2.946945 -1.586563 0.434132 4.000000
3.059633 -1.690855 0.452673 1.000000
2.997781 -1.699959 0.445510 1.000000
2.970861 -1.727319 0.443276 1.000000
3.002833 -1.790469 0.450199 1.000000
3.110471 -1.947671 0.470517 1.000000
2.813407 -1.805019 0.427729 1.000000
3.004829 -1.974899 0.459209 1.000000
2.946005 -1.983050 0.452635 1.000000
2.802572 -2.116999 0.442392 1.000000
2.763428 -2.135654 0.438926 1.000000
2.697091 -2.132104 0.431010 1.000000
2.796963 -2.261642 0.449917 1.000000
2.772072 -2.292397 0.448811 1.000000
2.678543 -2.265149 0.436589 1.000000
2.680660 -2.316338 0.439604 2.000000
2.629135 -2.322756 0.434108 4.000000
2.588730 -2.338363 0.430579 7.000000
2.460903 -2.272522 0.412296 8.000000
2.349266 -2.217747 0.396544 11.000000
2.293669 -2.211675 0.389789 10.000000
2.134958 -2.104360 0.365703 10.000000
2.069868 -2.085496 0.357444 11.000000
1.991601 -2.051191 0.346729 18.000000
1.907567 -2.008292 0.334872 18.000000
1.828071 -1.967333 0.323679 18.000000
1.773052 -1.950576 0.316723 18.000000
1.695582 -1.906951 0.305642 15.000000
1.649503 -1.894798 0.299804 19.000000
1.609421 -1.890106 0.295334 16.000000
1.569680 -1.884837 0.290810 25.000000
1.533348 -1.882698 0.286896 31.000000
1.506567 -1.891717 0.284757 28.000000
1.516344 -1.947321 0.289618 26.000000
1.492026 -1.959902 0.288052 28.000000
1.473573 -1.980158 0.287571 27.000000
1.464715 -2.011538 0.288739 21.000000
1.442699 -2.027515 0.287668 18.000000
1.420529 -2.043263 0.286598 20.000000
1.420534 -2.091656 0.290165 23.000000
1.405937 -2.119531 0.290703 22.000000
1.388214 -2.143183 0.290741 22.000000
1.364763 -2.158398 0.289643 22.000000
1.356812 -2.198669 0.291833 21.000000
1.340459 -2.226197 0.292400 18.000000
1.336251 -2.275078 0.295657 8.000000
0.815045 1.409675 0.194840 7.000000
0.797449 1.345104 0.187935 24.000000
0.822373 1.353180 0.191100 27.000000
0.834498 1.339767 0.191277 31.000000
0.854394 1.338867 0.193262 31.000000
0.868115 1.329883 0.194092 32.000000
0.879810 1.316089 0.194264 34.000000
0.899727 1.314495 0.196266 32.000000
0.916877 1.308518 0.197614 35.000000
0.913727 1.274155 0.194655 21.000000
0.933436 1.271981 0.196615 27.000000
0.959180 1.277515 0.199825 35.000000
0.970014 1.262919 0.199939 28.000000
0.986842 1.256044 0.201299 36.000000
1.009129 1.257183 0.203968 33.000000
1.019669 1.242142 0.204082 31.000000
1.033165 1.230820 0.204774 32.000000
1.040103 1.211824 0.204198 16.000000
1.069626 1.218915 0.208067 52.000000
1.079587 1.203299 0.208078 35.000000
1.102724 1.202324 0.210695 34.000000
1.118665 1.194145 0.212091 58.000000
1.138514 1.188870 0.214035 37.000000
1.158420 1.183290 0.215987 52.000000
1.174821 1.173901 0.217298 36.000000
1.194690 1.167796 0.219264 21.000000
1.196643 1.144252 0.217924 48.000000
1.212289 1.134796 0.219292 68.000000
1.235627 1.131343 0.221874 42.000000
1.251645 1.120879 0.223152 59.000000
1.271309 1.113547 0.225092 43.000000
1.302304 1.115514 0.229026 47.000000
1.298886 1.088737 0.227057 49.000000
1.341393 1.099411 0.232956 21.000000
1.341808 1.075215 0.231542 35.000000
1.357410 1.063339 0.232793 57.000000
1.376534 1.054710 0.234772 35.000000
1.391981 1.042353 0.235978 68.000000
1.403336 1.026874 0.236514 32.000000
1.426620 1.019986 0.239129 34.000000
1.461841 1.021509 0.243787 45.000000
1.481120 1.010889 0.245693 21.000000
1.479746 0.986187 0.244150 37.000000
1.519322 0.989053 0.249525 36.000000
1.546767 0.982812 0.252760 40.000000
1.561646 0.968259 0.253953 45.000000
1.584661 0.958969 0.256634 33.000000
1.607899 0.949000 0.259153 32.000000
1.648242 0.948457 0.264492 59.000000
1.641046 0.920834 0.262259 22.000000
1.664112 0.909812 0.264797 35.000000
1.682554 0.896293 0.266767 42.000000
1.714224 0.889069 0.270648 35.000000
1.741545 0.879069 0.273905 51.000000
1.773144 0.870986 0.277929 35.000000
1.791516 0.855649 0.279750 30.000000
1.818594 0.844471 0.283035 34.000000
1.845730 0.832529 0.286268 13.000000
1.872793 0.820316 0.289571 31.000000
1.895220 0.805645 0.292119 32.000000
1.913069 0.788534 0.293970 29.000000
1.939876 0.774959 0.297234 32.000000
1.971200 0.762705 0.301212 33.000000
2.007223 0.751354 0.305775 29.000000
2.024526 0.732788 0.307652 30.000000
2.037031 0.712252 0.308758 13.000000
2.072752 0.699460 0.313412 32.000000
2.113183 0.687518 0.318786 33.000000
2.153573 0.674718 0.324174 37.000000
2.179693 0.656842 0.327368 43.000000
2.196220 0.635729 0.329214 37.000000
2.241135 0.622211 0.335202 46.000000
2.257297 0.600299 0.337061 34.000000
2.311667 0.587790 0.344496 21.000000
2.327537 0.564750 0.346295 10.000000
2.347983 0.542614 0.348738 9.000000
2.392369 0.525469 0.354845 8.000000
2.431792 0.506320 0.360169 8.000000
2.466284 0.485474 0.364784 8.000000
2.529779 0.469250 0.373639 8.000000
2.559151 0.445805 0.377472 8.000000
2.651699 0.432173 0.390745 27.000000
2.695390 0.409029 0.396754 37.000000
2.738875 0.385029 0.402685 52.000000
2.772324 0.358901 0.407266 44.000000
2.820251 0.333788 0.414016 39.000000
2.892537 0.310258 0.424294 35.000000
2.905617 0.279533 0.425917 24.000000
2.972583 0.253213 0.435486 32.000000
3.078772 0.228325 0.450842 41.000000
3.085995 0.194931 0.451660 67.000000
3.087902 0.161171 0.451851 71.000000
3.049883 0.125780 0.446161 31.000000
2.996711 0.090711 0.438207 9.000000
2.977758 0.057503 0.435407 10.000000
2.988111 0.025068 0.436945 31.000000
2.983256 -0.007637 0.436222 50.000000
3.002768 -0.040568 0.439115 87.000000
2.977391 -0.072843 0.435498 75.000000
2.976380 -0.105361 0.435407 83.000000
2.955326 -0.137054 0.432513 78.000000
2.943805 -0.168789 0.430976 70.000000
2.907253 -0.198622 0.425824 31.000000
2.830937 -0.224569 0.414892 10.000000
2.828309 -0.255487 0.414717 35.000000
2.825331 -0.286492 0.414629 51.000000
2.817174 -0.316769 0.413732 88.000000
2.808679 -0.346939 0.412836 82.000000
2.790041 -0.375681 0.410497 84.000000
2.785787 -0.406156 0.410236 95.000000
2.766522 -0.434328 0.407901 54.000000
2.708013 -0.455527 0.399719 19.000000
2.732067 -0.490327 0.403784 43.000000
2.663406 -0.508148 0.394176 10.000000
2.643170 -0.534306 0.391769 10.000000
2.646944 -0.565229 0.392956 15.000000
2.664737 -0.599539 0.396211 75.000000
2.653352 -0.627459 0.395073 95.000000
2.646290 -0.656465 0.394821 57.000000
2.624691 -0.681655 0.392336 24.000000
2.607613 -0.707577 0.390488 32.000000
2.680727 -0.758988 0.402216 10.000000
2.847931 -0.840088 0.428284 9.000000
2.942769 -0.903065 0.443513 3.000000
3.121307 -0.995384 0.471530 1.000000
3.279543 -1.085406 0.496533 1.000000
3.258252 -1.117874 0.494473 1.000000
3.117054 -1.146012 0.475585 2.000000
3.215393 -1.222528 0.491959 1.000000
3.169780 -1.244858 0.486374 1.000000
3.160720 -1.281151 0.486345 1.000000
3.187629 -1.333033 0.492059 1.000000
3.159399 -1.361770 0.489202 1.000000
3.230410 -1.434297 0.501813 1.000000
3.086496 -1.451993 0.482771 1.000000
3.141712 -1.520350 0.493229 1.000000
3.067519 -1.525787 0.483289 1.000000
2.971273 -1.518906 0.469998 3.000000
2.980810 -1.565423 0.473456 7.000000
2.963794 -1.597693 0.472522 6.000000
2.993708 -1.656645 0.479322 2.000000
2.975783 -1.689015 0.478373 1.000000
2.905767 -1.691905 0.469237 1.000000
2.989058 -1.784746 0.484964 1.000000
3.066911 -1.876482 0.499723 1.000000
3.205522 -2.010256 0.524947 1.000000
2.933369 -1.884932 0.482754 1.000000
2.883995 -1.897457 0.476890 1.000000
2.899904 -1.954169 0.482079 1.000000
2.885248 -2.036972 0.484682 1.000000
2.831914 -2.094399 0.481153 1.000000
2.816707 -2.131624 0.481419 1.000000
2.633101 -2.037451 0.452607 1.000000
2.626184 -2.078770 0.454167 1.000000
2.703304 -2.188715 0.470564 1.000000
2.553155 -2.114206 0.447320 2.000000
2.610031 -2.208787 0.460098 3.000000
2.548132 -2.204999 0.452289 5.000000
2.494160 -2.206743 0.445737 7.000000
2.499261 -2.260821 0.449902 9.000000
2.459701 -2.274857 0.446018 9.000000
2.363506 -2.232979 0.431521 16.000000
2.288967 -2.210696 0.421136 13.000000
2.165901 -2.138357 0.401645 10.000000
2.079580 -2.098768 0.388688 17.000000
1.990921 -2.053960 0.375240 21.000000
1.923948 -2.029027 0.365667 25.000000
1.831680 -1.973031 0.350892 21.000000
1.790055 -1.971059 0.345949 26.000000
1.702560 -1.916582 0.331960 24.000000
1.639215 -1.886616 0.322614 19.000000
1.605682 -1.889420 0.319061 18.000000
1.550062 -1.865088 0.310997 28.000000
1.523435 -1.874329 0.308685 30.000000
1.500730 -1.886424 0.306865 32.000000
1.489250 -1.914559 0.307714 29.000000
1.465281 -1.926951 0.306042 30.000000
1.461889 -1.966849 0.308675 27.000000
1.454985 -2.002898 0.310733 23.000000
1.430185 -2.014766 0.308970 21.000000
1.410975 -2.034497 0.308449 24.000000
1.399874 -2.066309 0.309770 24.000000
1.396399 -2.110629 0.312914 24.000000
1.377305 -2.129271 0.312202 25.000000
1.364590 -2.161105 0.313388 25.000000
1.348747 -2.188711 0.314028 26.000000
1.335028 -2.220507 0.315179 22.000000
1.338356 -2.282183 0.320519 9.000000
0.800797 1.387201 0.206212 8.000000
0.799852 1.353161 0.203301 21.000000
0.819745 1.352693 0.205459 29.000000
0.831877 1.339282 0.205640 25.000000
0.846434 1.330014 0.206465 30.000000
0.860894 1.320552 0.207290 28.000000
0.872505 1.306822 0.207460 29.000000
0.900712 1.317559 0.211568 34.000000
0.917900 1.311547 0.213014 31.000000
0.916987 1.281734 0.210590 24.000000
0.933840 1.275494 0.212079 27.000000
0.950684 1.269043 0.213525 29.000000
0.967516 1.262380 0.214976 32.000000
0.981231 1.251604 0.215711 29.000000
1.001046 1.248412 0.217844 33.000000
1.017740 1.241104 0.219260 33.000000
1.037006 1.237871 0.221459 26.000000
1.040819 1.215045 0.220160 25.000000
1.060604 1.210865 0.222267 33.000000
1.077050 1.202752 0.223697 32.000000
1.100214 1.201721 0.226459 36.000000
1.109883 1.185857 0.226521 35.000000
1.132560 1.184733 0.229350 33.000000
1.152411 1.179189 0.231448 60.000000
1.168766 1.169836 0.232856 32.000000
1.195656 1.170694 0.236367 24.000000
1.190570 1.140216 0.233531 38.000000
1.206173 1.130797 0.234997 47.000000
1.229451 1.127378 0.237776 60.000000
1.245426 1.117005 0.239152 40.000000
1.261370 1.106395 0.240480 52.000000
1.284274 1.102409 0.243339 58.000000
1.307700 1.097655 0.246105 35.000000
1.315878 1.079934 0.246022 24.000000
1.343073 1.077676 0.249520 32.000000
1.358382 1.066182 0.250929 44.000000
1.373917 1.054016 0.252289 45.000000
1.389411 1.041710 0.253599 32.000000
1.400444 1.026606 0.254241 42.000000
1.427724 1.022543 0.257735 35.000000
1.442936 1.009507 0.259058 39.000000
1.470300 1.004590 0.262518 28.000000
1.485071 0.991351 0.263909 33.000000
1.512442 0.985627 0.267390 34.000000
1.539602 0.979818 0.270939 52.000000
1.558703 0.967920 0.272974 36.000000
1.586151 0.960846 0.276432 49.000000
1.604908 0.948598 0.278539 51.000000
1.623773 0.935703 0.280537 33.000000
1.646711 0.925273 0.283341 30.000000
1.656736 0.906970 0.283865 36.000000
1.683861 0.898209 0.287368 35.000000
1.711189 0.888652 0.290881 70.000000
1.720651 0.869907 0.291417 35.000000
1.743362 0.857409 0.294138 40.000000
1.801590 0.861804 0.302926 60.000000
1.806416 0.839747 0.302607 32.000000
1.842422 0.832217 0.307674 27.000000
1.869453 0.820001 0.311187 35.000000
1.887371 0.803201 0.313137 34.000000
1.918826 0.791986 0.317422 43.000000
1.936463 0.774637 0.319385 33.000000
1.963139 0.760529 0.322932 31.000000
1.994532 0.747489 0.327051 33.000000
2.016428 0.730706 0.329791 27.000000
2.038235 0.713486 0.332538 29.000000
2.064563 0.697474 0.335985 37.000000
2.114319 0.688568 0.343254 35.000000
2.140525 0.671343 0.346721 52.000000
2.171243 0.655134 0.351030 62.000000
2.187738 0.634002 0.352981 34.000000
2.232574 0.620601 0.359465 52.000000
2.263029 0.602553 0.363731 32.000000
2.317345 0.589860 0.371700 29.000000
2.314021 0.562122 0.370532 10.000000
2.339157 0.541277 0.373977 8.000000
2.383541 0.524106 0.380510 8.000000
2.418060 0.504074 0.385437 9.000000
2.457328 0.484209 0.391143 8.000000
2.501289 0.464503 0.397550 8.000000
2.535360 0.442169 0.402500 7.000000
2.627806 0.428742 0.416735 32.000000
2.661549 0.404409 0.421623 52.000000
2.719595 0.382793 0.430388 36.000000
2.762770 0.358094 0.436838 35.000000
2.810704 0.333032 0.444072 52.000000
2.873048 0.308496 0.453550 32.000000
2.891012 0.278496 0.456055 9.000000
3.056200 0.260582 0.481840 20.000000
3.093333 0.229693 0.487463 55.000000
3.085774 0.195147 0.486101 95.000000
3.077915 0.160818 0.484644 91.000000
3.039958 0.125482 0.478524 34.000000
2.991811 0.090711 0.470848 21.000000
2.977736 0.057599 0.468517 22.000000
2.973257 0.024985 0.467832 26.000000
2.978288 -0.007637 0.468609 25.000000
2.933564 -0.039699 0.461615 18.000000
2.928082 -0.071664 0.460838 15.000000
2.902406 -0.102911 0.456952 10.000000
2.886349 -0.133985 0.454532 10.000000
2.855067 -0.163886 0.449782 10.000000
2.853123 -0.195162 0.449693 9.000000
2.811436 -0.223308 0.443393 10.000000
2.828587 -0.255844 0.446411 81.000000
2.810861 -0.285319 0.443907 80.000000
2.797728 -0.314937 0.442181 81.000000
2.799064 -0.346158 0.442783 92.000000
2.785353 -0.375507 0.440972 95.000000
2.761548 -0.403128 0.437699 93.000000
2.766824 -0.434836 0.438989 77.000000
2.713182 -0.456914 0.430992 30.000000
2.727530 -0.490070 0.433830 64.000000
2.658974 -0.507813 0.423526 11.000000
2.648446 -0.535932 0.422419 10.000000
2.632858 -0.562830 0.420542 13.000000
2.650635 -0.597031 0.424065 83.000000
2.639197 -0.624846 0.422959 89.000000
2.632328 -0.653663 0.422540 73.000000
2.596351 -0.675021 0.417590 32.000000
2.598430 -0.705949 0.418713 36.000000
2.666667 -0.755949 0.430577 10.000000
2.819386 -0.832724 0.456219 9.000000
2.937739 -0.902496 0.476352 4.000000
3.125469 -0.997682 0.508010 2.000000
3.334874 -1.104970 0.543318 1.000000
3.191870 -1.096368 0.521296 1.000000
3.046805 -1.121499 0.500148 2.000000
3.232864 -1.230682 0.532349 1.000000
3.136621 -1.233378 0.517931 1.000000
3.109355 -1.262039 0.514928 1.000000
3.209443 -1.343633 0.533135 1.000000
3.239888 -1.398562 0.540054 1.000000
3.215603 -1.429736 0.537672 1.000000
3.045151 -1.434718 0.512704 1.000000
3.091740 -1.497936 0.522289 1.000000
3.052968 -1.520956 0.517795 1.000000
3.045239 -1.558626 0.518345 2.000000
2.962288 -1.557691 0.506283 7.000000
2.945347 -1.589818 0.505353 7.000000
2.983900 -1.653511 0.514215 2.000000
3.069167 -1.744471 0.531011 1.000000
2.989975 -1.743378 0.519745 2.000000
2.958336 -1.768238 0.516454 2.000000
2.951416 -1.808533 0.517715 2.000000
2.973212 -1.867412 0.524136 1.000000
2.828284 -1.819324 0.500848 1.000000
2.894877 -1.907705 0.515246 1.000000
2.833231 -1.911279 0.506736 1.000000
2.824246 -1.950922 0.507877 1.000000
2.754183 -1.947888 0.498055 1.000000
2.728634 -1.975374 0.496285 1.000000
2.623846 -1.942960 0.479773 2.000000
2.669427 -2.022653 0.490994 3.000000
2.584452 -2.003696 0.478281 5.000000
2.559091 -2.028360 0.476349 6.000000
2.555850 -2.072138 0.478740 7.000000
2.529210 -2.097189 0.476905 8.000000
2.521105 -2.137955 0.478555 9.000000
2.509390 -2.174586 0.479373 10.000000
2.492840 -2.208897 0.479570 10.000000
2.468502 -2.236316 0.478235 10.000000
2.458278 -2.276983 0.479838 8.000000
2.372983 -2.245386 0.466379 10.000000
2.298398 -2.223286 0.455204 18.000000
2.161217 -2.137233 0.431438 10.000000
2.088959 -2.111755 0.420319 18.000000
1.989962 -2.056461 0.403760 20.000000
1.917100 -2.023625 0.391994 20.000000
1.851097 -1.997543 0.381767 26.000000
1.775980 -1.959152 0.369521 20.000000
1.708472 -1.926831 0.358722 21.000000
1.648349 -1.900659 0.349281 22.000000
1.588977 -1.873472 0.339971 13.000000
1.547227 -1.863522 0.333904 28.000000
1.517415 -1.868923 0.330743 32.000000
1.490787 -1.877848 0.328275 29.000000
1.479295 -1.905911 0.329195 32.000000
1.458414 -1.922185 0.328080 30.000000
1.457969 -1.966020 0.331590 28.000000
1.445210 -1.994036 0.332466 29.000000
1.418774 -2.001043 0.329768 19.000000
1.410980 -2.036972 0.331879 28.000000
1.383072 -2.044174 0.329335 24.000000
1.379858 -2.088319 0.332655 23.000000
1.375781 -2.132578 0.336016 24.000000
1.360346 -2.160240 0.336649 25.000000
1.336693 -2.175171 0.335391 24.000000
1.320451 -2.202622 0.336001 23.000000
1.330417 -2.271918 0.342894 9.000000
0.810391 1.408024 0.224019 7.000000
0.808084 1.369109 0.220168 15.000000
0.817895 1.351574 0.219721 16.000000
0.837815 1.350790 0.221981 16.000000
0.841064 1.325203 0.220182 26.000000
0.863623 1.328271 0.223145 16.000000
0.880820 1.322675 0.224724 29.000000
0.889691 1.304650 0.224200 24.000000
0.909523 1.302838 0.226438 18.000000
0.923678 1.292699 0.227319 21.000000
0.929020 1.270379 0.226020 16.000000
0.951010 1.272372 0.229083 25.000000
0.964920 1.261743 0.229915 26.000000
0.972537 1.243173 0.229310 19.000000
0.995342 1.243908 0.232253 28.000000
1.008854 1.232804 0.233088 24.000000
1.031841 1.232933 0.236053 22.000000
1.041471 1.218115 0.236217 21.000000
1.051465 1.202773 0.236277 16.000000
1.071167 1.198418 0.238483 30.000000
1.087546 1.190117 0.240013 28.000000
1.110656 1.188820 0.242975 24.000000
1.119742 1.173295 0.243087 31.000000
1.146316 1.174938 0.246812 27.000000
1.152150 1.155121 0.246030 24.000000
1.161259 1.138819 0.246037 22.000000
1.187471 1.139962 0.249841 24.000000
1.196367 1.123317 0.249800 34.000000
1.215908 1.116629 0.252019 29.000000
1.235442 1.109678 0.254194 27.000000
1.254555 1.102822 0.256481 33.000000
1.277865 1.098457 0.259434 28.000000
1.293668 1.087380 0.260873 36.000000
1.305514 1.072925 0.261551 21.000000
1.339993 1.077305 0.266884 21.000000
1.344013 1.056225 0.266036 31.000000
1.371193 1.053268 0.269753 28.000000
1.386358 1.041335 0.271219 26.000000
1.397712 1.025857 0.271862 35.000000
1.404892 1.007393 0.271675 24.000000
1.452028 1.017576 0.279373 25.000000
1.483527 1.015308 0.283875 25.000000
1.490196 0.996400 0.283815 22.000000
1.513458 0.987881 0.286719 35.000000
1.536730 0.978974 0.289633 36.000000
1.551340 0.964803 0.291095 29.000000
1.574561 0.955209 0.294024 33.000000
1.601744 0.948080 0.297868 32.000000
1.612041 0.930247 0.298385 29.000000
1.634900 0.919849 0.301398 26.000000
1.644873 0.901700 0.301920 26.000000
1.667560 0.890643 0.304888 28.000000
1.699158 0.883503 0.309401 29.000000
1.721782 0.871600 0.312390 29.000000
1.757653 0.865833 0.317789 30.000000
1.780457 0.852722 0.320618 29.000000
1.807446 0.841523 0.324440 27.000000
1.843423 0.833876 0.329822 29.000000
1.861468 0.817386 0.331871 29.000000
1.883825 0.802821 0.334794 28.000000
1.910677 0.789653 0.338596 29.000000
1.923697 0.770517 0.339917 26.000000
1.959499 0.760073 0.345228 28.000000
1.995337 0.748960 0.350618 28.000000
2.021929 0.733807 0.354330 19.000000
2.043745 0.716483 0.357237 27.000000
2.084092 0.705042 0.363409 27.000000
2.101025 0.685234 0.365449 30.000000
2.136576 0.670997 0.370759 35.000000
2.153156 0.650504 0.372880 31.000000
2.183799 0.633650 0.377390 32.000000
2.204807 0.613560 0.380200 10.000000
2.192258 0.584335 0.377344 8.000000
2.284460 0.582256 0.392547 23.000000
2.285868 0.556073 0.392090 8.000000
2.325395 0.538754 0.398213 7.000000
2.369612 0.521684 0.405170 8.000000
2.413712 0.503769 0.412064 7.000000
2.433566 0.480082 0.414843 7.000000
2.501658 0.465168 0.425880 7.000000
2.540543 0.443627 0.432056 6.000000
2.618251 0.427701 0.444694 34.000000
2.686058 0.408609 0.455692 31.000000
2.700111 0.380474 0.457683 29.000000
2.757865 0.357836 0.467045 34.000000
2.820322 0.334600 0.477246 28.000000
2.848350 0.306209 0.481566 23.000000
2.910347 0.280683 0.491693 8.000000
3.021323 0.257970 0.510217 17.000000
3.053452 0.227038 0.515384 35.000000
3.075409 0.194740 0.518799 67.000000
3.052698 0.159692 0.514743 37.000000
3.039527 0.125592 0.512347 41.000000
3.016016 0.091516 0.508381 35.000000
2.992209 0.057981 0.504228 35.000000
2.928579 0.024563 0.493520 10.000000
2.938530 -0.007548 0.495181 8.000000
2.913608 -0.039408 0.491027 9.000000
2.888332 -0.070818 0.486873 9.000000
2.882510 -0.102296 0.485953 9.000000
2.866396 -0.133209 0.483461 9.000000
2.850031 -0.163798 0.480880 9.000000
2.818573 -0.193052 0.475810 8.000000
2.781895 -0.221180 0.469824 14.000000
2.803856 -0.253890 0.473800 35.000000
2.810792 -0.285556 0.475285 95.000000
2.792770 -0.314763 0.472710 57.000000
2.784311 -0.344772 0.471707 77.000000
2.770631 -0.373928 0.469789 95.000000
2.751755 -0.402156 0.467045 52.000000
2.747280 -0.432277 0.466787 71.000000
2.727787 -0.459938 0.464047 57.000000
2.703238 -0.486321 0.460484 33.000000
2.649364 -0.506553 0.451883 10.000000
2.619523 -0.530703 0.447421 9.000000
2.608829 -0.558369 0.446266 10.000000
2.636230 -0.594525 0.451705 78.000000
2.624825 -0.622236 0.450547 49.000000
2.603623 -0.647378 0.447661 35.000000
2.605947 -0.678334 0.448890 56.000000
2.584172 -0.702861 0.445927 24.000000
2.647554 -0.751396 0.457820 9.000000
2.809482 -0.830781 0.486903 9.000000
2.889993 -0.888970 0.501916 4.000000
3.086805 -0.986763 0.537341 2.000000
3.221116 -1.068701 0.562065 1.000000
3.227911 -1.110393 0.564700 1.000000
3.161439 -1.165569 0.556001 1.000000
3.291420 -1.254533 0.580474 1.000000
3.318379 -1.348621 0.588568 1.000000
3.207978 -1.344788 0.570683 1.000000
3.301946 -1.426831 0.589220 1.000000
3.389714 -1.509370 0.607122 1.000000
2.968025 -1.399995 0.535056 1.000000
2.925861 -1.419842 0.529525 3.000000
2.910275 -1.451719 0.528620 4.000000
2.903272 -1.487895 0.529216 5.000000
2.877996 -1.515370 0.526810 7.000000
2.952692 -1.595929 0.542560 5.000000
2.934949 -1.628613 0.541730 2.000000
3.028854 -1.723956 0.561258 1.000000
3.077886 -1.797288 0.573096 1.000000
3.134634 -1.876309 0.586142 1.000000
2.974997 -1.825755 0.558924 1.000000
3.017844 -1.897431 0.569571 1.000000
2.863980 -1.845236 0.543274 1.000000
2.728164 -1.800762 0.520218 1.000000
2.614561 -1.766669 0.500974 1.000000
2.635572 -1.823728 0.507823 4.000000
2.652141 -1.877834 0.513560 5.000000
2.635356 -1.910151 0.513235 7.000000
2.594305 -1.924498 0.508243 8.000000
2.585454 -1.961496 0.509271 8.000000
2.571504 -1.996126 0.509715 9.000000
2.553250 -2.027655 0.509280 8.000000
2.566018 -2.083173 0.514796 8.000000
2.535345 -2.105239 0.512036 8.000000
2.527103 -2.146020 0.513775 8.000000
2.495888 -2.167492 0.511019 9.000000
2.469019 -2.190958 0.508726 9.000000
2.474142 -2.244841 0.513478 9.000000
2.445660 -2.268814 0.511379 8.000000
2.356081 -2.234678 0.496339 8.000000
2.303922 -2.232225 0.488810 10.000000
2.180929 -2.160272 0.466394 10.000000
2.091145 -2.117509 0.450839 10.000000
2.012855 -2.083762 0.437515 14.000000
1.905838 -2.015323 0.417480 12.000000
1.846733 -1.996368 0.408035 10.000000
1.774979 -1.961759 0.395683 14.000000
1.710821 -1.933127 0.384873 10.000000
1.670134 -1.929567 0.379268 10.000000
1.589147 -1.875504 0.364014 10.000000
1.546428 -1.866286 0.357690 16.000000
1.516599 -1.871802 0.354312 25.000000
1.496015 -1.888522 0.353123 27.000000
1.469298 -1.897121 0.350488 23.000000
1.451415 -1.917199 0.349950 29.000000
1.449139 -1.956334 0.352919 17.000000
1.445078 -1.996301 0.355931 19.000000
1.414620 -2.000061 0.352503 19.000000
1.406784 -2.035980 0.354767 18.000000
1.376123 -2.039159 0.351349 21.000000
1.386515 -2.103850 0.358434 18.000000
1.368728 -2.127477 0.358517 21.000000
1.333562 -2.120713 0.353465 16.000000
1.338807 -2.181804 0.359729 17.000000
1.312361 -2.192307 0.357616 16.000000
1.318308 -2.258034 0.364482 6.000000
0.802564 1.398742 0.237178 7.000000
0.797766 1.355586 0.232328 13.000000
0.820182 1.359313 0.235450 15.000000
0.832422 1.345898 0.235693 21.000000
0.849717 1.340700 0.237361 23.000000
0.867055 1.335296 0.239083 23.000000
0.875342 1.317822 0.238574 21.000000
0.895258 1.316183 0.240999 20.000000
0.918079 1.318329 0.244186 22.000000
0.915246 1.283915 0.240603 13.000000
0.937955 1.285622 0.243750 21.000000
0.954914 1.279067 0.245394 24.000000
0.971169 1.272794 0.247143 21.000000
0.988102 1.265812 0.248798 28.000000
0.998806 1.250892 0.248873 21.000000
1.018700 1.247372 0.251305 26.000000
1.032280 1.235931 0.252151 25.000000
1.038752 1.217373 0.251543 12.000000
1.058545 1.213198 0.253941 29.000000
1.078352 1.208729 0.256300 26.000000
1.091515 1.196617 0.257101 28.000000
1.107443 1.188468 0.258839 32.000000
1.123801 1.179643 0.260431 30.000000
1.143580 1.174128 0.262769 32.000000
1.159880 1.164860 0.264374 30.000000
1.182737 1.162690 0.267627 13.000000
1.181220 1.135728 0.265201 35.000000
1.208013 1.136030 0.269165 36.000000
1.224052 1.125836 0.270686 34.000000
1.246933 1.122473 0.273978 39.000000
1.255525 1.105257 0.273896 33.000000
1.271317 1.094406 0.275430 46.000000
1.286711 1.083784 0.277021 33.000000
1.329039 1.094459 0.284265 22.000000
1.340968 1.079548 0.284958 35.000000
1.352471 1.064957 0.285757 32.000000
1.367989 1.052788 0.287270 32.000000
1.379524 1.037514 0.287910 36.000000
1.394499 1.025375 0.289483 33.000000
1.413756 1.015489 0.291779 51.000000
1.456868 1.022749 0.299162 42.000000
1.472061 1.009232 0.300599 19.000000
1.479012 0.990029 0.300429 35.000000
1.510219 0.987322 0.305316 36.000000
1.529309 0.975759 0.307546 50.000000
1.548065 0.964238 0.309952 54.000000
1.566991 0.952081 0.312195 30.000000
1.585631 0.939965 0.314558 33.000000
1.621506 0.937012 0.320184 53.000000
1.622950 0.914431 0.319191 21.000000
1.671748 0.917660 0.327323 55.000000
1.690241 0.904002 0.329667 71.000000
1.699916 0.885424 0.330320 36.000000
1.718381 0.870944 0.332555 61.000000
1.763037 0.869525 0.339968 40.000000
1.790059 0.858687 0.343991 36.000000
1.808212 0.843173 0.346317 35.000000
1.808384 0.818963 0.345037 19.000000
1.866778 0.820912 0.355023 34.000000
1.898210 0.810048 0.359886 52.000000
1.920494 0.794856 0.363043 32.000000
1.956420 0.784671 0.368727 36.000000
1.974026 0.766751 0.370975 35.000000
1.991448 0.748498 0.373228 33.000000
2.022632 0.734957 0.378081 37.000000
2.044440 0.717578 0.381146 18.000000
2.098663 0.711021 0.390358 42.000000
2.120327 0.692467 0.393444 55.000000
2.137117 0.672058 0.395598 52.000000
2.167831 0.655789 0.400436 63.000000
2.193762 0.637349 0.404343 69.000000
2.205231 0.614598 0.405640 10.000000
2.230784 0.595482 0.409631 9.000000
2.260931 0.577094 0.414432 8.000000
2.319691 0.565029 0.424419 29.000000
2.344866 0.543947 0.428293 10.000000
2.369839 0.522443 0.432172 9.000000
2.394679 0.500367 0.435982 8.000000
2.453106 0.484622 0.446019 8.000000
2.482339 0.462151 0.450801 8.000000
2.530907 0.442540 0.459028 9.000000
2.661817 0.435316 0.482142 30.000000
2.690660 0.409839 0.486963 52.000000
2.733950 0.385807 0.494265 70.000000
2.777018 0.360834 0.501574 67.000000
2.815049 0.334336 0.508008 71.000000
2.877195 0.309719 0.518860 29.000000
2.890132 0.279083 0.520805 8.000000
2.991081 0.255687 0.538646 26.000000
3.067303 0.228310 0.552082 88.000000
3.074503 0.194956 0.553156 98.000000
3.051841 0.159855 0.548928 95.000000
3.033784 0.125498 0.545392 91.000000
3.020157 0.091815 0.542834 95.000000
2.971799 0.057602 0.534085 93.000000
2.927971 0.024604 0.526218 13.000000
2.908377 -0.007485 0.522680 10.000000
2.849059 -0.038608 0.512067 9.000000
2.843521 -0.069763 0.511183 9.000000
2.818048 -0.100111 0.506673 9.000000
2.806906 -0.130604 0.504905 9.000000
2.820076 -0.162208 0.507383 10.000000
2.788691 -0.191194 0.502079 9.000000
2.722664 -0.216712 0.490418 9.000000
2.832849 -0.256826 0.510565 95.000000
2.815250 -0.286465 0.507740 95.000000
2.772794 -0.312847 0.500503 82.000000
2.759479 -0.342090 0.498565 86.000000
2.745845 -0.371118 0.496542 90.000000
2.741635 -0.401186 0.496285 95.000000
2.717721 -0.428189 0.492503 75.000000
2.717712 -0.458777 0.493042 30.000000
2.683522 -0.483364 0.487506 84.000000
2.620102 -0.501674 0.476615 10.000000
2.595266 -0.526458 0.472687 10.000000
2.598981 -0.557007 0.474115 13.000000
2.607205 -0.588769 0.476418 38.000000
2.610239 -0.619628 0.477840 81.000000
2.598560 -0.647046 0.476548 69.000000
2.572366 -0.670551 0.472549 27.000000
2.569700 -0.699942 0.472929 41.000000
2.623503 -0.745503 0.483786 10.000000
2.756837 -0.816349 0.509539 9.000000
2.879582 -0.886959 0.533315 4.000000
3.080790 -0.986162 0.572028 2.000000
3.121261 -1.037023 0.580994 2.000000
3.109947 -1.071067 0.580178 1.000000
3.107399 -1.108420 0.581200 1.000000
3.053554 -1.127218 0.572686 3.000000
3.018145 -1.151824 0.567654 3.000000
3.064991 -1.208438 0.578086 5.000000
2.969611 -1.208506 0.561738 5.000000
2.947218 -1.237275 0.559220 6.000000
2.924611 -1.265548 0.556707 7.000000
2.919787 -1.301545 0.557536 8.000000
2.914182 -1.337939 0.558559 7.000000
2.899580 -1.369826 0.557665 10.000000
2.866857 -1.392902 0.553251 10.000000
2.895728 -1.446210 0.560900 11.000000
2.853290 -1.464790 0.554884 10.000000
2.859089 -1.507371 0.558145 9.000000
2.886007 -1.561954 0.565637 8.000000
2.903087 -1.613112 0.571505 3.000000
2.718536 -1.549518 0.537370 3.000000
2.786468 -1.629404 0.553296 5.000000
2.739089 -1.642050 0.546295 6.000000
2.729294 -1.677567 0.546989 8.000000
2.711044 -1.707222 0.545799 8.000000
2.687959 -1.734601 0.543969 9.000000
2.673256 -1.766434 0.543518 10.000000
2.657799 -1.798852 0.543262 9.000000
2.670249 -1.850823 0.548831 8.000000
2.642195 -1.874078 0.545863 10.000000
2.629323 -1.909145 0.546418 9.000000
2.580999 -1.917021 0.539221 10.000000
2.602995 -1.978499 0.547104 10.000000
2.569363 -1.998248 0.543420 9.000000
2.570974 -2.044462 0.546836 10.000000
2.536833 -2.063680 0.543159 9.000000
2.521553 -2.098115 0.543478 7.000000
2.506542 -2.131599 0.543586 9.000000
2.471763 -2.149672 0.539723 9.000000
2.466386 -2.193523 0.542460 9.000000
2.453965 -2.229917 0.543252 10.000000
2.447328 -2.273884 0.545848 9.000000
2.397180 -2.277158 0.538670 9.000000
2.297683 -2.231532 0.520400 14.000000
2.242383 -2.224805 0.511523 9.000000
2.089650 -2.119646 0.480571 18.000000
2.018217 -2.092992 0.468065 18.000000
1.934235 -2.050637 0.452454 20.000000
1.852250 -2.005908 0.436672 23.000000
1.793738 -1.986104 0.426663 21.000000
1.729324 -1.957839 0.415138 24.000000
1.652891 -1.913359 0.400547 20.000000
1.572220 -1.859206 0.384254 10.000000
1.558053 -1.884196 0.384604 29.000000
1.531147 -1.893735 0.381771 28.000000
1.494992 -1.891209 0.376633 33.000000
1.459112 -1.888193 0.371448 35.000000
1.448374 -1.915345 0.372346 30.000000
1.430250 -1.935263 0.371774 31.000000
1.429250 -1.979136 0.375761 28.000000
1.404692 -1.990852 0.373647 13.000000
1.385682 -2.010418 0.373048 26.000000
1.366356 -2.029745 0.372443 23.000000
1.375178 -2.089520 0.379099 29.000000
1.344229 -2.092175 0.375469 25.000000
1.339668 -2.136310 0.379216 24.000000
1.311083 -2.142660 0.376256 23.000000
1.297734 -2.174141 0.377734 22.000000
1.316204 -2.261101 0.388662 9.000000
0.785840 1.371631 0.246924 8.000000
0.797403 1.359021 0.247272 10.000000
0.814746 1.354248 0.249023 28.000000
0.826949 1.340865 0.249267 22.000000
0.846877 1.339867 0.251859 25.000000
0.858838 1.326172 0.252051 26.000000
0.870562 1.312390 0.252237 21.000000
0.895180 1.319432 0.256484 31.000000
0.906755 1.305324 0.256672 23.000000
0.915283 1.287060 0.256006 17.000000
0.935154 1.284738 0.258589 29.000000
0.952105 1.278229 0.260328 27.000000
0.968351 1.271953 0.262172 33.000000
0.979212 1.257185 0.262300 25.000000
1.005210 1.261626 0.266446 30.000000
1.012749 1.242653 0.265759 31.000000
1.028848 1.235583 0.267571 22.000000
1.039131 1.220287 0.267643 24.000000
1.055709 1.212303 0.269362 29.000000
1.075499 1.207828 0.271865 31.000000
1.091479 1.199864 0.273648 35.000000
1.097867 1.180395 0.272833 33.000000
1.114187 1.171643 0.274518 33.000000
1.140743 1.173267 0.278727 34.000000
1.163524 1.171396 0.282166 31.000000
1.169280 1.151395 0.281294 24.000000
1.181882 1.138234 0.282107 34.000000
1.193924 1.125430 0.283022 53.000000
1.224332 1.128712 0.288045 58.000000
1.240369 1.118241 0.289673 37.000000
1.256323 1.107584 0.291306 54.000000
1.282966 1.106757 0.295625 52.000000
1.287510 1.086023 0.294637 36.000000
1.314236 1.084471 0.298980 25.000000
1.337613 1.079016 0.302265 33.000000
1.357169 1.070096 0.304747 35.000000
1.360778 1.049247 0.303863 51.000000
1.372228 1.033964 0.304555 32.000000
1.391178 1.024785 0.307104 52.000000
1.406421 1.012021 0.308623 36.000000
1.433593 1.007606 0.312836 35.000000
1.468692 1.008624 0.318882 31.000000
1.471509 0.986682 0.317780 48.000000
1.506757 0.986708 0.323802 46.000000
1.521681 0.972436 0.325359 77.000000
1.536272 0.958352 0.326975 36.000000
1.563301 0.951740 0.331267 62.000000
1.582150 0.939223 0.333619 37.000000
1.604965 0.929269 0.337043 31.000000
1.628000 0.918573 0.340305 33.000000
1.659349 0.912507 0.345428 36.000000
1.677772 0.898882 0.347932 46.000000
1.700656 0.886986 0.351164 65.000000
1.718948 0.872693 0.353623 45.000000
1.737096 0.858148 0.356089 56.000000
1.781753 0.856066 0.363932 51.000000
1.795409 0.838456 0.365452 31.000000
1.808987 0.820502 0.366852 32.000000
1.867234 0.822325 0.377474 36.000000
1.885141 0.805609 0.379866 32.000000
1.920979 0.796159 0.385913 54.000000
1.952371 0.784149 0.391062 34.000000
1.969893 0.766161 0.393414 33.000000
1.982629 0.746306 0.394987 39.000000
1.999890 0.727833 0.397282 28.000000
2.035506 0.715478 0.403323 36.000000
2.066345 0.701067 0.408459 42.000000
2.106561 0.688928 0.415380 37.000000
2.132674 0.671572 0.419550 72.000000
2.158636 0.653873 0.423729 58.000000
2.189160 0.636995 0.428840 50.000000
2.177026 0.607639 0.425635 10.000000
2.207217 0.590048 0.430687 8.000000
2.284863 0.583960 0.445020 10.000000
2.329274 0.568152 0.452883 48.000000
2.359232 0.548020 0.457900 37.000000
2.412997 0.532734 0.467648 31.000000
2.399366 0.502076 0.464234 10.000000
2.438430 0.482405 0.471132 8.000000
2.482158 0.462738 0.478973 9.000000
2.540245 0.444763 0.489544 8.000000
2.617603 0.428714 0.503943 42.000000
2.685260 0.409586 0.516412 58.000000
2.723523 0.384863 0.523206 54.000000
2.766591 0.359940 0.530940 56.000000
2.799581 0.333000 0.536899 49.000000
2.837180 0.305855 0.543712 21.000000
2.874593 0.277958 0.550442 9.000000
3.014392 0.258014 0.576842 30.000000
3.056206 0.227849 0.584524 95.000000
3.048688 0.193616 0.582840 98.000000
3.026064 0.158731 0.578249 82.000000
3.017851 0.125091 0.576563 91.000000
2.974797 0.090526 0.568217 95.000000
2.951077 0.057316 0.563621 91.000000
2.912247 0.024521 0.556209 11.000000
2.848492 -0.007346 0.544015 9.000000
2.838405 -0.038542 0.542051 9.000000
2.827969 -0.069434 0.540176 9.000000
2.807457 -0.099849 0.536425 9.000000
2.801242 -0.130517 0.535400 9.000000
2.799674 -0.161273 0.535313 9.000000
2.792857 -0.191693 0.534201 9.000000
2.761221 -0.220054 0.528492 20.000000
2.787987 -0.253098 0.533940 84.000000
2.775344 -0.282717 0.531893 93.000000
2.767170 -0.312674 0.530784 93.000000
2.749001 -0.341226 0.527717 95.000000
2.735394 -0.370202 0.525674 87.000000
2.711838 -0.397367 0.521592 80.000000
2.717029 -0.428699 0.523206 79.000000
2.668654 -0.451067 0.514461 37.000000
2.658775 -0.479538 0.513191 66.000000
2.609985 -0.500418 0.504463 12.000000
2.599558 -0.528085 0.503201 10.000000
2.574413 -0.552554 0.499147 12.000000
2.616278 -0.591522 0.507959 68.000000
2.604833 -0.619212 0.506696 79.000000
2.583713 -0.644171 0.503411 42.000000
2.557503 -0.667574 0.499285 35.000000
2.550115 -0.695650 0.498793 36.000000
2.599190 -0.739700 0.509415 10.000000
2.741712 -0.812931 0.538432 10.000000
2.892482 -0.892098 0.569229 6.000000
3.050977 -0.977960 0.601898 5.000000
3.086761 -1.027102 0.610524 5.000000
3.043027 -1.049523 0.603268 6.000000
3.012921 -1.076391 0.598889 6.000000
3.037880 -1.123103 0.605545 8.000000
3.007247 -1.149168 0.600970 10.000000
2.994554 -1.182250 0.600170 10.000000
2.986113 -1.216887 0.600186 11.000000
2.968168 -1.247814 0.598471 10.000000
2.958987 -1.282351 0.598484 10.000000
2.944873 -1.314783 0.597583 10.000000
2.907924 -1.337145 0.592333 9.000000
2.902111 -1.373237 0.593156 10.000000
2.869381 -1.396415 0.588533 11.000000
2.858528 -1.430008 0.588448 9.000000
2.847231 -1.463498 0.588360 10.000000
2.852683 -1.506670 0.591978 10.000000
2.857885 -1.549521 0.595380 8.000000
2.810855 -1.564048 0.587878 10.000000
2.763591 -1.578208 0.580697 9.000000
2.788761 -1.633177 0.588469 12.000000
2.770616 -1.664154 0.587466 16.000000
2.748381 -1.691851 0.585371 10.000000
2.742448 -1.729654 0.586741 15.000000
2.702580 -1.746768 0.581191 10.000000
2.667206 -1.765343 0.576347 9.000000
2.676080 -1.814329 0.581451 9.000000
2.632171 -1.826567 0.574751 9.000000
2.619931 -1.861572 0.575321 10.000000
2.619108 -1.905144 0.578521 13.000000
2.574831 -1.915926 0.571853 9.000000
2.592705 -1.974404 0.579311 13.000000
2.559739 -1.993411 0.575177 10.000000
2.537616 -2.021868 0.573870 9.000000
2.553360 -2.081234 0.581149 10.000000
2.508304 -2.089882 0.574419 9.000000
2.492532 -2.124193 0.574731 10.000000
2.469803 -2.151083 0.573006 10.000000
2.445957 -2.178480 0.571586 10.000000
2.447300 -2.228892 0.576167 10.000000
2.426193 -2.259524 0.575484 10.000000
2.370039 -2.254941 0.565964 9.000000
2.316860 -2.253799 0.557644 20.000000
2.190520 -2.178752 0.531557 10.000000
2.112060 -2.145996 0.516314 24.000000
2.030273 -2.109128 0.500499 26.000000
1.942783 -2.063423 0.482998 26.000000
1.883328 -2.045120 0.472381 27.000000
1.802227 -1.999262 0.455722 29.000000
1.741106 -1.974877 0.444321 27.000000
1.664614 -1.930703 0.428835 27.000000
1.582922 -1.877455 0.411707 14.000000
1.556963 -1.886641 0.408540 29.000000
1.511373 -1.873188 0.400610 36.000000
1.487692 -1.886070 0.398452 32.000000
1.454911 -1.886866 0.393853 47.000000
1.444147 -1.914011 0.394816 34.000000
1.426015 -1.934000 0.394216 33.000000
1.413416 -1.961765 0.395224 31.000000
1.386201 -1.969320 0.392196 22.000000
1.381310 -2.009061 0.395586 32.000000
1.363183 -2.027705 0.394725 30.000000
1.349029 -2.055116 0.395674 27.000000
1.337114 -2.086713 0.397320 34.000000
1.329919 -2.126614 0.400518 28.000000
1.309081 -2.145557 0.399753 26.000000
1.290599 -2.168569 0.399687 29.000000
1.300485 -2.237570 0.408096 9.000000
0.782910 1.370703 0.261035 7.000000
0.790323 1.349098 0.259700 13.000000
0.814353 1.357549 0.264153 21.000000
0.824028 1.339940 0.263529 27.000000
0.841357 1.334766 0.265430 25.000000
0.855957 1.325244 0.266455 24.000000
0.864970 1.307354 0.265857 26.000000
0.889509 1.314414 0.270331 22.000000
0.909470 1.312443 0.273049 29.000000
0.906700 1.278094 0.268963 11.000000
0.926465 1.275830 0.271631 24.000000
0.951443 1.281693 0.276163 31.000000
0.962455 1.267042 0.276297 20.000000
0.982349 1.263977 0.278999 29.000000
1.002316 1.260628 0.281664 26.000000
1.009872 1.241661 0.280933 26.000000
1.029110 1.238375 0.283710 29.000000
1.026689 1.208040 0.280305 10.000000
1.049595 1.207592 0.283810 31.000000
1.068777 1.203597 0.286604 31.000000
1.091876 1.202504 0.290140 30.000000
1.098322 1.183004 0.289282 36.000000
1.111284 1.170642 0.290183 32.000000
1.130447 1.165645 0.292960 29.000000
1.153579 1.163335 0.296487 36.000000
1.148821 1.133106 0.292886 15.000000
1.182016 1.141092 0.299212 37.000000
1.194503 1.127790 0.300027 40.000000
1.224954 1.131017 0.305346 36.000000
1.240552 1.120917 0.307181 56.000000
1.252847 1.106961 0.308011 37.000000
1.268291 1.096480 0.309853 38.000000
1.284065 1.085397 0.311545 62.000000
1.311174 1.083415 0.315928 21.000000
1.330329 1.075234 0.318657 40.000000
1.349831 1.066353 0.321236 48.000000
1.361153 1.051559 0.322144 36.000000
1.372688 1.036232 0.322838 48.000000
1.383743 1.021172 0.323692 39.000000
1.398944 1.008504 0.325313 37.000000
1.429791 1.007280 0.330817 49.000000
1.465101 1.007851 0.337055 21.000000
1.471795 0.989037 0.336950 36.000000
1.478540 0.969763 0.336676 48.000000
1.521953 0.974692 0.344944 47.000000
1.524293 0.952418 0.343683 63.000000
1.559669 0.950945 0.350112 63.000000
1.582489 0.941277 0.353680 37.000000
1.605531 0.930927 0.357144 57.000000
1.602688 0.905972 0.354996 19.000000
1.655413 0.911978 0.365226 43.000000
1.678318 0.900376 0.368664 71.000000
1.701019 0.888723 0.372171 53.000000
1.706190 0.867705 0.371933 68.000000
1.728670 0.855370 0.375454 45.000000
1.746689 0.840556 0.378027 44.000000
1.800178 0.842061 0.388216 53.000000
1.827070 0.830282 0.392674 22.000000
1.831505 0.808081 0.392336 35.000000
1.885261 0.807158 0.402590 50.000000
1.907528 0.791945 0.406058 34.000000
1.943379 0.781860 0.412431 36.000000
1.965497 0.765701 0.415854 34.000000
1.987468 0.749108 0.419350 38.000000
2.000005 0.728984 0.420914 35.000000
2.003193 0.705237 0.420473 26.000000
2.047875 0.695859 0.428847 37.000000
2.106611 0.689973 0.440027 74.000000
2.127952 0.671225 0.443503 73.000000
2.144489 0.650606 0.446010 47.000000
2.179638 0.635269 0.452360 69.000000
2.210032 0.617778 0.457745 19.000000
2.188184 0.585818 0.452300 9.000000
2.275133 0.582378 0.469381 14.000000
2.328973 0.568868 0.479628 77.000000
2.344567 0.545497 0.482039 58.000000
2.374270 0.524866 0.487327 38.000000
2.437371 0.510822 0.499582 48.000000
2.462031 0.487734 0.503906 30.000000
2.481644 0.463324 0.507173 9.000000
2.525141 0.442750 0.515530 10.000000
2.621674 0.430054 0.534590 47.000000
2.655211 0.405632 0.540842 60.000000
2.708006 0.383148 0.551052 56.000000
2.750890 0.358414 0.559212 65.000000
2.798405 0.333317 0.568367 50.000000
2.831151 0.305589 0.574564 21.000000
2.902550 0.281085 0.588681 9.000000
3.008000 0.257826 0.609646 28.000000
3.039862 0.226929 0.615869 95.000000
3.027467 0.192493 0.613087 95.000000
3.014768 0.158380 0.610210 95.000000
3.001582 0.124590 0.607425 95.000000
2.953721 0.089986 0.597516 93.000000
2.925150 0.056934 0.591662 69.000000
2.901103 0.024480 0.586797 10.000000
2.832584 -0.007320 0.573008 9.000000
2.832320 -0.038453 0.572920 9.000000
2.807207 -0.069072 0.567964 9.000000
2.791640 -0.099413 0.564903 9.000000
2.795230 -0.130430 0.565894 10.000000
2.778984 -0.160339 0.562834 9.000000
2.757521 -0.189589 0.558699 9.000000
2.740627 -0.218713 0.555556 16.000000
2.777192 -0.252480 0.563304 91.000000
2.759613 -0.281549 0.560075 82.000000
2.751547 -0.311312 0.558913 91.000000
2.738285 -0.340363 0.556677 95.000000
2.719849 -0.368542 0.553540 85.000000
2.696264 -0.395688 0.549332 78.000000
2.711218 -0.428357 0.552942 58.000000
2.677351 -0.453270 0.546679 33.000000
2.648161 -0.478247 0.541327 73.000000
2.594743 -0.498157 0.531137 12.000000
2.589151 -0.526696 0.530808 11.000000
2.554555 -0.548973 0.524493 10.000000
2.577061 -0.583610 0.529986 52.000000
2.580184 -0.614172 0.531457 64.000000
2.592359 -0.647321 0.534971 53.000000
2.547177 -0.665924 0.526708 35.000000
2.549262 -0.696450 0.528177 42.000000
2.588684 -0.737936 0.537389 16.000000
2.749775 -0.816586 0.572092 10.000000
2.956272 -0.913340 0.616307 9.000000
3.039642 -0.975765 0.635146 9.000000
3.038120 -1.012341 0.636400 9.000000
3.064044 -1.058431 0.643390 9.000000
3.020020 -1.080653 0.635878 8.000000
3.008244 -1.113584 0.634980 9.000000
3.009612 -1.151976 0.637090 11.000000
2.992319 -1.183354 0.635320 12.000000
2.956598 -1.207016 0.629583 10.000000
2.956851 -1.245310 0.631686 11.000000
2.943180 -1.277743 0.630688 10.000000
2.951503 -1.320192 0.634605 10.000000
2.905726 -1.338204 0.626869 9.000000
2.882233 -1.365936 0.623955 14.000000
2.871667 -1.399725 0.623921 13.000000
2.843108 -1.424718 0.620057 13.000000
2.840575 -1.462604 0.621835 10.000000
2.833260 -1.498385 0.622550 10.000000
2.846713 -1.546271 0.628317 8.000000
2.795494 -1.558369 0.619507 9.000000
2.774220 -1.586574 0.617365 9.000000
2.773475 -1.627406 0.620159 10.000000
2.759993 -1.660320 0.619805 12.000000
2.733516 -1.685295 0.616618 13.000000
2.710603 -1.713208 0.614579 11.000000
2.691971 -1.742801 0.613284 13.000000
2.656170 -1.761934 0.608338 10.000000
2.641121 -1.793709 0.607887 9.000000
2.645381 -1.839995 0.612297 9.000000
2.617357 -1.863126 0.608934 10.000000
2.588759 -1.886478 0.605778 10.000000
2.564425 -1.911796 0.603359 10.000000
2.543068 -1.940404 0.602068 10.000000
2.533831 -1.977089 0.603246 10.000000
2.530980 -2.020661 0.606450 10.000000
2.524491 -2.060544 0.608512 9.000000
2.497854 -2.085518 0.606180 9.000000
2.485835 -2.122975 0.607405 9.000000
2.455698 -2.143399 0.603858 10.000000
2.435592 -2.174089 0.603249 10.000000
2.386858 -2.177135 0.595085 11.000000
2.369890 -2.210510 0.595389 19.000000
2.334678 -2.226672 0.591077 26.000000
2.318000 -2.258662 0.590971 32.000000
2.258152 -2.249747 0.580408 20.000000
2.109166 -2.148481 0.546575 22.000000
2.031835 -2.114410 0.530558 27.000000
1.944434 -2.068839 0.512147 27.000000
1.874920 -2.039775 0.498175 24.000000
1.796478 -1.998429 0.481716 25.000000
1.723292 -1.958467 0.465982 31.000000
1.666382 -1.936588 0.454806 21.000000
1.578439 -1.875935 0.435036 14.000000
1.546237 -1.877526 0.429958 24.000000
1.513231 -1.879370 0.425056 32.000000
1.483382 -1.884584 0.421042 34.000000
1.447559 -1.881489 0.415322 35.000000
1.432813 -1.905469 0.415642 37.000000
1.412873 -1.920609 0.414017 34.000000
1.411880 -1.964345 0.418507 29.000000
1.393059 -1.984036 0.417858 24.000000
1.374075 -2.003565 0.417127 31.000000
1.361472 -2.030288 0.418000 31.000000
1.341845 -2.049549 0.417251 32.000000
1.319246 -2.064488 0.415658 30.000000
1.320050 -2.116775 0.421564 29.000000
1.301859 -2.139869 0.421602 27.000000
1.289844 -2.170469 0.423047 24.000000
1.298161 -2.240238 0.432106 9.000000
0.789631 1.386799 0.278586 6.000000
0.784889 1.343781 0.272864 9.000000
0.813893 1.360747 0.279274 19.000000
0.821059 1.338869 0.277791 17.000000
0.843619 1.342027 0.281485 15.000000
0.860926 1.336584 0.283492 22.000000
0.862010 1.306286 0.280171 16.000000
0.892018 1.321491 0.286694 20.000000
0.900908 1.303310 0.285956 18.000000
0.935052 1.321201 0.293277 10.000000
0.932193 1.286707 0.288963 23.000000
0.942573 1.272749 0.289248 18.000000
0.965439 1.273796 0.292984 19.000000
0.976360 1.259000 0.293121 24.000000
0.980300 1.236910 0.291533 17.000000
1.006203 1.241116 0.296158 24.000000
1.022928 1.233493 0.298064 21.000000
1.049176 1.236946 0.302728 10.000000
1.046024 1.206997 0.299232 28.000000
1.059216 1.195145 0.300175 22.000000
1.085505 1.197756 0.304823 25.000000
1.091430 1.178749 0.304018 29.000000
1.114485 1.177126 0.307764 22.000000
1.134208 1.171544 0.310541 31.000000
1.150023 1.162726 0.312543 23.000000
1.166268 1.153170 0.314348 14.000000
1.175378 1.136558 0.314322 32.000000
1.194552 1.130451 0.317181 29.000000
1.203370 1.113622 0.317100 30.000000
1.226058 1.110358 0.320925 32.000000
1.241919 1.099727 0.322755 27.000000
1.261407 1.092123 0.325494 42.000000
1.295494 1.097300 0.332189 27.000000
1.318868 1.092063 0.335868 26.000000
1.326665 1.074490 0.335861 31.000000
1.342353 1.062561 0.337625 24.000000
1.361400 1.053814 0.340470 33.000000
1.365198 1.032526 0.339276 30.000000
1.384055 1.023339 0.342131 26.000000
1.399277 1.010571 0.343804 32.000000
1.442120 1.017773 0.352496 31.000000
1.457363 1.004241 0.354192 24.000000
1.468105 0.988211 0.355073 33.000000
1.495065 0.982787 0.359843 30.000000
1.514065 0.971204 0.362486 32.000000
1.536943 0.962262 0.366240 37.000000
1.551457 0.947880 0.368022 29.000000
1.574445 0.937910 0.371683 35.000000
1.597199 0.927889 0.375412 30.000000
1.611472 0.912643 0.377158 20.000000
1.638375 0.904289 0.381907 34.000000
1.678488 0.902103 0.389499 35.000000
1.683824 0.881253 0.389208 32.000000
1.710753 0.871497 0.393938 36.000000
1.742085 0.863470 0.399690 29.000000
1.768999 0.852651 0.404390 37.000000
1.791418 0.839304 0.408093 32.000000
1.804937 0.821482 0.409721 24.000000
1.831688 0.809375 0.414454 33.000000
1.871860 0.802598 0.422119 29.000000
1.893927 0.787671 0.425931 29.000000
1.925067 0.775850 0.431595 32.000000
1.960773 0.765176 0.438293 28.000000
1.973487 0.745319 0.439970 29.000000
1.995303 0.728455 0.443563 27.000000
2.016897 0.711352 0.447296 10.000000
2.052363 0.698406 0.453910 33.000000
2.092346 0.686508 0.461700 32.000000
2.118288 0.669334 0.466359 35.000000
2.144150 0.651610 0.471027 44.000000
2.174551 0.634774 0.476663 34.000000
2.195467 0.614711 0.480250 36.000000
2.244537 0.601868 0.490032 31.000000
2.250988 0.577007 0.490467 9.000000
2.304594 0.563845 0.501311 34.000000
