x y z intensity
3.171109 -0.494411 -0.057307 13.000000
3.190278 -0.532914 -0.057655 15.000000
3.199020 -0.570099 -0.057922 45.000000
3.202496 -0.606674 -0.058001 62.000000
3.200633 -0.642378 -0.057990 91.000000
3.198349 -0.678090 -0.058079 95.000000
3.185886 -0.711628 -0.057891 95.000000
3.168281 -0.743918 -0.057614 95.000000
3.169744 -0.780579 -0.057791 95.000000
3.098144 -0.798730 -0.056543 34.000000
3.094182 -0.833527 -0.056534 85.000000
3.070453 -0.863017 -0.056172 79.000000
3.032126 -0.887882 -0.055547 65.000000
2.998475 -0.913386 -0.055107 62.000000
3.064591 -0.969955 -0.056416 19.000000
3.148886 -1.034319 -0.058069 20.000000
3.175414 -1.081304 -0.058667 21.000000
3.163435 -1.115705 -0.058565 9.000000
3.169933 -1.156860 -0.058811 16.000000
3.143232 -1.185864 -0.058447 19.000000
3.158158 -1.230696 -0.058866 20.000000
3.163158 -1.272402 -0.059109 24.000000
3.149109 -1.306639 -0.059005 24.000000
3.148537 -1.346671 -0.059160 23.000000
3.161249 -1.392839 -0.059573 27.000000
3.191488 -1.447652 -0.060328 31.000000
3.166490 -1.477973 -0.060049 81.000000
3.136758 -1.505826 -0.059685 95.000000
3.115707 -1.537598 -0.059493 95.000000
3.103304 -1.573583 -0.059473 100.000000
3.072692 -1.600321 -0.059005 98.000000
3.041913 -1.626453 -0.058644 95.000000
3.050416 -1.673943 -0.059048 95.000000
2.997192 -1.687351 -0.058264 36.000000
2.987269 -1.724895 -0.058328 95.000000
2.955412 -1.749577 -0.057865 81.000000
2.923407 -1.773874 -0.057508 62.000000
2.895503 -1.800323 -0.057236 67.000000
2.875731 -1.831751 -0.057028 81.000000
2.851355 -1.860135 -0.056840 82.000000
2.851774 -1.904986 -0.057153 70.000000
2.806079 -1.919037 -0.056445 45.000000
2.789111 -1.952305 -0.056424 74.000000
2.767705 -1.982544 -0.056320 67.000000
2.753948 -2.018485 -0.056277 38.000000
2.739854 -2.054394 -0.056338 33.000000
2.737111 -2.099396 -0.056538 33.000000
2.733826 -2.144514 -0.056842 30.000000
2.760980 -2.214769 -0.057689 26.000000
2.713480 -2.225778 -0.057093 17.000000
2.727363 -2.287361 -0.057689 22.000000
2.706062 -2.320166 -0.057661 13.000000
2.688123 -2.356022 -0.057605 9.000000
2.721953 -2.438637 -0.058782 9.000000
2.709931 -2.481590 -0.058880 9.000000
2.697391 -2.524638 -0.058975 9.000000
2.637250 -2.522742 -0.058145 9.000000
2.448758 -2.393988 -0.054352 9.000000
2.334110 -2.332196 -0.052167 10.000000
2.221182 -2.268175 -0.050094 14.000000
2.099529 -2.191131 -0.047700 14.000000
2.010663 -2.144527 -0.046027 17.000000
1.919652 -2.092559 -0.044288 18.000000
1.840002 -2.050023 -0.042879 18.000000
1.764857 -2.009760 -0.041470 16.000000
1.700546 -1.979563 -0.040303 14.000000
1.672528 -1.990228 -0.039990 27.000000
1.638168 -1.992792 -0.039525 30.000000
1.607117 -1.998740 -0.039139 35.000000
1.597717 -2.031759 -0.039365 33.000000
1.569455 -2.041030 -0.039056 29.000000
1.553225 -2.065917 -0.039050 31.000000
1.536742 -2.090698 -0.039042 25.000000
1.511097 -2.103189 -0.038809 23.000000
1.496794 -2.131667 -0.038875 29.000000
1.470752 -2.143683 -0.038641 26.000000
1.458638 -2.176084 -0.038779 26.000000
1.451402 -2.216852 -0.039061 27.000000
1.427302 -2.232460 -0.038899 26.000000
1.405688 -2.252067 -0.038811 26.000000
1.391542 -2.284297 -0.038940 21.000000
1.351317 -2.273450 -0.038342 9.000000
0.920386 1.570005 -0.012719 7.000000
0.924506 1.538524 -0.012544 16.000000
0.930672 1.511361 -0.012405 20.000000
0.952367 1.509634 -0.012529 17.000000
0.965941 1.495031 -0.012494 26.000000
0.990350 1.496947 -0.012599 17.000000
1.012173 1.494435 -0.012724 25.000000
1.016918 1.466927 -0.012583 26.000000
1.041449 1.468048 -0.012689 17.000000
1.042585 1.436446 -0.012567 24.000000
1.055151 1.421002 -0.012532 20.000000
1.076539 1.417460 -0.012603 23.000000
1.091858 1.405672 -0.012657 27.000000
1.107068 1.393776 -0.012657 16.000000
1.131571 1.393305 -0.012764 31.000000
1.149774 1.384772 -0.012799 27.000000
1.171241 1.379871 -0.012925 21.000000
1.176325 1.355727 -0.012818 29.000000
1.184371 1.335373 -0.012747 18.000000
1.202165 1.326112 -0.012783 28.000000
1.226726 1.324005 -0.012945 26.000000
1.241048 1.310564 -0.012945 23.000000
1.265635 1.307736 -0.013052 33.000000
1.279799 1.293906 -0.013052 26.000000
1.297405 1.283426 -0.013144 24.000000
1.322051 1.279656 -0.013252 29.000000
1.328660 1.258292 -0.013180 22.000000
1.349622 1.250513 -0.013252 32.000000
1.359450 1.232387 -0.013216 30.000000
1.384056 1.227443 -0.013380 28.000000
1.408653 1.222142 -0.013489 39.000000
1.433351 1.216423 -0.013597 33.000000
1.446489 1.200703 -0.013597 29.000000
1.451750 1.178566 -0.013525 26.000000
1.476280 1.171970 -0.013634 25.000000
1.504734 1.168068 -0.013836 31.000000
1.521390 1.154638 -0.013873 32.000000
1.529848 1.134989 -0.013836 26.000000
1.558305 1.129986 -0.013982 36.000000
1.570525 1.112949 -0.013982 28.000000
1.590789 1.101488 -0.014054 28.000000
1.606858 1.086869 -0.014091 31.000000
1.631096 1.077553 -0.014200 26.000000
1.651132 1.065194 -0.014272 31.000000
1.662646 1.047144 -0.014332 32.000000
1.682439 1.034211 -0.014405 29.000000
1.710739 1.026115 -0.014551 35.000000
1.726135 1.009949 -0.014587 32.000000
1.737061 0.991150 -0.014587 26.000000
1.760788 0.979459 -0.014697 34.000000
1.780156 0.965039 -0.014770 31.000000
1.790538 0.945634 -0.014770 29.000000
1.822966 0.937540 -0.014952 34.000000
1.882217 0.942329 -0.015353 30.000000
1.901293 0.926152 -0.015426 33.000000
1.929306 0.914060 -0.015572 33.000000
1.948227 0.897198 -0.015645 24.000000
1.966977 0.880072 -0.015718 28.000000
1.985618 0.862683 -0.015791 27.000000
2.008690 0.846906 -0.015900 28.000000
2.040877 0.834479 -0.016083 31.000000
2.063771 0.817866 -0.016192 29.000000
2.100517 0.806190 -0.016411 31.000000
2.127848 0.790288 -0.016557 31.000000
2.150416 0.772219 -0.016666 19.000000
2.168161 0.752136 -0.016739 40.000000
2.214074 0.741231 -0.017031 29.000000
2.226742 0.718753 -0.017067 28.000000
2.267876 0.704933 -0.017323 34.000000
2.280131 0.681722 -0.017359 29.000000
2.306616 0.662476 -0.017505 32.000000
2.347462 0.646723 -0.017760 32.000000
2.359133 0.622510 -0.017797 11.000000
2.414239 0.609050 -0.018161 32.000000
2.449863 0.589856 -0.018303 28.000000
2.475585 0.567717 -0.018448 23.000000
2.530482 0.551466 -0.018812 29.000000
2.565710 0.530029 -0.019030 28.000000
2.605656 0.508913 -0.019284 31.000000
2.645424 0.486889 -0.019538 29.000000
2.625962 0.453899 -0.019356 9.000000
2.709649 0.438121 -0.019937 32.000000
2.743920 0.413184 -0.020071 28.000000
2.797757 0.390282 -0.020432 29.000000
2.826691 0.363034 -0.020613 24.000000
2.840362 0.333498 -0.020685 8.000000
2.898543 0.308420 -0.021083 8.000000
2.961381 0.282629 -0.021517 18.000000
3.063927 0.258909 -0.022147 13.000000
3.126390 0.229997 -0.022579 35.000000
3.163615 0.198222 -0.022831 31.000000
3.205592 0.165947 -0.023119 36.000000
3.262110 0.133318 -0.023415 76.000000
3.278399 0.098296 -0.023523 33.000000
3.244307 0.061992 -0.023272 29.000000
3.259801 0.026961 -0.023380 43.000000
3.199902 -0.008301 -0.022852 24.000000
3.229606 -0.043470 -0.023066 29.000000
3.238912 -0.078805 -0.023137 8.000000
3.197851 -0.112598 -0.022852 7.000000
3.226451 -0.148745 -0.022967 8.000000
3.219685 -0.183453 -0.022932 8.000000
3.222410 -0.218731 -0.022967 16.000000
3.204894 -0.252545 -0.022762 25.000000
3.212008 -0.288270 -0.022833 26.000000
3.243485 -0.326617 -0.023081 42.000000
3.224798 -0.360170 -0.022876 27.000000
3.235626 -0.397054 -0.022982 25.000000
3.231149 -0.432073 -0.022982 33.000000
3.246067 -0.470059 -0.023022 29.000000
3.240762 -0.505193 -0.023022 34.000000
3.235056 -0.540427 -0.023022 33.000000
3.238895 -0.577216 -0.022992 67.000000
3.232369 -0.612357 -0.022992 95.000000
3.215737 -0.645430 -0.022922 83.000000
3.188966 -0.676116 -0.022683 57.000000
3.161986 -0.706278 -0.022544 35.000000
3.124871 -0.733731 -0.022237 26.000000
3.136160 -0.772310 -0.022376 58.000000
3.079169 -0.793835 -0.021932 38.000000
3.075263 -0.828423 -0.021967 35.000000
3.042059 -0.854998 -0.021794 57.000000
3.008616 -0.880953 -0.021526 36.000000
2.974943 -0.906197 -0.021355 35.000000
3.012646 -0.953555 -0.021602 19.000000
3.163541 -1.039202 -0.022764 10.000000
3.232619 -1.100850 -0.023241 13.000000
3.210996 -1.132541 -0.023172 10.000000
3.203223 -1.168961 -0.023102 10.000000
3.190423 -1.203615 -0.023102 16.000000
3.195841 -1.245427 -0.023133 13.000000
3.205322 -1.289299 -0.023302 25.000000
3.218796 -1.335590 -0.023398 33.000000
3.208717 -1.372334 -0.023431 36.000000
3.230303 -1.423182 -0.023592 80.000000
3.169043 -1.437539 -0.023258 36.000000
3.148794 -1.469727 -0.023119 62.000000
3.123660 -1.499547 -0.023052 88.000000
3.102681 -1.531173 -0.022913 77.000000
3.072514 -1.557967 -0.022814 72.000000
3.064246 -1.595913 -0.022775 95.000000
3.029106 -1.619591 -0.022538 65.000000
3.024435 -1.659723 -0.022636 59.000000
2.997507 -1.687561 -0.022466 36.000000
2.952947 -1.705104 -0.022270 31.000000
2.925714 -1.731958 -0.022101 42.000000
2.898073 -1.758521 -0.022036 35.000000
2.883077 -1.792611 -0.021965 37.000000
2.863392 -1.823901 -0.021861 56.000000
2.830832 -1.846787 -0.021765 32.000000
2.835457 -1.894086 -0.021854 31.000000
2.789882 -1.907955 -0.021558 25.000000
2.805807 -1.963982 -0.021845 22.000000
2.796470 -2.003237 -0.021836 26.000000
2.786521 -2.042444 -0.021931 22.000000
2.788170 -2.090702 -0.022015 22.000000
2.785034 -2.136121 -0.022066 24.000000
2.753708 -2.160156 -0.022003 10.000000
2.761196 -2.215093 -0.022147 9.000000
2.771679 -2.273556 -0.022319 8.000000
2.773551 -2.326133 -0.022537 8.000000
2.774713 -2.378962 -0.022643 9.000000
2.763652 -2.422261 -0.022655 8.000000
2.778035 -2.488905 -0.022880 8.000000
2.784016 -2.549461 -0.023156 8.000000
2.756022 -2.579645 -0.023041 8.000000
2.698893 -2.581832 -0.022683 8.000000
2.488293 -2.432750 -0.021134 8.000000
2.345022 -2.343100 -0.020031 8.000000
2.228373 -2.275514 -0.019148 9.000000
2.117010 -2.209367 -0.018303 9.000000
2.034781 -2.170239 -0.017795 9.000000
1.933345 -2.107557 -0.017020 10.000000
1.830151 -2.039113 -0.016222 9.000000
1.807908 -2.058846 -0.016138 9.000000
1.700706 -1.979722 -0.015373 10.000000
1.663037 -1.978983 -0.015146 13.000000
1.644675 -2.000753 -0.015097 26.000000
1.613461 -2.006768 -0.014931 27.000000
1.566891 -1.992692 -0.014621 25.000000
1.563517 -2.033339 -0.014794 27.000000
1.541364 -2.050168 -0.014716 21.000000
1.533860 -2.086907 -0.014781 25.000000
1.502424 -2.091244 -0.014616 17.000000
1.491206 -2.123722 -0.014651 19.000000
1.465253 -2.135675 -0.014543 26.000000
1.447583 -2.159711 -0.014600 17.000000
1.443267 -2.204545 -0.014716 21.000000
1.413918 -2.211639 -0.014580 21.000000
1.405769 -2.252310 -0.014665 19.000000
1.383820 -2.271650 -0.014612 21.000000
1.374389 -2.312376 -0.014695 7.000000
0.892572 1.522614 0.003609 6.000000
0.919356 1.530008 0.003704 14.000000
0.946402 1.536960 0.003746 18.000000
0.954980 1.513918 0.003769 22.000000
0.974081 1.507684 0.003835 18.000000
0.995868 1.505342 0.003911 22.000000
1.003761 1.482071 0.003933 22.000000
1.028312 1.483418 0.004021 20.000000
1.021199 1.439557 0.003986 26.000000
1.042585 1.436500 0.004008 14.000000
1.058131 1.425070 0.004063 23.000000
1.079563 1.421496 0.004140 25.000000
1.094925 1.409675 0.004194 22.000000
1.113233 1.401660 0.004261 30.000000
1.134723 1.397241 0.004285 24.000000
1.152968 1.388673 0.004352 25.000000
1.148593 1.353243 0.004333 28.000000
1.169772 1.348228 0.004412 10.000000
1.177736 1.327946 0.004442 32.000000
1.195449 1.318758 0.004454 33.000000
1.226726 1.324060 0.004572 26.000000
1.247923 1.317880 0.004653 35.000000
1.262158 1.304199 0.004708 28.000000
1.276283 1.290407 0.004708 35.000000
1.300960 1.286998 0.004803 35.000000
1.314866 1.272757 0.004859 16.000000
1.306879 1.237720 0.004779 35.000000
1.353289 1.253967 0.004955 35.000000
1.370563 1.242517 0.005025 34.000000
1.380315 1.224182 0.005067 81.000000
1.408653 1.222199 0.005122 37.000000
1.429539 1.213245 0.005207 42.000000
1.442642 1.197567 0.005264 39.000000
1.459513 1.184926 0.005278 18.000000
1.468449 1.165810 0.005322 40.000000
1.481037 1.149731 0.005379 35.000000
1.513425 1.148651 0.005450 35.000000
1.533864 1.138026 0.005537 36.000000
1.546221 1.121239 0.005596 32.000000
1.562424 1.107226 0.005610 35.000000
1.590848 1.101488 0.005728 39.000000
1.598576 1.081325 0.005772 20.000000
1.631096 1.077613 0.005847 36.000000
1.651132 1.065194 0.005937 48.000000
1.662646 1.047144 0.005937 36.000000
1.686758 1.036890 0.006042 57.000000
1.706512 1.023604 0.006134 36.000000
1.721881 1.007485 0.006149 37.000000
1.745746 0.996167 0.006257 44.000000
1.743372 0.969798 0.006210 20.000000
1.775761 0.962718 0.006349 50.000000
1.794959 0.948031 0.006381 44.000000
1.831859 0.942176 0.006538 36.000000
1.855392 0.928899 0.006649 52.000000
1.901357 0.926216 0.006777 47.000000
1.920334 0.909779 0.006874 35.000000
1.952833 0.899355 0.006955 58.000000
1.957915 0.876054 0.007004 22.000000
1.990204 0.864742 0.007086 56.000000
2.017904 0.850857 0.007218 42.000000
2.045505 0.836439 0.007284 34.000000
2.082363 0.825234 0.007451 37.000000
2.100517 0.806190 0.007484 35.000000
2.123230 0.788616 0.007603 34.000000
2.155191 0.773979 0.007687 40.000000
2.168161 0.752136 0.007774 14.000000
2.180957 0.730191 0.007791 37.000000
2.241088 0.723360 0.008049 56.000000
2.258327 0.702037 0.008083 36.000000
2.294575 0.686092 0.008259 61.000000
2.316301 0.665309 0.008311 49.000000
2.342642 0.645395 0.008380 36.000000
2.397883 0.632715 0.008628 43.000000
2.394923 0.604233 0.008593 18.000000
2.440218 0.587592 0.008809 36.000000
2.490283 0.571148 0.008967 52.000000
2.530561 0.551545 0.009169 36.000000
2.560813 0.529097 0.009257 38.000000
2.591016 0.506038 0.009346 35.000000
2.620919 0.482446 0.009516 36.000000
2.665376 0.460794 0.009658 56.000000
2.699861 0.436608 0.009765 27.000000
2.739061 0.412440 0.009975 54.000000
2.782987 0.388210 0.010119 72.000000
2.801895 0.359936 0.010259 18.000000
2.820586 0.331166 0.010314 8.000000
2.883627 0.306921 0.010532 8.000000
2.941563 0.280819 0.010822 8.000000
2.989288 0.252594 0.010986 11.000000
3.101553 0.228163 0.011389 28.000000
3.123791 0.195721 0.011462 21.000000
3.190612 0.165171 0.011798 10.000000
3.277197 0.133931 0.012112 35.000000
3.333473 0.100046 0.012315 95.000000
3.329288 0.063718 0.012398 95.000000
3.354795 0.027747 0.012491 90.000000
3.344898 -0.008677 0.012454 78.000000
3.319595 -0.044681 0.012361 47.000000
3.308990 -0.080508 0.012425 32.000000
3.307879 -0.116468 0.012425 21.000000
3.311459 -0.152659 0.012443 35.000000
3.324512 -0.189426 0.012500 80.000000
3.312300 -0.224825 0.012563 35.000000
3.324619 -0.261972 0.012620 28.000000
3.331525 -0.298996 0.012658 95.000000
3.323080 -0.334632 0.012639 71.000000
3.324278 -0.371270 0.012658 95.000000
3.329915 -0.408522 0.012696 95.000000
3.310441 -0.442676 0.012741 89.000000
3.300498 -0.477941 0.012722 98.000000
3.295104 -0.513664 0.012722 94.000000
3.259814 -0.544546 0.012608 43.000000
3.219206 -0.573707 0.012474 50.000000
3.158781 -0.598397 0.012264 24.000000
3.127598 -0.627720 0.012169 13.000000
3.096133 -0.656413 0.012170 9.000000
3.074153 -0.686659 0.012112 9.000000
3.032486 -0.712016 0.011978 10.000000
3.073145 -0.756768 0.012170 35.000000
3.055058 -0.787595 0.012132 32.000000
3.026986 -0.815513 0.012055 73.000000
2.989112 -0.840116 0.011939 51.000000
2.965430 -0.868308 0.011882 81.000000
2.965378 -0.903284 0.011920 80.000000
2.955444 -0.935449 0.011920 25.000000
3.097139 -1.017357 0.012535 17.000000
3.261017 -1.110520 0.013247 13.000000
3.286544 -1.159150 0.013401 18.000000
3.306660 -1.206670 0.013643 35.000000
3.298018 -1.244206 0.013662 44.000000
3.293673 -1.283552 0.013701 95.000000
3.270263 -1.315528 0.013662 91.000000
3.241994 -1.345171 0.013604 94.000000
3.227212 -1.380306 0.013604 95.000000
3.198275 -1.409178 0.013546 68.000000
3.173702 -1.439604 0.013507 36.000000
3.139733 -1.465498 0.013429 98.000000
3.105630 -1.490892 0.013352 84.000000
3.093713 -1.526747 0.013266 98.000000
3.072514 -1.557967 0.013247 98.000000
3.055377 -1.591294 0.013247 98.000000
3.033515 -1.622053 0.013228 98.000000
3.015669 -1.654912 0.013228 87.000000
2.975723 -1.675401 0.013131 32.000000
2.953051 -1.705104 0.013112 80.000000
2.934319 -1.737156 0.013112 66.000000
2.902452 -1.761115 0.013055 77.000000
2.878831 -1.789971 0.013035 37.000000
2.854957 -1.818528 0.013016 33.000000
2.889459 -1.885034 0.013266 37.000000
2.860403 -1.910854 0.013228 26.000000
2.864275 -1.958758 0.013343 10.000000
2.850864 -1.995626 0.013275 32.000000
2.833051 -2.029442 0.013294 24.000000
2.822922 -2.069046 0.013351 18.000000
2.812171 -2.108700 0.013409 10.000000
2.844543 -2.181765 0.013676 9.000000
2.840363 -2.228047 0.013771 9.000000
2.870508 -2.302695 0.014038 8.000000
2.868434 -2.352942 0.014039 7.000000
2.842620 -2.384078 0.014039 9.000000
2.854424 -2.447419 0.014229 9.000000
2.853894 -2.501355 0.014361 9.000000
2.826446 -2.532393 0.014361 8.000000
2.820891 -2.583229 0.014474 7.000000
2.796176 -2.617229 0.014377 7.000000
2.745862 -2.626764 0.014264 7.000000
2.477568 -2.422264 0.013006 7.000000
2.380393 -2.378441 0.012631 10.000000
2.256358 -2.304190 0.012106 10.000000
2.165439 -2.260004 0.011653 14.000000
2.051880 -2.188568 0.011169 11.000000
1.950245 -2.125979 0.010741 10.000000
1.866887 -2.080044 0.010406 17.000000
1.781515 -2.028790 0.009970 10.000000
1.713738 -1.994973 0.009712 9.000000
1.672687 -1.990466 0.009601 27.000000
1.638325 -1.993028 0.009448 28.000000
1.616594 -2.010665 0.009448 32.000000
1.582344 -2.012344 0.009375 33.000000
1.563517 -2.033417 0.009393 31.000000
1.541364 -2.050247 0.009315 34.000000
1.524977 -2.074821 0.009351 26.000000
1.493672 -2.079062 0.009297 19.000000
1.482587 -2.111525 0.009291 31.000000
1.456767 -2.123306 0.009273 26.000000
1.439232 -2.147251 0.009309 30.000000
1.435051 -2.192075 0.009355 26.000000
1.411224 -2.207427 0.009355 26.000000
1.392532 -2.231102 0.009391 29.000000
1.368213 -2.246110 0.009310 22.000000
1.341179 -2.256500 0.009293 9.000000
0.907634 1.548440 0.019830 8.000000
0.914097 1.521328 0.019717 13.000000
0.922700 1.498535 0.019658 26.000000
0.952258 1.509580 0.020046 22.000000
0.957693 1.482378 0.019930 27.000000
0.970986 1.467759 0.019980 24.000000
0.992438 1.465403 0.020202 26.000000
1.005417 1.450437 0.020253 29.000000
1.015306 1.431293 0.020245 25.000000
1.024857 1.412114 0.020236 19.000000
1.046102 1.408960 0.020459 33.000000
1.064336 1.401533 0.020625 26.000000
1.076416 1.385929 0.020674 32.000000
1.094522 1.378062 0.020840 29.000000
1.118855 1.377781 0.021126 32.000000
1.136890 1.369385 0.021294 33.000000
1.161425 1.368381 0.021583 29.000000
1.153281 1.329238 0.021216 29.000000
1.167676 1.316616 0.021323 31.000000
1.195340 1.318704 0.021674 34.000000
1.213024 1.309280 0.021844 35.000000
1.220312 1.288782 0.021776 34.000000
1.241187 1.282587 0.022007 36.000000
1.262109 1.276078 0.022240 36.000000
1.304346 1.290402 0.022848 35.000000
1.300385 1.258736 0.022592 35.000000
1.317659 1.247979 0.022765 37.000000
1.331174 1.233522 0.022876 67.000000
1.351930 1.225671 0.023058 53.000000
1.372722 1.217491 0.023296 52.000000
1.397211 1.212256 0.023543 79.000000
1.406497 1.193721 0.023592 76.000000
1.434834 1.191123 0.023904 32.000000
1.432228 1.162809 0.023761 30.000000
1.468334 1.165752 0.024204 35.000000
1.480923 1.149673 0.024319 50.000000
1.485375 1.127435 0.024246 38.000000
1.521702 1.129031 0.024752 35.000000
1.537952 1.115311 0.024875 38.000000
1.554091 1.101386 0.025057 40.000000
1.578340 1.092891 0.025313 37.000000
1.594258 1.078465 0.025437 32.000000
1.614291 1.066529 0.025687 38.000000
1.634208 1.054294 0.025880 42.000000
1.654065 1.041756 0.026072 68.000000
1.673800 1.028914 0.026326 36.000000
1.702043 1.020971 0.026654 62.000000
1.726013 1.009949 0.026917 56.000000
1.728193 0.986194 0.026843 32.000000
1.747559 0.972168 0.027100 34.000000
1.771242 0.960273 0.027364 44.000000
1.794835 0.947969 0.027630 45.000000
1.822778 0.937540 0.027965 61.000000
1.859673 0.931074 0.028437 52.000000
1.878691 0.915204 0.028638 55.000000
1.911103 0.905433 0.029045 71.000000
1.934473 0.890923 0.029316 33.000000
1.939465 0.867821 0.029377 32.000000
1.985420 0.862683 0.029996 39.000000
2.008490 0.846906 0.030270 34.000000
2.045302 0.836371 0.030754 38.000000
2.072863 0.821550 0.031101 35.000000
2.090976 0.802539 0.031309 34.000000
2.113649 0.785066 0.031587 36.000000
2.131456 0.765460 0.031727 29.000000
2.163228 0.750498 0.032147 37.000000
2.176006 0.728534 0.032287 52.000000
2.226599 0.718753 0.032992 35.000000
2.262884 0.703449 0.033487 66.000000
2.275196 0.680290 0.033630 42.000000
2.306470 0.662476 0.034058 52.000000
2.332780 0.642739 0.034415 44.000000
2.358984 0.622510 0.034700 29.000000
2.409164 0.607903 0.035415 36.000000
2.430267 0.585175 0.035706 49.000000
2.460811 0.564365 0.036140 35.000000
2.500937 0.545078 0.036641 40.000000
2.565470 0.530109 0.037579 48.000000
2.585787 0.505079 0.037875 41.000000
2.615758 0.481541 0.038234 59.000000
2.625718 0.453899 0.038387 24.000000
2.699610 0.436608 0.039396 51.000000
2.728920 0.410951 0.039840 51.000000
2.757972 0.384756 0.040286 37.000000
2.786761 0.358025 0.040648 19.000000
2.800378 0.328920 0.040878 8.000000
2.888333 0.307451 0.042110 8.000000
2.946270 0.281294 0.042998 8.000000
2.984032 0.252173 0.043506 6.000000
3.091296 0.227524 0.045032 9.000000
3.108536 0.194783 0.045345 17.000000
3.200305 0.165688 0.046655 9.000000
3.251920 0.132910 0.047482 10.000000
3.318075 0.099596 0.048430 29.000000
3.373970 0.064579 0.049232 95.000000
3.404480 0.028160 0.049670 98.000000
3.374588 -0.008755 0.049335 41.000000
3.374279 -0.045422 0.049335 20.000000
3.403545 -0.082818 0.049774 9.000000
3.392514 -0.119459 0.049628 10.000000
3.380971 -0.155779 0.049482 32.000000
3.394086 -0.193408 0.049805 38.000000
3.401779 -0.230920 0.049951 45.000000
3.409041 -0.268649 0.050098 46.000000
3.371054 -0.302572 0.049585 95.000000
3.397387 -0.342146 0.050024 98.000000
3.378625 -0.377374 0.049805 94.000000
3.344495 -0.410349 0.049365 98.000000
3.334911 -0.445990 0.049292 98.000000
3.295245 -0.477122 0.048779 91.000000
3.284919 -0.512124 0.048706 30.000000
3.205170 -0.535385 0.047607 9.000000
3.145078 -0.560451 0.046802 9.000000
3.119190 -0.590855 0.046509 9.000000
3.107699 -0.623687 0.046339 9.000000
3.071389 -0.651132 0.045900 9.000000
3.034832 -0.677940 0.045462 10.000000
3.027333 -0.710778 0.045462 11.000000
3.038874 -0.748399 0.045754 24.000000
2.977311 -0.767530 0.044856 9.000000
2.978426 -0.802413 0.045002 11.000000
2.974389 -0.835963 0.045075 61.000000
2.960350 -0.866809 0.045002 61.000000
2.941182 -0.895905 0.044762 61.000000
2.959927 -0.936863 0.045199 32.000000
3.077842 -1.011017 0.047065 18.000000
3.274899 -1.115250 0.050261 29.000000
3.342803 -1.178998 0.051496 59.000000
3.320427 -1.211704 0.051243 88.000000
3.278985 -1.237040 0.050808 95.000000
3.270059 -1.274367 0.050773 83.000000
3.228197 -1.298628 0.050339 95.000000
3.232437 -1.341232 0.050522 95.000000
3.213100 -1.374194 0.050450 89.000000
3.165930 -1.394960 0.049839 95.000000
3.127854 -1.418845 0.049479 36.000000
3.116765 -1.454819 0.049446 98.000000
3.096301 -1.486459 0.049374 95.000000
3.079948 -1.520004 0.049269 95.000000
3.058821 -1.551078 0.049093 98.000000
3.037325 -1.581951 0.049021 98.000000
3.019974 -1.614771 0.048917 98.000000
3.006693 -1.649997 0.048883 95.000000
2.962445 -1.667834 0.048456 36.000000
2.944079 -1.700000 0.048352 44.000000
2.938309 -1.739495 0.048461 38.000000
2.906415 -1.763605 0.048248 32.000000
2.937959 -1.826827 0.048994 36.000000
2.930547 -1.866773 0.049100 35.000000
2.914266 -1.901213 0.049065 30.000000
2.922552 -1.952301 0.049451 25.000000
2.884591 -1.972764 0.049170 10.000000
2.879322 -2.015483 0.049344 10.000000
2.893804 -2.073009 0.049867 10.000000
2.879053 -2.110318 0.049898 9.000000
2.891956 -2.168470 0.050417 9.000000
2.899862 -2.224254 0.050863 9.000000
2.906903 -2.280395 0.051307 9.000000
2.928666 -2.349511 0.052025 9.000000
2.902883 -2.381253 0.051911 8.000000
2.895908 -2.428830 0.052141 9.000000
2.876852 -2.466715 0.052163 7.000000
2.872461 -2.517717 0.052460 5.000000
2.885792 -2.585541 0.053097 4.000000
2.831601 -2.593242 0.052500 3.000000
2.766742 -2.589664 0.051701 3.000000
2.742017 -2.623076 0.051653 7.000000
2.523829 -2.467596 0.047831 7.000000
2.390797 -2.388837 0.045695 10.000000
2.294639 -2.343286 0.044243 14.000000
2.172165 -2.267032 0.042259 14.000000
2.075633 -2.213916 0.040753 16.000000
1.980486 -2.158961 0.039164 18.000000
1.893432 -2.109639 0.037808 17.000000
1.807741 -2.058763 0.036458 16.000000
1.716835 -1.998605 0.034980 10.000000
1.678961 -1.997963 0.034489 24.000000
1.641343 -1.996733 0.034080 31.000000
1.591453 -1.979337 0.033331 33.000000
1.566736 -1.992615 0.033188 38.000000
1.538980 -2.001553 0.032980 34.000000
1.526186 -2.030109 0.033021 35.000000
1.527781 -2.078771 0.033463 32.000000
1.490599 -2.074846 0.032982 23.000000
1.473810 -2.099092 0.033033 34.000000
1.448125 -2.110781 0.032891 30.000000
1.439074 -2.147172 0.033054 32.000000
1.418461 -2.166817 0.033039 33.000000
1.386829 -2.169434 0.032690 29.000000
1.389725 -2.226700 0.033245 36.000000
1.370654 -2.250220 0.033211 28.000000
1.328326 -2.234851 0.032611 9.000000
0.904942 1.543908 0.035944 7.000000
0.916509 1.525450 0.035906 14.000000
0.912056 1.481347 0.035259 22.000000
0.933426 1.479820 0.035622 25.000000
0.952107 1.473819 0.035938 25.000000
0.965256 1.459206 0.035995 26.000000
0.992276 1.465241 0.036569 24.000000
1.002407 1.446167 0.036523 29.000000
1.015145 1.431133 0.036580 28.000000
1.021762 1.407909 0.036427 21.000000
1.042908 1.404732 0.036797 29.000000
1.055052 1.389375 0.036851 30.000000
1.076201 1.385715 0.037223 28.000000
1.081871 1.362242 0.037064 33.000000
1.118638 1.377564 0.037972 28.000000
1.127148 1.357630 0.037920 30.000000
1.138564 1.341538 0.037974 32.000000
1.146515 1.321526 0.037918 24.000000
1.174094 1.323935 0.038513 33.000000
1.185051 1.307375 0.038566 36.000000
1.202561 1.298115 0.038784 32.000000
1.226915 1.295825 0.039276 35.000000
1.244445 1.285962 0.039550 50.000000
1.272435 1.286576 0.040102 36.000000
1.282802 1.269141 0.040156 36.000000
1.303700 1.262048 0.040545 21.000000
1.302865 1.234008 0.040208 37.000000
1.327230 1.229958 0.040710 66.000000
1.344245 1.218733 0.040933 57.000000
1.372442 1.217267 0.041552 46.000000
1.378051 1.195707 0.041437 64.000000
1.394839 1.183848 0.041718 53.000000
1.419166 1.178124 0.042172 62.000000
1.443589 1.172036 0.042629 23.000000
1.460219 1.159364 0.042914 36.000000
1.472740 1.143371 0.043028 42.000000
1.481109 1.124242 0.043026 42.000000
1.501342 1.113965 0.043372 54.000000
1.509336 1.094595 0.043426 36.000000
1.525253 1.080980 0.043657 41.000000
1.578047 1.092715 0.044941 36.000000
1.585684 1.072688 0.044941 21.000000
1.622278 1.071863 0.045764 59.000000
1.629652 1.051406 0.045765 65.000000
1.653708 1.041636 0.046238 63.000000
1.664984 1.023559 0.046357 51.000000
1.697453 1.018218 0.047071 49.000000
1.721333 1.007241 0.047549 67.000000
1.732170 0.988489 0.047671 36.000000
1.760296 0.979275 0.048272 26.000000
1.770873 0.960089 0.048333 61.000000
1.790043 0.945449 0.048697 54.000000
1.817958 0.935066 0.049303 68.000000
1.850353 0.926472 0.050032 64.000000
1.864828 0.908509 0.050216 49.000000
1.883614 0.892462 0.050585 57.000000
1.934018 0.890793 0.051807 37.000000
1.961822 0.877899 0.052359 27.000000
1.966686 0.854583 0.052368 39.000000
2.021908 0.852599 0.053656 58.000000
2.035645 0.832452 0.053912 42.000000
2.063161 0.817663 0.054470 43.000000
2.095233 0.804193 0.055221 42.000000
2.108551 0.783188 0.055412 36.000000
2.140380 0.768701 0.056167 36.000000
2.124962 0.737389 0.055618 30.000000
2.166036 0.725429 0.056553 52.000000
2.197559 0.709538 0.057313 54.000000
2.243286 0.697513 0.058377 40.000000
2.274689 0.680290 0.059071 59.000000
2.296349 0.659715 0.059517 61.000000
2.317807 0.638755 0.060037 35.000000
2.353556 0.621234 0.060860 35.000000
2.403787 0.606680 0.062061 31.000000
2.415079 0.581663 0.062262 37.000000
2.460272 0.564365 0.063341 49.000000
2.485740 0.541884 0.063920 37.000000
2.530646 0.522948 0.065004 43.000000
2.575413 0.503162 0.066090 40.000000
2.595527 0.477839 0.066548 40.000000
2.625149 0.453980 0.067259 33.000000
2.699026 0.436608 0.069026 36.000000
2.713418 0.408717 0.069362 42.000000
2.752427 0.384066 0.070331 48.000000
2.756415 0.354202 0.070416 11.000000
2.814668 0.330583 0.071809 8.000000
2.852921 0.303746 0.072784 8.000000
2.910807 0.277968 0.074268 8.000000
2.948437 0.249226 0.075156 7.000000
3.075585 0.226423 0.078424 8.000000
3.112859 0.195190 0.079314 27.000000
3.159688 0.163620 0.080555 25.000000
3.231150 0.132192 0.082336 9.000000
3.277397 0.098396 0.083481 9.000000
3.338267 0.063909 0.085110 15.000000
3.408751 0.028202 0.086894 60.000000
3.458838 -0.008975 0.088168 79.000000
3.453524 -0.046498 0.088041 58.000000
3.452786 -0.084034 0.088146 32.000000
3.441741 -0.121218 0.087891 35.000000
3.455143 -0.159231 0.088274 63.000000
3.458232 -0.197106 0.088401 71.000000
3.470867 -0.235660 0.088784 65.000000
3.413293 -0.269041 0.087381 33.000000
3.410158 -0.306042 0.087381 95.000000
3.386711 -0.341144 0.086871 95.000000
3.357926 -0.375051 0.086233 95.000000
3.323930 -0.407913 0.085468 95.000000
3.309421 -0.442676 0.085110 98.000000
3.274746 -0.474257 0.084346 88.000000
3.239761 -0.505193 0.083582 16.000000
3.219265 -0.537856 0.083199 7.000000
3.109950 -0.554312 0.080427 9.000000
3.113503 -0.589925 0.080682 10.000000
3.082422 -0.618673 0.079949 18.000000
3.090277 -0.655280 0.080331 30.000000
3.053679 -0.682204 0.079473 52.000000
3.041267 -0.714207 0.079346 46.000000
3.013844 -0.742327 0.078743 14.000000
2.952454 -0.761290 0.077348 7.000000
2.943983 -0.793216 0.077255 10.000000
2.959293 -0.831905 0.077888 64.000000
2.954894 -0.865404 0.077921 84.000000
2.921400 -0.890078 0.077195 72.000000
2.916376 -0.923285 0.077228 34.000000
3.067652 -1.007896 0.081519 25.000000
3.321475 -1.131367 0.088478 28.000000
3.304335 -1.165374 0.088245 41.000000
3.296195 -1.202921 0.088264 98.000000
3.273666 -1.235062 0.087906 95.000000
3.260101 -1.270523 0.087799 95.000000
3.222922 -1.296444 0.087066 98.000000
3.203989 -1.329418 0.086835 98.000000
3.175589 -1.358255 0.086354 95.000000
3.156147 -1.390613 0.086124 92.000000
3.109017 -1.410272 0.085146 35.000000
3.107077 -1.450276 0.085415 95.000000
3.100178 -1.488308 0.085559 98.000000
3.038978 -1.499781 0.084109 98.000000
3.013613 -1.528159 0.083757 95.000000
3.027832 -1.577020 0.084520 95.000000
3.001716 -1.605030 0.084169 61.000000
3.014829 -1.654492 0.084824 47.000000
2.979245 -1.677332 0.084227 25.000000
2.995400 -1.729578 0.085106 51.000000
2.980801 -1.764646 0.085018 36.000000
2.974164 -1.804783 0.085280 34.000000
2.979879 -1.852798 0.085800 32.000000
2.951096 -1.879776 0.085449 21.000000
2.943040 -1.920013 0.085601 11.000000
2.951002 -1.971416 0.086345 10.000000
2.970703 -2.031592 0.087341 8.000000
2.960686 -2.072491 0.087595 9.000000
2.958166 -2.119149 0.087979 9.000000
2.955107 -2.166028 0.088359 9.000000
2.975273 -2.231115 0.089572 9.000000
2.958798 -2.269440 0.089585 9.000000
2.949600 -2.313881 0.089836 8.000000
2.935891 -2.355308 0.089966 7.000000
2.944820 -2.415667 0.090925 4.000000
2.979587 -2.499035 0.092596 5.000000
2.906746 -2.492282 0.090934 4.000000
2.875637 -2.520545 0.090582 3.000000
2.833081 -2.538370 0.089876 2.000000
2.890115 -2.646790 0.092354 2.000000
2.791708 -2.613112 0.089882 2.000000
2.734214 -2.615702 0.088711 6.000000
2.559141 -2.502110 0.083688 5.000000
2.425640 -2.423756 0.079972 10.000000
2.294238 -2.342886 0.076174 10.000000
2.195990 -2.291914 0.073542 13.000000
2.075170 -2.213546 0.070114 13.000000
2.000403 -2.180706 0.068201 15.000000
1.906441 -2.124173 0.065607 16.000000
1.810705 -2.062185 0.062828 10.000000
1.739313 -2.024826 0.060948 10.000000
1.672290 -1.989990 0.059192 15.000000
1.641027 -1.996417 0.058614 26.000000
1.603672 -1.994609 0.057891 36.000000
1.557235 -1.980439 0.056755 34.000000
1.529531 -1.989356 0.056377 33.000000
1.516942 -2.017812 0.056483 35.000000
1.494981 -2.034070 0.056329 29.000000
1.475782 -2.054235 0.056208 23.000000
1.470703 -2.094687 0.056719 35.000000
1.436579 -2.093981 0.056043 31.000000
1.424922 -2.126016 0.056250 28.000000
1.407273 -2.149771 0.056313 32.000000
1.386593 -2.169041 0.056187 32.000000
1.384191 -2.217898 0.056820 28.000000
1.365211 -2.241360 0.056797 26.000000
1.368953 -2.303288 0.057823 9.000000
0.914832 1.560827 0.052641 5.000000
0.905996 1.507988 0.051401 10.000000
0.940666 1.527843 0.052697 15.000000
0.930493 1.475273 0.051443 20.000000
0.968110 1.498685 0.052894 10.000000
0.978828 1.479726 0.052814 21.000000
0.986401 1.456641 0.052583 18.000000
1.022068 1.474597 0.053848 18.000000
1.020606 1.438964 0.053217 20.000000
1.039108 1.431859 0.053584 9.000000
1.039662 1.400399 0.053040 25.000000
1.045719 1.377115 0.052795 20.000000
1.088195 1.401182 0.054385 18.000000
1.087769 1.369751 0.053833 27.000000
1.121463 1.381119 0.054973 17.000000
1.142786 1.376587 0.055500 21.000000
1.154410 1.360267 0.055563 21.000000
1.195317 1.377828 0.057031 10.000000
1.167139 1.316133 0.055215 30.000000
1.181372 1.303350 0.055430 28.000000
1.219217 1.316121 0.056751 28.000000
1.219717 1.288240 0.056281 32.000000
1.244118 1.285688 0.056975 25.000000
1.268535 1.282691 0.057673 33.000000
1.282416 1.268810 0.057838 27.000000
1.303368 1.261715 0.058380 13.000000
1.306110 1.237116 0.058063 35.000000
1.330509 1.233024 0.058768 26.000000
1.332751 1.208386 0.058447 29.000000
1.372050 1.216987 0.059808 36.000000
1.396533 1.211804 0.060466 27.000000
1.409631 1.196504 0.060635 32.000000
1.426461 1.184227 0.060969 31.000000
1.450894 1.178052 0.061690 22.000000
1.451936 1.152808 0.061365 32.000000
1.467997 1.140419 0.061701 28.000000
1.480371 1.124355 0.061871 28.000000
1.492518 1.108121 0.062042 31.000000
1.532863 1.112318 0.063383 29.000000
1.540816 1.092599 0.063388 32.000000
1.564963 1.084294 0.064066 28.000000
1.584924 1.072746 0.064577 19.000000
1.609060 1.063715 0.065260 32.000000
1.624743 1.048814 0.065547 31.000000
1.636081 1.031039 0.065724 30.000000
1.664208 1.023619 0.066583 62.000000
1.688099 1.013136 0.067214 30.000000
1.707665 0.999728 0.067736 31.000000
1.735840 0.991028 0.068542 34.000000
1.737788 0.967186 0.068382 21.000000
1.752566 0.950620 0.068676 36.000000
1.780466 0.940842 0.069548 34.000000
1.795056 0.923696 0.069844 30.000000
1.836255 0.919758 0.071180 45.000000
1.864131 0.908509 0.071999 32.000000
1.896460 0.898883 0.073059 35.000000
1.919688 0.884520 0.073710 35.000000
1.920054 0.859525 0.073490 16.000000
1.956801 0.850534 0.074668 32.000000
1.984339 0.836996 0.075499 30.000000
2.030281 0.830560 0.077034 30.000000
2.062416 0.817663 0.078047 36.000000
2.085150 0.800611 0.078711 32.000000
2.103112 0.781379 0.079200 27.000000
2.125578 0.763564 0.079867 30.000000
2.147809 0.745582 0.080536 10.000000
2.160531 0.723772 0.080852 37.000000
2.187274 0.706396 0.081631 34.000000
2.237726 0.696029 0.083372 32.000000
2.259530 0.675922 0.083977 35.000000
2.281139 0.655502 0.084656 31.000000
2.307366 0.636026 0.085515 30.000000
2.333488 0.616058 0.086303 31.000000
2.335129 0.589482 0.086198 9.000000
2.404605 0.579247 0.088673 29.000000
2.449684 0.562053 0.090183 35.000000
2.480004 0.540820 0.091235 30.000000
2.490633 0.514856 0.091492 31.000000
2.554916 0.499329 0.093728 29.000000
2.574985 0.474219 0.094348 27.000000
2.614407 0.452196 0.095690 33.000000
2.643850 0.427828 0.096672 11.000000
2.697758 0.406484 0.098559 31.000000
2.741597 0.382684 0.100088 35.000000
2.740614 0.352291 0.099992 9.000000
2.803792 0.329417 0.102248 8.000000
2.856926 0.304276 0.104145 7.000000
2.875007 0.274642 0.104688 7.000000
2.937486 0.248384 0.106952 7.000000
3.089499 0.227524 0.112485 7.000000
3.086877 0.193626 0.112303 16.000000
3.153635 0.163362 0.114758 36.000000
3.200109 0.130966 0.116393 18.000000
3.236341 0.097196 0.117762 8.000000
3.337146 0.063909 0.121397 8.000000
3.382624 0.027995 0.123033 13.000000
3.457677 -0.008975 0.125864 71.000000
3.502326 -0.047171 0.127501 73.000000
3.506572 -0.085372 0.127683 78.000000
3.505501 -0.123398 0.127683 82.000000
3.488920 -0.160842 0.127137 69.000000
3.467046 -0.197569 0.126410 90.000000
3.454743 -0.234539 0.126046 67.000000
3.437050 -0.270900 0.125500 37.000000
3.369195 -0.302468 0.123136 79.000000
3.370654 -0.339538 0.123318 62.000000
3.331963 -0.372277 0.121942 88.000000
3.302968 -0.405376 0.121034 76.000000
3.263727 -0.436612 0.119761 37.000000
3.258800 -0.472007 0.119661 95.000000
3.218912 -0.502013 0.118390 13.000000
3.173815 -0.530345 0.116839 10.000000
3.148242 -0.561230 0.116016 36.000000
3.112439 -0.589828 0.114928 32.000000
3.110760 -0.624574 0.115012 44.000000
3.064681 -0.650000 0.113563 41.000000
3.038000 -0.678840 0.112744 36.000000
3.040218 -0.714016 0.113010 59.000000
3.003193 -0.739842 0.111831 10.000000
2.936914 -0.757453 0.109570 7.000000
2.933311 -0.790522 0.109658 9.000000
2.929400 -0.823696 0.109746 27.000000
2.925088 -0.856882 0.109833 44.000000
2.910815 -0.887072 0.109560 54.000000
2.896294 -0.917158 0.109287 30.000000
3.313412 -1.088921 0.125358 26.000000
3.301377 -1.124814 0.125145 26.000000
3.293735 -1.161942 0.125218 52.000000
3.290323 -1.201100 0.125469 81.000000
3.258466 -1.229662 0.124540 37.000000
3.249509 -1.266786 0.124612 95.000000
3.226392 -1.298203 0.124043 81.000000
3.175134 -1.317820 0.122512 56.000000
3.151459 -1.348322 0.121947 79.000000
3.122983 -1.376401 0.121309 52.000000
3.098666 -1.406142 0.120746 27.000000
3.092342 -1.443934 0.120892 89.000000
3.062988 -1.471002 0.120258 36.000000
3.046802 -1.504205 0.120050 36.000000
3.034656 -1.539461 0.120019 32.000000
3.031117 -1.579329 0.120339 27.000000
3.057853 -1.635775 0.121886 32.000000
3.044230 -1.671326 0.121956 25.000000
3.025884 -1.704307 0.121744 13.000000
3.037401 -1.754679 0.122756 26.000000
2.983726 -1.767298 0.121145 13.000000
2.985703 -1.812562 0.121698 10.000000
3.012538 -1.874020 0.123396 10.000000
3.004487 -1.914795 0.123700 9.000000
3.021149 -1.972015 0.125041 9.000000
3.020218 -2.018729 0.125685 8.000000
3.039383 -2.079785 0.127077 6.000000
3.020647 -2.115601 0.127024 8.000000
3.025767 -2.168862 0.128001 8.000000
3.018126 -2.213536 0.128346 8.000000
3.017765 -2.264332 0.129144 6.000000
3.036486 -2.330517 0.130674 6.000000
3.050906 -2.393385 0.132025 5.000000
2.993555 -2.401523 0.130430 5.000000
2.905371 -2.383276 0.127368 3.000000
2.913667 -2.443732 0.128544 3.000000
2.886844 -2.475317 0.128196 2.000000
2.867304 -2.513257 0.128300 1.000000
2.888094 -2.587693 0.130131 1.000000
2.808201 -2.571820 0.127434 1.000000
2.780063 -2.602167 0.127085 1.000000
2.701022 -2.583919 0.124408 4.000000
2.683436 -2.623733 0.124563 4.000000
2.439152 -2.437257 0.114130 8.000000
2.328500 -2.377991 0.109855 9.000000
2.219512 -2.316592 0.105602 9.000000
2.112210 -2.253093 0.101277 9.000000
1.999771 -2.180164 0.096746 9.000000
1.919270 -2.138527 0.093704 10.000000
1.826689 -2.080374 0.089944 9.000000
1.742162 -2.028046 0.086614 8.000000
1.691104 -2.012470 0.084916 10.000000
1.637459 -1.992083 0.082987 15.000000
1.606334 -1.998035 0.082270 27.000000
1.553685 -1.976049 0.080359 29.000000
1.532194 -1.992781 0.080129 26.000000
1.504468 -2.001294 0.079504 29.000000
1.497555 -2.037635 0.079989 21.000000
1.478312 -2.057831 0.079915 11.000000
1.455954 -2.073690 0.079606 26.000000
1.441846 -2.101758 0.079765 21.000000
1.421749 -2.121395 0.079610 25.000000
1.393195 -2.128315 0.078988 24.000000
1.394354 -2.181202 0.080147 23.000000
1.381226 -2.213179 0.080447 26.000000
1.357092 -2.227994 0.080129 21.000000
1.307344 -2.199687 0.078281 9.000000
0.905991 1.548056 0.068364 8.000000
0.899620 1.499527 0.066971 21.000000
0.915855 1.489647 0.067291 27.000000
0.926605 1.471152 0.067172 21.000000
0.945244 1.465208 0.067685 27.000000
0.958306 1.450655 0.067756 24.000000
0.985220 1.456748 0.068857 28.000000
0.998113 1.441844 0.068930 29.000000
1.022363 1.443148 0.069843 23.000000
1.014517 1.399606 0.068528 25.000000
1.032592 1.392479 0.068991 26.000000
1.053667 1.389162 0.069655 29.000000
1.065676 1.373659 0.069774 32.000000
1.080491 1.362030 0.070040 25.000000
1.095200 1.350189 0.070305 32.000000
1.122559 1.353569 0.071382 30.000000
1.140452 1.345134 0.071854 29.000000
1.145180 1.321312 0.071510 26.000000
1.159492 1.308762 0.071777 30.000000
1.187058 1.310863 0.072868 37.000000
1.207997 1.305178 0.073497 36.000000
1.218742 1.288348 0.073561 28.000000
1.229191 1.271377 0.073624 39.000000
1.249987 1.264980 0.074257 34.000000
1.270775 1.258321 0.074948 30.000000
1.298783 1.258295 0.076006 32.000000
1.308801 1.240662 0.076071 34.000000
1.314916 1.219491 0.075869 39.000000
1.350315 1.225169 0.077360 44.000000
1.352418 1.200462 0.077000 32.000000
1.388030 1.205254 0.078501 42.000000
1.401113 1.190037 0.078726 34.000000
1.437026 1.193860 0.080237 35.000000
1.430596 1.162303 0.079390 32.000000
1.451030 1.152865 0.080047 30.000000
1.463484 1.136957 0.080273 35.000000
1.479747 1.123958 0.080717 35.000000
1.499972 1.113680 0.081322 34.000000
1.516056 1.100178 0.081768 35.000000
1.532032 1.086416 0.082216 32.000000
1.568429 1.086732 0.083702 31.000000
1.580145 1.069595 0.083936 33.000000
1.591744 1.052284 0.084110 32.000000
1.619897 1.045691 0.085227 46.000000
1.622695 1.022637 0.084961 49.000000
1.667567 1.026177 0.086970 36.000000
1.678633 1.007933 0.087150 42.000000
1.702449 0.997144 0.088058 42.000000
1.717575 0.981057 0.088462 32.000000
1.732513 0.964695 0.088867 34.000000
1.760432 0.955324 0.089946 36.000000
1.788375 0.945387 0.091029 37.000000
1.803013 0.928207 0.091439 35.000000
1.826383 0.915220 0.092302 35.000000
1.854202 0.904068 0.093331 35.000000
1.868420 0.885979 0.093746 45.000000
1.909712 0.880210 0.095524 31.000000
1.914596 0.857355 0.095489 29.000000
1.951243 0.848477 0.096984 33.000000
1.978750 0.834988 0.098091 31.000000
1.996985 0.817185 0.098679 35.000000
2.042828 0.810162 0.100708 34.000000
2.056084 0.789932 0.101071 32.000000
2.064563 0.767524 0.101273 38.000000
2.100974 0.755185 0.102788 29.000000
2.132682 0.740528 0.104075 33.000000
2.154752 0.722046 0.104905 35.000000
2.176716 0.703255 0.105736 35.000000
2.203340 0.685499 0.106801 39.000000
2.224956 0.665755 0.107636 37.000000
2.280052 0.655357 0.110096 42.000000
2.315899 0.638681 0.111633 45.000000
2.317895 0.612158 0.111548 27.000000
2.353469 0.594300 0.113091 31.000000
2.413183 0.581588 0.115802 35.000000
2.438797 0.559818 0.116810 34.000000
2.478841 0.540820 0.118597 36.000000
2.513922 0.519914 0.120077 32.000000
2.548822 0.498291 0.121637 36.000000
2.563962 0.472409 0.122184 37.000000
2.578743 0.446235 0.122812 16.000000
2.632763 0.426151 0.125238 35.000000
2.661937 0.401273 0.126493 36.000000
2.715596 0.379146 0.128923 34.000000
2.719534 0.349659 0.129007 10.000000
2.747937 0.323003 0.130266 8.000000
2.776149 0.295809 0.131527 8.000000
2.843853 0.271791 0.134673 8.000000
2.936226 0.248384 0.139001 6.000000
2.988556 0.220093 0.141449 8.000000
3.060537 0.191969 0.144749 34.000000
3.082362 0.159743 0.145787 35.000000
3.168799 0.129740 0.149894 46.000000
3.204906 0.096296 0.151546 32.000000
3.235748 0.061996 0.152963 10.000000
3.326138 0.027540 0.157313 26.000000
3.431121 -0.008910 0.162274 51.000000
3.485740 -0.046863 0.164872 95.000000
3.509958 -0.085386 0.166053 98.000000
3.513877 -0.123750 0.166289 98.000000
3.492310 -0.161072 0.165344 80.000000
3.445510 -0.196431 0.163218 13.000000
3.418276 -0.232170 0.162037 10.000000
3.286102 -0.259122 0.155896 85.000000
3.332825 -0.299239 0.158258 66.000000
3.314441 -0.334029 0.157448 91.000000
3.275830 -0.366074 0.155795 67.000000
3.246915 -0.398681 0.154515 35.000000
3.217667 -0.430550 0.153336 28.000000
3.188093 -0.461980 0.152058 10.000000
3.192746 -0.498064 0.152430 36.000000
3.182193 -0.531893 0.152195 60.000000
3.136944 -0.559477 0.150213 68.000000
3.120899 -0.591592 0.149645 95.000000
3.089816 -0.620544 0.148372 69.000000
3.068227 -0.650941 0.147571 64.000000
3.065818 -0.685281 0.147710 95.000000
3.038788 -0.713921 0.146675 71.000000
3.001776 -0.739747 0.145078 30.000000
2.945197 -0.759856 0.142641 9.000000
2.927097 -0.789222 0.142080 9.000000
2.942430 -0.827567 0.143064 33.000000
2.942864 -0.862220 0.143438 81.000000
2.914291 -0.888342 0.142317 64.000000
2.913948 -0.922912 0.142690 82.000000
2.955961 -0.971726 0.145065 20.000000
3.115408 -1.061765 0.153347 21.000000
3.278005 -1.157062 0.161744 86.000000
3.255878 -1.189106 0.161068 95.000000
3.238075 -1.222711 0.160624 95.000000
3.220098 -1.255686 0.160181 87.000000
3.192365 -1.284936 0.159277 95.000000
3.155213 -1.309949 0.157912 73.000000
3.122442 -1.336322 0.156781 37.000000
3.130559 -1.380222 0.157725 38.000000
3.101759 -1.407999 0.156826 29.000000
3.126981 -1.460636 0.158685 36.000000
3.128963 -1.503239 0.159391 47.000000
3.130333 -1.546021 0.159988 31.000000
3.091104 -1.568743 0.158632 35.000000
3.087131 -1.609132 0.159105 29.000000
3.056264 -1.635564 0.158103 15.000000
3.090797 -1.697563 0.160513 10.000000
3.076511 -1.733626 0.160525 9.000000
3.070390 -1.774567 0.160881 9.000000
3.089563 -1.830852 0.162701 9.000000
3.099369 -1.882464 0.163953 9.000000
3.113026 -1.936584 0.165423 10.000000
3.091746 -1.970407 0.165087 9.000000
3.086861 -2.014928 0.165649 9.000000
3.102051 -2.073467 0.167327 9.000000
3.079369 -2.107093 0.166985 6.000000
3.072596 -2.152066 0.167536 5.000000
2.996098 -2.147583 0.164185 3.000000
3.004786 -2.203760 0.165623 1.000000
3.024488 -2.269406 0.167719 1.000000
2.991729 -2.296128 0.166930 1.000000
2.978287 -2.337868 0.167131 1.000000
2.983772 -2.395269 0.168544 1.000000
2.949752 -2.421424 0.167638 1.000000
2.930824 -2.459789 0.167726 1.000000
2.843170 -2.439651 0.163765 1.000000
3.086890 -2.707598 0.179110 1.000000
2.915835 -2.614370 0.170352 1.000000
2.787695 -2.554944 0.164023 1.000000
2.865465 -2.684245 0.169827 1.000000
2.720617 -2.604761 0.162452 1.000000
2.631388 -2.574822 0.158340 6.000000
2.465409 -2.465622 0.149535 7.000000
2.344138 -2.395946 0.143341 10.000000
2.203931 -2.302255 0.135902 9.000000
2.110419 -2.253188 0.131265 10.000000
2.021680 -2.206034 0.126863 10.000000
1.924272 -2.146053 0.121764 10.000000
1.848143 -2.106746 0.118045 10.000000
1.756796 -2.047165 0.113297 9.000000
1.679863 -2.001072 0.109331 10.000000
1.623203 -1.976719 0.106719 13.000000
1.582871 -1.970849 0.105082 21.000000
1.561407 -1.987989 0.104696 26.000000
1.533625 -1.996897 0.103975 30.000000
1.502939 -2.001446 0.102973 25.000000
1.490021 -2.029735 0.103206 26.000000
1.467872 -2.045731 0.102821 16.000000
1.465725 -2.090206 0.103859 24.000000
1.442957 -2.105957 0.103547 24.000000
1.422812 -2.125703 0.103359 23.000000
1.402421 -2.145197 0.103170 23.000000
1.379095 -2.160305 0.102778 22.000000
1.366181 -2.192059 0.103107 22.000000
1.352663 -2.223885 0.103507 19.000000
1.333516 -2.247026 0.103505 8.000000
0.905607 1.547453 0.084524 7.000000
0.891538 1.486144 0.082069 24.000000
0.905019 1.472094 0.082202 27.000000
0.923572 1.466395 0.082811 32.000000
0.939403 1.456229 0.083128 26.000000
0.963440 1.458458 0.084221 31.000000
0.970802 1.435473 0.083870 35.000000
0.994843 1.437149 0.084915 30.000000
1.004610 1.418104 0.084802 35.000000
1.008180 1.390939 0.084142 27.000000
1.035090 1.395961 0.085492 30.000000
1.050223 1.384598 0.085811 37.000000
1.065198 1.373128 0.086129 32.000000
1.086220 1.369270 0.086945 32.000000
1.107305 1.365171 0.087817 35.000000
1.118887 1.349188 0.087889 31.000000
1.130226 1.333115 0.087959 45.000000
1.147916 1.324498 0.088532 24.000000
1.162270 1.311912 0.088800 35.000000
1.183166 1.306621 0.089629 50.000000
1.200130 1.297845 0.090261 35.000000
1.210744 1.281036 0.090275 35.000000
1.228110 1.271323 0.090855 47.000000
1.241884 1.257873 0.091179 38.000000
1.266136 1.254751 0.092224 37.000000
1.283340 1.244336 0.092810 16.000000
1.293210 1.226806 0.092823 58.000000
1.313821 1.219436 0.093617 65.000000
1.334471 1.211688 0.094414 42.000000
1.355046 1.203667 0.095214 73.000000
1.371887 1.192098 0.095810 38.000000
1.403795 1.193214 0.097351 37.000000
1.416745 1.177786 0.097633 38.000000
1.437274 1.168546 0.098445 20.000000
1.438174 1.143430 0.097930 35.000000
1.462409 1.136844 0.099011 40.000000
1.474750 1.120824 0.099238 34.000000
1.498888 1.113565 0.100325 59.000000
1.514969 1.100063 0.100822 40.000000
1.531000 1.086301 0.101378 37.000000
1.542704 1.069548 0.101608 45.000000
1.570828 1.063821 0.102921 18.000000
