x y z intensity
0.484788 0.731503 -0.458201 33.000000
0.492402 0.725339 -0.459893 44.000000
0.500529 0.718783 -0.461404 32.000000
0.502950 0.705212 -0.458358 69.000000
0.503056 0.687851 -0.452756 22.000000
0.679519 0.907437 -0.604971 48.000000
0.801747 1.045697 -0.706210 95.000000
1.050227 1.336299 -0.914406 49.000000
1.114058 1.384681 -0.960129 27.000000
1.131585 1.373895 -0.965595 31.000000
1.160382 1.376343 -0.980644 29.000000
1.198012 1.388209 -1.002840 25.000000
1.195464 1.353321 -0.991463 32.000000
1.209986 1.338170 -0.994418 25.000000
1.242213 1.342031 -1.011833 28.000000
1.265775 1.335796 -1.021986 34.000000
1.304491 1.344880 -1.044287 29.000000
1.322163 1.331415 -1.049542 37.000000
1.349098 1.326847 -1.062153 32.000000
1.369818 1.315797 -1.069775 26.000000
1.377905 1.292477 -1.067583 24.000000
1.407311 1.290219 -1.082964 24.000000
1.427920 1.278130 -1.090522 22.000000
1.458402 1.274315 -1.105404 21.000000
1.461841 1.247898 -1.100943 16.000000
1.472299 1.226534 -1.100819 18.000000
1.468447 1.194655 -1.091100 17.000000
1.477661 1.173826 -1.091331 12.000000
1.483994 1.149766 -1.088444 10.000000
1.482390 1.120929 -1.080905 10.000000
1.480496 1.092301 -1.073255 14.000000
1.492196 1.073905 -1.075595 18.000000
1.503766 1.055380 -1.077805 14.000000
1.508093 1.031792 -1.074945 18.000000
1.512055 1.008251 -1.071935 18.000000
1.505020 0.977662 -1.061271 10.000000
1.519345 0.961191 -1.065729 13.000000
1.514723 0.933610 -1.057742 10.000000
1.517590 0.910303 -1.054392 15.000000
1.530916 0.893859 -1.059031 18.000000
1.525886 0.866292 -1.050334 12.000000
1.542567 0.851651 -1.057352 19.000000
1.551661 0.832712 -1.059170 20.000000
1.549175 0.807645 -1.053182 16.000000
1.554072 0.786662 -1.052278 10.000000
1.554840 0.763701 -1.048652 10.000000
1.559323 0.742705 -1.047542 18.000000
1.563519 0.721619 -1.046363 18.000000
1.559753 0.697083 -1.039856 13.000000
1.570934 0.679735 -1.044046 18.000000
1.582397 0.661924 -1.047754 18.000000
1.585497 0.641003 -1.046616 14.000000
1.592289 0.621606 -1.047962 16.000000
1.579021 0.594580 -1.036104 18.000000
1.589430 0.576636 -1.039872 23.000000
1.583611 0.552920 -1.033096 22.000000
1.589322 0.533682 -1.034418 22.000000
1.587117 0.511533 -1.030005 21.000000
1.592500 0.492213 -1.031141 21.000000
1.581401 0.467949 -1.021685 18.000000
1.594551 0.450961 -1.027904 16.000000
1.587068 0.428123 -1.020823 18.000000
1.583449 0.406583 -1.016312 20.000000
1.563167 0.381163 -1.001109 29.000000
0.914093 0.187988 -0.582327 71.000000
0.907746 0.175236 -0.577366 80.000000
0.917853 0.165732 -0.583167 83.000000
0.948893 0.159436 -0.601964 95.000000
0.942284 0.146564 -0.596832 100.000000
0.952184 0.136298 -0.602484 100.000000
0.945202 0.123631 -0.597450 100.000000
0.929680 0.110136 -0.587031 98.000000
0.947708 0.100594 -0.597794 100.000000
0.919155 0.086320 -0.579495 95.000000
0.932647 0.076178 -0.587672 98.000000
0.941972 0.065400 -0.592956 85.000000
0.938426 0.053725 -0.590399 95.000000
0.943095 0.042534 -0.593297 95.000000
0.943537 0.031067 -0.593262 95.000000
0.943776 0.019600 -0.593399 95.000000
0.931213 0.008023 -0.585449 103.000000
0.931247 -0.003323 -0.585449 100.000000
0.914249 -0.014370 -0.574739 105.000000
0.918316 -0.025595 -0.577267 103.000000
0.926413 -0.037093 -0.582588 100.000000
0.926045 -0.048321 -0.582320 103.000000
0.921251 -0.059310 -0.579561 95.000000
0.916197 -0.070197 -0.576936 100.000000
0.928091 -0.082446 -0.584677 100.000000
0.923004 -0.093266 -0.581719 100.000000
0.913482 -0.103540 -0.576241 100.000000
0.912290 -0.114632 -0.576009 98.000000
0.919395 -0.126883 -0.581050 103.000000
0.918025 -0.138045 -0.580683 103.000000
0.924756 -0.150568 -0.585817 79.000000
0.918826 -0.161133 -0.582898 103.000000
0.921317 -0.173027 -0.585042 100.000000
0.923555 -0.185056 -0.587282 98.000000
0.921488 -0.196269 -0.586876 100.000000
0.923359 -0.208484 -0.589213 98.000000
0.921114 -0.219679 -0.588669 103.000000
0.922715 -0.231943 -0.590898 98.000000
0.944763 -0.249702 -0.606270 73.000000
0.946086 -0.262349 -0.608377 98.000000
0.947279 -0.275061 -0.610444 98.000000
0.948305 -0.287837 -0.612436 98.000000
0.941155 -0.298036 -0.609099 95.000000
0.937756 -0.309576 -0.608568 98.000000
0.930436 -0.319557 -0.605134 95.000000
0.930889 -0.332374 -0.607117 95.000000
0.939197 -0.348183 -0.614286 53.000000
0.935360 -0.359621 -0.613533 98.000000
0.939342 -0.374182 -0.617923 95.000000
0.931346 -0.383983 -0.614451 98.000000
0.930916 -0.397146 -0.616368 95.000000
0.938379 -0.413635 -0.623218 95.000000
0.929837 -0.423399 -0.619819 98.000000
0.925133 -0.434814 -0.618980 98.000000
0.927984 -0.449889 -0.623240 35.000000
0.923019 -0.461289 -0.622284 95.000000
0.933218 -0.480422 -0.631603 95.000000
0.935559 -0.495877 -0.635704 98.000000
0.926404 -0.505243 -0.632004 100.000000
0.928411 -0.520741 -0.635969 98.000000
0.918825 -0.530136 -0.632425 95.000000
0.909437 -0.539138 -0.628626 95.000000
0.910739 -0.554874 -0.632677 58.000000
0.890278 -0.556796 -0.621132 89.000000
0.884098 -0.567817 -0.619978 76.000000
0.877806 -0.578726 -0.618787 90.000000
0.882154 -0.596809 -0.625151 85.000000
0.879141 -0.610161 -0.626395 64.000000
0.875999 -0.623526 -0.627591 95.000000
0.897163 -0.654696 -0.646343 81.000000
0.893528 -0.668306 -0.647362 59.000000
0.882888 -0.676656 -0.643363 86.000000
0.868391 -0.682402 -0.637072 72.000000
0.871246 -0.701217 -0.642953 76.000000
0.870462 -0.717404 -0.646271 86.000000
0.865686 -0.731155 -0.647323 62.000000
0.857959 -0.741709 -0.645570 95.000000
0.862698 -0.764034 -0.653928 74.000000
0.879993 -0.798263 -0.672044 95.000000
0.919556 -0.853418 -0.706904 32.000000
0.929068 -0.882996 -0.719792 85.000000
1.402935 -1.499475 -1.132496 19.000000
1.422097 -1.555822 -1.158096 10.000000
1.457878 -1.632547 -1.197780 9.000000
1.431555 -1.640896 -1.186946 14.000000
1.430948 -1.678823 -1.197551 10.000000
1.421391 -1.706887 -1.200854 16.000000
1.411387 -1.734933 -1.204113 15.000000
1.412054 -1.776678 -1.216618 11.000000
1.413479 -1.822951 -1.231846 16.000000
1.388676 -1.833628 -1.222922 10.000000
1.406073 -1.900697 -1.251457 9.000000
1.368994 -1.897542 -1.233467 10.000000
1.369294 -1.943610 -1.247614 9.000000
1.359962 -1.979736 -1.255095 10.000000
1.336733 -1.993088 -1.248157 9.000000
1.343431 -2.055186 -1.271539 9.000000
1.329086 -2.083303 -1.273516 10.000000
1.315063 -2.115894 -1.278149 9.000000
1.327477 -2.189678 -1.307297 9.000000
0.494206 0.840652 -0.486987 35.000000
0.492003 0.814936 -0.477540 31.000000
0.486356 0.785884 -0.465889 26.000000
0.497498 0.783174 -0.469758 26.000000
0.491623 0.754202 -0.457780 43.000000
0.496949 0.744304 -0.457231 34.000000
0.500233 0.730399 -0.454169 54.000000
0.497646 0.709529 -0.446647 52.000000
0.513339 0.713828 -0.454969 52.000000
1.031681 1.335151 -0.884306 35.000000
1.086921 1.374241 -0.922143 40.000000
1.120954 1.384575 -0.941518 52.000000
1.145034 1.380199 -0.951253 29.000000
1.165367 1.372493 -0.958989 32.000000
1.185782 1.364519 -0.966693 27.000000
1.209142 1.359442 -0.976728 20.000000
1.217773 1.337744 -0.974883 41.000000
1.244126 1.335313 -0.987221 34.000000
1.255405 1.316492 -0.987685 36.000000
1.291085 1.322691 -1.007211 50.000000
1.333318 1.334367 -1.031564 32.000000
1.354021 1.323699 -1.039131 50.000000
1.377960 1.315766 -1.049068 34.000000
1.389097 1.295457 -1.049306 16.000000
1.396736 1.272085 -1.047107 35.000000
1.439360 1.281091 -1.071882 34.000000
1.456652 1.265854 -1.076876 26.000000
1.470613 1.247509 -1.079304 21.000000
1.483697 1.229501 -1.082137 18.000000
1.504096 1.216298 -1.089337 22.000000
1.503235 1.187012 -1.082208 13.000000
1.502010 1.157925 -1.074965 9.000000
1.514983 1.138965 -1.077027 17.000000
1.513081 1.109993 -1.069585 16.000000
1.514356 1.083759 -1.064448 18.000000
1.536680 1.072485 -1.074199 22.000000
1.530296 1.041373 -1.063916 18.000000
1.541568 1.022413 -1.066001 22.000000
1.523555 0.984589 -1.048012 14.000000
1.526972 0.961055 -1.044918 10.000000
1.541158 0.944416 -1.049273 18.000000
1.539849 0.919021 -1.043896 18.000000
1.549981 0.899960 -1.045542 25.000000
1.555658 0.878903 -1.045044 24.000000
1.565450 0.859573 -1.046560 21.000000
1.582153 0.844556 -1.053457 27.000000
1.579692 0.819244 -1.047625 20.000000
1.573130 0.792150 -1.039101 10.000000
1.570016 0.767197 -1.033090 16.000000
1.570543 0.744246 -1.029480 13.000000
1.586433 0.728540 -1.035939 20.000000
1.590497 0.707341 -1.034685 17.000000
1.586016 0.682963 -1.028677 17.000000
1.605453 0.668346 -1.037466 24.000000
1.600553 0.644073 -1.031254 16.000000
1.595732 0.619663 -1.024471 10.000000
1.606384 0.601746 -1.028320 23.000000
1.592693 0.574876 -1.016611 18.000000
1.598540 0.555650 -1.018058 26.000000
1.600565 0.534764 -1.016443 21.000000
1.598242 0.512550 -1.012120 19.000000
1.611807 0.495746 -1.018426 26.000000
1.612873 0.474939 -1.016921 20.000000
1.601740 0.450577 -1.007164 14.000000
1.606548 0.431108 -1.008055 24.000000
1.610940 0.411698 -1.009182 23.000000
1.594629 0.387070 -0.996855 24.000000
1.532229 0.352356 -0.955825 31.000000
0.926476 0.178052 -0.575262 98.000000
0.928365 0.166822 -0.575566 81.000000
0.921768 0.154151 -0.570624 34.000000
0.923338 0.142990 -0.570992 98.000000
0.950249 0.135372 -0.586773 95.000000
0.955886 0.124421 -0.589657 103.000000
0.948726 0.111870 -0.584644 103.000000
0.928585 0.098145 -0.571928 98.000000
0.921164 0.086123 -0.566804 100.000000
0.930489 0.075656 -0.572228 98.000000
0.948369 0.065570 -0.582646 50.000000
0.948914 0.054103 -0.582952 98.000000
0.953750 0.042827 -0.585601 95.000000
0.949935 0.031135 -0.582986 95.000000
0.950173 0.019634 -0.583088 100.000000
0.950309 0.008167 -0.583122 98.000000
0.941820 -0.003305 -0.577893 105.000000
0.937491 -0.014636 -0.575211 100.000000
0.933062 -0.025865 -0.572462 105.000000
0.941213 -0.037465 -0.577690 103.000000
0.940707 -0.048863 -0.577657 103.000000
0.944523 -0.060500 -0.579932 98.000000
0.935208 -0.071268 -0.574741 103.000000
0.930155 -0.082205 -0.571861 103.000000
0.933429 -0.093893 -0.574371 100.000000
0.932422 -0.105139 -0.574036 103.000000
0.939713 -0.117477 -0.579017 103.000000
0.925711 -0.127117 -0.570892 100.000000
0.924174 -0.138345 -0.570758 100.000000
0.931130 -0.150838 -0.575566 98.000000
0.933582 -0.162869 -0.577899 100.000000
0.931752 -0.174183 -0.577594 100.000000
0.925633 -0.184628 -0.574588 103.000000
0.923576 -0.195789 -0.574183 100.000000
0.929790 -0.208824 -0.578869 103.000000
0.931567 -0.221108 -0.581123 98.000000
0.929072 -0.232422 -0.580713 103.000000
0.951431 -0.250124 -0.595601 98.000000
0.965157 -0.266221 -0.605388 98.000000
0.953828 -0.275627 -0.599860 98.000000
0.959016 -0.289608 -0.604388 98.000000
0.955909 -0.301212 -0.603674 103.000000
0.948447 -0.311515 -0.600561 100.000000
0.936816 -0.320262 -0.594807 98.000000
0.941514 -0.334411 -0.599103 100.000000
0.941841 -0.347344 -0.600960 95.000000
0.950083 -0.363369 -0.607906 95.000000
0.949915 -0.376596 -0.609890 100.000000
0.949786 -0.389702 -0.611577 98.000000
0.945409 -0.401336 -0.610884 98.000000
0.945044 -0.414478 -0.612451 100.000000
0.940430 -0.426050 -0.611645 98.000000
0.935669 -0.437512 -0.610803 95.000000
0.938592 -0.452679 -0.615007 98.000000
0.941323 -0.467962 -0.619122 89.000000
0.936222 -0.479392 -0.618116 98.000000
0.934825 -0.492796 -0.619566 98.000000
0.937067 -0.508277 -0.623530 98.000000
0.935109 -0.521952 -0.625109 98.000000
0.933256 -0.535417 -0.626413 98.000000
0.927253 -0.546929 -0.625388 98.000000
0.921440 -0.558100 -0.624096 92.000000
0.900544 -0.560312 -0.612949 71.000000
0.897989 -0.573710 -0.614324 95.000000
0.891682 -0.584708 -0.613123 95.000000
0.899658 -0.605354 -0.621834 95.000000
0.889449 -0.613913 -0.618055 95.000000
0.911123 -0.644892 -0.636579 85.000000
0.911179 -0.661134 -0.640070 89.000000
0.900536 -0.669644 -0.636142 80.000000
0.899860 -0.686182 -0.639804 34.000000
0.895953 -0.699852 -0.640712 95.000000
0.912294 -0.729827 -0.656260 95.000000
0.934478 -0.766087 -0.676819 95.000000
0.973182 -0.816750 -0.709117 95.000000
0.980645 -0.843114 -0.719675 76.000000
0.997546 -0.878472 -0.737317 98.000000
1.400658 -1.386888 -1.074610 26.000000
1.431804 -1.451204 -1.107466 19.000000
1.464844 -1.519629 -1.142358 20.000000
1.454325 -1.544274 -1.143808 11.000000
1.455526 -1.581741 -1.154622 15.000000
1.461980 -1.626062 -1.169993 10.000000
1.444497 -1.644226 -1.166360 10.000000
1.455630 -1.695674 -1.186169 21.000000
1.434568 -1.710277 -1.180049 17.000000
1.445975 -1.766428 -1.202289 15.000000
1.429923 -1.787837 -1.200596 22.000000
1.424556 -1.823049 -1.208144 13.000000
1.411995 -1.851952 -1.211323 13.000000
1.395020 -1.873056 -1.209376 10.000000
1.393578 -1.915550 -1.221160 9.000000
1.384815 -1.951662 -1.228593 11.000000
1.379507 -1.990776 -1.237730 11.000000
1.364662 -2.019783 -1.240382 10.000000
1.353454 -2.051537 -1.244744 14.000000
1.347404 -2.095395 -1.256215 10.000000
1.340513 -2.139527 -1.267491 10.000000
1.322850 -2.163885 -1.266960 10.000000
1.316948 -2.211964 -1.280186 9.000000
0.494510 0.856757 -0.481049 27.000000
0.501752 0.846313 -0.480633 40.000000
0.499473 0.820525 -0.471325 14.000000
0.491947 0.787305 -0.457519 41.000000
0.500065 0.781146 -0.459288 28.000000
0.516092 0.785802 -0.467578 27.000000
0.501764 0.745960 -0.449195 35.000000
0.510045 0.739396 -0.450698 26.000000
0.507440 0.718430 -0.443352 63.000000
0.580880 0.802148 -0.501207 65.000000
0.660912 0.891576 -0.564179 10.000000
1.023813 1.347534 -0.863663 34.000000
1.065276 1.369844 -0.889366 36.000000
1.091712 1.369946 -0.901193 30.000000
1.120178 1.373572 -0.915613 33.000000
1.146105 1.373198 -0.927805 36.000000
1.164422 1.361749 -0.932697 30.000000
1.184683 1.353932 -0.940287 35.000000
1.207978 1.349083 -0.950106 32.000000
1.219406 1.330719 -0.950647 37.000000
1.242671 1.325202 -0.960459 68.000000
1.256907 1.309711 -0.963219 32.000000
1.289508 1.312924 -0.980080 37.000000
1.313077 1.306155 -0.989822 48.000000
1.355615 1.317387 -1.013782 34.000000
1.376272 1.306495 -1.021205 40.000000
1.377573 1.277364 -1.014268 24.000000
1.397968 1.266066 -1.021572 28.000000
1.428234 1.263140 -1.035995 36.000000
1.445398 1.248129 -1.040838 32.000000
1.481876 1.250409 -1.060487 34.000000
1.515937 1.248584 -1.077275 20.000000
1.522168 1.224635 -1.075188 16.000000
1.532268 1.202877 -1.075018 21.000000
1.517191 1.162848 -1.058293 10.000000
1.530127 1.143844 -1.060360 16.000000
1.552917 1.132898 -1.070056 26.000000
1.557889 1.108768 -1.067531 21.000000
1.548215 1.074792 -1.055215 20.000000
1.552530 1.050854 -1.052495 20.000000
1.549268 1.022228 -1.044784 18.000000
1.567709 1.007892 -1.051714 25.000000
1.556486 0.974767 -1.038902 9.000000
1.548543 0.944257 -1.028374 16.000000
1.570065 0.931824 -1.037567 24.000000
1.565205 0.903779 -1.029336 17.000000
1.582297 0.889117 -1.036262 22.000000
1.595929 0.871681 -1.040275 24.000000
1.593642 0.846206 -1.034668 18.000000
1.606509 0.828833 -1.038937 24.000000
1.592111 0.797655 -1.025619 9.000000
1.604534 0.780107 -1.029749 16.000000
1.609043 0.758709 -1.028754 17.000000
1.601519 0.731887 -1.020108 13.000000
1.613423 0.714075 -1.023922 15.000000
1.613258 0.690936 -1.020204 18.000000
1.616514 0.669829 -1.019174 17.000000
1.623868 0.650054 -1.020286 20.000000
1.614683 0.624176 -1.011556 9.000000
1.621292 0.604596 -1.012779 17.000000
1.631837 0.586414 -1.016471 23.000000
1.625930 0.562372 -1.009981 16.000000
1.623838 0.539926 -1.005888 24.000000
1.621503 0.517558 -1.001724 24.000000
1.635105 0.500490 -1.007947 18.000000
1.640678 0.480621 -1.008674 23.000000
1.616688 0.452687 -0.991841 9.000000
1.633982 0.436440 -1.000370 17.000000
1.634490 0.415651 -0.998602 22.000000
1.617834 0.390921 -0.986869 21.000000
1.567597 0.358843 -0.954289 28.000000
0.945410 0.180811 -0.572612 27.000000
0.934637 0.167126 -0.565247 95.000000
0.957507 0.159424 -0.578518 65.000000
0.954987 0.147217 -0.576130 95.000000
0.960748 0.136319 -0.579035 100.000000
0.940842 0.121972 -0.566495 98.000000
0.959175 0.112610 -0.576954 95.000000
0.964645 0.101523 -0.579691 100.000000
0.965749 0.089868 -0.579794 98.000000
0.966611 0.078246 -0.580001 95.000000
0.963123 0.066330 -0.577606 50.000000
0.955209 0.054239 -0.572574 98.000000
0.960039 0.042896 -0.575176 100.000000
0.960518 0.031343 -0.575176 95.000000
0.960757 0.019790 -0.575278 98.000000
0.956604 0.008167 -0.572778 101.000000
0.952348 -0.003320 -0.570210 100.000000
0.956570 -0.014836 -0.572676 103.000000
0.960688 -0.026489 -0.575142 103.000000
0.960312 -0.038042 -0.575142 100.000000
0.955515 -0.049373 -0.572506 105.000000
0.954937 -0.060874 -0.572370 95.000000
0.949977 -0.072051 -0.569634 100.000000
0.957715 -0.084219 -0.574492 105.000000
0.952453 -0.095344 -0.571825 100.000000
0.951330 -0.106811 -0.571655 103.000000
0.950105 -0.118278 -0.571417 98.000000
0.948778 -0.129711 -0.571145 100.000000
0.947383 -0.141110 -0.570805 103.000000
0.945715 -0.152543 -0.570566 94.000000
0.944116 -0.163875 -0.570090 95.000000
0.942278 -0.175240 -0.569784 103.000000
0.940305 -0.186605 -0.569409 98.000000
0.942334 -0.198857 -0.571689 98.000000
0.944378 -0.211143 -0.573761 103.000000
0.962907 -0.227487 -0.586125 100.000000
0.964662 -0.240073 -0.588039 100.000000
0.961983 -0.251705 -0.587581 85.000000
0.971656 -0.266721 -0.594676 95.000000
0.968728 -0.278432 -0.594069 98.000000
0.965550 -0.290179 -0.593641 100.000000
0.966556 -0.303073 -0.595460 100.000000
0.959051 -0.313423 -0.592391 100.000000
0.963719 -0.327806 -0.596842 98.000000
0.956014 -0.338035 -0.593632 100.000000
0.952285 -0.349581 -0.592950 57.000000
0.964592 -0.367201 -0.602277 95.000000
0.960617 -0.378835 -0.601439 103.000000
0.968354 -0.395443 -0.608323 95.000000
0.956103 -0.403711 -0.602380 95.000000
0.951599 -0.415320 -0.601611 98.000000
0.950931 -0.428671 -0.603346 95.000000
0.950113 -0.442044 -0.604963 95.000000
0.949145 -0.455440 -0.606573 69.000000
0.951947 -0.470777 -0.610593 95.000000
0.954517 -0.486228 -0.614560 100.000000
0.949278 -0.497761 -0.613505 95.000000
0.943889 -0.509219 -0.612374 100.000000
0.949554 -0.527115 -0.618896 100.000000
0.943909 -0.538521 -0.617676 95.000000
0.941671 -0.552280 -0.619112 98.000000
0.931778 -0.561562 -0.615578 58.000000
0.918193 -0.568346 -0.609556 57.000000
0.915589 -0.581922 -0.610836 98.000000
0.916508 -0.597856 -0.614555 95.000000
0.902709 -0.604149 -0.608404 98.000000
0.932085 -0.639873 -0.631494 87.000000
0.953746 -0.671289 -0.649615 98.000000
0.960674 -0.693131 -0.657858 100.000000
0.991880 -0.733357 -0.682969 74.000000
1.032450 -0.782727 -0.715430 49.000000
1.020635 -0.792506 -0.711257 64.000000
1.025440 -0.816073 -0.719350 95.000000
1.026973 -0.836795 -0.724724 81.000000
1.034513 -0.863578 -0.735037 95.000000
1.435548 -1.348312 -1.056659 13.000000
1.471673 -1.414942 -1.091585 20.000000
1.490797 -1.467146 -1.114409 13.000000
1.499704 -1.510589 -1.130055 17.000000
1.486381 -1.532296 -1.129157 13.000000
1.481970 -1.563414 -1.135238 13.000000
1.501203 -1.620669 -1.159709 18.000000
1.483767 -1.639171 -1.156206 9.000000
1.472054 -1.664088 -1.157248 10.000000
1.477464 -1.708990 -1.171999 15.000000
1.458047 -1.727863 -1.168659 13.000000
1.473580 -1.786963 -1.192315 16.000000
1.457372 -1.808553 -1.190621 13.000000
1.450746 -1.844613 -1.198327 18.000000
1.436637 -1.869533 -1.198758 19.000000
1.426273 -1.902212 -1.204081 10.000000
1.419458 -1.937788 -1.211025 9.000000
1.405415 -1.966837 -1.213816 9.000000
1.395099 -1.998843 -1.218300 10.000000
1.390360 -2.042626 -1.229736 10.000000
1.379056 -2.074650 -1.233981 10.000000
1.370527 -2.114961 -1.242924 10.000000
1.362971 -2.154614 -1.251254 10.000000
1.362537 -2.210451 -1.268785 9.000000
1.337754 -2.228091 -1.264110 9.000000
1.331054 -2.276634 -1.276957 9.000000
0.502119 0.862404 -0.474501 10.000000
0.520889 0.871319 -0.484875 18.000000
0.497493 0.810696 -0.456347 10.000000
0.501675 0.796602 -0.453616 10.000000
0.509871 0.790351 -0.455370 22.000000
0.521059 0.787500 -0.459151 15.000000
0.526646 0.777308 -0.458686 24.000000
0.535288 0.770483 -0.460217 19.000000
0.562050 0.789170 -0.477213 23.000000
1.031938 1.381068 -0.856345 22.000000
1.059920 1.386090 -0.870502 22.000000
1.078150 1.375982 -0.875359 22.000000
1.103765 1.376557 -0.887328 29.000000
1.119134 1.362393 -0.889919 21.000000
1.147827 1.365662 -0.904114 28.000000
1.168043 1.358198 -0.911579 27.000000
1.195091 1.356596 -0.923189 14.000000
1.200526 1.331875 -0.919196 27.000000
1.220760 1.323591 -0.926539 27.000000
1.240947 1.314975 -0.933847 25.000000
1.267317 1.312345 -0.945784 33.000000
1.290781 1.306132 -0.955404 24.000000
1.320564 1.305731 -0.969628 28.000000
1.344185 1.298595 -0.979210 31.000000
1.371096 1.294069 -0.991092 15.000000
1.375318 1.268109 -0.986695 24.000000
1.392350 1.254027 -0.991486 22.000000
1.439161 1.265855 -1.017386 24.000000
1.463046 1.256668 -1.026886 30.000000
1.490299 1.249868 -1.038640 28.000000
1.516922 1.243007 -1.050845 22.000000
1.534078 1.226881 -1.055521 13.000000
1.546940 1.208302 -1.058175 9.000000
1.539288 1.173114 -1.046088 16.000000
1.548182 1.151759 -1.046189 13.000000
1.543198 1.119635 -1.036260 10.000000
1.576550 1.116046 -1.052936 21.000000
1.570450 1.084380 -1.043227 12.000000
1.560179 1.050571 -1.030998 13.000000
1.590349 1.043147 -1.044736 15.000000
1.575774 1.007232 -1.029840 10.000000
1.568076 0.976442 -1.019713 12.000000
1.559487 0.946293 -1.009858 10.000000
1.569731 0.927204 -1.011576 13.000000
1.598855 0.918875 -1.025380 16.000000
1.589838 0.888645 -1.014885 10.000000
1.599191 0.869429 -1.016794 13.000000
1.620373 0.855945 -1.025519 19.000000
1.598373 0.820467 -1.007745 10.000000
1.622715 0.808882 -1.019180 10.000000
1.611740 0.779781 -1.008561 10.000000
1.612260 0.756515 -1.005150 10.000000
1.628297 0.740585 -1.011445 18.000000
1.620398 0.713815 -1.002968 11.000000
1.636162 0.697539 -1.009082 14.000000
1.643776 0.677631 -1.010268 18.000000
1.630709 0.649805 -0.999397 10.000000
1.637921 0.629955 -1.000383 13.000000
1.636437 0.607208 -0.996658 12.000000
1.634705 0.584595 -0.992920 12.000000
1.645094 0.566231 -0.996442 17.000000
1.638859 0.542319 -0.990020 13.000000
1.665413 0.529024 -1.003380 20.000000
1.662593 0.506573 -0.999563 20.000000
1.676481 0.488869 -1.005286 14.000000
1.660783 0.462884 -0.993785 13.000000
1.640531 0.436227 -0.979701 18.000000
1.641000 0.415426 -0.977977 20.000000
1.653891 0.397701 -0.983699 22.000000
1.624219 0.370219 -0.964556 20.000000
1.560604 0.336028 -0.924977 27.000000
0.944930 0.168255 -0.557574 39.000000
0.963783 0.159734 -0.567897 84.000000
0.969779 0.148802 -0.570617 98.000000
0.962746 0.135956 -0.565933 98.000000
0.972689 0.125526 -0.571241 98.000000
0.965424 0.112850 -0.566414 100.000000
0.975217 0.102180 -0.571622 100.000000
0.976291 0.090473 -0.571726 100.000000
0.981497 0.079113 -0.574453 98.000000
0.965029 0.066172 -0.564546 89.000000
0.969990 0.054829 -0.567169 98.000000
0.970573 0.043190 -0.567238 98.000000
0.975335 0.031692 -0.569724 98.000000
0.971260 0.019947 -0.567341 100.000000
0.967080 0.008237 -0.564853 105.000000
0.971432 -0.003365 -0.567375 105.000000
0.971363 -0.015003 -0.567307 103.000000
0.966875 -0.026523 -0.564648 103.000000
0.970814 -0.038280 -0.567169 105.000000
0.974646 -0.050141 -0.569621 103.000000
0.952476 -0.060430 -0.556884 52.000000
0.977642 -0.073812 -0.571830 103.000000
0.972542 -0.085109 -0.569035 100.000000
0.971508 -0.096799 -0.568931 103.000000
0.974698 -0.108900 -0.571275 100.000000
0.960586 -0.119014 -0.563486 100.000000
0.963535 -0.131081 -0.565693 98.000000
0.957817 -0.141982 -0.562837 100.000000
0.960445 -0.154152 -0.565109 60.000000
0.954434 -0.164951 -0.562324 100.000000
0.965346 -0.178764 -0.569544 98.000000
0.954884 -0.188656 -0.564114 98.000000
0.978232 -0.205424 -0.578698 98.000000
0.975871 -0.217197 -0.578381 95.000000
0.973544 -0.228829 -0.577817 100.000000
0.979378 -0.242614 -0.582393 98.000000
0.972484 -0.253290 -0.579398 45.000000
0.973867 -0.266078 -0.581362 95.000000
0.983489 -0.281316 -0.588235 95.000000
0.976131 -0.291957 -0.585277 98.000000
0.972975 -0.303611 -0.584595 95.000000
0.965478 -0.313995 -0.581537 84.000000
0.966090 -0.326990 -0.583412 95.000000
0.966564 -0.340049 -0.585247 83.000000
0.958775 -0.350155 -0.582050 32.000000
0.975256 -0.369360 -0.593665 91.000000
0.967035 -0.379601 -0.590571 83.000000
0.975038 -0.396071 -0.597098 100.000000
0.966596 -0.406202 -0.593932 85.000000
0.966065 -0.419593 -0.595621 95.000000
0.961412 -0.431262 -0.594808 94.000000
0.960602 -0.444724 -0.596413 74.000000
0.955707 -0.456292 -0.595523 49.000000
0.970302 -0.477412 -0.606793 89.000000
0.969009 -0.491077 -0.608214 74.000000
0.967560 -0.504723 -0.609589 95.000000
0.961876 -0.516510 -0.608673 89.000000
0.956345 -0.528030 -0.607529 85.000000
0.958074 -0.543983 -0.611389 95.000000
0.951998 -0.555634 -0.610351 82.000000
0.945846 -0.567208 -0.609274 66.000000
0.965994 -0.594543 -0.624815 39.000000
0.989109 -0.624966 -0.642892 63.000000
1.000659 -0.648914 -0.653645 76.000000
1.011488 -0.673438 -0.664519 59.000000
1.051303 -0.717831 -0.694246 93.000000
1.054355 -0.738088 -0.699863 51.000000
1.049968 -0.753348 -0.700681 42.000000
1.055614 -0.776739 -0.708805 37.000000
1.078969 -0.813314 -0.728479 27.000000
1.052410 -0.813109 -0.715093 35.000000
1.074852 -0.850391 -0.734553 43.000000
1.322573 -1.123842 -0.921454 28.000000
1.393503 -1.212618 -0.977710 24.000000
1.439540 -1.282666 -1.017285 17.000000
1.494162 -1.362995 -1.063563 10.000000
1.521318 -1.420557 -1.090948 10.000000
1.518571 -1.451524 -1.097268 10.000000
1.528167 -1.494924 -1.112698 10.000000
1.530734 -1.532446 -1.123422 10.000000
1.517231 -1.554390 -1.122441 10.000000
1.512791 -1.585760 -1.128312 10.000000
1.498749 -1.607520 -1.127209 9.000000
1.496482 -1.642293 -1.135115 9.000000
1.508531 -1.693845 -1.154290 9.000000
1.501051 -1.726334 -1.160074 9.000000
1.491326 -1.754853 -1.163079 10.000000
1.484161 -1.786786 -1.168207 10.000000
1.480900 -1.826424 -1.178235 10.000000
1.458778 -1.840977 -1.171989 10.000000
1.457285 -1.884275 -1.183882 9.000000
1.453690 -1.923504 -1.193047 10.000000
1.453395 -1.970769 -1.206872 9.000000
1.440606 -1.999440 -1.209147 9.000000
1.423489 -2.025137 -1.209432 9.000000
1.411043 -2.058046 -1.214147 9.000000
1.397129 -2.086455 -1.216027 9.000000
1.391292 -2.130647 -1.226972 9.000000
1.395879 -2.189443 -1.245937 9.000000
1.383439 -2.226446 -1.252232 9.000000
1.375074 -2.271214 -1.262743 8.000000
1.363637 -2.312246 -1.270824 9.000000
0.502274 0.878478 -0.468179 19.000000
0.516529 0.879765 -0.474129 26.000000
0.512212 0.849755 -0.463190 22.000000
0.540621 0.873938 -0.481842 17.000000
0.508401 0.802336 -0.447519 25.000000
0.514750 0.791978 -0.446951 28.000000
0.505925 0.759072 -0.433491 30.000000
0.504124 0.737666 -0.426357 30.000000
0.527245 0.753638 -0.440927 43.000000
1.069917 1.388530 -0.854137 27.000000
1.081657 1.371911 -0.854914 29.000000
1.108191 1.372106 -0.866284 24.000000
1.131152 1.368863 -0.875797 32.000000
1.157104 1.368652 -0.887573 25.000000
1.169432 1.350558 -0.887851 29.000000
1.195545 1.349647 -0.899580 28.000000
1.212875 1.338262 -0.904586 12.000000
1.230894 1.326125 -0.909235 33.000000
1.241910 1.307809 -0.909703 26.000000
1.268339 1.305319 -0.921387 26.000000
1.301078 1.308722 -0.937653 35.000000
1.311925 1.289617 -0.937972 28.000000
1.332210 1.279651 -0.945110 30.000000
1.371962 1.287602 -0.965911 34.000000
1.389115 1.273695 -0.970718 13.000000
1.409513 1.262542 -0.977767 30.000000
1.433251 1.253956 -0.987074 30.000000
1.463730 1.250690 -1.001029 28.000000
1.501201 1.252492 -1.019530 35.000000
1.525234 1.242382 -1.028837 31.000000
1.545103 1.229603 -1.036125 26.000000
1.558577 1.210548 -1.038371 19.000000
1.571916 1.191289 -1.040481 10.000000
1.570295 1.161788 -1.033644 23.000000
1.575946 1.137262 -1.030981 17.000000
1.584422 1.115653 -1.030916 18.000000
1.596278 1.096495 -1.033193 23.000000
1.600608 1.072296 -1.030687 20.000000
1.605297 1.047608 -1.027629 19.000000
1.597934 1.016342 -1.017851 18.000000
1.601408 0.992349 -1.015011 9.000000
1.600819 0.966068 -1.009777 17.000000
1.611324 0.946613 -1.011528 16.000000
1.617302 0.925171 -1.011218 17.000000
1.619783 0.901232 -1.008058 18.000000
1.618050 0.875197 -1.002426 15.000000
1.631140 0.857867 -1.006677 19.000000
1.632812 0.833946 -1.003287 21.000000
1.618050 0.802613 -0.990520 10.000000
1.658185 0.798395 -1.011356 17.000000
1.658835 0.774693 -1.008070 18.000000
1.659150 0.751055 -1.004707 16.000000
1.659260 0.727545 -1.001203 21.000000
1.659102 0.704039 -0.997624 18.000000
1.650527 0.677344 -0.989121 13.000000
1.661999 0.659033 -0.992669 18.000000
1.652605 0.632874 -0.984320 10.000000
1.663438 0.614613 -0.987989 19.000000
1.666138 0.592953 -0.986421 20.000000
1.668312 0.571577 -0.985095 21.000000
1.670332 0.550116 -0.983641 23.000000
1.667672 0.527622 -0.980044 22.000000
1.681708 0.510084 -0.985793 26.000000
1.666370 0.483714 -0.974291 25.000000
1.679871 0.466125 -0.980164 14.000000
1.693177 0.448275 -0.985985 21.000000
1.706409 0.430101 -0.991691 26.000000
1.702562 0.407668 -0.987518 24.000000
1.706917 0.387242 -0.988131 26.000000
1.693941 0.363226 -0.979149 26.000000
1.685091 0.340297 -0.972191 29.000000
0.939879 0.155087 -0.539948 57.000000
0.971542 0.148457 -0.557620 100.000000
0.973163 0.136836 -0.557793 103.000000
0.978889 0.125769 -0.560538 103.000000
0.975853 0.113593 -0.558275 108.000000
0.972736 0.101452 -0.555977 98.000000
0.982491 0.090646 -0.561023 103.000000
0.979025 0.078591 -0.558758 100.000000
0.979784 0.066901 -0.558931 95.000000
0.976135 0.054966 -0.556595 100.000000
0.976685 0.043293 -0.556629 100.000000
0.977131 0.031654 -0.556629 100.000000
0.981715 0.020070 -0.559207 100.000000
0.977509 0.008308 -0.556767 98.000000
0.981888 -0.003345 -0.559241 98.000000
0.981819 -0.015070 -0.559172 103.000000
0.972959 -0.026558 -0.554087 90.000000
0.985609 -0.038655 -0.561508 100.000000
0.980784 -0.050210 -0.558965 98.000000
0.984535 -0.062174 -0.561300 98.000000
0.979474 -0.073591 -0.558655 98.000000
0.987341 -0.086001 -0.563320 95.000000
0.981972 -0.097366 -0.560746 98.000000
0.980863 -0.109108 -0.560573 98.000000
0.988247 -0.121845 -0.565267 98.000000
0.982610 -0.133037 -0.562485 95.000000
0.981044 -0.144796 -0.562311 100.000000
0.975183 -0.155799 -0.559429 98.000000
1.003433 -0.172601 -0.576395 95.000000
0.997225 -0.183773 -0.573576 95.000000
0.999470 -0.196523 -0.575609 100.000000
0.984401 -0.205812 -0.567983 100.000000
0.990684 -0.219397 -0.572367 100.000000
0.983989 -0.230280 -0.569521 98.000000
0.994096 -0.245162 -0.576456 100.000000
0.991370 -0.257031 -0.575954 95.000000
0.975953 -0.265432 -0.568070 75.000000
0.985633 -0.280626 -0.574770 100.000000
0.982442 -0.292495 -0.574340 95.000000
0.983345 -0.305551 -0.576280 98.000000
0.980068 -0.317219 -0.575488 95.000000
0.976575 -0.328958 -0.574875 91.000000
0.985306 -0.344956 -0.581527 100.000000
0.977261 -0.355351 -0.578585 95.000000
0.965232 -0.363925 -0.572967 66.000000
0.965380 -0.377039 -0.574563 95.000000
0.961149 -0.388647 -0.573912 95.000000
0.964884 -0.403597 -0.578026 98.000000
0.968435 -0.418668 -0.582127 98.000000
0.963801 -0.430289 -0.581318 95.000000
0.959094 -0.441873 -0.580473 98.000000
0.954240 -0.453346 -0.579553 78.000000
0.945373 -0.462854 -0.576233 75.000000
0.944275 -0.476109 -0.577641 100.000000
0.942838 -0.489605 -0.579189 98.000000
0.941432 -0.502900 -0.580507 98.000000
0.958940 -0.527020 -0.593928 98.000000
0.991326 -0.560239 -0.616753 98.000000
1.034900 -0.600728 -0.646340 95.000000
1.062283 -0.633511 -0.666526 64.000000
1.100404 -0.673932 -0.693693 35.000000
1.100443 -0.691856 -0.697078 61.000000
1.092926 -0.705135 -0.695683 58.000000
1.077514 -0.713678 -0.689804 72.000000
1.073430 -0.729078 -0.690677 67.000000
1.069204 -0.744477 -0.691496 57.000000
1.064789 -0.759873 -0.692214 73.000000
1.077663 -0.788593 -0.704863 62.000000
1.574110 -1.268445 -1.054347 11.000000
1.607951 -1.327182 -1.084207 10.000000
1.606881 -1.358295 -1.090831 16.000000
1.605344 -1.389523 -1.097337 10.000000
1.593426 -1.412018 -1.096929 13.000000
1.591182 -1.443413 -1.103215 10.000000
1.578672 -1.465825 -1.102544 9.000000
1.585321 -1.506504 -1.115494 17.000000
1.568988 -1.525759 -1.112422 10.000000
1.558754 -1.551157 -1.113794 10.000000
1.551438 -1.579592 -1.117317 14.000000
1.543690 -1.608105 -1.120725 11.000000
1.550954 -1.652918 -1.135288 18.000000
1.547344 -1.688828 -1.143359 10.000000
1.523323 -1.700908 -1.135313 9.000000
1.531753 -1.749693 -1.151626 18.000000
1.514947 -1.772345 -1.150592 12.000000
1.513406 -1.811335 -1.160015 16.000000
1.499985 -1.836592 -1.160478 14.000000
1.499055 -1.880043 -1.172272 10.000000
1.495807 -1.919454 -1.181291 16.000000
1.477069 -1.941858 -1.179753 9.000000
1.476883 -1.989319 -1.193222 9.000000
1.456154 -2.007195 -1.188858 13.000000
1.451994 -2.051354 -1.199994 10.000000
1.443504 -2.087433 -1.206221 10.000000
1.440568 -2.135674 -1.219130 9.000000
1.429340 -2.172745 -1.225525 10.000000
1.417520 -2.209869 -1.231757 10.000000
1.421228 -2.269185 -1.250158 9.000000
1.393796 -2.283441 -1.243451 9.000000
1.387054 -2.332379 -1.255658 10.000000
1.374797 -2.373660 -1.263464 9.000000
0.512135 0.888039 -0.463348 29.000000
0.514926 0.869694 -0.458898 26.000000
0.526808 0.866976 -0.462666 31.000000
0.516438 0.829641 -0.447840 16.000000
0.510860 0.800078 -0.436905 24.000000
0.517112 0.789775 -0.436370 30.000000
0.505554 0.753052 -0.421051 29.000000
0.513306 0.746887 -0.422638 50.000000
1.036105 1.368872 -0.813971 25.000000
1.067837 1.377175 -0.829415 26.000000
1.068133 1.346546 -0.821520 36.000000
1.108658 1.364488 -0.843425 31.000000
1.131578 1.361432 -0.852791 32.000000
1.152525 1.353955 -0.859602 32.000000
1.181519 1.356873 -0.873352 29.000000
1.205630 1.352045 -0.882362 29.000000
1.210815 1.327454 -0.878479 28.000000
1.224854 1.312683 -0.881165 32.000000
1.255057 1.313457 -0.894527 44.000000
1.278362 1.307809 -0.903831 36.000000
1.298642 1.298517 -0.910826 51.000000
1.325336 1.295203 -0.922302 52.000000
1.345640 1.285210 -0.929360 33.000000
1.366013 1.274869 -0.936316 34.000000
1.383027 1.261168 -0.941049 29.000000
1.399979 1.247259 -0.945666 28.000000
1.433694 1.247722 -0.961581 36.000000
1.460803 1.241722 -0.972972 39.000000
1.498253 1.243732 -0.991145 32.000000
1.518775 1.231003 -0.997959 36.000000
1.549623 1.226190 -1.011628 35.000000
1.562428 1.207694 -1.014203 32.000000
1.572158 1.185844 -1.014014 15.000000
1.592361 1.171778 -1.020697 18.000000
1.608325 1.155288 -1.025373 28.000000
1.610215 1.127914 -1.020436 24.000000
1.611127 1.101074 -1.015741 24.000000
1.626564 1.084129 -1.020203 26.000000
1.627529 1.056905 -1.015000 22.000000
1.638824 1.037256 -1.017005 24.000000
1.619783 0.998955 -1.000398 10.000000
1.641919 0.986235 -1.009228 15.000000
1.637356 0.957421 -1.001672 21.000000
1.659221 0.944209 -1.010391 23.000000
1.650181 0.913408 -1.000325 23.000000
1.640324 0.883331 -0.990543 23.000000
1.642163 0.859341 -0.987259 21.000000
1.643336 0.835732 -0.984344 22.000000
1.660492 0.819672 -0.990335 10.000000
1.681131 0.805582 -0.999023 18.000000
1.677731 0.779874 -0.993475 23.000000
1.670005 0.752515 -0.985474 18.000000
1.669999 0.728935 -0.982062 22.000000
1.677895 0.708846 -0.983389 24.000000
1.681531 0.687031 -0.982148 21.000000
1.672609 0.660344 -0.973759 21.000000
1.654897 0.631040 -0.960827 10.000000
1.682465 0.618699 -0.973682 22.000000
1.684862 0.597123 -0.972537 24.000000
1.695414 0.578419 -0.975985 26.000000
1.693236 0.555450 -0.972254 26.000000
1.699183 0.535192 -0.973183 28.000000
1.713406 0.517346 -0.978849 25.000000
1.706122 0.493334 -0.972764 23.000000
1.707334 0.471711 -0.971040 14.000000
1.716504 0.452486 -0.974370 22.000000
1.725574 0.433097 -0.977582 25.000000
1.721636 0.410497 -0.973506 24.000000
1.721802 0.388943 -0.971773 24.000000
1.738832 0.371147 -0.979502 31.000000
1.695457 0.340960 -0.953748 27.000000
1.677507 0.316768 -0.942329 30.000000
1.006078 0.165357 -0.563621 26.000000
0.986228 0.150049 -0.551735 103.000000
0.970430 0.135933 -0.542363 103.000000
0.976273 0.124901 -0.544922 103.000000
0.981888 0.113800 -0.547551 103.000000
0.978745 0.101658 -0.545300 105.000000
0.992769 0.091254 -0.552849 105.000000
0.989419 0.079077 -0.550493 103.000000
0.981457 0.066742 -0.545815 91.000000
0.986474 0.055314 -0.548344 100.000000
0.978291 0.043203 -0.543525 105.000000
0.983139 0.031723 -0.545952 103.000000
0.983379 0.020050 -0.546055 103.000000
0.987888 0.008380 -0.548551 103.000000
0.987922 -0.003345 -0.548551 100.000000
0.983482 -0.015003 -0.546055 98.000000
0.987681 -0.026829 -0.548344 98.000000
0.991670 -0.038725 -0.550735 100.000000
0.991185 -0.050501 -0.550666 103.000000
0.994925 -0.062552 -0.552988 95.000000
0.998590 -0.074672 -0.555203 98.000000
0.988968 -0.085797 -0.550285 103.000000
0.988033 -0.097539 -0.549973 100.000000
0.986925 -0.109281 -0.549800 100.000000
0.994362 -0.122055 -0.554400 98.000000
0.992930 -0.133900 -0.554260 100.000000
0.991462 -0.145676 -0.553910 100.000000
1.015718 -0.161613 -0.568172 82.000000
1.005260 -0.172183 -0.563052 98.000000
1.016259 -0.186500 -0.569942 100.000000
1.018504 -0.199405 -0.571923 98.000000
1.012046 -0.210591 -0.569042 100.000000
1.013947 -0.223598 -0.571091 98.000000
1.007148 -0.234682 -0.568286 98.000000
1.000299 -0.245628 -0.565447 100.000000
0.997574 -0.257497 -0.564945 52.000000
0.986311 -0.267038 -0.559568 98.000000
0.987473 -0.280039 -0.561577 98.000000
0.992888 -0.294244 -0.565693 100.000000
0.989575 -0.306091 -0.565189 100.000000
0.982011 -0.316520 -0.562220 98.000000
0.986825 -0.331039 -0.566390 100.000000
0.987357 -0.344202 -0.568126 98.000000
0.983617 -0.355932 -0.567400 44.000000
0.979586 -0.367735 -0.566819 95.000000
0.979726 -0.380950 -0.568398 100.000000
0.975460 -0.392693 -0.567705 95.000000
0.979210 -0.407747 -0.571757 100.000000
0.974723 -0.419441 -0.570985 98.000000
0.974115 -0.432887 -0.572542 95.000000
0.969388 -0.444481 -0.571692 98.000000
0.976508 -0.461693 -0.577882 83.000000
0.979429 -0.477183 -0.581620 95.000000
0.997701 -0.500896 -0.594938 98.000000
1.051169 -0.543107 -0.629066 98.000000
1.080171 -0.574449 -0.649219 98.000000
1.097307 -0.599933 -0.661943 95.000000
1.098365 -0.617480 -0.665533 98.000000
1.122222 -0.648359 -0.683008 84.000000
1.118874 -0.664075 -0.684083 67.000000
1.115388 -0.679793 -0.685149 79.000000
1.111716 -0.695511 -0.686117 70.000000
1.111634 -0.713625 -0.689343 85.000000
1.103540 -0.727175 -0.688161 79.000000
1.099351 -0.742846 -0.688965 98.000000
1.109617 -0.768582 -0.698909 100.000000
1.608635 -1.229769 -1.037177 21.000000
1.613116 -1.262585 -1.045837 21.000000
1.637389 -1.312829 -1.068403 18.000000
1.629835 -1.338324 -1.070486 19.000000
1.625355 -1.366713 -1.074661 17.000000
1.623852 -1.398047 -1.080981 17.000000
1.618598 -1.426610 -1.085011 18.000000
1.613004 -1.455197 -1.088932 10.000000
1.597209 -1.474626 -1.085966 13.000000
1.603890 -1.515499 -1.098673 17.000000
1.600447 -1.547286 -1.104478 16.000000
1.599696 -1.582385 -1.112372 20.000000
1.576309 -1.595230 -1.104736 15.000000
1.574811 -1.630369 -1.112470 19.000000
1.559477 -1.653209 -1.111662 16.000000
1.578360 -1.711702 -1.134548 10.000000
1.563114 -1.734012 -1.133174 15.000000
1.564452 -1.777064 -1.145167 18.000000
1.548609 -1.799259 -1.143565 20.000000
1.534226 -1.825460 -1.144515 23.000000
1.532198 -1.864777 -1.153577 14.000000
1.516950 -1.890922 -1.154366 20.000000
1.511060 -1.926889 -1.161062 17.000000
1.497885 -1.956515 -1.163747 10.000000
1.492348 -1.996971 -1.172691 10.000000
1.476838 -2.022193 -1.172644 10.000000
1.480693 -2.077488 -1.189898 12.000000
1.460259 -2.099767 -1.187880 13.000000
1.463991 -2.154865 -1.204387 10.000000
1.432728 -2.161812 -1.193824 10.000000
1.431149 -2.214029 -1.208304 10.000000
1.438253 -2.282113 -1.230862 10.000000
1.412432 -2.295427 -1.223818 9.000000
1.408227 -2.348390 -1.237747 10.000000
1.400674 -2.397677 -1.249483 10.000000
0.521139 0.920073 -0.464637 24.000000
0.523590 0.901862 -0.460516 19.000000
0.526451 0.883369 -0.456139 24.000000
0.533716 0.872778 -0.455820 24.000000
0.531126 0.846680 -0.447283 18.000000
0.525545 0.816951 -0.436589 18.000000
0.531941 0.806484 -0.436092 27.000000
0.530569 0.784666 -0.429355 32.000000
0.569672 0.823187 -0.455872 38.000000
0.984325 1.322145 -0.759721 29.000000
1.025500 1.346388 -0.783439 18.000000
1.054300 1.351343 -0.796421 34.000000
1.079621 1.352819 -0.807646 29.000000
1.100273 1.346250 -0.814395 32.000000
1.126832 1.346360 -0.825305 32.000000
1.158505 1.353353 -0.840833 31.000000
1.182471 1.349059 -0.849658 37.000000
1.202674 1.341487 -0.856679 27.000000
1.219849 1.330261 -0.861511 19.000000
1.234680 1.315002 -0.863831 37.000000
1.254778 1.306610 -0.870787 34.000000
1.278108 1.301035 -0.879881 52.000000
1.299076 1.291375 -0.886462 36.000000
1.316089 1.278798 -0.891130 32.000000
1.349278 1.281432 -0.906762 43.000000
1.366278 1.268126 -0.911422 29.000000
1.373243 1.245504 -0.909424 24.000000
1.406747 1.246719 -0.925002 35.000000
1.427016 1.235454 -0.931794 30.000000
1.460906 1.235470 -0.947354 36.000000
1.484621 1.226237 -0.956306 35.000000
1.522325 1.227862 -0.974141 33.000000
1.514642 1.192721 -0.962937 35.000000
1.570198 1.207002 -0.991910 30.000000
1.583379 1.187872 -0.994006 24.000000
1.613828 1.182207 -1.007686 26.000000
1.634079 1.167709 -1.014175 27.000000
1.635462 1.140554 -1.009733 29.000000
1.633265 1.110542 -1.002523 24.000000
1.637667 1.086148 -1.000217 22.000000
1.630543 1.054407 -0.990939 29.000000
1.646018 1.036888 -0.994812 16.000000
1.638127 1.005513 -0.985342 10.000000
1.664206 0.994998 -0.996328 22.000000
1.651868 0.961555 -0.984389 18.000000
1.658434 0.939485 -0.983801 24.000000
1.680249 0.926016 -0.992329 21.000000
1.659032 0.889005 -0.975505 19.000000
1.676218 0.873438 -0.981992 24.000000
1.654116 0.837199 -0.964890 12.000000
1.678831 0.825378 -0.975798 10.000000
1.707974 0.814633 -0.988662 22.000000
1.708599 0.790585 -0.985523 21.000000
1.700869 0.762973 -0.977725 19.000000
1.704968 0.740909 -0.976813 19.000000
1.692523 0.711951 -0.966451 21.000000
1.696152 0.690021 -0.965322 23.000000
1.695376 0.666508 -0.961727 17.000000
1.710934 0.649339 -0.967470 10.000000
1.705309 0.624502 -0.961713 20.000000
1.707979 0.602588 -0.960312 20.000000
1.718542 0.583676 -0.963783 24.000000
1.720554 0.561861 -0.962439 24.000000
1.730833 0.542724 -0.965790 29.000000
1.736666 0.522091 -0.966605 29.000000
1.729343 0.497922 -0.960732 19.000000
1.722004 0.473744 -0.954348 10.000000
1.739802 0.456709 -0.962351 24.000000
1.740320 0.435033 -0.960800 21.000000
1.749265 0.415371 -0.963907 29.000000
1.745089 0.392643 -0.959864 24.000000
1.757919 0.373722 -0.965153 29.000000
1.753390 0.351075 -0.960855 32.000000
1.709441 0.321371 -0.935485 21.000000
0.992212 0.150328 -0.540846 80.000000
0.989384 0.137996 -0.538786 100.000000
0.986508 0.125697 -0.536550 103.000000
1.000932 0.115520 -0.543882 105.000000
0.993367 0.102769 -0.539305 103.000000
0.994372 0.091027 -0.539617 103.000000
0.995342 0.079250 -0.539652 98.000000
0.991716 0.067177 -0.537447 95.000000
0.992371 0.055417 -0.537550 100.000000
0.988564 0.043499 -0.535240 100.000000
0.984614 0.031650 -0.532861 100.000000
0.984854 0.019995 -0.532964 103.000000
0.993785 0.008414 -0.537757 98.000000
0.993819 -0.003345 -0.537757 100.000000
0.998147 -0.015171 -0.540067 100.000000
1.002371 -0.027101 -0.542307 98.000000
0.993199 -0.038589 -0.537550 98.000000
1.001501 -0.050793 -0.542238 100.000000
1.005264 -0.062932 -0.544476 95.000000
1.004566 -0.074812 -0.544301 100.000000
1.003657 -0.086693 -0.544231 95.000000
1.007092 -0.098969 -0.546292 100.000000
1.001595 -0.110419 -0.543707 95.000000
1.000372 -0.122264 -0.543463 100.000000
1.003267 -0.134695 -0.545695 100.000000
1.023571 -0.149744 -0.557200 95.000000
1.030583 -0.163241 -0.561689 95.000000
1.037420 -0.176909 -0.566101 98.000000
1.035450 -0.189162 -0.565736 98.000000
1.033372 -0.201416 -0.565298 98.000000
1.035388 -0.214563 -0.567371 100.000000
1.028667 -0.225886 -0.564642 100.000000
1.034701 -0.240095 -0.568962 100.000000
1.027771 -0.251294 -0.566162 98.000000
1.020753 -0.262354 -0.563293 76.000000
1.005096 -0.270981 -0.555646 95.000000
0.997789 -0.281738 -0.552861 95.000000
1.003243 -0.295997 -0.556915 103.000000
0.999916 -0.307895 -0.556373 95.000000
1.004926 -0.322455 -0.560521 100.000000
1.005579 -0.335742 -0.562207 100.000000
1.006091 -0.349093 -0.563888 95.000000
0.997961 -0.359619 -0.560998 95.000000
0.998222 -0.372959 -0.562564 95.000000
0.989941 -0.383240 -0.559607 95.000000
0.997977 -0.399970 -0.565935 100.000000
0.989476 -0.410177 -0.562867 95.000000
0.997144 -0.427150 -0.569060 98.000000
1.053235 -0.465878 -0.603027 100.000000
1.108627 -0.505974 -0.636852 105.000000
1.131210 -0.532321 -0.652030 103.000000
1.125186 -0.545919 -0.651170 70.000000
1.127272 -0.563181 -0.654618 98.000000
1.128839 -0.580763 -0.658268 95.000000
1.122686 -0.594030 -0.657002 98.000000
1.127804 -0.613843 -0.662836 95.000000
1.136528 -0.636020 -0.670847 91.000000
1.133364 -0.651783 -0.671970 95.000000
1.133893 -0.669857 -0.675277 92.000000
1.134188 -0.687979 -0.678521 35.000000
1.126685 -0.701484 -0.677202 95.000000
1.118773 -0.715171 -0.676066 84.000000
1.189338 -0.779782 -0.722150 98.000000
1.513443 -1.069479 -0.933459 41.000000
1.584756 -1.148066 -0.983188 26.000000
1.630038 -1.209332 -1.016540 18.000000
1.673572 -1.272391 -1.050142 16.000000
1.666577 -1.298043 -1.052234 18.000000
1.666247 -1.329380 -1.058754 22.000000
1.651648 -1.349427 -1.056212 17.000000
1.640270 -1.372205 -1.055884 16.000000
1.638832 -1.403602 -1.062096 17.000000
1.637067 -1.435181 -1.068190 14.000000
1.644855 -1.475865 -1.080754 15.000000
1.632100 -1.498649 -1.080092 15.000000
1.635592 -1.536685 -1.090192 20.000000
1.628727 -1.565686 -1.093682 21.000000
1.618297 -1.591457 -1.094886 18.000000
1.597126 -1.608255 -1.089874 18.000000
1.605062 -1.653249 -1.103933 17.000000
1.593575 -1.678976 -1.104888 10.000000
1.605406 -1.731815 -1.123314 16.000000
1.571879 -1.734228 -1.109018 10.000000
1.580453 -1.783418 -1.124668 17.000000
1.569394 -1.813222 -1.127754 22.000000
1.550308 -1.831903 -1.124034 14.000000
1.544280 -1.868533 -1.131209 18.000000
1.546244 -1.915861 -1.144562 16.000000
1.526193 -1.934255 -1.140502 12.000000
1.532445 -1.989116 -1.157793 13.000000
1.508954 -2.003712 -1.151488 9.000000
1.511043 -2.055299 -1.166410 10.000000
1.496232 -2.085137 -1.168689 11.000000
1.488840 -2.126106 -1.177121 10.000000
1.479790 -2.162567 -1.182796 11.000000
1.471206 -2.203750 -1.190972 10.000000
1.464437 -2.248784 -1.200925 10.000000
1.449558 -2.282419 -1.204668 10.000000
1.446193 -2.335459 -1.218489 9.000000
1.439424 -2.384853 -1.230062 10.000000
1.413126 -2.402881 -1.225415 10.000000
1.411395 -2.459433 -1.240248 10.000000
0.552111 0.943052 -0.471017 10.000000
0.543449 0.904614 -0.456905 16.000000
0.543688 0.882157 -0.450648 13.000000
0.541035 0.855964 -0.442297 10.000000
0.540381 0.833816 -0.435848 18.000000
0.528623 0.796825 -0.421438 10.000000
0.555326 0.816658 -0.437102 21.000000
0.948267 1.296367 -0.719565 27.000000
1.021686 1.365292 -0.767335 22.000000
1.056098 1.377881 -0.784254 10.000000
1.057156 1.346832 -0.776429 23.000000
1.085341 1.351894 -0.789487 24.000000
1.114662 1.355971 -0.802321 21.000000
1.123770 1.335117 -0.800566 29.000000
1.164380 1.352617 -0.822028 22.000000
1.179312 1.338164 -0.824367 21.000000
1.199417 1.330750 -0.831274 21.000000
1.204962 1.305869 -0.827234 15.000000
1.234264 1.307866 -0.840390 29.000000
1.251949 1.295796 -0.844693 28.000000
1.271973 1.287231 -0.851501 24.000000
1.292073 1.278271 -0.858213 31.000000
1.312864 1.268541 -0.864640 26.000000
1.349346 1.274404 -0.882067 27.000000
1.376220 1.270406 -0.893058 30.000000
1.386422 1.250793 -0.893307 10.000000
1.399878 1.234116 -0.895644 31.000000
1.437038 1.237767 -0.913100 32.000000
1.460735 1.229119 -0.921871 25.000000
1.487903 1.222885 -0.932789 34.000000
1.504668 1.207741 -0.937194 28.000000
1.538988 1.206180 -0.952492 26.000000
1.577107 1.206638 -0.969910 30.000000
1.597454 1.192925 -0.976399 17.000000
1.610462 1.173549 -0.978431 24.000000
1.644722 1.170113 -0.994057 23.000000
1.635461 1.134796 -0.982700 13.000000
1.654874 1.120444 -0.989304 21.000000
1.663522 1.097901 -0.988919 16.000000
1.660075 1.068383 -0.982116 11.000000
1.671919 1.048263 -0.983731 16.000000
1.641173 1.002695 -0.961096 9.000000
1.682600 1.001366 -0.980848 14.000000
1.693360 0.981316 -0.982586 19.000000
1.680578 0.947900 -0.970840 10.000000
