x y z intensity
3.020493 -1.076126 0.529831 9.000000
2.985546 -1.100720 0.525066 9.000000
3.010221 -1.147353 0.530881 9.000000
2.960941 -1.165775 0.523688 9.000000
3.012137 -1.224162 0.534251 7.000000
3.025965 -1.268488 0.538303 4.000000
3.003005 -1.297653 0.535875 3.000000
2.984030 -1.328727 0.534461 3.000000
2.929114 -1.342847 0.526298 5.000000
2.901077 -1.368416 0.522987 5.000000
2.921421 -1.417688 0.528721 7.000000
2.857280 -1.425284 0.518994 8.000000
2.859350 -1.465386 0.521209 8.000000
2.834324 -1.492375 0.518816 9.000000
2.822426 -1.525520 0.518623 9.000000
2.801150 -1.554368 0.517033 8.000000
2.780025 -1.582328 0.515149 9.000000
2.779476 -1.623036 0.517533 9.000000
2.774575 -1.660787 0.518815 9.000000
2.747769 -1.686306 0.516234 9.000000
2.771234 -1.742378 0.523027 9.000000
2.735308 -1.762334 0.518866 9.000000
2.728164 -1.800762 0.520218 8.000000
2.712760 -1.833022 0.519790 8.000000
2.720853 -1.882739 0.524255 9.000000
2.692447 -1.906373 0.521365 9.000000
2.687344 -1.947832 0.523359 10.000000
2.665708 -1.977466 0.522231 9.000000
2.628742 -1.994337 0.517798 8.000000
2.524678 -1.959777 0.500434 16.000000
2.421719 -1.923200 0.483045 10.000000
2.355059 -1.911911 0.472473 9.000000
2.246460 -1.865362 0.453693 11.000000
2.146719 -1.822998 0.436441 10.000000
2.078041 -1.804623 0.425467 16.000000
1.977433 -1.754734 0.407438 12.000000
1.925146 -1.746725 0.399540 11.000000
1.847832 -1.714215 0.386375 17.000000
1.796646 -1.704070 0.378487 14.000000
1.753679 -1.699105 0.372068 10.000000
1.727886 -1.711520 0.369511 30.000000
1.677779 -1.698931 0.361719 27.000000
1.665929 -1.724615 0.362107 34.000000
1.651047 -1.745895 0.361667 47.000000
1.635198 -1.767693 0.361297 30.000000
1.629000 -1.800418 0.363140 35.000000
1.605943 -1.814621 0.361279 28.000000
1.628057 -1.880954 0.369713 20.000000
1.576357 -1.860410 0.361084 24.000000
1.574832 -1.900564 0.364260 21.000000
1.550855 -1.914081 0.362314 28.000000
1.542094 -1.946690 0.363999 23.000000
1.535946 -1.983176 0.366387 19.000000
1.529063 -2.019766 0.368672 30.000000
1.502156 -2.027907 0.365831 17.000000
1.520524 -2.100525 0.374514 18.000000
1.477492 -2.088953 0.368170 16.000000
1.474310 -2.133707 0.371796 16.000000
1.450883 -2.149938 0.370436 21.000000
1.460063 -2.215449 0.377447 18.000000
1.441048 -2.239888 0.377460 18.000000
1.420533 -2.259020 0.376517 20.000000
1.416494 -2.308407 0.380603 16.000000
1.401378 -2.341010 0.381873 16.000000
1.408193 -2.411992 0.389333 6.000000
0.787793 1.372998 0.232812 7.000000
0.795257 1.351323 0.231597 14.000000
0.822737 1.363547 0.236184 15.000000
0.829821 1.341692 0.234957 19.000000
0.847070 1.336523 0.236621 21.000000
0.869748 1.339443 0.239825 24.000000
0.875342 1.317822 0.238574 21.000000
0.900818 1.324358 0.242496 21.000000
0.926554 1.330498 0.246440 21.000000
0.926723 1.300014 0.243620 13.000000
0.940868 1.289615 0.244507 20.000000
0.960827 1.286987 0.246914 23.000000
0.980162 1.284579 0.249431 18.000000
0.988102 1.265812 0.248798 25.000000
1.011136 1.266335 0.251946 21.000000
1.034325 1.266503 0.255159 26.000000
1.041780 1.247304 0.254471 25.000000
1.051576 1.232402 0.254648 12.000000
1.074780 1.231805 0.257836 32.000000
1.094790 1.227155 0.260207 30.000000
1.104826 1.211210 0.260236 26.000000
1.127640 1.210142 0.263559 32.000000
1.154450 1.211815 0.267534 29.000000
1.181470 1.213030 0.271475 32.000000
1.208644 1.213833 0.275488 30.000000
1.217937 1.197294 0.275592 11.000000
1.209683 1.163095 0.271591 32.000000
1.236775 1.163079 0.275574 36.000000
1.271271 1.169266 0.281128 32.000000
1.301945 1.171994 0.286065 45.000000
1.314783 1.157423 0.286823 32.000000
1.338621 1.152345 0.290012 38.000000
1.358405 1.144171 0.292456 34.000000
1.378545 1.135227 0.294854 19.000000
1.394760 1.122854 0.296389 35.000000
1.414475 1.113780 0.298857 32.000000
1.446159 1.112947 0.303685 33.000000
1.458354 1.096800 0.304362 33.000000
1.473957 1.083800 0.305978 31.000000
1.497860 1.075901 0.309137 37.000000
1.517402 1.065245 0.311593 36.000000
1.541191 1.056627 0.314715 15.000000
1.565048 1.047621 0.317906 32.000000
1.592745 1.041274 0.322000 33.000000
1.604112 1.023487 0.322589 34.000000
1.623376 1.011147 0.325031 38.000000
1.663875 1.010946 0.331497 31.000000
1.695862 1.005310 0.336426 36.000000
1.728184 0.998657 0.341249 43.000000
1.725994 0.972490 0.339457 17.000000
1.792702 0.984055 0.351005 55.000000
1.807559 0.966748 0.352549 52.000000
1.831015 0.953708 0.355795 35.000000
1.854621 0.939996 0.358921 57.000000
1.917690 0.945799 0.369790 36.000000
1.932198 0.926871 0.371306 31.000000
1.964478 0.916040 0.376245 33.000000
1.969927 0.892121 0.375859 19.000000
2.047143 0.900227 0.389325 35.000000
2.070363 0.883513 0.392525 47.000000
2.102531 0.870198 0.397454 36.000000
2.130121 0.854338 0.401464 52.000000
2.185201 0.848776 0.410660 51.000000
2.203500 0.828200 0.412969 35.000000
2.240169 0.814003 0.418744 52.000000
2.239591 0.786074 0.417528 26.000000
2.299202 0.778963 0.427659 56.000000
2.330956 0.761256 0.432528 55.000000
2.386056 0.750342 0.441678 52.000000
2.436454 0.737050 0.450056 52.000000
2.444343 0.710149 0.450529 22.000000
2.513489 0.700510 0.462343 30.000000
2.573250 0.686899 0.472516 36.000000
2.647293 0.675712 0.485252 27.000000
2.687971 0.654735 0.491801 42.000000
2.723689 0.631824 0.497485 38.000000
2.764011 0.609341 0.504055 10.000000
2.837960 0.592990 0.516687 11.000000
2.926343 0.578112 0.532062 87.000000
2.956548 0.550437 0.536918 94.000000
2.957573 0.517145 0.536412 88.000000
2.933827 0.479801 0.531412 48.000000
2.914476 0.443931 0.527470 88.000000
2.899644 0.409190 0.524220 89.000000
2.884389 0.374786 0.520967 50.000000
2.854146 0.338979 0.515063 10.000000
2.813583 0.302872 0.507389 10.000000
2.806857 0.271042 0.505799 9.000000
2.799848 0.239340 0.504208 10.000000
2.772842 0.206392 0.499082 8.000000
2.784734 0.176582 0.501022 10.000000
2.771720 0.145182 0.498543 10.000000
2.763350 0.114311 0.496775 10.000000
2.774216 0.084338 0.498629 39.000000
2.765150 0.053596 0.496947 89.000000
2.750816 0.023115 0.494379 92.000000
2.745981 -0.007067 0.493495 84.000000
2.745725 -0.037208 0.493495 80.000000
2.735290 -0.067108 0.491726 71.000000
2.734442 -0.097140 0.491641 91.000000
2.718421 -0.126487 0.488988 73.000000
2.716903 -0.156274 0.488820 85.000000
2.705227 -0.185471 0.487052 76.000000
2.614738 -0.208122 0.470978 9.000000
2.602496 -0.235942 0.469049 13.000000
2.585134 -0.263049 0.466238 10.000000
2.630976 -0.296846 0.474904 37.000000
2.617842 -0.324531 0.472975 87.000000
2.614161 -0.353320 0.472729 95.000000
2.595545 -0.379808 0.469840 90.000000
2.610763 -0.411337 0.473120 62.000000
2.552708 -0.430923 0.463107 9.000000
2.770712 -0.499069 0.503345 10.000000
3.021336 -0.578499 0.549603 9.000000
3.116248 -0.632141 0.567576 9.000000
3.133215 -0.671503 0.571572 9.000000
3.106560 -0.701535 0.567665 9.000000
3.098760 -0.735595 0.567270 10.000000
3.095343 -0.770746 0.567653 9.000000
3.086840 -0.804661 0.567059 9.000000
3.087440 -0.840965 0.568214 10.000000
3.063910 -0.870650 0.565000 10.000000
3.044794 -0.901618 0.562761 10.000000
3.034854 -0.934785 0.562072 10.000000
3.033898 -0.971152 0.563321 10.000000
3.027810 -1.005974 0.563599 12.000000
2.984245 -1.027775 0.556728 9.000000
2.972900 -1.060443 0.556043 8.000000
2.988880 -1.103343 0.560557 10.000000
2.972136 -1.134265 0.559001 10.000000
2.987106 -1.177731 0.563397 10.000000
2.992419 -1.217788 0.566052 8.000000
2.947218 -1.237275 0.559220 10.000000
2.933651 -1.269460 0.558428 14.000000
2.897293 -1.291518 0.553241 9.000000
2.909706 -1.335884 0.557701 8.000000
2.868402 -1.355096 0.551669 10.000000
2.902305 -1.410125 0.560092 10.000000
2.856061 -1.426399 0.553217 11.000000
2.844524 -1.460290 0.553179 10.000000
2.815506 -1.484392 0.549636 9.000000
2.816673 -1.524429 0.552048 10.000000
2.795406 -1.553278 0.550307 9.000000
2.787034 -1.588561 0.550910 7.000000
2.790723 -1.631892 0.554141 10.000000
2.777132 -1.664856 0.553883 10.000000
2.741890 -1.685309 0.549514 10.000000
2.736069 -1.722981 0.550837 9.000000
2.708667 -1.747965 0.548160 9.000000
2.718496 -1.796327 0.552716 10.000000
2.702709 -1.829248 0.552441 9.000000
2.690509 -1.864866 0.552996 8.000000
2.698498 -1.914013 0.557494 10.000000
2.665232 -1.935218 0.553881 9.000000
2.640378 -1.961124 0.551627 10.000000
2.618700 -1.990436 0.550405 9.000000
2.538220 -1.974027 0.536833 18.000000
2.447443 -1.946230 0.520562 24.000000
2.360823 -1.920499 0.505474 21.000000
2.225792 -1.852020 0.479732 9.000000
2.157054 -1.834390 0.467794 23.000000
2.077174 -1.806501 0.453562 19.000000
2.001865 -1.780393 0.440293 22.000000
1.935419 -1.758714 0.428458 28.000000
1.876164 -1.743199 0.418456 22.000000
1.817563 -1.726561 0.408425 26.000000
1.738309 -1.688262 0.393708 25.000000
1.695802 -1.682508 0.386840 21.000000
1.684196 -1.708371 0.387326 57.000000
1.661859 -1.723431 0.385419 56.000000
1.646301 -1.745376 0.385101 52.000000
1.631185 -1.766505 0.384556 59.000000
1.618335 -1.791891 0.384941 35.000000
1.605100 -1.817200 0.385317 40.000000
1.585096 -1.834882 0.384118 33.000000
1.569031 -1.855435 0.383474 17.000000
1.567496 -1.895616 0.386935 31.000000
1.562204 -1.932147 0.389515 29.000000
1.553198 -1.964841 0.391297 32.000000
1.534635 -1.985925 0.390674 32.000000
1.513939 -2.002048 0.389201 28.000000
1.509546 -2.042557 0.392386 31.000000
1.498687 -2.075288 0.394017 26.000000
1.484472 -2.103922 0.394868 13.000000
1.458612 -2.116229 0.392682 26.000000
1.451926 -2.156860 0.395768 24.000000
1.437686 -2.184498 0.396330 27.000000
1.424402 -2.216957 0.397863 26.000000
1.413219 -2.253597 0.400036 23.000000
1.403994 -2.294502 0.402920 26.000000
1.383912 -2.318517 0.402818 21.000000
1.390847 -2.389329 0.410703 9.000000
0.780928 1.363058 0.245381 8.000000
0.799902 1.363281 0.248047 13.000000
0.812200 1.350016 0.248245 25.000000
0.824356 1.336662 0.248486 21.000000
0.846877 1.339867 0.251859 26.000000
0.861522 1.330316 0.252838 26.000000
0.876020 1.320618 0.253818 21.000000
0.897951 1.323517 0.257278 31.000000
0.912387 1.313432 0.258267 23.000000
0.921004 1.295105 0.257606 15.000000
0.938058 1.288727 0.259392 26.000000
0.958000 1.286144 0.261940 27.000000
0.977318 1.283731 0.264600 30.000000
0.988307 1.268861 0.264736 25.000000
1.017506 1.277059 0.269705 29.000000
1.028329 1.261771 0.269847 35.000000
1.041472 1.250743 0.270854 24.000000
1.042328 1.224042 0.268467 24.000000
1.068663 1.227177 0.272667 30.000000
1.095173 1.229923 0.276838 32.000000
1.108067 1.218099 0.277807 34.000000
1.118011 1.202054 0.277839 33.000000
1.144759 1.203792 0.282050 34.000000
1.181975 1.215674 0.288801 36.000000
1.208676 1.216853 0.293115 30.000000
1.193860 1.175598 0.287207 31.000000
1.210275 1.165579 0.288884 35.000000
1.226192 1.155847 0.290671 64.000000
1.275044 1.175464 0.299976 64.000000
1.298911 1.171019 0.303345 42.000000
1.319139 1.162963 0.305871 55.000000
1.331450 1.148582 0.306797 37.000000
1.351509 1.140007 0.309283 35.000000
1.371212 1.131485 0.311942 27.000000
1.395104 1.125392 0.315256 33.000000
1.407434 1.109729 0.316034 35.000000
1.430962 1.103363 0.319535 46.000000
1.450865 1.093217 0.322008 30.000000
1.470447 1.083178 0.324602 36.000000
1.502313 1.081023 0.329666 36.000000
1.518159 1.067043 0.331290 33.000000
1.553892 1.067136 0.337381 28.000000
1.557347 1.044239 0.336317 40.000000
1.580859 1.035234 0.339727 34.000000
1.608753 1.028079 0.343976 65.000000
1.619765 1.010436 0.344745 33.000000
1.668362 1.015701 0.353530 50.000000
1.692139 1.004517 0.356812 42.000000
1.711395 0.990892 0.359393 29.000000
1.735105 0.979005 0.362693 32.000000
1.775719 0.976501 0.369653 34.000000
1.803496 0.966240 0.374004 47.000000
1.831476 0.955215 0.378177 58.000000
1.854885 0.941707 0.381588 36.000000
1.895816 0.936557 0.388625 43.000000
1.923584 0.924210 0.392902 35.000000
1.946882 0.909194 0.396285 29.000000
1.997051 0.905801 0.404991 31.000000
2.042709 0.899604 0.412948 37.000000
2.065969 0.882885 0.416304 30.000000
2.102632 0.871445 0.422406 41.000000
2.125713 0.853769 0.425782 40.000000
2.153139 0.837431 0.430011 35.000000
2.194232 0.825958 0.437143 45.000000
2.221586 0.808517 0.441323 28.000000
2.262704 0.795338 0.448341 40.000000
2.299042 0.780016 0.454456 60.000000
2.330763 0.762251 0.459589 63.000000
2.385782 0.751275 0.469343 52.000000
2.431405 0.736498 0.477272 57.000000
2.420343 0.704263 0.474127 9.000000
2.460986 0.686896 0.481152 9.000000
2.529993 0.676335 0.493669 9.000000
2.599032 0.664254 0.506210 28.000000
2.653845 0.647321 0.515990 47.000000
2.713357 0.630279 0.526631 35.000000
2.767991 0.611108 0.536447 10.000000
2.841735 0.594643 0.549824 16.000000
2.901057 0.573928 0.560517 62.000000
2.945752 0.549164 0.568431 95.000000
2.941846 0.515078 0.566938 63.000000
2.918142 0.477937 0.561803 63.000000
2.903771 0.442916 0.558435 91.000000
2.893743 0.408917 0.555906 86.000000
2.878618 0.374515 0.552439 36.000000
2.809336 0.334160 0.538769 10.000000
2.807880 0.302696 0.538097 9.000000
2.776818 0.268503 0.531720 9.000000
2.755037 0.235815 0.527211 8.000000
2.791727 0.208131 0.533940 9.000000
2.769307 0.175873 0.529429 10.000000
2.741604 0.143810 0.523892 10.000000
2.743054 0.113700 0.524062 10.000000
2.758805 0.083954 0.526961 36.000000
2.754666 0.053501 0.526109 95.000000
2.740361 0.023074 0.523380 92.000000
2.740446 -0.007067 0.523380 70.000000
2.735280 -0.037141 0.522357 77.000000
2.719956 -0.066782 0.519544 65.000000
2.709294 -0.096357 0.517668 62.000000
2.708031 -0.126174 0.517584 95.000000
2.701612 -0.155625 0.516562 83.000000
2.680163 -0.183958 0.512646 43.000000
2.589869 -0.206398 0.495695 10.000000
2.582556 -0.234448 0.494597 10.000000
2.575011 -0.262310 0.493500 12.000000
2.601238 -0.293924 0.498956 48.000000
2.602777 -0.323076 0.499647 77.000000
2.594244 -0.351099 0.498549 80.000000
2.575760 -0.377428 0.495419 71.000000
2.600585 -0.410326 0.500782 82.000000
2.591161 -0.437969 0.499522 10.000000
2.774795 -0.500463 0.535585 13.000000
3.010408 -0.577192 0.581858 9.000000
3.129097 -0.635658 0.605705 9.000000
3.117153 -0.669044 0.604377 9.000000
3.109825 -0.703110 0.603783 9.000000
3.082784 -0.732829 0.599668 9.000000
3.093782 -0.771341 0.602793 9.000000
3.066151 -0.800345 0.598585 9.000000
3.052554 -0.832711 0.597068 10.000000
3.043415 -0.866122 0.596478 10.000000
3.029074 -0.898136 0.594865 10.000000
3.042741 -0.938441 0.598799 11.000000
3.008862 -0.964461 0.593590 10.000000
3.012156 -1.002278 0.595768 10.000000
2.991923 -1.031898 0.593137 10.000000
2.966640 -1.059857 0.589689 9.000000
2.954903 -1.092427 0.589005 10.000000
2.952152 -1.128115 0.589960 10.000000
2.953408 -1.166006 0.591924 10.000000
3.008873 -1.226162 0.604760 8.000000
2.940979 -1.236384 0.592989 10.000000
2.918391 -1.264758 0.590273 10.000000
2.917938 -1.302757 0.592117 10.000000
2.867723 -1.318659 0.584144 9.000000
2.879890 -1.362722 0.588615 12.000000
2.860538 -1.392112 0.586719 12.000000
2.823346 -1.412408 0.581205 10.000000
2.803495 -1.441018 0.579322 10.000000
2.787454 -1.472219 0.578441 10.000000
2.797355 -1.516702 0.582770 9.000000
2.793663 -1.554482 0.584282 9.000000
2.767863 -1.580647 0.581594 9.000000
2.776027 -1.625719 0.585782 10.000000
2.766399 -1.661621 0.586572 10.000000
2.731623 -1.681534 0.581802 9.000000
2.729963 -1.721780 0.584070 10.000000
2.690183 -1.738755 0.578525 10.000000
2.687723 -1.778922 0.580781 9.000000
2.704592 -1.833660 0.587646 10.000000
2.680691 -1.860236 0.585345 9.000000
2.668077 -1.895782 0.585893 10.000000
2.639010 -1.919620 0.582917 12.000000
2.610373 -1.942373 0.579747 10.000000
2.584872 -1.968439 0.577560 9.000000
2.528664 -1.969211 0.568195 22.000000
2.441349 -1.945166 0.552099 25.000000
2.381609 -1.941240 0.542058 27.000000
2.239692 -1.866079 0.512905 15.000000
2.166441 -1.846291 0.499541 26.000000
2.098404 -1.827612 0.486840 30.000000
2.019294 -1.798474 0.471881 29.000000
1.962938 -1.787757 0.462134 30.000000
1.874622 -1.745843 0.444653 32.000000
1.816792 -1.728562 0.433849 26.000000
1.751773 -1.704092 0.421633 29.000000
1.711890 -1.702693 0.415411 33.000000
1.686882 -1.713987 0.412376 74.000000
1.647461 -1.711447 0.406129 92.000000
1.621802 -1.722510 0.403198 74.000000
1.626207 -1.765910 0.407889 59.000000
1.610781 -1.786886 0.407312 62.000000
1.594383 -1.808455 0.406878 37.000000
1.587340 -1.841077 0.408928 62.000000
1.551136 -1.839755 0.403440 24.000000
1.563241 -1.894248 0.410187 35.000000
1.548538 -1.919250 0.410461 34.000000
1.542679 -1.955781 0.413179 32.000000
1.515155 -1.964997 0.410161 34.000000
1.503577 -1.992777 0.411063 28.000000
1.502147 -2.037253 0.415263 35.000000
1.485529 -2.061855 0.415388 29.000000
1.468578 -2.086349 0.415503 22.000000
1.462399 -2.127002 0.418809 34.000000
1.437539 -2.138307 0.416255 27.000000
1.430295 -2.178918 0.419509 28.000000
1.414358 -2.207260 0.420272 35.000000
1.403221 -2.243829 0.422594 26.000000
1.393953 -2.284660 0.425670 26.000000
1.366368 -2.295882 0.423152 27.000000
1.377422 -2.369945 0.432239 9.000000
0.787803 1.379270 0.262667 7.000000
0.790323 1.349098 0.259700 13.000000
0.814353 1.357549 0.264153 19.000000
0.826611 1.344141 0.264355 28.000000
0.841357 1.334766 0.265430 25.000000
0.858632 1.329386 0.267288 24.000000
0.870410 1.315576 0.267529 26.000000
0.895034 1.322578 0.272011 22.000000
0.915084 1.320545 0.274734 28.000000
0.918105 1.294171 0.272346 14.000000
0.935150 1.287791 0.274177 22.000000
0.957317 1.289604 0.277868 28.000000
0.968414 1.274887 0.278008 23.000000
0.988395 1.271755 0.280716 27.000000
1.005381 1.264484 0.282526 24.000000
1.019194 1.253123 0.283527 27.000000
1.032257 1.242162 0.284578 27.000000
1.055386 1.241806 0.288140 11.000000
1.068972 1.229886 0.289049 33.000000
1.088388 1.225681 0.291863 32.000000
1.105111 1.217080 0.293657 29.000000
1.115064 1.201038 0.293692 35.000000
1.135001 1.195625 0.296376 33.000000
1.168129 1.204500 0.302725 29.000000
1.195150 1.205257 0.307171 36.000000
1.208363 1.191833 0.308066 14.000000
1.213867 1.171840 0.307274 35.000000
1.237419 1.168310 0.310807 43.000000
1.268315 1.171053 0.316155 33.000000
1.291633 1.167072 0.319829 53.000000
1.308120 1.155798 0.321600 51.000000
1.331520 1.151143 0.325301 37.000000
1.344139 1.136176 0.326120 38.000000
1.356648 1.120990 0.326885 13.000000
1.360911 1.099952 0.325982 39.000000
1.407681 1.112054 0.335003 39.000000
1.427266 1.102635 0.337791 34.000000
1.451128 1.095445 0.341286 35.000000
1.462814 1.079524 0.342189 33.000000
1.490613 1.074588 0.346630 35.000000
1.514132 1.066698 0.350331 36.000000
1.529857 1.052397 0.351953 16.000000
1.561489 1.049311 0.357485 35.000000
1.573002 1.031720 0.358186 40.000000
1.592261 1.019719 0.360879 35.000000
1.615917 1.009667 0.364342 36.000000
1.664485 1.014853 0.373641 61.000000
1.683768 1.001518 0.376315 35.000000
1.711717 0.992496 0.380764 42.000000
1.756546 0.992945 0.389075 24.000000
1.767207 0.973566 0.389891 35.000000
1.799433 0.965352 0.395269 62.000000
1.818481 0.950093 0.397870 35.000000
1.846186 0.938901 0.402451 55.000000
1.882623 0.931548 0.408891 45.000000
1.927991 0.927804 0.417266 48.000000
1.960194 0.916911 0.422724 50.000000
1.992355 0.905393 0.428197 25.000000
2.037998 0.899188 0.436570 35.000000
2.065668 0.884398 0.441116 42.000000
2.097827 0.870951 0.446567 34.000000
2.116326 0.851440 0.449135 33.000000
2.157475 0.840491 0.456472 46.000000
2.198608 0.828690 0.463900 52.000000
2.225812 0.811289 0.468437 34.000000
2.243761 0.789931 0.470969 34.000000
2.284704 0.776332 0.478442 58.000000
2.325661 0.761718 0.485782 81.000000
2.394531 0.755313 0.499062 66.000000
2.411963 0.731754 0.501639 35.000000
2.415020 0.703872 0.501211 9.000000
2.460313 0.687740 0.509584 8.000000
2.505517 0.670775 0.517893 8.000000
2.626615 0.672349 0.541895 9.000000
2.657601 0.649138 0.547306 22.000000
2.702698 0.628822 0.555671 35.000000
2.762004 0.610580 0.566910 10.000000
2.840400 0.595288 0.582190 23.000000
2.894810 0.573469 0.592484 83.000000
2.929785 0.546992 0.598760 95.000000
2.916224 0.511321 0.595374 73.000000
2.902222 0.476074 0.591797 81.000000
2.892630 0.441902 0.589202 91.000000
2.877863 0.407181 0.585616 84.000000
2.848094 0.371078 0.578972 32.000000
2.793538 0.332737 0.567379 10.000000
2.792168 0.301381 0.566652 10.000000
2.785472 0.269747 0.564936 10.000000
2.749195 0.235643 0.557193 9.000000
2.785725 0.207957 0.564381 9.000000
2.748686 0.174767 0.556632 9.000000
2.740698 0.143982 0.554736 10.000000
2.727376 0.113209 0.551934 10.000000
2.733294 0.083271 0.552925 35.000000
2.734060 0.053215 0.553011 84.000000
2.729585 0.023033 0.552104 95.000000
2.714968 -0.007016 0.549215 63.000000
2.734316 -0.037123 0.553096 94.000000
2.709224 -0.066661 0.548140 75.000000
2.698585 -0.096099 0.546073 77.000000
2.692429 -0.125633 0.545082 85.000000
2.676240 -0.154411 0.542025 77.000000
2.664625 -0.183202 0.539877 60.000000
2.559873 -0.204288 0.518915 9.000000
2.567316 -0.233400 0.520735 10.000000
2.564587 -0.261652 0.520494 13.000000
2.605447 -0.294782 0.529237 36.000000
2.587509 -0.321622 0.526025 90.000000
2.578999 -0.349457 0.524875 72.000000
2.570180 -0.377185 0.523643 78.000000
2.585340 -0.408469 0.527270 41.000000
2.614525 -0.442633 0.533851 10.000000
2.763928 -0.499154 0.564991 13.000000
2.989491 -0.573944 0.611941 9.000000
3.107942 -0.632231 0.637167 9.000000
3.100932 -0.666389 0.636673 9.000000
3.088648 -0.699465 0.635197 9.000000
3.061882 -0.728833 0.630676 9.000000
3.087048 -0.770846 0.637057 9.000000
3.045229 -0.796133 0.629696 8.000000
3.050601 -0.833414 0.632048 10.000000
3.055496 -0.871007 0.634296 12.000000
3.022402 -0.897547 0.628813 10.000000
3.021863 -0.933604 0.629981 12.000000
3.016296 -0.968271 0.630268 13.000000
3.005552 -1.001489 0.629578 12.000000
2.989877 -1.032811 0.627816 10.000000
2.936900 -1.050910 0.618376 8.000000
2.930048 -1.084638 0.618474 10.000000
2.913415 -1.115154 0.616727 10.000000
2.951266 -1.167119 0.626604 11.000000
2.942974 -1.201454 0.626682 8.000000
2.929724 -1.233886 0.625891 10.000000
2.916178 -1.266021 0.624902 13.000000
2.915673 -1.304165 0.626901 10.000000
2.865616 -1.319732 0.618216 9.000000
2.860062 -1.355429 0.619155 15.000000
2.836378 -1.382524 0.616254 13.000000
2.816783 -1.411526 0.614316 12.000000
2.783851 -1.433397 0.609418 10.000000
2.768178 -1.463965 0.608249 10.000000
2.751823 -1.494728 0.607373 10.000000
2.791206 -1.555979 0.618557 9.000000
2.757174 -1.576825 0.613572 9.000000
2.743835 -1.610013 0.613531 10.000000
2.755785 -1.657789 0.618860 11.000000
2.733516 -1.685295 0.616618 10.000000
2.706453 -1.710585 0.613638 10.000000
2.691971 -1.742801 0.613284 11.000000
2.676634 -1.775508 0.613025 10.000000
2.653311 -1.801987 0.610693 10.000000
2.629251 -1.828776 0.608564 10.000000
2.601349 -1.851730 0.605209 22.000000
2.572877 -1.874905 0.602062 26.000000
2.548668 -1.900049 0.599652 39.000000
2.535255 -1.934443 0.600218 44.000000
2.522208 -1.968019 0.600478 85.000000
2.465689 -1.968535 0.590805 34.000000
2.402645 -1.961091 0.579142 28.000000
2.252596 -1.880747 0.546661 16.000000
2.171835 -1.854810 0.530680 26.000000
2.089010 -1.823344 0.513690 25.000000
2.017433 -1.800827 0.499680 31.000000
1.954535 -1.782798 0.487300 27.000000
1.873616 -1.747611 0.470709 29.000000
1.818628 -1.734496 0.460427 29.000000
1.747307 -1.702578 0.445474 23.000000
1.697099 -1.690782 0.436201 29.000000
1.674926 -1.706146 0.434045 49.000000
1.650013 -1.717071 0.430856 73.000000
1.620924 -1.724630 0.426937 81.000000
1.618492 -1.760801 0.430041 66.000000
1.605643 -1.786141 0.430544 49.000000
1.580227 -1.795877 0.427297 68.000000
1.579691 -1.835841 0.431146 36.000000
1.543574 -1.834498 0.425426 30.000000
1.555628 -1.888928 0.432570 33.000000
1.541025 -1.913889 0.432864 32.000000
1.532117 -1.946500 0.434875 34.000000
1.507624 -1.959559 0.432555 30.000000
1.500901 -1.996018 0.435394 33.000000
1.491690 -2.027750 0.437113 33.000000
1.463639 -2.036357 0.433849 27.000000
1.463845 -2.084851 0.439090 22.000000
1.443754 -2.105165 0.438280 28.000000
1.427350 -2.128528 0.438226 29.000000
1.417442 -2.165016 0.440758 31.000000
1.406842 -2.201567 0.443257 28.000000
1.395705 -2.238092 0.445724 26.000000
1.378740 -2.266240 0.446500 26.000000
1.365421 -2.297645 0.447835 24.000000
1.374814 -2.372519 0.457621 9.000000
0.796943 1.399639 0.281165 6.000000
0.784889 1.343781 0.272864 9.000000
0.811366 1.356521 0.278406 17.000000
0.821059 1.338869 0.277791 15.000000
0.846239 1.346195 0.282359 15.000000
0.863591 1.340722 0.284370 22.000000
0.870142 1.318610 0.282815 17.000000
0.897525 1.329648 0.288463 20.000000
0.914897 1.323548 0.290396 20.000000
0.937894 1.325217 0.294168 10.000000
0.937965 1.294674 0.290752 24.000000
0.951355 1.284607 0.291943 17.000000
0.971380 1.281635 0.294787 16.000000
0.985401 1.270658 0.295835 22.000000
0.992516 1.252323 0.295166 17.000000
1.021683 1.260210 0.300714 25.000000
1.029204 1.241061 0.299893 20.000000
1.074611 1.266933 0.310067 10.000000
1.062117 1.225566 0.303836 27.000000
1.075511 1.213531 0.304793 22.000000
1.108601 1.223240 0.311309 25.000000
1.118132 1.207587 0.311456 30.000000
1.144880 1.209229 0.316157 21.000000
1.168371 1.206832 0.319894 31.000000
1.188011 1.201134 0.322867 22.000000
1.204678 1.191149 0.324701 12.000000
1.207145 1.167275 0.322817 33.000000
1.240908 1.174320 0.329489 26.000000
1.264620 1.170303 0.333240 30.000000
1.284268 1.163075 0.336162 34.000000
1.304382 1.155039 0.338988 26.000000
1.328188 1.149942 0.342726 37.000000
1.340424 1.135356 0.343710 28.000000
1.360437 1.126483 0.346454 23.000000
1.383849 1.120805 0.350338 29.000000
1.411586 1.117363 0.355038 26.000000
1.427336 1.104854 0.356960 30.000000
1.439521 1.088738 0.357747 28.000000
1.458975 1.078734 0.360651 24.000000
1.478782 1.067990 0.363338 29.000000
1.502209 1.060181 0.367184 27.000000
1.538104 1.059877 0.373814 19.000000
1.553507 1.045697 0.375728 32.000000
1.572891 1.033945 0.378574 31.000000
1.588325 1.018838 0.380265 31.000000
1.632483 1.022078 0.389006 33.000000
1.647638 1.006643 0.390838 27.000000
1.679689 1.000605 0.396528 33.000000
1.711588 0.994342 0.402299 33.000000
1.730840 0.980246 0.405096 20.000000
1.754176 0.968205 0.408900 31.000000
1.782046 0.957760 0.413529 33.000000
1.818356 0.951662 0.420304 31.000000
1.846042 0.940416 0.425091 34.000000
1.891281 0.937420 0.433920 30.000000
1.923400 0.927072 0.439686 43.000000
1.951050 0.914093 0.444458 30.000000
1.947549 0.886389 0.442094 18.000000
2.019783 0.892489 0.457015 30.000000
2.051847 0.879771 0.462708 27.000000
2.088291 0.868506 0.469642 30.000000
2.115758 0.852703 0.474348 31.000000
2.170530 0.847032 0.485181 30.000000
2.202430 0.831783 0.491011 30.000000
2.229774 0.814056 0.495686 29.000000
2.233818 0.787859 0.495403 10.000000
2.288640 0.778810 0.506166 39.000000
2.315530 0.759736 0.510948 35.000000
2.370243 0.748947 0.521829 34.000000
2.410998 0.732706 0.529648 35.000000
2.414081 0.704695 0.529168 8.000000
2.449878 0.685944 0.535901 7.000000
2.523332 0.676626 0.550899 8.000000
2.658535 0.681476 0.579267 6.000000
2.651471 0.648712 0.576766 8.000000
2.696480 0.628217 0.585467 9.000000
2.755665 0.610139 0.597373 10.000000
2.829109 0.593832 0.612409 20.000000
2.883307 0.572149 0.623321 36.000000
2.908590 0.543924 0.627931 76.000000
2.875777 0.505031 0.620083 62.000000
2.861847 0.470158 0.616381 26.000000
2.871568 0.439319 0.617783 41.000000
2.851980 0.404165 0.612853 56.000000
2.802862 0.365748 0.601760 15.000000
2.801799 0.334212 0.600983 9.000000
2.780924 0.300681 0.596037 8.000000
2.759730 0.267598 0.591086 8.000000
2.747796 0.235889 0.588131 9.000000
2.701443 0.201951 0.577957 7.000000
2.732751 0.174060 0.584387 9.000000
2.710046 0.142612 0.579339 9.000000
2.701630 0.112311 0.577420 9.000000
2.732051 0.083420 0.583685 32.000000
2.723041 0.053035 0.581681 42.000000
2.708713 0.022909 0.578633 36.000000
2.708798 -0.006932 0.578633 56.000000
2.693961 -0.036657 0.575500 35.000000
2.688484 -0.066216 0.574371 37.000000
2.668015 -0.095227 0.570194 34.000000
2.657080 -0.124180 0.568105 31.000000
2.640941 -0.152552 0.564807 29.000000
2.624490 -0.180685 0.561511 22.000000
2.588236 -0.206855 0.554043 10.000000
2.605284 -0.237230 0.558054 44.000000
2.602590 -0.265884 0.557890 35.000000
2.575274 -0.291866 0.552515 51.000000
2.586436 -0.322064 0.555398 86.000000
2.553782 -0.346584 0.548824 36.000000
2.559519 -0.376151 0.550665 52.000000
2.555240 -0.404321 0.550423 42.000000
2.512146 -0.425952 0.541781 8.000000
2.748007 -0.497151 0.593340 13.000000
2.958560 -0.569041 0.639724 8.000000
3.100833 -0.631737 0.671326 8.000000
3.074697 -0.661779 0.666685 9.000000
3.053027 -0.692383 0.662988 8.000000
3.069005 -0.731747 0.667774 9.000000
3.056190 -0.764219 0.666051 8.000000
3.009878 -0.788013 0.657195 8.000000
3.034078 -0.830241 0.663839 10.000000
3.006135 -0.858325 0.659125 9.000000
3.005959 -0.894168 0.660503 9.000000
2.996080 -0.927228 0.659818 10.000000
2.976592 -0.957096 0.656980 9.000000
2.975345 -0.992955 0.658156 10.000000
2.955043 -1.022618 0.655517 9.000000
2.934617 -1.051688 0.652591 7.000000
2.932130 -1.087556 0.653860 10.000000
2.915664 -1.117882 0.651863 9.000000
2.916953 -1.155514 0.654145 10.000000
2.958607 -1.209927 0.665495 8.000000
2.918292 -1.230797 0.658294 8.000000
2.877829 -1.251268 0.651309 9.000000
2.859570 -1.281055 0.649316 9.000000
2.849954 -1.314551 0.649353 7.000000
2.826631 -1.341748 0.646352 9.000000
2.842613 -1.387989 0.652348 9.000000
2.831810 -1.421433 0.652272 10.000000
2.768331 -1.427933 0.640115 9.000000
2.791660 -1.478945 0.647992 9.000000
2.788033 -1.517168 0.650017 9.000000
2.750038 -1.535877 0.643824 9.000000
2.754514 -1.578274 0.647545 7.000000
2.737211 -1.608530 0.646260 10.000000
2.673153 -1.611259 0.634220 10.000000
2.655560 -1.640613 0.632957 14.000000
2.637675 -1.669676 0.631596 23.000000
2.614902 -1.696556 0.629440 23.000000
2.588298 -1.719760 0.626106 33.000000
2.581786 -1.756377 0.627611 32.000000
2.562152 -1.785245 0.626347 16.000000
2.582728 -1.841703 0.634699 62.000000
2.566154 -1.873520 0.634395 36.000000
2.553741 -1.907372 0.634766 36.000000
2.532417 -1.935936 0.633377 32.000000
2.519217 -1.969550 0.633635 22.000000
2.459028 -1.967163 0.622545 22.000000
2.365624 -1.934897 0.602505 15.000000
2.246311 -1.879471 0.575993 9.000000
2.155241 -1.843292 0.556075 21.000000
2.075685 -1.815678 0.539395 15.000000
2.037160 -1.822557 0.533236 19.000000
1.948789 -1.781731 0.513487 21.000000
1.885978 -1.763259 0.500750 16.000000
1.817422 -1.736172 0.485937 21.000000
1.752546 -1.711886 0.472305 19.000000
1.678000 -1.675937 0.455908 12.000000
1.673914 -1.708022 0.458197 46.000000
1.634575 -1.705474 0.451231 32.000000
1.612280 -1.720166 0.448975 49.000000
1.604079 -1.748310 0.450233 41.000000
1.584696 -1.766146 0.448906 30.000000
1.574887 -1.794913 0.450286 34.000000
1.562380 -1.819277 0.450500 30.000000
1.551757 -1.847918 0.451846 13.000000
1.543854 -1.880420 0.454017 29.000000
1.526160 -1.901475 0.453496 24.000000
1.515289 -1.929346 0.454488 26.000000
1.500034 -1.954050 0.454780 26.000000
1.493231 -1.990383 0.457775 26.000000
1.481114 -2.018105 0.458625 29.000000
1.450303 -2.022656 0.454378 22.000000
1.445000 -2.062969 0.458047 11.000000
1.433377 -2.095305 0.459972 25.000000
1.425245 -2.130952 0.462521 22.000000
1.409865 -2.159133 0.463425 23.000000
1.401909 -2.199788 0.467033 22.000000
1.393243 -2.240476 0.470439 24.000000
1.376203 -2.268725 0.471263 24.000000
1.365312 -2.304380 0.473560 18.000000
1.362164 -2.357945 0.479453 9.000000
0.776758 1.368506 0.289209 8.000000
0.786800 1.351170 0.288614 16.000000
0.795690 1.334234 0.288053 21.000000
0.815477 1.333508 0.291041 20.000000
0.832692 1.328404 0.293124 24.000000
0.855214 1.331316 0.297060 22.000000
0.866273 1.317973 0.297362 27.000000
0.880722 1.308128 0.298488 27.000000
0.903439 1.310218 0.302415 25.000000
0.906445 1.283887 0.299805 23.000000
0.925475 1.282084 0.302907 27.000000
0.942445 1.275519 0.304932 23.000000
0.962364 1.272606 0.307911 29.000000
0.978607 1.266075 0.310052 20.000000
0.995530 1.258832 0.312101 31.000000
1.012388 1.251321 0.314106 27.000000
1.034880 1.251705 0.318141 31.000000
1.042232 1.232445 0.317273 27.000000
1.052577 1.216937 0.317360 26.000000
1.075639 1.215997 0.321272 28.000000
1.101570 1.218832 0.326279 30.000000
1.114912 1.206360 0.327302 29.000000
1.134372 1.201324 0.330387 36.000000
1.157751 1.199048 0.334314 33.000000
1.184705 1.199822 0.339244 26.000000
1.183484 1.173108 0.336389 29.000000
1.196350 1.159671 0.337323 28.000000
1.212200 1.149918 0.339408 36.000000
1.246396 1.156173 0.346280 32.000000
1.288132 1.168365 0.355238 34.000000
1.307863 1.160729 0.358275 43.000000
1.320610 1.145858 0.359201 34.000000
1.336546 1.134537 0.361245 32.000000
1.341464 1.113098 0.360096 28.000000
1.368567 1.110663 0.365131 29.000000
1.399939 1.110383 0.371093 30.000000
1.419538 1.100899 0.374134 34.000000
1.443336 1.093695 0.378040 30.000000
1.462888 1.083600 0.381048 36.000000
1.478431 1.070292 0.383040 30.000000
1.502198 1.062032 0.386924 29.000000
1.533685 1.059354 0.392999 31.000000
1.553424 1.047441 0.395822 32.000000
1.572874 1.035639 0.398829 36.000000
1.592206 1.023481 0.401786 34.000000
1.627985 1.021479 0.408915 34.000000
1.639259 1.003069 0.409635 36.000000
1.675184 0.999935 0.416741 35.000000
1.707087 0.993664 0.422827 31.000000
1.734759 0.984390 0.427885 35.000000
1.758176 0.972249 0.431846 35.000000
1.790356 0.963955 0.437798 33.000000
1.813689 0.950895 0.441722 37.000000
1.836977 0.937420 0.445722 32.000000
1.873284 0.930111 0.452778 35.000000
1.914143 0.924149 0.460979 43.000000
1.932746 0.907327 0.463966 29.000000
1.982487 0.904100 0.474270 29.000000
2.005688 0.887984 0.478213 32.000000
2.037652 0.875288 0.484232 32.000000
2.065109 0.860148 0.489197 35.000000
2.101438 0.848406 0.496384 33.000000
2.133315 0.833860 0.502377 31.000000
2.155891 0.815571 0.506383 33.000000
2.205953 0.806682 0.516626 25.000000
2.242165 0.792073 0.523813 31.000000
2.282911 0.778358 0.532021 54.000000
2.305116 0.757679 0.535934 34.000000
2.341157 0.741038 0.543018 42.000000
2.391094 0.727891 0.553359 52.000000
2.450366 0.716476 0.565886 42.000000
2.472126 0.693296 0.569694 29.000000
2.484224 0.667113 0.571260 9.000000
2.618938 0.672550 0.601204 8.000000
2.663960 0.652934 0.610485 9.000000
2.699421 0.630004 0.617437 18.000000
2.763266 0.612781 0.631100 52.000000
2.817481 0.592377 0.642612 50.000000
2.876429 0.571691 0.655051 85.000000
2.882390 0.539961 0.655601 86.000000
2.868854 0.504666 0.651693 35.000000
2.850156 0.469004 0.646597 36.000000
2.816453 0.431566 0.638215 29.000000
2.801675 0.397723 0.634286 29.000000
2.776721 0.362954 0.628075 32.000000
2.756354 0.329318 0.622865 31.000000
2.745190 0.297267 0.619753 32.000000
2.767634 0.268840 0.624394 46.000000
2.702372 0.232458 0.609398 18.000000
2.743665 0.205510 0.618424 36.000000
2.745731 0.175131 0.618510 66.000000
2.727966 0.143726 0.614209 56.000000
2.724459 0.113445 0.613283 72.000000
2.676811 0.081844 0.602395 21.000000
2.638465 0.051511 0.593700 11.000000
2.629122 0.022288 0.591587 10.000000
2.638960 -0.006769 0.593865 9.000000
2.624080 -0.035710 0.590490 10.000000
2.647970 -0.065373 0.595978 10.000000
2.612934 -0.093319 0.588131 10.000000
2.611789 -0.122190 0.588131 14.000000
2.605366 -0.150779 0.586952 10.000000
2.588970 -0.178589 0.583580 10.000000
2.606391 -0.208721 0.587804 88.000000
2.589364 -0.236099 0.584270 89.000000
2.591533 -0.265224 0.585122 100.000000
2.569047 -0.291623 0.580577 95.000000
2.536686 -0.316386 0.573765 91.000000
2.552424 -0.346999 0.577903 98.000000
2.538903 -0.373696 0.575393 87.000000
2.534650 -0.401707 0.575072 91.000000
2.563826 -0.435437 0.582399 14.000000
2.741385 -0.496802 0.623573 10.000000
2.984955 -0.574937 0.679790 10.000000
3.069425 -0.626463 0.700130 9.000000
3.081551 -0.664275 0.703802 9.000000
3.040847 -0.690716 0.695591 9.000000
3.061624 -0.731156 0.701729 9.000000
3.053455 -0.764914 0.701040 9.000000
3.007321 -0.788571 0.691664 9.000000
3.007890 -0.824393 0.693251 10.000000
3.003418 -0.858887 0.693652 10.000000
3.017335 -0.899059 0.698383 10.000000
3.030708 -0.939552 0.703102 15.000000
3.011001 -0.969983 0.700148 13.000000
2.995692 -1.001559 0.698179 10.000000
2.984734 -1.034533 0.697290 10.000000
2.922828 -1.049163 0.684562 9.000000
2.915760 -1.083277 0.684861 10.000000
2.903902 -1.115255 0.683889 10.000000
2.896000 -1.149229 0.684183 10.000000
2.928735 -1.199476 0.693820 9.000000
2.901988 -1.226106 0.689623 10.000000
2.848103 -1.240732 0.679127 10.000000
2.856703 -1.282176 0.683488 10.000000
2.838086 -1.311719 0.681445 10.000000
2.823925 -1.342676 0.680176 15.000000
2.782747 -1.361045 0.672735 20.000000
2.750386 -1.382931 0.667337 20.000000
2.713490 -1.402092 0.660896 21.000000
2.710990 -1.438911 0.662919 29.000000
2.686309 -1.464608 0.659852 30.000000
2.691590 -1.506154 0.663871 33.000000
2.670886 -1.533376 0.661569 35.000000
2.658276 -1.565272 0.661368 36.000000
2.657880 -1.604650 0.664204 83.000000
2.648270 -1.639544 0.665226 63.000000
2.622127 -1.663464 0.661684 36.000000
2.616310 -1.700236 0.663350 53.000000
2.630388 -1.750635 0.670189 35.000000
2.647145 -1.805008 0.678227 33.000000
2.607498 -1.819992 0.671562 26.000000
2.615027 -1.869166 0.677391 28.000000
2.634170 -1.926724 0.686073 34.000000
2.621141 -1.961492 0.686395 31.000000
2.583755 -1.978988 0.680870 24.000000
2.543079 -1.992105 0.673938 24.000000
2.452072 -1.965596 0.654186 24.000000
2.411883 -1.976823 0.647342 26.000000
2.243595 -1.881160 0.606249 12.000000
2.163851 -1.854628 0.588341 18.000000
2.098970 -1.840219 0.574818 24.000000
2.013567 -1.804175 0.555066 26.000000
1.946572 -1.783727 0.540596 23.000000
1.873050 -1.755355 0.524192 29.000000
1.811797 -1.735000 0.510625 22.000000
1.761068 -1.724457 0.500268 21.000000
1.690680 -1.691499 0.483860 23.000000
1.651359 -1.689383 0.476513 32.000000
1.625830 -1.700830 0.473218 51.000000
1.601040 -1.711175 0.469641 40.000000
1.585387 -1.732735 0.469235 35.000000
1.573584 -1.757071 0.469580 33.000000
1.557365 -1.778375 0.469085 29.000000
1.559986 -1.821886 0.474480 28.000000
1.530393 -1.828062 0.470012 25.000000
1.532877 -1.871017 0.475051 24.000000
1.509197 -1.884338 0.472586 28.000000
1.512527 -1.932144 0.478668 24.000000
1.498279 -1.956035 0.478745 28.000000
1.488444 -1.988530 0.480861 27.000000
1.475134 -2.017096 0.482081 24.000000
1.459799 -2.040772 0.482025 21.000000
1.445703 -2.069145 0.483130 16.000000
1.445026 -2.117758 0.488897 21.000000
1.424412 -2.138015 0.487998 25.000000
1.404828 -2.157294 0.486932 20.000000
1.386272 -2.181259 0.486945 20.000000
1.382993 -2.230242 0.492477 24.000000
1.381279 -2.283573 0.498788 19.000000
1.357583 -2.298155 0.496634 19.000000
1.351941 -2.347400 0.501933 9.000000
0.783303 1.384376 0.307013 8.000000
0.777897 1.341901 0.300782 23.000000
0.790096 1.328762 0.301080 21.000000
0.814877 1.336484 0.306120 32.000000
0.829577 1.327138 0.307337 29.000000
0.845947 1.322266 0.309619 32.000000
0.857760 1.308496 0.309820 36.000000
0.874853 1.302734 0.311963 27.000000
0.896707 1.305386 0.316169 31.000000
0.905360 1.287115 0.315387 19.000000
0.925244 1.284785 0.318535 25.000000
0.945107 1.282078 0.321648 34.000000
0.958496 1.271812 0.322887 27.000000
0.975423 1.264782 0.325025 34.000000
0.992336 1.257535 0.327170 34.000000
1.014683 1.258145 0.331380 29.000000
1.028531 1.246564 0.332487 34.000000
1.032702 1.223655 0.330563 21.000000
1.051920 1.219794 0.333789 34.000000
1.078277 1.222531 0.338914 40.000000
1.100962 1.221599 0.343147 33.000000
1.111078 1.205491 0.343199 46.000000
1.131029 1.199935 0.346277 36.000000
1.150467 1.194642 0.349521 33.000000
1.173903 1.191959 0.353606 37.000000
1.193470 1.185964 0.356829 15.000000
1.210048 1.175777 0.358866 51.000000
1.215908 1.155301 0.357780 48.000000
1.242478 1.155219 0.363064 51.000000
1.266037 1.150948 0.367165 43.000000
1.303832 1.159749 0.375652 37.000000
1.316634 1.144877 0.376578 36.000000
1.339947 1.139886 0.380841 76.000000
1.341256 1.115244 0.378593 20.000000
1.356921 1.103509 0.380692 37.000000
1.376367 1.094568 0.383862 40.000000
1.415450 1.099891 0.392222 30.000000
1.438876 1.093130 0.396445 37.000000
1.462666 1.085488 0.400513 35.000000
1.478229 1.072134 0.402557 33.000000
1.509615 1.069870 0.408979 44.000000
1.513384 1.047139 0.407627 15.000000
1.548925 1.046740 0.415049 33.000000
1.568292 1.034934 0.418156 40.000000
1.591702 1.025415 0.422362 36.000000
1.615405 1.015147 0.426403 48.000000
1.626263 0.997188 0.427298 33.000000
1.662122 0.994136 0.434764 32.000000
1.685486 0.983032 0.438904 40.000000
1.713005 0.973937 0.444156 17.000000
1.757613 0.973735 0.453831 34.000000
1.789570 0.965763 0.460166 41.000000
1.804258 0.948116 0.462099 35.000000
1.831890 0.936905 0.467358 51.000000
1.868124 0.929523 0.474786 46.000000
1.904511 0.921429 0.482237 32.000000
1.940912 0.912616 0.489709 35.000000
1.968448 0.899097 0.494907 18.000000
1.995820 0.885322 0.500254 28.000000
2.036725 0.876522 0.508765 35.000000
2.064015 0.861605 0.514078 32.000000
2.091398 0.845871 0.519264 31.000000
2.141199 0.838762 0.530150 35.000000
2.173052 0.823483 0.536421 28.000000
2.209303 0.809447 0.543906 32.000000
2.222518 0.786603 0.545770 22.000000
2.272346 0.776180 0.556671 32.000000
2.308378 0.760119 0.564131 40.000000
2.339736 0.741896 0.570399 34.000000
2.398896 0.731527 0.583477 40.000000
2.434794 0.713100 0.590911 37.000000
2.484537 0.697922 0.601685 34.000000
2.520188 0.678015 0.609150 31.000000
2.612260 0.672043 0.630283 15.000000
2.633545 0.646530 0.634291 10.000000
2.706709 0.632896 0.650844 26.000000
2.746770 0.610315 0.659352 36.000000
2.819895 0.593843 0.675864 46.000000
2.854771 0.568381 0.683262 68.000000
2.870361 0.538605 0.686096 95.000000
2.856864 0.503457 0.681977 66.000000
2.804512 0.462220 0.668691 18.000000
2.780549 0.426779 0.662174 9.000000
2.741594 0.389833 0.652211 10.000000
2.760151 0.361340 0.655999 35.000000
2.759073 0.330214 0.655287 62.000000
2.762470 0.299719 0.655549 72.000000
2.750990 0.267723 0.652364 76.000000
2.734371 0.235545 0.647942 57.000000
2.722223 0.204160 0.644753 35.000000
2.729134 0.174339 0.645988 52.000000
2.730849 0.144153 0.646245 74.000000
2.707913 0.112954 0.640581 54.000000
2.655435 0.081313 0.628097 17.000000
2.622131 0.051239 0.620044 10.000000
2.612811 0.022206 0.617907 10.000000
2.612893 -0.006719 0.617907 10.000000
2.632108 -0.035909 0.622427 10.000000
2.616938 -0.064689 0.618976 10.000000
2.616117 -0.093667 0.618894 11.000000
2.595525 -0.121653 0.614211 10.000000
2.589201 -0.150053 0.612898 10.000000
2.567994 -0.177420 0.608218 15.000000
2.580447 -0.206920 0.611504 26.000000
2.578011 -0.235494 0.611342 95.000000
2.565651 -0.262994 0.608882 86.000000
2.562578 -0.291380 0.608639 95.000000
2.535198 -0.316669 0.602577 95.000000
2.531593 -0.344707 0.602257 85.000000
2.518039 -0.371246 0.599643 84.000000
2.528309 -0.401386 0.602842 82.000000
2.619694 -0.445724 0.625431 9.000000
2.753571 -0.499844 0.658211 15.000000
2.910536 -0.561645 0.696666 9.000000
3.037744 -0.621001 0.728114 9.000000
3.016569 -0.651549 0.724201 9.000000
3.018807 -0.687085 0.725903 9.000000
3.067954 -0.733964 0.739006 10.000000
3.040958 -0.763138 0.733757 9.000000
2.994836 -0.786751 0.723962 8.000000
2.990895 -0.821036 0.724323 10.000000
2.986439 -0.855521 0.724779 10.000000
2.972232 -0.887131 0.722962 12.000000
2.962415 -0.919984 0.722282 10.000000
2.956844 -0.954235 0.722540 13.000000
2.937094 -0.983754 0.719498 13.000000
2.921624 -1.014570 0.717495 10.000000
2.869230 -1.031998 0.706371 9.000000
2.862525 -1.065315 0.706638 13.000000
2.841568 -1.093578 0.703526 16.000000
2.838606 -1.128458 0.704724 24.000000
2.799124 -1.148930 0.697128 16.000000
2.799983 -1.185330 0.699448 24.000000
2.791309 -1.218319 0.699615 32.000000
2.760369 -1.240939 0.693906 28.000000
2.742206 -1.269498 0.691843 24.000000
2.745806 -1.308252 0.695259 75.000000
2.735710 -1.340866 0.695229 63.000000
2.725281 -1.373291 0.695290 84.000000
2.710189 -1.403476 0.694048 61.000000
2.694715 -1.433469 0.692902 75.000000
2.704631 -1.477296 0.698290 54.000000
2.692684 -1.509673 0.698139 34.000000
2.667712 -1.534558 0.694585 25.000000
2.684471 -1.583849 0.702026 33.000000
2.667115 -1.613491 0.700661 32.000000
2.711661 -1.681503 0.715712 35.000000
2.688683 -1.709422 0.713322 31.000000
2.682317 -1.747004 0.715098 35.000000
2.655179 -1.771117 0.711321 35.000000
2.635819 -1.800356 0.709724 26.000000
2.639657 -1.846884 0.714926 22.000000
2.623586 -1.878730 0.714295 32.000000
2.618864 -1.919120 0.716892 33.000000
2.601359 -1.951578 0.716446 37.000000
2.595616 -1.992027 0.718909 32.000000
2.538863 -1.994115 0.707739 22.000000
2.448730 -1.966793 0.686700 27.000000
2.382137 -1.956470 0.672055 27.000000
2.244324 -1.885803 0.637573 15.000000
2.172106 -1.865765 0.620908 25.000000
2.096205 -1.841879 0.603534 24.000000
2.010970 -1.805924 0.582905 27.000000
1.940403 -1.782329 0.566667 24.000000
1.871418 -1.756542 0.550266 27.000000
1.813070 -1.740366 0.537325 28.000000
1.744843 -1.712799 0.521317 21.000000
1.702361 -1.707551 0.512363 26.000000
1.642428 -1.684630 0.498497 35.000000
1.617692 -1.695313 0.494817 36.000000
1.592232 -1.706358 0.491295 65.000000
1.576533 -1.727878 0.490866 49.000000
1.564746 -1.752246 0.491235 37.000000
1.548556 -1.773438 0.490791 44.000000
1.548850 -1.812503 0.495130 31.000000
1.538203 -1.841164 0.496610 27.000000
1.511597 -1.850850 0.493019 28.000000
1.498203 -1.874735 0.493170 30.000000
1.489553 -1.906923 0.495538 32.000000
1.486359 -1.947021 0.499878 27.000000
1.477639 -1.978671 0.501954 31.000000
1.464386 -2.007081 0.503163 31.000000
1.453640 -2.039524 0.505417 24.000000
1.428305 -2.051797 0.502560 20.000000
1.417861 -2.083262 0.504463 25.000000
1.413877 -2.127772 0.509505 24.000000
1.403689 -2.164244 0.512468 31.000000
1.378510 -2.175030 0.509331 25.000000
1.372537 -2.219778 0.514174 27.000000
1.353089 -2.243605 0.514069 23.000000
1.348301 -2.292600 0.519786 19.000000
1.346476 -2.345298 0.526063 9.000000
0.762268 1.353596 0.314359 8.000000
0.782070 1.353277 0.317608 19.000000
0.789421 1.331630 0.315923 29.000000
0.811713 1.335121 0.320188 25.000000
0.822949 1.322105 0.320543 26.000000
0.845358 1.325026 0.324840 30.000000
0.859954 1.315328 0.326065 28.000000
0.873571 1.305973 0.327436 31.000000
0.898987 1.312080 0.332756 26.000000
0.907797 1.293755 0.331940 18.000000
0.915547 1.275899 0.331208 29.000000
0.938293 1.277243 0.335490 22.000000
0.955223 1.270424 0.337715 29.000000
0.971494 1.263887 0.340097 26.000000
0.988395 1.256587 0.342288 29.000000
1.008346 1.252927 0.345536 34.000000
1.021448 1.241883 0.346842 26.000000
1.031957 1.226447 0.346888 25.000000
1.051190 1.222545 0.350262 30.000000
1.064635 1.210561 0.351370 30.000000
1.084512 1.205638 0.354614 35.000000
1.100532 1.197328 0.356902 29.000000
1.123726 1.195400 0.361194 35.000000
1.143102 1.190086 0.364530 35.000000
1.169937 1.190967 0.369940 29.000000
1.172140 1.167744 0.367885 29.000000
1.195507 1.164562 0.372184 36.000000
1.218471 1.161458 0.376607 34.000000
1.234832 1.150887 0.378701 54.000000
1.275915 1.163507 0.388592 35.000000
1.274208 1.135941 0.385216 42.000000
1.300978 1.134663 0.390753 52.000000
1.332062 1.135625 0.397258 30.000000
1.332990 1.111468 0.395024 26.000000
1.356603 1.105496 0.399285 32.000000
1.395062 1.111694 0.408187 32.000000
1.399269 1.090234 0.407012 49.000000
1.442340 1.097847 0.416865 35.000000
1.454090 1.081840 0.417887 35.000000
1.473607 1.071392 0.421161 32.000000
1.493363 1.060254 0.424274 27.000000
1.528734 1.060269 0.432093 31.000000
1.548223 1.048711 0.435352 34.000000
1.555411 1.028740 0.435211 40.000000
1.582817 1.022004 0.440701 52.000000
1.602334 1.009123 0.443751 35.000000
1.629784 1.001450 0.449273 51.000000
1.644753 0.985781 0.451318 47.000000
1.701610 0.994455 0.464845 32.000000
1.733441 0.987463 0.471460 30.000000
1.748330 0.970493 0.473551 36.000000
1.771641 0.957868 0.477828 32.000000
1.803523 0.949425 0.484494 54.000000
1.822410 0.933721 0.487642 32.000000
1.854065 0.924465 0.494409 34.000000
1.890329 0.916457 0.502163 60.000000
1.931008 0.909872 0.511104 32.000000
1.967381 0.900375 0.518836 26.000000
1.994726 0.886545 0.524391 32.000000
2.022104 0.871909 0.529823 32.000000
2.044889 0.855139 0.534166 32.000000
2.085676 0.845094 0.543073 32.000000
2.112745 0.829022 0.548620 31.000000
2.148839 0.815928 0.556462 34.000000
2.198625 0.807182 0.567786 27.000000
2.220968 0.787637 0.572134 28.000000
2.261581 0.773930 0.581067 35.000000
