x y z intensity
2.842952 -0.176017 1.490842 66.000000
2.862982 -0.211201 1.501941 36.000000
2.895725 -0.248042 1.520283 33.000000
2.936920 -0.286477 1.543052 45.000000
2.986423 -0.326916 1.570337 46.000000
3.004696 -0.364866 1.581188 43.000000
3.035883 -0.404883 1.598865 52.000000
3.035525 -0.441475 1.600651 36.000000
3.004181 -0.473132 1.586040 35.000000
2.985728 -0.506393 1.578270 33.000000
2.949557 -0.536067 1.561063 29.000000
2.926157 -0.567451 1.550698 33.000000
2.906663 -0.599421 1.542959 32.000000
2.861215 -0.624994 1.520691 32.000000
2.854166 -0.658832 1.519684 37.000000
2.816620 -0.685124 1.502271 33.000000
2.804448 -0.717502 1.499075 35.000000
2.766563 -0.742474 1.481504 27.000000
2.715435 -0.763229 1.457469 26.000000
2.698673 -0.792602 1.451140 29.000000
2.681384 -0.821968 1.445207 32.000000
2.668002 -0.852292 1.441379 32.000000
2.645539 -0.879901 1.433367 33.000000
2.614951 -0.903825 1.420228 34.000000
2.588328 -0.928565 1.409209 30.000000
2.565440 -0.954650 1.400961 30.000000
2.529818 -0.975537 1.385713 26.000000
2.514810 -1.003901 1.381768 28.000000
2.507795 -1.035475 1.382275 34.000000
2.492266 -1.063369 1.378149 32.000000
2.464257 -1.085681 1.367055 33.000000
2.448307 -1.112959 1.362675 32.000000
2.407972 -1.128504 1.344674 29.000000
2.383184 -1.151507 1.336186 28.000000
2.366338 -1.178020 1.332036 29.000000
2.353691 -1.205752 1.329597 32.000000
2.332326 -1.229677 1.323035 35.000000
2.314802 -1.255274 1.318635 32.000000
2.300871 -1.282865 1.316388 32.000000
2.286761 -1.310187 1.314052 32.000000
2.272381 -1.337329 1.311625 32.000000
2.238655 -1.352710 1.297996 28.000000
2.212527 -1.372180 1.288757 29.000000
2.181799 -1.389234 1.277683 27.000000
2.181853 -1.424840 1.283792 32.000000
2.143440 -1.436184 1.268253 29.000000
2.120597 -1.456369 1.260957 32.000000
2.104334 -1.481900 1.258509 35.000000
2.070284 -1.493496 1.244493 31.000000
2.071809 -1.531736 1.252825 24.000000
2.040503 -1.545788 1.241388 27.000000
2.023399 -1.570272 1.238610 27.000000
2.013085 -1.600100 1.240088 29.000000
1.978012 -1.610012 1.226293 17.000000
1.953466 -1.627989 1.219034 13.000000
1.945948 -1.660095 1.222403 31.000000
1.910779 -1.668523 1.208537 26.000000
1.916260 -1.712487 1.220377 25.000000
1.877669 -1.717023 1.204244 22.000000
1.845904 -1.727086 1.192447 25.000000
1.830493 -1.752136 1.191162 33.000000
1.820369 -1.784116 1.194622 27.000000
1.798012 -1.802557 1.188985 26.000000
1.775638 -1.820665 1.183274 31.000000
1.758222 -1.845778 1.182210 25.000000
1.741678 -1.869937 1.180620 22.000000
1.708491 -1.877890 1.168990 19.000000
1.700700 -1.911688 1.173489 25.000000
1.682292 -1.935996 1.172217 30.000000
1.647163 -1.938622 1.157902 24.000000
1.631399 -1.965845 1.158535 24.000000
1.609485 -1.985876 1.154940 28.000000
1.594348 -2.012027 1.155019 24.000000
1.577682 -2.038831 1.155415 20.000000
1.552343 -2.054500 1.149584 12.000000
1.520142 -2.058130 1.137158 17.000000
1.513369 -2.099095 1.145542 24.000000
1.482411 -2.106525 1.135518 18.000000
1.474680 -2.147381 1.143626 18.000000
1.456165 -2.173226 1.143638 19.000000
1.433860 -2.190303 1.139020 17.000000
1.414839 -2.215724 1.138813 16.000000
1.383252 -2.221518 1.128676 10.000000
1.370819 -2.258289 1.134365 10.000000
1.310962 -2.215869 1.100500 9.000000
1.245336 -2.160441 1.061075 10.000000
0.968576 1.717808 0.856247 31.000000
0.981443 1.698063 0.855922 30.000000
1.000055 1.685524 0.859187 27.000000
1.023297 1.680606 0.866482 30.000000
1.024647 1.640468 0.855604 27.000000
1.044990 1.631277 0.860797 29.000000
1.055327 1.606630 0.857854 36.000000
1.075477 1.597053 0.862983 29.000000
1.094420 1.587799 0.868384 33.000000
1.104025 1.562823 0.865237 36.000000
1.123870 1.552540 0.870253 34.000000
1.143668 1.542062 0.875217 35.000000
1.154077 1.520975 0.874274 31.000000
1.162568 1.495731 0.870829 36.000000
1.180855 1.485222 0.876042 65.000000
1.197311 1.470360 0.878785 36.000000
1.213639 1.455372 0.881464 52.000000
1.228819 1.440702 0.884461 63.000000
1.241850 1.421857 0.884954 38.000000
1.265845 1.416962 0.894269 54.000000
1.274678 1.394970 0.892817 32.000000
1.305674 1.395520 0.906014 62.000000
1.317333 1.376445 0.906641 69.000000
1.331886 1.360476 0.909409 54.000000
1.337570 1.334245 0.905310 79.000000
1.361506 1.327443 0.914432 69.000000
1.375673 1.310894 0.917008 60.000000
1.402883 1.306484 0.928300 61.000000
1.403619 1.277281 0.922030 28.000000
1.434193 1.275149 0.935431 40.000000
1.444549 1.254742 0.935710 59.000000
1.458135 1.237191 0.938050 34.000000
1.478434 1.225106 0.944740 42.000000
1.488271 1.204326 0.944813 52.000000
1.501433 1.186147 0.946963 36.000000
1.525038 1.176044 0.955782 42.000000
1.541475 1.160101 0.960109 29.000000
1.553641 1.141753 0.962476 35.000000
1.569836 1.125351 0.966687 58.000000
1.585363 1.109192 0.971237 36.000000
1.601342 1.092284 0.975334 42.000000
1.616647 1.075619 0.979772 36.000000
1.631873 1.058665 0.984087 39.000000
1.654958 1.045787 0.992533 41.000000
1.654759 1.018881 0.987746 25.000000
1.673377 1.003572 0.994215 36.000000
1.695740 0.990191 1.002909 69.000000
1.710309 0.972001 1.006937 52.000000
1.724723 0.953515 1.010972 68.000000
1.739050 0.934801 1.014880 47.000000
1.748806 0.914205 1.016845 37.000000
1.774678 0.901113 1.027510 44.000000
1.808075 0.891776 1.043141 27.000000
1.813908 0.867969 1.042226 32.000000
1.835244 0.851938 1.050868 38.000000
1.852448 0.833661 1.057084 31.000000
1.873516 0.816823 1.065556 35.000000
1.894558 0.799553 1.073977 45.000000
1.903196 0.776897 1.075322 35.000000
1.915741 0.755653 1.078988 33.000000
1.940522 0.738967 1.089486 29.000000
1.969093 0.723556 1.102620 37.000000
2.002075 0.708765 1.117676 62.000000
2.022105 0.689242 1.125988 42.000000
2.033677 0.666519 1.129575 45.000000
2.049274 0.644950 1.135429 53.000000
2.064633 0.623031 1.141218 36.000000
2.079599 0.600986 1.147241 35.000000
2.107466 0.582042 1.159854 29.000000
2.130663 0.561543 1.170445 35.000000
2.140808 0.537262 1.173859 35.000000
2.159409 0.514850 1.181823 36.000000
2.182152 0.493028 1.192072 36.000000
2.213299 0.472562 1.206962 62.000000
2.222790 0.447052 1.209942 33.000000
2.244751 0.423973 1.220307 33.000000
2.283913 0.403473 1.239956 32.000000
2.296868 0.377776 1.245395 34.000000
2.318327 0.353119 1.255399 35.000000
2.330628 0.326905 1.260933 36.000000
2.356069 0.302003 1.273068 33.000000
2.407257 0.279633 1.299637 46.000000
2.418959 0.252012 1.304784 36.000000
2.443249 0.225397 1.317367 34.000000
2.454496 0.197035 1.322268 30.000000
2.504709 0.171254 1.348810 36.000000
2.532744 0.143086 1.363359 40.000000
2.547437 0.113616 1.370637 37.000000
2.557389 0.083689 1.375371 33.000000
2.597635 0.054196 1.397037 35.000000
2.615608 0.023566 1.406599 36.000000
2.633313 -0.007482 1.416162 32.000000
2.668357 -0.039207 1.434922 44.000000
2.720629 -0.072233 1.463054 38.000000
2.741596 -0.105329 1.474891 33.000000
2.766655 -0.139072 1.488999 36.000000
2.817677 -0.175176 1.517015 33.000000
2.859648 -0.211782 1.540185 36.000000
2.865743 -0.246509 1.544817 27.000000
2.911383 -0.285110 1.569928 32.000000
2.969353 -0.326296 1.602512 42.000000
2.996248 -0.365202 1.618325 37.000000
3.018169 -0.404250 1.632184 38.000000
3.022464 -0.441267 1.635850 35.000000
2.978201 -0.470918 1.613979 34.000000
2.968428 -0.505455 1.610682 31.000000
2.928097 -0.534348 1.590889 24.000000
2.900580 -0.564740 1.577878 29.000000
2.894037 -0.599193 1.577162 34.000000
2.857124 -0.626924 1.559673 33.000000
2.819951 -0.653938 1.542205 29.000000
2.804069 -0.685275 1.536305 33.000000
2.783657 -0.715210 1.527867 33.000000
2.741698 -0.738897 1.507620 26.000000
2.716257 -0.766769 1.497169 22.000000
2.691115 -0.793847 1.485956 29.000000
2.661081 -0.819319 1.473006 27.000000
2.639320 -0.846894 1.464461 33.000000
2.621555 -0.875378 1.458168 27.000000
2.603565 -0.903567 1.451791 32.000000
2.572580 -0.927245 1.438819 34.000000
2.550050 -0.952961 1.429864 20.000000
2.514578 -0.973772 1.414334 17.000000
2.503706 -1.003787 1.412754 29.000000
2.492555 -1.033616 1.410896 29.000000
2.476958 -1.061606 1.406724 35.000000
2.444995 -1.082043 1.393131 29.000000
2.416985 -1.103748 1.381879 31.000000
2.405012 -1.132356 1.379685 32.000000
2.388222 -1.159392 1.375557 24.000000
2.339876 -1.169714 1.352518 21.000000
2.330705 -1.199878 1.352834 31.000000
2.321850 -1.229416 1.352511 29.000000
2.308143 -1.257282 1.350437 36.000000
2.286491 -1.280529 1.343530 33.000000
2.264575 -1.303409 1.336640 32.000000
2.238744 -1.323660 1.327402 44.000000
2.208984 -1.341144 1.315832 26.000000
2.171681 -1.353283 1.299593 20.000000
2.178894 -1.394156 1.311053 31.000000
2.141376 -1.405308 1.294776 31.000000
2.118729 -1.425810 1.287384 34.000000
2.110109 -1.456546 1.289521 32.000000
2.076187 -1.468603 1.275336 31.000000
2.056157 -1.491156 1.270494 35.000000
2.043889 -1.518092 1.269606 23.000000
2.019834 -1.537413 1.262461 23.000000
2.002790 -1.561811 1.259606 33.000000
2.002995 -1.599935 1.267833 32.000000
1.971481 -1.612754 1.256020 22.000000
1.950360 -1.633620 1.250781 17.000000
1.928957 -1.654230 1.245552 28.000000
1.894025 -1.662644 1.231382 32.000000
1.899285 -1.706444 1.243453 26.000000
1.837692 -1.689745 1.211776 23.000000
1.832427 -1.724101 1.217183 32.000000
1.813833 -1.746107 1.213771 31.000000
1.794982 -1.767773 1.210274 31.000000
1.778113 -1.793237 1.209363 31.000000
1.758887 -1.814514 1.205774 31.000000
1.736298 -1.832257 1.199953 31.000000
1.737140 -1.876965 1.211697 25.000000
1.705055 -1.884281 1.199361 23.000000
1.691071 -1.911383 1.199756 34.000000
1.672602 -1.935722 1.198349 30.000000
1.637549 -1.938330 1.183813 33.000000
1.624501 -1.969074 1.186547 31.000000
1.602509 -1.989176 1.182939 29.000000
1.590148 -2.018949 1.185011 33.000000
1.564837 -2.035038 1.179210 24.000000
1.532700 -2.039120 1.166581 16.000000
1.518177 -2.069044 1.168947 22.000000
1.503152 -2.098997 1.171185 24.000000
1.482576 -2.121420 1.169264 27.000000
1.455505 -2.131482 1.160656 24.000000
1.434457 -2.153330 1.158640 26.000000
1.418216 -2.182640 1.160596 24.000000
1.404082 -2.215737 1.164448 15.000000
1.384541 -2.241035 1.164199 20.000000
1.355122 -2.250508 1.155865 11.000000
1.300120 -2.216059 1.125407 9.000000
1.236531 -2.160036 1.084741 12.000000
0.974964 1.698430 0.875007 26.000000
0.993620 1.685862 0.878345 35.000000
1.009721 1.669132 0.879628 25.000000
1.024367 1.652918 0.881157 17.000000
1.035221 1.628301 0.878201 34.000000
1.050529 1.611229 0.879292 26.000000
1.070740 1.601645 0.884541 33.000000
1.084673 1.584830 0.885876 35.000000
1.099559 1.567303 0.886872 27.000000
1.119463 1.556947 0.891943 40.000000
1.135599 1.543328 0.895299 26.000000
1.163604 1.543327 0.906697 23.000000
1.155789 1.496383 0.890457 46.000000
1.188165 1.503564 0.906473 33.000000
1.190649 1.470937 0.898533 41.000000
1.197422 1.446059 0.895146 58.000000
1.222233 1.441208 0.904351 35.000000
1.243356 1.433119 0.911623 74.000000
1.256296 1.414078 0.912085 35.000000
1.280308 1.408752 0.921569 23.000000
1.292220 1.389839 0.922223 74.000000
1.301541 1.366974 0.920352 36.000000
1.325490 1.360795 0.929702 70.000000
1.330508 1.335059 0.925799 57.000000
1.341598 1.315641 0.926281 39.000000
1.362134 1.305475 0.933336 62.000000
1.386009 1.297956 0.942574 35.000000
1.393380 1.274963 0.940640 24.000000
1.423833 1.272804 0.954326 63.000000
1.434279 1.252402 0.954496 37.000000
1.451263 1.237750 0.959147 49.000000
1.468115 1.222754 0.963744 63.000000
1.474580 1.199100 0.961451 32.000000
1.487646 1.181029 0.963661 61.000000
1.510560 1.171410 0.973000 33.000000
1.527006 1.155507 0.977368 26.000000
1.546897 1.142029 0.984023 47.000000
1.562569 1.126040 0.988614 34.000000
1.574990 1.106880 0.990596 60.000000
1.590415 1.090430 0.995135 37.000000
1.598313 1.068757 0.995023 35.000000
1.625147 1.058759 1.005948 47.000000
1.640228 1.041533 1.010322 32.000000
1.647619 1.019418 1.010016 29.000000
1.670007 1.006342 1.018896 43.000000
1.684704 0.988374 1.023096 42.000000
1.695471 0.967917 1.024846 55.000000
1.717573 0.953839 1.033579 51.000000
1.727532 0.933378 1.035612 35.000000
1.745658 0.916486 1.041910 74.000000
1.774932 0.905634 1.055517 29.000000
1.788937 0.885985 1.059306 26.000000
1.814231 0.872256 1.070490 37.000000
1.831553 0.854207 1.076862 34.000000
1.840708 0.832194 1.078469 34.000000
1.857730 0.813577 1.084723 38.000000
1.874619 0.794697 1.090919 34.000000
1.895448 0.777081 1.099352 54.000000
1.920341 0.760722 1.110168 28.000000
1.928285 0.737822 1.111742 29.000000
1.957015 0.722182 1.124752 49.000000
1.985406 0.706192 1.138078 36.000000
2.009577 0.688136 1.148908 51.000000
2.021122 0.665411 1.152617 52.000000
2.036667 0.643837 1.158492 41.000000
2.056179 0.623188 1.166762 37.000000
2.062670 0.598715 1.168105 31.000000
2.090394 0.579811 1.180954 27.000000
2.113476 0.559353 1.191656 35.000000
2.132170 0.537343 1.199905 34.000000
2.150706 0.514951 1.208090 37.000000
2.160521 0.490159 1.211334 36.000000
2.195781 0.470781 1.228828 32.000000
2.217896 0.448083 1.239452 35.000000
2.222541 0.421628 1.240397 28.000000
2.261477 0.401299 1.260427 30.000000
2.287334 0.377846 1.273100 46.000000
2.308777 0.353213 1.283296 37.000000
2.320951 0.326946 1.288927 40.000000
2.341923 0.301427 1.298893 37.000000
2.358100 0.275069 1.306702 34.000000
2.404556 0.251506 1.331316 35.000000
2.424356 0.224568 1.341642 32.000000
2.431180 0.195990 1.344225 29.000000
2.489836 0.170993 1.376120 35.000000
2.504602 0.142078 1.383625 35.000000
2.523494 0.113047 1.393548 33.000000
2.564107 0.084230 1.415284 40.000000
2.582240 0.054106 1.425305 40.000000
2.604487 0.023605 1.437475 34.000000
2.626465 -0.007507 1.449646 42.000000
2.661299 -0.039243 1.468789 36.000000
2.713257 -0.072372 1.497494 49.000000
2.738463 -0.105645 1.511986 48.000000
2.750243 -0.138880 1.519040 36.000000
2.805321 -0.175155 1.550142 44.000000
2.838295 -0.211159 1.568962 32.000000
2.857429 -0.246864 1.580931 27.000000
2.889699 -0.284175 1.599330 35.000000
2.942956 -0.324817 1.630173 35.000000
2.978374 -0.364575 1.651250 47.000000
3.021742 -0.406538 1.677341 55.000000
3.012946 -0.441798 1.673977 31.000000
2.973233 -0.472250 1.653974 36.000000
2.954927 -0.505464 1.645917 34.000000
2.888823 -0.529572 1.611308 17.000000
2.887299 -0.564661 1.612485 31.000000
2.863878 -0.595390 1.601651 31.000000
2.835743 -0.624868 1.588735 32.000000
2.798762 -0.651742 1.570837 32.000000
2.782942 -0.683031 1.564844 31.000000
2.762619 -0.712822 1.556366 32.000000
2.746307 -0.743357 1.549995 33.000000
2.670204 -0.757115 1.510759 21.000000
2.670431 -0.791242 1.513799 30.000000
2.653135 -0.820570 1.507673 32.000000
2.627239 -0.846903 1.496598 28.000000
2.617848 -0.878238 1.494969 32.000000
2.599864 -0.906485 1.488488 32.000000
2.556832 -0.925453 1.467674 31.000000
2.546270 -0.956195 1.466260 31.000000
2.499059 -0.972006 1.442862 21.000000
2.504436 -1.008603 1.450656 32.000000
2.485078 -1.035239 1.444151 33.000000
2.433125 -1.047550 1.418590 32.000000
2.433566 -1.081995 1.423735 35.000000
2.401721 -1.101829 1.409847 32.000000
2.381587 -1.126754 1.402954 31.000000
2.365411 -1.153149 1.398330 32.000000
2.336528 -1.173865 1.387048 24.000000
2.339584 -1.209716 1.393874 35.000000
2.318228 -1.233754 1.387203 36.000000
2.297324 -1.256970 1.379822 32.000000
2.283323 -1.284612 1.377473 36.000000
2.261385 -1.307640 1.370479 35.000000
2.224129 -1.321254 1.354136 33.000000
2.205821 -1.345679 1.349237 34.000000
2.172351 -1.360332 1.335108 24.000000
2.168643 -1.393545 1.339289 32.000000
2.145452 -1.415164 1.332470 31.000000
2.126401 -1.438297 1.327259 30.000000
2.092618 -1.451036 1.312804 35.000000
2.058151 -1.463595 1.298922 31.000000
2.042463 -1.488122 1.295802 30.000000
2.043656 -1.526315 1.304586 33.000000
2.001848 -1.532283 1.285885 21.000000
1.992628 -1.561445 1.287135 32.000000
1.985727 -1.594088 1.290971 31.000000
1.950893 -1.604052 1.276730 19.000000
1.933188 -1.627716 1.273621 14.000000
1.915311 -1.651121 1.270512 29.000000
1.877063 -1.656604 1.253882 28.000000
1.875546 -1.694328 1.261801 31.000000
1.827429 -1.689651 1.238393 20.000000
1.815526 -1.717951 1.239527 29.000000
1.800185 -1.742951 1.238251 31.000000
1.784521 -1.767859 1.236963 29.000000
1.768533 -1.792587 1.235576 33.000000
1.755509 -1.820369 1.236287 29.000000
1.731810 -1.838917 1.230833 28.000000
1.715219 -1.863150 1.229243 26.000000
1.686255 -1.873730 1.218848 20.000000
1.665149 -1.894665 1.215430 32.000000
1.642131 -1.911327 1.209250 30.000000
1.632233 -1.945621 1.214381 28.000000
1.611701 -1.965122 1.210258 31.000000
1.589709 -1.985310 1.206563 27.000000
1.571620 -2.007942 1.204490 29.000000
1.554652 -2.034667 1.204875 29.000000
1.526525 -2.046841 1.196830 15.000000
1.505182 -2.065171 1.192441 25.000000
1.487460 -2.091409 1.192611 24.000000
1.469489 -2.117433 1.192751 23.000000
1.444926 -2.131268 1.186153 24.000000
1.423900 -2.153228 1.184084 22.000000
1.407548 -2.182462 1.185982 21.000000
1.393105 -2.215561 1.189991 21.000000
1.372676 -2.236201 1.187227 17.000000
1.347978 -2.253428 1.182832 15.000000
1.281758 -2.199526 1.141526 9.000000
0.973682 1.711095 0.900542 26.000000
0.983409 1.682720 0.895627 26.000000
1.004335 1.673782 0.901126 15.000000
1.013258 1.645342 0.896059 18.000000
1.025257 1.625195 0.895475 22.000000
1.043114 1.611932 0.898710 25.000000
1.058404 1.594770 0.899753 27.000000
1.078503 1.584889 0.905050 26.000000
1.097454 1.575333 0.910622 29.000000
1.101782 1.542892 0.902985 29.000000
1.128450 1.543871 0.914949 24.000000
1.150998 1.536658 0.922255 29.000000
1.154384 1.504040 0.914385 26.000000
1.170058 1.489907 0.917597 32.000000
1.192269 1.481946 0.924796 35.000000
1.213535 1.474232 0.932346 26.000000
1.223251 1.452449 0.931057 34.000000
1.239516 1.436894 0.933768 31.000000
1.257650 1.425022 0.939016 31.000000
1.254778 1.389613 0.928662 29.000000
1.273380 1.376954 0.933441 29.000000
1.288085 1.361290 0.936254 32.000000
1.308816 1.351856 0.943550 38.000000
1.323269 1.335796 0.946312 33.000000
1.334418 1.316345 0.946756 36.000000
1.355003 1.306065 0.953969 35.000000
1.369040 1.289387 0.956544 32.000000
1.386291 1.275532 0.961393 29.000000
1.400103 1.258428 0.963910 23.000000
1.417129 1.244064 0.968647 33.000000
1.440773 1.235274 0.977912 33.000000
1.454260 1.217487 0.980257 32.000000
1.470989 1.202313 0.984839 33.000000
1.483593 1.184615 0.987451 34.000000
1.496589 1.166263 0.989672 32.000000
1.509455 1.147781 0.991761 28.000000
1.532202 1.137412 1.001146 32.000000
1.551997 1.123662 1.007840 34.000000
1.560278 1.102346 1.007820 35.000000
1.579289 1.088444 1.014737 32.000000
1.587279 1.066841 1.014646 32.000000
1.606625 1.051989 1.021058 31.000000
1.621628 1.034848 1.025468 29.000000
1.636549 1.017417 1.029820 28.000000
1.658862 1.004395 1.038837 30.000000
1.669739 0.984186 1.040717 31.000000
1.702920 0.977326 1.057154 33.000000
1.709762 0.954425 1.056549 34.000000
1.720219 0.933579 1.058179 35.000000
1.737772 0.916972 1.064981 32.000000
1.763577 0.903775 1.076025 32.000000
1.773142 0.882511 1.077883 21.000000
1.794428 0.866837 1.086854 29.000000
1.811656 0.848947 1.093312 27.000000
1.824764 0.828842 1.097313 26.000000
1.865790 0.820930 1.118083 27.000000
1.862635 0.793146 1.112350 27.000000
1.895537 0.780595 1.128224 27.000000
1.908175 0.759291 1.131923 25.000000
1.916119 0.736391 1.133498 25.000000
1.940328 0.719503 1.144753 27.000000
1.968935 0.703259 1.157875 29.000000
1.992986 0.685241 1.168888 31.000000
2.004491 0.662636 1.172566 26.000000
2.023764 0.642725 1.181481 29.000000
2.039092 0.620872 1.187385 29.000000
2.050135 0.597446 1.190714 26.000000
2.085764 0.581099 1.209121 24.000000
2.087677 0.555002 1.207816 21.000000
2.110562 0.534208 1.218642 26.000000
2.137478 0.513951 1.231776 25.000000
2.151442 0.490203 1.237513 24.000000
2.177847 0.469082 1.250911 28.000000
2.204354 0.447217 1.263702 19.000000
2.213280 0.421656 1.267098 12.000000
2.230566 0.397443 1.275244 23.000000
2.252042 0.373555 1.285693 22.000000
2.277325 0.349917 1.298930 23.000000
2.337177 0.330562 1.331264 27.000000
2.336166 0.302051 1.329551 20.000000
2.356599 0.276093 1.339963 23.000000
2.381157 0.250175 1.352676 22.000000
2.362171 0.219627 1.340629 10.000000
2.433659 0.197055 1.380586 21.000000
2.435542 0.167951 1.381099 18.000000
2.476355 0.141074 1.403604 22.000000
2.503828 0.112588 1.418555 25.000000
2.518017 0.083047 1.425943 21.000000
2.575186 0.054199 1.458320 22.000000
2.588598 0.023515 1.465892 27.000000
2.632197 -0.007570 1.490529 28.000000
2.658115 -0.039437 1.505124 29.000000
2.688096 -0.071950 1.522085 28.000000
2.700103 -0.104612 1.529474 28.000000
2.742139 -0.139129 1.554007 31.000000
2.775247 -0.174044 1.573319 27.000000
2.816598 -0.210438 1.597445 24.000000
2.849012 -0.247117 1.616535 27.000000
2.889322 -0.285380 1.640835 27.000000
2.942212 -0.326221 1.672296 33.000000
2.947119 -0.362458 1.676486 29.000000
2.999160 -0.405212 1.707594 29.000000
3.003005 -0.442325 1.711976 27.000000
2.959504 -0.471992 1.688716 28.000000
2.919800 -0.501471 1.668249 24.000000
2.884095 -0.530916 1.650152 20.000000
2.861135 -0.561958 1.639119 21.000000
2.854601 -0.596257 1.638405 26.000000
2.835297 -0.627525 1.629635 29.000000
2.802704 -0.655508 1.613947 24.000000
2.761469 -0.680692 1.593190 29.000000
2.741237 -0.710438 1.584473 27.000000
2.720778 -0.739781 1.575670 16.000000
2.674902 -0.761453 1.552163 25.000000
2.645227 -0.787396 1.538822 24.000000
2.640526 -0.820516 1.539905 25.000000
2.615107 -0.846524 1.528158 23.000000
2.597416 -0.875022 1.521673 25.000000
2.575371 -0.901780 1.512678 25.000000
2.556772 -0.929925 1.506596 24.000000
2.505767 -0.945044 1.480413 12.000000
2.487340 -0.971741 1.473434 24.000000
2.480416 -1.003354 1.474265 27.000000
2.465187 -1.031590 1.470084 29.000000
2.449623 -1.059543 1.465815 27.000000
2.409892 -1.076483 1.446946 29.000000
2.397951 -1.105418 1.444833 26.000000
2.385825 -1.134170 1.442629 25.000000
2.326114 -1.139650 1.411621 10.000000
2.329467 -1.175383 1.418744 26.000000
2.308345 -1.199609 1.411980 27.000000
2.303182 -1.231306 1.414122 28.000000
2.281697 -1.254983 1.407192 29.000000
2.256204 -1.276125 1.397814 27.000000
2.231210 -1.296271 1.387833 31.000000
2.201682 -1.314242 1.375874 27.000000
2.164658 -1.326973 1.359228 10.000000
2.161267 -1.360123 1.363657 24.000000
2.150131 -1.388580 1.363269 25.000000
2.134290 -1.415042 1.361056 29.000000
2.107931 -1.433255 1.351111 27.000000
2.088809 -1.455996 1.345781 26.000000
2.047883 -1.463133 1.326388 29.000000
2.035043 -1.490840 1.326109 25.000000
2.015498 -1.512535 1.320570 10.000000
1.984518 -1.526386 1.308528 26.000000
1.984859 -1.564421 1.317238 24.000000
1.964880 -1.585292 1.311541 26.000000
1.933566 -1.598029 1.299303 13.000000
1.922675 -1.627391 1.300788 10.000000
1.911398 -1.656660 1.302251 24.000000
1.883270 -1.671158 1.292103 24.000000
1.854989 -1.685151 1.281990 10.000000
1.826733 -1.698645 1.271826 24.000000
1.814734 -1.727008 1.272852 22.000000
1.802259 -1.755357 1.273854 30.000000
1.764270 -1.758395 1.256811 23.000000
1.767177 -1.802093 1.268871 24.000000
1.741506 -1.817104 1.260685 26.000000
1.718947 -1.834973 1.254673 21.000000
1.701130 -1.859886 1.253469 10.000000
1.681200 -1.880504 1.249603 22.000000
1.664048 -1.904240 1.247778 21.000000
1.639706 -1.921739 1.242043 26.000000
1.607756 -1.927789 1.229124 21.000000
1.604408 -1.968137 1.238179 24.000000
1.582252 -1.988225 1.234386 28.000000
1.558539 -2.003811 1.227898 19.000000
1.560589 -2.055722 1.243558 13.000000
1.510760 -2.039174 1.217989 17.000000
1.497392 -2.068436 1.219988 17.000000
1.476937 -2.090951 1.218078 20.000000
1.455135 -2.108860 1.213492 19.000000
1.444314 -2.145960 1.220004 17.000000
1.420486 -2.164201 1.215727 19.000000
1.396572 -2.182181 1.211363 13.000000
1.386064 -2.218249 1.217109 12.000000
1.368491 -2.247482 1.218924 20.000000
1.334267 -2.249297 1.206035 10.000000
1.293395 -2.238805 1.186951 9.000000
0.979936 1.691191 0.919226 17.000000
1.012527 1.701648 0.935468 15.000000
1.010116 1.653656 0.919650 20.000000
1.035637 1.651970 0.929443 26.000000
1.045334 1.627668 0.926655 27.000000
1.063270 1.614118 0.929928 26.000000
1.077445 1.597228 0.931352 26.000000
1.092650 1.579488 0.932368 27.000000
1.112776 1.569015 0.937687 24.000000
1.137018 1.566137 0.947745 26.000000
1.138374 1.529873 0.937599 22.000000
1.157108 1.519302 0.943120 33.000000
1.151962 1.476164 0.928343 34.000000
1.173111 1.468872 0.935989 32.000000
1.192349 1.457209 0.941044 35.000000
1.216308 1.452777 0.950920 32.000000
1.220087 1.424139 0.945026 29.000000
1.233101 1.405085 0.945461 30.000000
1.262955 1.406454 0.959784 26.000000
1.271873 1.384237 0.958154 45.000000
1.286683 1.368461 0.961116 43.000000
1.304383 1.355696 0.966234 35.000000
1.318906 1.339560 0.969074 45.000000
1.342820 1.332550 0.978677 41.000000
1.350814 1.309731 0.976799 36.000000
1.364983 1.292910 0.979452 36.000000
1.382210 1.278969 0.984356 22.000000
1.399437 1.264817 0.989272 35.000000
1.416535 1.250325 0.994070 43.000000
1.433502 1.235620 0.998815 33.000000
1.453783 1.223482 1.005910 43.000000
1.466577 1.205897 1.008600 35.000000
1.486714 1.193115 1.015598 45.000000
1.492297 1.169679 1.013521 52.000000
1.505223 1.151045 1.015620 23.000000
1.538601 1.148545 1.032320 51.000000
1.554932 1.131975 1.036688 55.000000
1.559830 1.107944 1.034333 36.000000
1.575258 1.091397 1.039039 41.000000
1.597819 1.079548 1.048399 52.000000
1.606343 1.057172 1.047816 61.000000
1.632478 1.046998 1.059475 57.000000
1.654966 1.034006 1.068703 25.000000
1.650722 1.005062 1.061520 76.000000
1.672994 0.991507 1.070638 67.000000
1.691419 0.975353 1.077298 62.000000
1.698287 0.952456 1.076580 56.000000
1.719785 0.938232 1.085957 57.000000
1.726314 0.915062 1.085170 46.000000
1.743766 0.898123 1.091944 64.000000
1.772883 0.886788 1.105974 24.000000
1.798078 0.872937 1.117535 47.000000
1.811389 0.852921 1.121656 62.000000
1.824530 0.832739 1.125714 51.000000
1.825612 0.807035 1.122357 52.000000
1.842429 0.788168 1.128732 51.000000
1.879159 0.777431 1.147263 51.000000
1.879271 0.751538 1.144052 61.000000
1.911928 0.738022 1.160036 26.000000
1.940142 0.722541 1.173876 87.000000
1.960117 0.703487 1.182736 79.000000
1.971753 0.681226 1.186597 66.000000
1.991446 0.661457 1.195192 86.000000
2.019285 0.643955 1.208756 79.000000
2.030138 0.620950 1.212725 55.000000
2.045259 0.598766 1.218584 52.000000
2.089157 0.584717 1.242218 29.000000
2.103795 0.561778 1.248336 64.000000
2.122378 0.539552 1.256875 67.000000
2.128157 0.513969 1.257800 39.000000
2.154520 0.493300 1.271576 62.000000
2.185300 0.472727 1.287244 80.000000
2.198749 0.448160 1.293261 74.000000
2.211920 0.423389 1.299127 42.000000
2.237755 0.400543 1.312420 33.000000
2.254812 0.375681 1.320564 57.000000
2.275953 0.351171 1.331136 90.000000
2.292379 0.325640 1.339459 62.000000
2.334346 0.303145 1.362656 80.000000
2.367578 0.278628 1.380779 71.000000
2.383427 0.251488 1.388719 86.000000
2.394747 0.223635 1.394072 44.000000
2.414111 0.196277 1.404700 37.000000
2.459134 0.170297 1.430218 56.000000
2.473825 0.141466 1.438096 50.000000
2.496823 0.112714 1.450821 55.000000
2.519578 0.083443 1.463371 66.000000
2.550461 0.053836 1.481302 53.000000
2.568115 0.023384 1.491526 60.000000
2.611441 -0.007557 1.516636 39.000000
2.632873 -0.039215 1.529005 55.000000
2.645376 -0.071158 1.536257 36.000000
2.687557 -0.104590 1.561359 34.000000
2.729319 -0.139060 1.586365 43.000000
2.753575 -0.173480 1.601133 39.000000
2.798971 -0.210042 1.628244 32.000000
2.809621 -0.244739 1.635074 27.000000
2.853987 -0.283264 1.662356 32.000000
2.910844 -0.324162 1.696942 36.000000
2.920007 -0.360773 1.703839 48.000000
2.963130 -0.402141 1.730558 36.000000
2.971548 -0.439574 1.737012 35.000000
2.927890 -0.469202 1.713859 34.000000
2.922559 -0.504322 1.713023 34.000000
2.878487 -0.532354 1.689587 25.000000
2.859860 -0.564393 1.680960 33.000000
2.845115 -0.596913 1.674633 34.000000
2.808646 -0.624628 1.656353 35.000000
2.784979 -0.654300 1.644763 33.000000
2.748168 -0.680441 1.626123 32.000000
2.732201 -0.711336 1.619851 31.000000
2.690875 -0.734972 1.598473 29.000000
2.657698 -0.760092 1.582003 18.000000
2.653206 -0.793509 1.583220 35.000000
2.628058 -0.820071 1.571456 29.000000
2.614737 -0.850362 1.567529 35.000000
2.584597 -0.874980 1.553518 30.000000
2.570819 -0.904585 1.549322 31.000000
2.536363 -0.926535 1.532696 31.000000
2.522156 -0.955505 1.528241 28.000000
2.458620 -0.965387 1.494715 17.000000
2.476387 -1.006407 1.509798 35.000000
2.448991 -1.029636 1.498193 32.000000
2.437450 -1.059235 1.496239 34.000000
2.421745 -1.086956 1.491834 37.000000
2.393838 -1.108896 1.479913 32.000000
2.365906 -1.130268 1.467927 35.000000
2.337861 -1.151076 1.455880 25.000000
2.286340 -1.159472 1.429075 14.000000
2.308663 -1.205168 1.448439 35.000000
2.275768 -1.223014 1.434214 33.000000
2.262602 -1.250248 1.431508 34.000000
2.237210 -1.271356 1.421999 35.000000
2.219253 -1.296423 1.417162 33.000000
2.201077 -1.321129 1.412334 35.000000
2.168466 -1.335921 1.397180 28.000000
2.135215 -1.350527 1.382519 14.000000
2.146130 -1.393094 1.396563 35.000000
2.119156 -1.412387 1.387076 31.000000
2.078454 -1.420697 1.367450 33.000000
2.073779 -1.453359 1.371621 32.000000
2.040269 -1.465575 1.356578 28.000000
2.023628 -1.490755 1.353964 33.000000
2.007596 -1.515150 1.350741 29.000000
1.952258 -1.510229 1.321985 10.000000
1.974226 -1.563855 1.344554 35.000000
1.949860 -1.582601 1.336893 28.000000
1.936500 -1.608778 1.335590 23.000000
1.915305 -1.629745 1.330208 13.000000
1.897332 -1.653274 1.326908 22.000000
1.879013 -1.676630 1.323696 29.000000
1.844170 -1.684788 1.308708 27.000000
1.806331 -1.689258 1.291380 10.000000
1.819808 -1.742065 1.311056 31.000000
1.803998 -1.767533 1.309718 30.000000
1.775400 -1.780150 1.299185 32.000000
1.752952 -1.798730 1.293182 30.000000
1.733468 -1.820197 1.289389 27.000000
1.716845 -1.844665 1.287785 29.000000
1.694069 -1.862355 1.281630 24.000000
1.674068 -1.882960 1.277664 10.000000
1.652687 -1.904168 1.274043 29.000000
1.632341 -1.924342 1.269991 26.000000
1.614762 -1.947698 1.268007 29.000000
1.589925 -1.964689 1.262060 29.000000
1.569061 -1.984087 1.257749 25.000000
1.554945 -2.014642 1.260527 31.000000
1.533711 -2.033536 1.256107 25.000000
1.494956 -2.031350 1.238894 10.000000
1.497202 -2.082439 1.254116 24.000000
1.476520 -2.105113 1.252123 24.000000
1.452955 -2.123965 1.247933 24.000000
1.423368 -2.130451 1.236700 21.000000
1.407045 -2.159837 1.238856 19.000000
1.382194 -2.173226 1.231811 20.000000
1.367573 -2.206261 1.236053 18.000000
1.345342 -2.227676 1.233633 10.000000
1.332020 -2.264478 1.239731 14.000000
0.973944 1.695644 0.940700 27.000000
0.990530 1.678853 0.942034 21.000000
1.011558 1.669552 0.947653 20.000000
1.018168 1.637160 0.940139 30.000000
1.037469 1.628116 0.946071 29.000000
1.055579 1.614534 0.949417 32.000000
1.064829 1.590109 0.946442 29.000000
1.087556 1.583548 0.954082 28.000000
1.101478 1.566272 0.955450 35.000000
1.121595 1.555531 0.960825 25.000000
1.127220 1.527149 0.955303 27.000000
1.125492 1.487518 0.942503 34.000000
1.154769 1.491111 0.957133 30.000000
1.171486 1.476072 0.960038 41.000000
1.184299 1.458030 0.961052 35.000000
1.194003 1.436380 0.959637 36.000000
1.204454 1.414169 0.957810 55.000000
1.245699 1.429241 0.981561 31.000000
1.249133 1.400426 0.975399 35.000000
1.258131 1.378259 0.973807 43.000000
1.275865 1.365821 0.979082 39.000000
1.302779 1.362646 0.991287 66.000000
1.311284 1.340010 0.989480 57.000000
1.322585 1.320520 0.989922 52.000000
1.340074 1.307079 0.994979 63.000000
1.351049 1.287279 0.995344 35.000000
1.374737 1.279378 1.005003 31.000000
1.391907 1.265115 1.009968 34.000000
1.405720 1.247719 1.012509 35.000000
1.426051 1.235823 1.019674 68.000000
1.438946 1.218476 1.022488 35.000000
1.462522 1.208870 1.032012 46.000000
1.471829 1.188249 1.032319 47.000000
1.488428 1.172483 1.036955 30.000000
1.504228 1.156961 1.041933 30.000000
1.520682 1.140694 1.046458 41.000000
1.543396 1.129841 1.056159 52.000000
1.551906 1.108362 1.056137 43.000000
1.563748 1.089268 1.058466 44.000000
1.579071 1.072496 1.063160 62.000000
1.601526 1.060321 1.072607 59.000000
1.605675 1.035852 1.069871 32.000000
1.616903 1.016070 1.071876 35.000000
1.631714 0.998428 1.076332 59.000000
1.650116 0.982722 1.083120 55.000000
1.675948 0.971061 1.094778 88.000000
1.693779 0.955031 1.101881 52.000000
1.704283 0.934092 1.103518 66.000000
1.721843 0.917444 1.110510 76.000000
1.747066 0.904465 1.122339 33.000000
1.756744 0.883176 1.124205 32.000000
1.781809 0.869357 1.135945 42.000000
1.802911 0.853165 1.145157 36.000000
1.812176 0.831125 1.146771 38.000000
1.829149 0.812462 1.153308 37.000000
1.857853 0.798595 1.167286 39.000000
1.858269 0.772824 1.164061 49.000000
1.894885 0.761267 1.182881 33.000000
1.882793 0.730471 1.171989 36.000000
1.922947 0.719791 1.193588 71.000000
1.930630 0.696381 1.194965 39.000000
1.958569 0.679980 1.208935 81.000000
1.969989 0.657544 1.212702 58.000000
1.989440 0.637495 1.221373 44.000000
2.012583 0.618489 1.232957 42.000000
2.015295 0.592773 1.231322 30.000000
2.063047 0.580071 1.257895 36.000000
2.077517 0.557279 1.264099 45.000000
2.104409 0.537407 1.277842 55.000000
2.118242 0.514138 1.284225 37.000000
2.144865 0.493253 1.297773 67.000000
2.166763 0.471025 1.309110 40.000000
2.188818 0.448075 1.319832 43.000000
2.189343 0.420812 1.318159 31.000000
2.227650 0.400423 1.339319 52.000000
2.244392 0.375747 1.348007 69.000000
2.261260 0.350521 1.356220 42.000000
2.286118 0.326284 1.369786 37.000000
2.336292 0.304788 1.398514 69.000000
2.330931 0.275599 1.393993 46.000000
2.372317 0.251518 1.417394 64.000000
2.383585 0.223613 1.422757 33.000000
2.415778 0.197335 1.441326 33.000000
2.443391 0.169949 1.457094 56.000000
2.457913 0.141204 1.465112 53.000000
2.476568 0.112343 1.475428 43.000000
2.507771 0.083408 1.493327 50.000000
2.525575 0.053564 1.503915 49.000000
2.547413 0.023255 1.516884 35.000000
2.586168 -0.007532 1.539906 34.000000
2.607462 -0.039086 1.552603 35.000000
2.632768 -0.071181 1.567576 35.000000
2.691749 -0.105336 1.603473 36.000000
2.711864 -0.138867 1.616067 33.000000
2.735857 -0.173188 1.631117 35.000000
2.776762 -0.209421 1.656189 29.000000
2.787233 -0.243966 1.663260 27.000000
2.848406 -0.284038 1.701280 36.000000
2.874955 -0.321733 1.718647 35.000000
2.913922 -0.361739 1.743559 34.000000
2.939680 -0.400928 1.760587 36.000000
2.943767 -0.437568 1.764634 32.000000
2.917360 -0.469734 1.751255 33.000000
2.895371 -0.501807 1.739703 31.000000
2.834741 -0.526607 1.705670 21.000000
2.841478 -0.563264 1.712178 31.000000
2.805419 -0.591449 1.693658 31.000000
2.773700 -0.619656 1.676990 32.000000
2.762358 -0.652202 1.673443 34.000000
2.721970 -0.677065 1.651340 30.000000
2.697742 -0.705583 1.639910 26.000000
2.689844 -0.738162 1.638430 29.000000
2.632010 -0.756349 1.606491 21.000000
2.631552 -0.790807 1.610384 30.000000
2.618881 -0.821105 1.606012 32.000000
2.584946 -0.844890 1.589419 28.000000
2.575525 -0.876132 1.587785 33.000000
2.549429 -0.901613 1.576080 28.000000
2.543552 -0.933956 1.576685 30.000000
2.492911 -0.949281 1.549655 28.000000
2.454390 -0.968204 1.530026 25.000000
2.455330 -1.003084 1.535867 31.000000
2.444573 -1.032642 1.533529 33.000000
2.417099 -1.055454 1.521664 32.000000
2.385549 -1.076004 1.507235 33.000000
2.357849 -1.097626 1.495148 31.000000
2.349674 -1.128159 1.495439 30.000000
2.348868 -1.162453 1.500507 30.000000
2.289736 -1.167271 1.468347 26.000000
2.277090 -1.194912 1.465728 32.000000
2.275555 -1.228658 1.470522 42.000000
2.246550 -1.248083 1.458472 35.000000
2.217999 -1.266507 1.445824 34.000000
2.203847 -1.293736 1.443406 35.000000
2.185697 -1.318446 1.438443 32.000000
2.174737 -1.347477 1.438390 30.000000
2.148741 -1.367057 1.428365 30.000000
2.119067 -1.383801 1.415750 30.000000
2.096679 -1.404783 1.408046 32.000000
2.070442 -1.422935 1.397842 32.000000
2.040705 -1.438042 1.385069 34.000000
2.021562 -1.460312 1.379599 35.000000
2.016377 -1.492654 1.383625 31.000000
2.013372 -1.528254 1.390555 31.000000
1.962386 -1.525733 1.363081 30.000000
1.962410 -1.563801 1.372220 33.000000
1.938936 -1.581990 1.363856 36.000000
1.928021 -1.611630 1.365587 23.000000
1.904320 -1.629130 1.357072 20.000000
1.882920 -1.649888 1.351479 27.000000
1.864687 -1.673157 1.348180 29.000000
1.842949 -1.693270 1.342430 31.000000
1.808256 -1.700958 1.327177 24.000000
1.805421 -1.738599 1.335410 32.000000
1.789586 -1.763973 1.334115 34.000000
1.751643 -1.767278 1.316353 32.000000
1.741631 -1.798373 1.319567 36.000000
1.725156 -1.823093 1.318092 33.000000
1.705430 -1.844377 1.314198 31.000000
1.688503 -1.868603 1.312529 28.000000
1.659584 -1.879511 1.301545 26.000000
1.639410 -1.899857 1.297407 32.000000
1.617771 -1.920807 1.293786 41.000000
1.611388 -1.957896 1.300973 34.000000
1.582142 -1.967318 1.289800 33.000000
1.557156 -1.983971 1.283639 33.000000
1.538797 -2.006683 1.281495 30.000000
1.529587 -2.044278 1.288780 32.000000
1.497483 -2.048704 1.275174 17.000000
1.463959 -2.053295 1.262150 25.000000
1.470577 -2.111767 1.282028 29.000000
1.446888 -2.130630 1.277729 27.000000
1.422212 -2.144705 1.270602 28.000000
1.400650 -2.166779 1.268429 26.000000
1.380586 -2.187773 1.265713 25.000000
1.353710 -2.201786 1.258953 26.000000
1.335990 -2.230913 1.260935 20.000000
1.315567 -2.256067 1.260696 21.000000
0.986815 1.686892 0.965792 22.000000
0.989431 1.646848 0.953755 24.000000
1.013555 1.645708 0.964248 23.000000
1.024780 1.620860 0.960956 29.000000
1.040416 1.603563 0.962112 26.000000
1.061943 1.597803 0.970282 26.000000
1.077279 1.580144 0.971299 35.000000
1.091225 1.562876 0.972626 26.000000
1.116499 1.559363 0.982666 26.000000
1.122361 1.530883 0.977065 32.000000
1.135788 1.513192 0.978222 29.000000
1.136581 1.477203 0.967456 42.000000
1.157705 1.469814 0.975347 35.000000
1.187125 1.472438 0.990226 32.000000
1.175612 1.422812 0.969836 36.000000
1.196403 1.414739 0.977684 30.000000
1.223057 1.413012 0.990115 34.000000
1.235233 1.394346 0.990865 31.000000
1.256097 1.385298 0.998602 32.000000
1.270978 1.369512 1.001578 81.000000
1.285729 1.353467 1.004554 39.000000
1.309551 1.346754 1.014529 42.000000
1.321045 1.327090 1.015013 60.000000
1.332340 1.307373 1.015419 33.000000
1.343374 1.287540 1.015747 48.000000
1.367018 1.279580 1.025605 27.000000
1.381026 1.262379 1.028211 32.000000
1.394122 1.245438 1.031144 47.000000
1.411102 1.230722 1.036040 33.000000
1.434672 1.221460 1.045735 47.000000
1.450854 1.206628 1.050996 42.000000
1.464236 1.188303 1.053303 36.000000
1.480179 1.172951 1.058384 44.000000
1.492600 1.154715 1.061027 26.000000
1.505484 1.135885 1.063141 33.000000
1.524651 1.122414 1.070508 58.000000
1.543730 1.108703 1.077830 38.000000
1.555599 1.089566 1.080164 42.000000
1.574508 1.075261 1.087452 71.000000
1.578937 1.050891 1.084632 35.000000
1.593979 1.033714 1.089252 42.000000
1.616269 1.020876 1.098799 27.000000
1.623749 0.998554 1.098254 39.000000
1.634155 0.978748 1.100604 63.000000
1.659919 0.967185 1.112439 36.000000
1.677604 0.951126 1.119628 52.000000
1.699508 0.936558 1.128803 81.000000
1.709442 0.915731 1.130858 48.000000
1.726897 0.898752 1.137891 76.000000
1.755784 0.887285 1.152385 28.000000
1.753771 0.860020 1.146601 35.000000
1.790277 0.851480 1.166003 61.000000
1.799542 0.829440 1.167688 35.000000
1.824324 0.814280 1.179329 37.000000
1.836770 0.793826 1.183786 62.000000
1.869382 0.781143 1.200426 37.000000
1.877647 0.758361 1.202151 36.000000
1.898068 0.739829 1.211038 35.000000
1.901931 0.715173 1.209998 37.000000
1.921766 0.696321 1.219053 61.000000
1.941041 0.677321 1.228563 47.000000
1.956558 0.656296 1.234941 51.000000
1.975998 0.636240 1.243751 64.000000
1.999031 0.617297 1.255444 38.000000
2.013728 0.595453 1.262010 36.000000
2.053369 0.580022 1.283374 33.000000
2.067795 0.557251 1.289673 35.000000
2.094175 0.537626 1.304111 61.000000
2.104190 0.513057 1.307542 68.000000
2.134766 0.493125 1.323906 46.000000
2.152461 0.470004 1.332764 58.000000
2.161600 0.444697 1.336375 35.000000
2.178840 0.420911 1.345016 35.000000
2.212802 0.399701 1.363959 51.000000
2.229781 0.374940 1.372384 52.000000
2.246161 0.349872 1.381141 66.000000
2.283893 0.327365 1.402240 67.000000
2.321157 0.304119 1.423683 44.000000
2.332817 0.276947 1.429466 62.000000
2.352404 0.250558 1.440792 57.000000
2.367862 0.223188 1.448849 35.000000
2.382837 0.195508 1.457251 35.000000
2.423390 0.169304 1.480671 35.000000
2.441825 0.140942 1.491867 36.000000
2.473071 0.112662 1.510269 61.000000
2.491374 0.083230 1.520596 44.000000
2.504710 0.053383 1.528765 36.000000
2.539209 0.023333 1.549782 46.000000
2.569174 -0.007532 1.568106 28.000000
2.598862 -0.039122 1.586154 37.000000
2.619731 -0.071204 1.598896 33.000000
2.657085 -0.104473 1.622332 31.000000
2.694023 -0.138578 1.645673 35.000000
2.726758 -0.173340 1.665625 34.000000
2.766983 -0.209671 1.691750 30.000000
2.781615 -0.244691 1.701462 22.000000
2.821108 -0.282678 1.727275 33.000000
2.843636 -0.319583 1.741759 34.000000
2.895059 -0.360905 1.774929 37.000000
2.920624 -0.400085 1.792277 36.000000
2.928458 -0.437460 1.799647 33.000000
2.898386 -0.468790 1.782913 33.000000
2.880302 -0.501707 1.774292 31.000000
2.832536 -0.528825 1.747426 19.000000
2.784634 -0.554819 1.720386 27.000000
2.803662 -0.593877 1.734704 32.000000
2.755371 -0.618347 1.707404 32.000000
2.735729 -0.648920 1.698640 31.000000
2.711699 -0.678049 1.687202 32.000000
2.683817 -0.705289 1.672306 29.000000
2.663617 -0.734502 1.663186 25.000000
2.609774 -0.753997 1.633854 17.000000
2.609661 -0.788013 1.637261 29.000000
2.601121 -0.819553 1.635320 31.000000
2.579579 -0.847271 1.626254 32.000000
2.553777 -0.873206 1.614442 30.000000
2.532427 -0.899703 1.604354 31.000000
2.494191 -0.920056 1.584620 29.000000
2.496124 -0.954981 1.590401 22.000000
2.441166 -0.968206 1.560784 23.000000
2.438587 -1.001026 1.563648 29.000000
2.415390 -1.025912 1.554320 29.000000
2.404314 -1.055046 1.551807 32.000000
2.372882 -1.075662 1.537148 29.000000
2.360881 -1.104649 1.535025 32.000000
2.340839 -1.129705 1.527742 32.000000
2.312972 -1.150636 1.515323 21.000000
2.277317 -1.166980 1.497701 26.000000
2.268377 -1.196774 1.497689 33.000000
2.247732 -1.220205 1.489937 35.000000
2.230138 -1.245919 1.485255 36.000000
2.205448 -1.266421 1.474935 32.000000
2.191272 -1.293697 1.472512 36.000000
2.170049 -1.315674 1.464463 34.000000
2.148028 -1.337828 1.456881 25.000000
2.111231 -1.350189 1.439267 26.000000
2.107207 -1.383350 1.443901 32.000000
2.073955 -1.397109 1.428662 34.000000
2.065810 -1.427449 1.430624 33.000000
2.039558 -1.445221 1.420216 31.000000
2.016814 -1.465112 1.412128 34.000000
1.990425 -1.481969 1.401517 33.000000
1.977014 -1.509487 1.401275 23.000000
1.950507 -1.525564 1.390445 28.000000
1.930807 -1.546670 1.384623 32.000000
1.933665 -1.587344 1.396215 32.000000
1.926826 -1.619297 1.399834 28.000000
1.888838 -1.626260 1.382034 16.000000
1.877224 -1.655620 1.383567 25.000000
1.840346 -1.660708 1.365254 30.000000
1.834827 -1.695580 1.371423 26.000000
1.809755 -1.712424 1.363145 29.000000
1.787708 -1.731904 1.357111 32.000000
1.768674 -1.754139 1.353477 30.000000
1.746382 -1.772982 1.347376 35.000000
1.730087 -1.797917 1.345950 30.000000
1.704501 -1.813042 1.337323 31.000000
1.696686 -1.847149 1.342797 32.000000
1.673769 -1.864963 1.336363 23.000000
1.650751 -1.882444 1.329944 26.000000
1.630419 -1.902949 1.325792 29.000000
1.612841 -1.926586 1.323883 33.000000
1.590913 -1.947300 1.320070 35.000000
1.564584 -1.960134 1.311103 27.000000
1.543683 -1.979566 1.306612 36.000000
1.529292 -2.010028 1.309544 30.000000
1.507933 -2.029042 1.305029 22.000000
1.491713 -2.054994 1.304999 20.000000
1.453106 -2.052453 1.287061 25.000000
1.444134 -2.088794 1.293755 29.000000
1.433113 -2.125980 1.300716 28.000000
1.406008 -2.136335 1.291296 24.000000
1.389287 -2.165889 1.293574 28.000000
1.360114 -2.176411 1.284528 25.000000
1.346750 -2.208687 1.288452 18.000000
1.321967 -2.226326 1.283778 24.000000
1.006341 1.689280 0.997727 10.000000
1.003074 1.642082 0.981255 20.000000
1.016670 1.621095 0.980189 23.000000
1.033598 1.608038 0.983929 20.000000
1.054088 1.597901 0.989637 27.000000
1.068242 1.580809 0.991081 22.000000
1.085957 1.566571 0.994362 26.000000
1.097299 1.545505 0.993329 24.000000
1.138110 1.563134 1.017484 10.000000
1.125517 1.509682 0.995317 28.000000
1.146867 1.502336 1.003451 29.000000
1.161128 1.483710 1.004169 30.000000
1.157602 1.444903 0.990976 36.000000
1.189740 1.450594 1.008448 27.000000
1.193894 1.421970 1.002198 29.000000
1.220551 1.420173 1.014883 33.000000
1.247430 1.417827 1.027562 17.000000
1.250907 1.388972 1.021123 32.000000
1.259915 1.366600 1.019370 31.000000
1.280743 1.356991 1.027169 31.000000
1.289352 1.334381 1.025257 37.000000
1.303844 1.318013 1.028104 30.000000
1.321316 1.304520 1.033318 35.000000
1.332375 1.284693 1.033603 35.000000
1.356007 1.276778 1.043653 24.000000
1.378853 1.268886 1.054004 32.000000
1.386285 1.245547 1.051714 32.000000
1.400065 1.227914 1.054196 30.000000
1.419533 1.216264 1.062009 35.000000
1.429716 1.195434 1.061961 31.000000
1.455733 1.188675 1.074571 35.000000
1.471743 1.173342 1.079768 30.000000
1.481434 1.151940 1.079461 24.000000
1.500623 1.138808 1.087035 34.000000
1.512769 1.120157 1.089558 33.000000
1.521344 1.098774 1.089437 32.000000
1.547262 1.089787 1.101884 34.000000
1.562651 1.072983 1.106677 32.000000
1.574307 1.053490 1.108888 35.000000
1.589374 1.036151 1.113562 33.000000
1.600720 1.016345 1.115643 28.000000
1.614990 0.999006 1.120601 34.000000
1.625959 0.978819 1.122486 35.000000
1.647385 0.965356 1.132425 47.000000
1.661892 0.946820 1.136673 35.000000
1.694415 0.938872 1.154132 33.000000
1.723359 0.928198 1.169015 35.000000
1.733309 0.906907 1.171033 32.000000
1.750695 0.889430 1.178056 29.000000
1.752653 0.863976 1.174720 32.000000
1.765910 0.844184 1.178970 30.000000
1.786767 0.827686 1.188394 28.000000
1.815342 0.814332 1.202802 31.000000
1.839545 0.798937 1.215080 29.000000
1.852360 0.777763 1.219034 29.000000
1.872484 0.759921 1.228547 29.000000
1.884543 0.738527 1.232808 23.000000
1.904404 0.719838 1.242139 33.000000
1.916201 0.697934 1.246129 32.000000
1.931836 0.677197 1.252661 31.000000
1.950911 0.657698 1.262185 34.000000
1.962188 0.634984 1.265906 28.000000
1.968909 0.611056 1.267383 31.000000
2.003903 0.595469 1.287062 29.000000
2.006102 0.569807 1.285712 15.000000
2.057405 0.557448 1.315721 30.000000
2.071682 0.534345 1.321971 27.000000
2.081645 0.509952 1.325522 27.000000
2.103437 0.488420 1.337283 29.000000
2.129620 0.467161 1.351071 24.000000
2.138712 0.442032 1.354724 25.000000
2.180869 0.423198 1.379323 23.000000
2.147497 0.389876 1.356764 9.000000
2.214526 0.374213 1.397004 29.000000
2.260582 0.353653 1.423905 25.000000
2.268402 0.326788 1.427371 24.000000
2.292815 0.301872 1.441253 28.000000
2.304401 0.274936 1.447126 23.000000
2.315758 0.247710 1.452836 22.000000
2.339216 0.221563 1.466829 24.000000
2.358320 0.194469 1.478015 10.000000
2.398607 0.168363 1.501768 21.000000
2.421417 0.140347 1.515273 22.000000
2.431022 0.111234 1.521272 17.000000
2.495808 0.083763 1.561026 24.000000
2.504824 0.053567 1.566687 20.000000
2.513663 0.023164 1.572170 15.000000
2.551905 -0.007532 1.596031 27.000000
2.577153 -0.039058 1.611846 26.000000
2.627545 -0.071805 1.643280 27.000000
2.647686 -0.104618 1.656628 28.000000
2.659341 -0.137413 1.663813 24.000000
2.725326 -0.174128 1.705908 26.000000
2.735652 -0.208308 1.714052 21.000000
2.741732 -0.242325 1.718658 11.000000
2.810907 -0.282920 1.762762 29.000000
2.836960 -0.320501 1.780879 24.000000
2.871152 -0.359752 1.804070 29.000000
2.909133 -0.400506 1.829678 30.000000
2.900500 -0.435249 1.825979 25.000000
2.886954 -0.469314 1.820169 28.000000
2.852212 -0.499408 1.800948 26.000000
2.834382 -0.531608 1.791472 15.000000
2.795048 -0.559440 1.769238 24.000000
2.763967 -0.588227 1.752099 24.000000
2.736237 -0.617340 1.738220 21.000000
2.729590 -0.650574 1.736609 26.000000
2.676768 -0.672510 1.706477 23.000000
2.685594 -0.709635 1.715799 28.000000
2.640718 -0.732184 1.690677 23.000000
2.579517 -0.748889 1.655008 9.000000
2.599760 -0.789030 1.671615 26.000000
2.583071 -0.818000 1.664531 25.000000
2.553520 -0.843054 1.650001 25.000000
2.540437 -0.872671 1.645271 25.000000
2.510548 -0.896549 1.630497 26.000000
2.492532 -0.924290 1.623473 23.000000
2.470407 -0.950207 1.613763 23.000000
2.424198 -0.966062 1.588193 12.000000
