x y z intensity
0.810007 1.402580 -0.445942 24.000000
0.830559 1.401233 -0.450299 19.000000
0.835153 1.375375 -0.446804 23.000000
0.860627 1.381789 -0.453806 21.000000
0.875120 1.372093 -0.455663 21.000000
0.903557 1.381818 -0.464026 28.000000
0.918055 1.371613 -0.465805 19.000000
0.911568 1.328989 -0.456525 17.000000
0.914472 1.302969 -0.452792 28.000000
0.950592 1.323857 -0.465494 22.000000
0.962487 1.308760 -0.465668 29.000000
0.982086 1.305557 -0.470084 24.000000
1.008285 1.309159 -0.477189 29.000000
1.022142 1.297768 -0.478868 33.000000
1.033564 1.281958 -0.478942 21.000000
1.028802 1.248066 -0.472158 22.000000
1.038977 1.232776 -0.472397 33.000000
1.068331 1.238685 -0.480832 31.000000
1.071980 1.215822 -0.478149 42.000000
1.104185 1.225017 -0.488212 32.000000
1.127581 1.222622 -0.493846 36.000000
1.147180 1.216782 -0.498237 36.000000
1.163551 1.207237 -0.501160 26.000000
1.176422 1.194046 -0.502708 24.000000
1.185842 1.177321 -0.502710 35.000000
1.209302 1.173369 -0.508320 42.000000
1.221870 1.159619 -0.509771 37.000000
1.244851 1.155473 -0.515523 45.000000
1.257256 1.141280 -0.516932 58.000000
1.283857 1.139678 -0.524181 70.000000
1.292571 1.121918 -0.524086 33.000000
1.319221 1.119540 -0.531268 30.000000
1.309252 1.086154 -0.523766 34.000000
1.339593 1.086261 -0.532444 36.000000
1.366299 1.082814 -0.539625 72.000000
1.389377 1.075991 -0.545352 35.000000
1.420093 1.074504 -0.554013 32.000000
1.435599 1.061120 -0.556697 39.000000
1.450996 1.047478 -0.559387 32.000000
1.446784 1.019888 -0.554609 24.000000
1.465739 1.008767 -0.558737 34.000000
1.496173 1.005620 -0.567554 53.000000
1.515106 0.993719 -0.571658 38.000000
1.537996 0.984091 -0.577282 37.000000
1.564629 0.976948 -0.584551 48.000000
1.587469 0.966431 -0.590094 62.000000
1.589571 0.943713 -0.588311 33.000000
1.636983 0.946946 -0.602927 29.000000
1.630504 0.919175 -0.597991 62.000000
1.665625 0.914213 -0.608095 57.000000
1.688025 0.902194 -0.613771 41.000000
1.722993 0.896298 -0.623990 44.000000
1.741074 0.881172 -0.628113 37.000000
1.771868 0.871971 -0.636849 65.000000
1.781240 0.851897 -0.637799 38.000000
1.820622 0.845790 -0.649587 25.000000
1.847109 0.833006 -0.656655 37.000000
1.856080 0.812010 -0.657565 32.000000
1.891120 0.802156 -0.667683 44.000000
1.930539 0.793316 -0.679373 34.000000
1.956579 0.778711 -0.686577 34.000000
2.004950 0.771840 -0.701284 62.000000
2.026519 0.754260 -0.706911 32.000000
2.056931 0.739526 -0.715591 31.000000
2.087235 0.724079 -0.724221 82.000000
2.112990 0.706620 -0.731310 43.000000
2.152226 0.692908 -0.742951 67.000000
2.191394 0.678482 -0.754614 37.000000
2.221452 0.660486 -0.763170 36.000000
2.251283 0.642052 -0.771817 40.000000
2.285535 0.624207 -0.781972 29.000000
2.310533 0.603268 -0.789008 19.000000
2.316980 0.577250 -0.789622 25.000000
2.327739 0.552250 -0.791807 26.000000
2.315063 0.521774 -0.786057 24.000000
2.320557 0.495834 -0.786743 25.000000
2.316518 0.467863 -0.784204 21.000000
2.326118 0.442610 -0.786236 24.000000
2.321421 0.414748 -0.783539 18.000000
2.307101 0.385457 -0.777609 13.000000
2.334603 0.363226 -0.785952 27.000000
2.314924 0.333551 -0.778437 21.000000
2.332493 0.309395 -0.783552 26.000000
2.321544 0.281495 -0.779189 25.000000
2.324553 0.255316 -0.779340 24.000000
2.331831 0.229678 -0.781373 25.000000
2.315343 0.201799 -0.775195 19.000000
2.341008 0.177573 -0.783408 18.000000
2.357020 0.152130 -0.788307 28.000000
2.363275 0.125938 -0.789967 29.000000
2.350278 0.098767 -0.785369 31.000000
2.365407 0.072791 -0.790195 79.000000
2.361351 0.046049 -0.788611 80.000000
2.366473 0.019568 -0.790271 94.000000
2.357064 -0.006977 -0.787028 55.000000
2.328384 -0.033040 -0.777452 57.000000
2.332601 -0.059383 -0.779035 70.000000
2.331850 -0.085584 -0.778885 87.000000
2.330799 -0.111784 -0.778660 71.000000
2.319978 -0.137424 -0.775420 40.000000
2.337259 -0.164777 -0.781523 68.000000
2.325919 -0.190311 -0.778059 36.000000
2.333188 -0.217316 -0.780996 81.000000
2.340137 -0.244458 -0.783704 95.000000
2.313775 -0.268066 -0.775579 36.000000
2.324897 -0.295785 -0.779865 25.000000
2.330903 -0.323245 -0.782720 26.000000
2.346039 -0.352249 -0.788574 35.000000
2.318726 -0.374785 -0.780160 36.000000
2.309821 -0.400033 -0.778207 52.000000
2.337964 -0.431999 -0.788699 71.000000
2.356433 -0.462871 -0.796030 95.000000
2.355984 -0.490243 -0.796984 86.000000
2.318115 -0.509567 -0.785294 95.000000
2.344767 -0.543082 -0.795669 76.000000
2.347958 -0.571709 -0.798186 58.000000
2.360069 -0.602816 -0.803676 58.000000
2.293777 -0.613327 -0.782547 28.000000
2.254969 -0.630092 -0.770764 9.000000
2.257244 -0.658026 -0.773060 9.000000
2.236282 -0.679263 -0.767624 9.000000
2.269545 -0.717298 -0.780825 10.000000
2.284165 -0.750244 -0.787768 40.000000
2.298393 -0.783623 -0.794617 44.000000
2.307662 -0.815689 -0.799815 26.000000
2.289854 -0.838353 -0.795692 13.000000
2.298479 -0.870686 -0.800713 20.000000
2.297630 -0.900188 -0.802939 23.000000
2.292218 -0.927631 -0.803217 16.000000
2.290759 -0.957165 -0.805270 21.000000
2.275798 -0.981088 -0.802615 16.000000
2.282375 -1.014496 -0.807655 15.000000
2.275486 -1.042192 -0.807990 17.000000
2.259705 -1.065845 -0.805172 10.000000
2.277982 -1.105790 -0.814609 19.000000
2.274405 -1.135695 -0.816286 23.000000
2.274728 -1.167723 -0.819397 18.000000
2.278794 -1.202176 -0.824015 22.000000
2.269857 -1.229954 -0.823966 22.000000
2.260290 -1.258157 -0.824244 13.000000
2.263169 -1.292882 -0.828646 16.000000
2.236480 -1.311440 -0.822690 11.000000
2.238626 -1.346169 -0.826984 18.000000
2.260178 -1.394200 -0.839036 25.000000
2.233042 -1.411797 -0.832657 17.000000
2.241418 -1.452722 -0.840051 23.000000
2.229328 -1.480826 -0.839839 16.000000
2.229188 -1.516299 -0.843845 14.000000
2.235958 -1.558017 -0.850976 14.000000
2.211022 -1.577825 -0.846172 12.000000
2.201368 -1.608551 -0.847230 18.000000
2.206539 -1.650634 -0.854195 22.000000
2.195987 -1.681447 -0.855212 14.000000
2.196327 -1.721096 -0.860459 20.000000
2.210992 -1.772865 -0.871638 21.000000
2.191628 -1.797839 -0.869467 15.000000
2.179227 -1.828779 -0.870129 14.000000
2.144738 -1.840923 -0.862025 10.000000
2.167859 -1.902961 -0.877136 19.000000
2.175550 -1.953007 -0.886349 21.000000
2.154387 -1.977527 -0.883925 13.000000
2.150304 -2.018148 -0.888621 22.000000
2.135314 -2.048935 -0.888865 17.000000
2.136135 -2.097321 -0.896645 16.000000
2.133727 -2.141622 -0.902556 16.000000
2.107274 -2.162164 -0.898338 13.000000
2.077394 -2.178873 -0.892707 27.000000
1.978694 -2.121414 -0.857243 27.000000
1.906319 -2.091234 -0.833649 25.000000
1.839199 -2.062441 -0.811230 35.000000
1.794969 -2.057693 -0.798680 42.000000
1.746962 -2.049393 -0.785054 63.000000
1.715823 -2.057761 -0.778131 62.000000
1.703048 -2.088085 -0.779576 28.000000
1.682587 -2.111616 -0.778564 43.000000
1.666027 -2.137978 -0.778495 38.000000
1.642017 -2.157341 -0.775913 33.000000
1.627737 -2.187158 -0.777185 48.000000
1.597597 -2.198324 -0.771857 32.000000
1.588165 -2.235782 -0.775731 32.000000
1.564595 -2.253351 -0.772687 31.000000
1.555576 -2.295527 -0.778096 22.000000
1.544611 -2.332919 -0.781747 34.000000
1.513231 -2.342823 -0.776229 31.000000
1.506579 -2.388136 -0.782394 31.000000
1.482368 -2.409856 -0.780774 33.000000
1.471913 -2.451047 -0.785497 32.000000
1.449368 -2.476655 -0.785059 29.000000
1.425795 -2.496914 -0.783105 27.000000
1.428273 -2.568475 -0.797026 9.000000
0.781885 1.418444 -0.426775 6.000000
0.796658 1.409652 -0.428616 10.000000
0.819625 1.412734 -0.434104 12.000000
0.830361 1.394685 -0.433176 19.000000
0.839842 1.377159 -0.432331 10.000000
0.867984 1.387636 -0.440458 20.000000
0.877261 1.369782 -0.439608 14.000000
0.897779 1.367463 -0.443768 13.000000
0.925560 1.377396 -0.452098 21.000000
0.913485 1.326755 -0.440485 10.000000
0.916292 1.300745 -0.436821 23.000000
0.944846 1.309514 -0.444973 20.000000
0.964319 1.306636 -0.449275 16.000000
0.967202 1.279948 -0.445365 25.000000
1.004279 1.299563 -0.457730 17.000000
1.021679 1.291528 -0.460533 19.000000
1.038327 1.283790 -0.463502 21.000000
1.039667 1.257284 -0.459649 9.000000
1.038093 1.226712 -0.454245 26.000000
1.063677 1.229593 -0.461233 24.000000
1.086282 1.228435 -0.466835 24.000000
1.103140 1.219252 -0.469561 31.000000
1.122661 1.213889 -0.473777 22.000000
1.148778 1.215154 -0.480826 23.000000
1.165659 1.205173 -0.483486 26.000000
1.181870 1.195435 -0.486313 10.000000
1.184447 1.171898 -0.483574 36.000000
1.211276 1.171428 -0.490380 30.000000
1.230835 1.164314 -0.494629 30.000000
1.236234 1.143846 -0.493165 34.000000
1.252109 1.133032 -0.495913 26.000000
1.271431 1.125210 -0.500081 30.000000
1.298089 1.123339 -0.507097 32.000000
1.317920 1.114343 -0.511029 11.000000
1.304090 1.078025 -0.502331 34.000000
1.334361 1.078272 -0.510703 30.000000
1.361035 1.074964 -0.517679 27.000000
1.387858 1.071205 -0.524628 32.000000
1.399418 1.055400 -0.525801 27.000000
1.433996 1.056524 -0.535670 26.000000
1.453233 1.045826 -0.539691 32.000000
1.468105 1.032372 -0.542507 15.000000
1.471431 1.010246 -0.540695 35.000000
1.486390 0.996120 -0.543229 30.000000
1.517249 0.992261 -0.551590 33.000000
1.544191 0.985260 -0.558464 37.000000
1.554593 0.968019 -0.559691 27.000000
1.581518 0.960178 -0.566540 30.000000
1.596083 0.944601 -0.569011 34.000000
1.622706 0.936276 -0.576013 17.000000
1.624544 0.913051 -0.574026 38.000000
1.663637 0.910902 -0.585420 35.000000
1.681759 0.896678 -0.589465 29.000000
1.721238 0.892895 -0.600674 39.000000
1.735103 0.875656 -0.603209 32.000000
1.765912 0.866611 -0.611625 34.000000
1.788079 0.852911 -0.617029 36.000000
1.818915 0.842743 -0.625424 20.000000
1.827951 0.822235 -0.626385 29.000000
1.863035 0.813051 -0.636179 31.000000
1.889386 0.799426 -0.643005 29.000000
1.915637 0.785340 -0.649848 35.000000
1.955148 0.776003 -0.661137 30.000000
1.985617 0.762683 -0.669585 26.000000
2.016204 0.748524 -0.677849 29.000000
2.046628 0.733931 -0.686268 15.000000
2.067937 0.715647 -0.691624 31.000000
2.102703 0.701445 -0.701445 44.000000
2.132915 0.685106 -0.709776 32.000000
2.185766 0.675146 -0.725610 35.000000
2.220430 0.658669 -0.735348 39.000000
2.245808 0.638818 -0.742073 31.000000
2.280120 0.621211 -0.751917 35.000000
2.318976 0.604036 -0.763296 14.000000
2.343838 0.582614 -0.770062 23.000000
2.354662 0.557330 -0.772201 24.000000
2.355984 0.529775 -0.771222 22.000000
2.347657 0.500339 -0.767120 18.000000
2.357555 0.474979 -0.769259 22.000000
2.343851 0.444919 -0.763624 15.000000
2.357966 0.420292 -0.767133 18.000000
2.310755 0.385201 -0.750732 9.000000
2.342962 0.363682 -0.760420 20.000000
2.337337 0.336035 -0.757744 18.000000
2.350333 0.311022 -0.761104 18.000000
2.339346 0.282939 -0.756821 16.000000
2.332828 0.255693 -0.754064 21.000000
2.349673 0.230911 -0.758955 18.000000
2.361579 0.205322 -0.762167 21.000000
2.354138 0.178159 -0.759333 9.000000
2.389127 0.153887 -0.770280 32.000000
2.390739 0.127101 -0.770357 44.000000
2.391967 0.100314 -0.770510 61.000000
2.388131 0.073305 -0.769055 73.000000
2.388820 0.046496 -0.769055 66.000000
2.389127 0.019763 -0.769132 73.000000
2.360647 -0.006963 -0.759939 92.000000
2.360496 -0.033452 -0.759788 47.000000
2.350450 -0.059624 -0.756724 65.000000
2.359209 -0.086355 -0.759636 81.000000
2.353395 -0.112541 -0.757878 62.000000
2.356787 -0.139258 -0.759333 67.000000
2.364619 -0.166339 -0.762167 59.000000
2.324764 -0.189687 -0.749625 10.000000
2.346220 -0.217982 -0.757047 45.000000
2.324788 -0.242293 -0.750630 27.000000
2.312632 -0.267198 -0.747199 10.000000
2.304850 -0.292565 -0.745374 10.000000
2.362886 -0.326885 -0.764848 34.000000
2.373343 -0.355452 -0.768966 41.000000
2.383448 -0.384257 -0.773002 37.000000
2.318113 -0.400486 -0.752804 15.000000
2.369868 -0.436774 -0.770551 52.000000
2.369677 -0.464250 -0.771532 37.000000
2.387891 -0.495547 -0.778516 95.000000
2.377691 -0.521401 -0.776449 49.000000
2.376484 -0.549141 -0.777344 53.000000
2.393539 -0.581325 -0.784304 85.000000
2.387149 -0.608147 -0.783594 36.000000
2.325191 -0.620154 -0.764558 11.000000
2.322924 -0.647401 -0.765223 14.000000
2.297437 -0.668174 -0.758484 8.000000
2.294569 -0.695294 -0.759305 9.000000
2.291440 -0.722516 -0.759968 8.000000
2.324296 -0.761563 -0.772678 22.000000
2.352036 -0.799832 -0.783774 35.000000
2.338715 -0.824561 -0.781238 24.000000
2.307347 -0.842486 -0.772704 9.000000
2.324769 -0.878615 -0.780753 18.000000
2.310705 -0.902795 -0.778143 10.000000
2.305132 -0.930607 -0.778606 13.000000
2.294877 -0.956523 -0.777573 10.000000
2.314995 -0.995478 -0.786892 10.000000
2.325857 -1.031175 -0.793205 13.000000
2.314552 -1.057281 -0.791985 10.000000
2.285639 -1.075096 -0.784831 9.000000
2.321136 -1.123654 -0.799832 18.000000
2.308859 -1.149609 -0.798431 10.000000
2.313345 -1.184106 -0.802935 15.000000
2.300147 -1.210420 -0.801689 12.000000
2.282744 -1.233797 -0.798724 10.000000
2.298576 -1.275551 -0.807426 13.000000
2.292700 -1.306300 -0.809015 10.000000
2.257994 -1.319758 -0.800018 8.000000
2.284315 -1.369977 -0.813198 14.000000
2.269102 -1.395815 -0.811668 10.000000
2.290566 -1.443932 -0.822883 15.000000
2.266551 -1.464734 -0.818426 10.000000
2.250372 -1.490380 -0.816791 10.000000
2.253739 -1.529292 -0.822296 10.000000
2.244758 -1.560195 -0.823444 9.000000
2.228116 -1.584940 -0.821353 8.000000
2.245535 -1.635498 -0.832440 15.000000
2.231410 -1.663673 -0.831925 10.000000
2.243621 -1.712105 -0.841403 14.000000
2.236170 -1.746299 -0.843611 13.000000
2.224600 -1.777396 -0.844376 10.000000
2.216341 -1.811514 -0.846546 12.000000
2.214878 -1.851856 -0.851431 10.000000
2.197579 -1.880602 -0.850913 8.000000
2.213258 -1.936951 -0.862686 14.000000
2.195788 -1.964939 -0.861751 10.000000
2.181510 -1.996060 -0.862114 13.000000
2.173917 -2.033618 -0.865253 10.000000
2.183111 -2.087805 -0.875221 10.000000
2.180196 -2.133203 -0.881245 15.000000
2.157136 -2.157620 -0.878629 10.000000
2.137242 -2.185182 -0.877295 9.000000
2.082793 -2.178657 -0.862489 17.000000
1.997041 -2.135088 -0.833662 16.000000
1.925332 -2.104129 -0.810471 19.000000
1.840783 -2.058258 -0.782226 21.000000
1.799788 -2.057024 -0.771449 27.000000
1.749604 -2.044134 -0.756666 42.000000
1.714389 -2.049577 -0.748881 31.000000
1.692540 -2.068632 -0.746255 14.000000
1.667512 -2.083586 -0.742290 29.000000
1.661987 -2.125635 -0.747937 25.000000
1.645284 -2.151749 -0.747778 33.000000
1.615503 -2.163061 -0.742639 30.000000
1.606822 -2.200393 -0.746511 28.000000
1.579365 -2.215087 -0.742608 30.000000
1.567079 -2.248391 -0.744928 23.000000
1.563574 -2.298428 -0.752783 10.000000
1.534059 -2.307701 -0.747191 27.000000
1.521359 -2.345738 -0.750961 22.000000
1.491540 -2.354363 -0.745286 26.000000
1.475373 -2.388150 -0.747704 24.000000
1.460358 -2.421016 -0.749638 26.000000
1.448011 -2.462981 -0.754441 24.000000
1.432524 -2.500825 -0.757823 22.000000
1.429929 -2.558874 -0.767209 9.000000
0.791284 1.428609 -0.414874 8.000000
0.799019 1.407075 -0.412964 12.000000
0.814614 1.397646 -0.414544 19.000000
0.836535 1.401047 -0.420016 19.000000
0.831837 1.358149 -0.411551 28.000000
0.854620 1.360655 -0.416824 26.000000
0.874090 1.359219 -0.421017 24.000000
0.886462 1.344937 -0.421280 29.000000
0.924876 1.371110 -0.434336 22.000000
0.898831 1.300595 -0.416733 23.000000
0.912502 1.290566 -0.418330 20.000000
0.940944 1.299408 -0.426196 22.000000
0.943070 1.273392 -0.422612 29.000000
0.980530 1.293171 -0.434355 25.000000
0.988199 1.274567 -0.433299 31.000000
0.999366 1.259217 -0.433374 25.000000
1.030873 1.270526 -0.442734 26.000000
1.017201 1.225062 -0.432289 30.000000
1.051994 1.239427 -0.443002 22.000000
1.056287 1.216213 -0.440332 33.000000
1.065929 1.200784 -0.440487 33.000000
1.088401 1.199553 -0.445891 25.000000
1.108237 1.193903 -0.449783 35.000000
1.144192 1.205942 -0.460519 31.000000
1.160338 1.196555 -0.463333 29.000000
1.149898 1.159105 -0.455148 31.000000
1.199974 1.183311 -0.471306 26.000000
1.191843 1.149746 -0.464591 34.000000
1.218658 1.149097 -0.471162 35.000000
1.245073 1.148394 -0.477920 29.000000
1.260999 1.137598 -0.480570 52.000000
1.276779 1.126506 -0.483228 33.000000
1.300291 1.121072 -0.488413 34.000000
1.293950 1.090923 -0.482861 28.000000
1.316787 1.085432 -0.488223 26.000000
1.321003 1.064505 -0.486657 36.000000
1.362674 1.073371 -0.498898 34.000000
1.393331 1.072601 -0.506981 29.000000
1.416407 1.065458 -0.512319 36.000000
1.431819 1.052255 -0.514893 32.000000
1.443167 1.035995 -0.516022 29.000000
1.454402 1.019623 -0.517151 33.000000
1.465468 1.003137 -0.518224 26.000000
1.496258 0.999813 -0.526257 35.000000
1.519187 0.990739 -0.531505 36.000000
1.541766 0.981568 -0.537002 31.000000
1.560613 0.969071 -0.540815 52.000000
1.571132 0.951364 -0.541808 30.000000
1.589735 0.938414 -0.545577 28.000000
1.608032 0.925455 -0.549533 33.000000
1.626433 0.911837 -0.553264 33.000000
1.648785 0.900566 -0.558607 35.000000
1.667057 0.886284 -0.562299 36.000000
1.719047 0.889668 -0.577618 35.000000
1.750182 0.880833 -0.585641 35.000000
1.768148 0.865448 -0.589445 32.000000
1.786079 0.849683 -0.593322 30.000000
1.816887 0.839687 -0.601398 28.000000
1.839049 0.825156 -0.606678 29.000000
1.865406 0.812115 -0.613285 33.000000
1.891800 0.798549 -0.619908 33.000000
1.918094 0.784522 -0.626481 30.000000
1.939899 0.768203 -0.631620 32.000000
1.970490 0.754873 -0.639671 33.000000
2.005416 0.742840 -0.649260 26.000000
2.058508 0.736377 -0.664483 34.000000
2.070840 0.714856 -0.666775 36.000000
2.101148 0.699276 -0.674832 34.000000
2.126925 0.681374 -0.681303 36.000000
2.157043 0.664542 -0.689246 42.000000
2.191538 0.648629 -0.698882 36.000000
2.226063 0.631882 -0.708320 39.000000
2.260463 0.614369 -0.717699 29.000000
2.294727 0.596311 -0.727168 26.000000
2.347477 0.582082 -0.742523 32.000000
2.372259 0.560225 -0.749016 24.000000
2.392163 0.536749 -0.754048 27.000000
2.393203 0.508906 -0.753047 22.000000
2.403279 0.482973 -0.754909 23.000000
2.408367 0.456124 -0.755457 26.000000
2.403733 0.427445 -0.752980 15.000000
2.384692 0.396625 -0.745998 20.000000
2.393582 0.370719 -0.748014 24.000000
2.387993 0.342595 -0.745448 19.000000
2.396273 0.316482 -0.747310 23.000000
2.371140 0.286179 -0.738678 18.000000
2.393108 0.261705 -0.744818 23.000000
2.400553 0.235332 -0.746527 28.000000
2.398184 0.208103 -0.745433 26.000000
2.414624 0.182342 -0.749948 46.000000
2.416481 0.155343 -0.750103 67.000000
2.413259 0.128013 -0.748777 75.000000
2.414495 0.101067 -0.748932 54.000000
2.405874 0.073751 -0.746049 54.000000
2.401791 0.046742 -0.744568 47.000000
2.382996 0.019644 -0.738723 29.000000
2.406951 -0.007075 -0.746125 36.000000
2.378145 -0.033587 -0.737091 80.000000
2.382387 -0.060304 -0.738571 93.000000
2.372080 -0.086605 -0.735459 74.000000
2.375789 -0.113375 -0.736711 95.000000
2.379189 -0.140176 -0.738038 67.000000
2.396572 -0.168163 -0.743724 26.000000
2.370774 -0.193011 -0.736255 16.000000
2.344864 -0.217252 -0.728487 9.000000
2.370889 -0.246470 -0.736972 9.000000
2.349014 -0.270779 -0.730838 9.000000
2.364950 -0.299464 -0.736439 9.000000
2.361524 -0.325885 -0.736058 10.000000
2.414572 -0.360778 -0.753291 74.000000
2.396443 -0.385403 -0.748404 34.000000
2.415646 -0.416280 -0.755300 81.000000
2.425128 -0.445878 -0.759166 95.000000
2.420167 -0.472963 -0.758615 95.000000
2.419572 -0.501017 -0.759612 95.000000
2.413971 -0.528076 -0.759060 85.000000
2.417370 -0.557203 -0.761363 84.000000
2.420485 -0.586459 -0.763661 95.000000
2.418679 -0.614666 -0.764330 36.000000
2.384185 -0.634292 -0.754757 42.000000
2.386312 -0.663545 -0.757050 35.000000
2.346813 -0.680933 -0.746118 9.000000
2.366875 -0.715277 -0.753853 9.000000
2.345298 -0.737479 -0.748694 9.000000
2.341609 -0.765318 -0.749444 13.000000
2.387567 -0.809928 -0.765942 49.000000
2.392262 -0.841226 -0.769250 32.000000
2.378466 -0.866518 -0.766992 24.000000
2.342152 -0.882786 -0.757175 11.000000
2.359093 -0.919551 -0.764893 18.000000
2.362243 -0.951310 -0.768257 16.000000
2.356192 -0.979693 -0.768644 16.000000
2.345376 -1.006044 -0.767505 19.000000
2.351915 -1.040061 -0.772118 12.000000
2.336085 -1.064377 -0.769453 9.000000
2.341818 -1.098605 -0.773959 16.000000
2.316845 -1.118477 -0.768349 10.000000
2.334678 -1.159204 -0.777036 17.000000
2.330348 -1.189959 -0.778727 13.000000
2.338572 -1.227088 -0.784428 16.000000
2.341830 -1.262588 -0.788853 21.000000
2.319721 -1.283943 -0.784407 10.000000
2.330560 -1.324401 -0.791553 9.000000
2.287225 -1.333337 -0.780040 11.000000
2.301303 -1.376346 -0.788482 12.000000
2.294214 -1.407379 -0.789848 15.000000
2.299030 -1.446005 -0.795333 11.000000
2.291553 -1.476595 -0.796237 10.000000
2.303299 -1.520939 -0.804470 13.000000
2.294494 -1.552290 -0.805507 10.000000
2.277414 -1.578086 -0.803835 9.000000
2.263986 -1.606486 -0.803464 10.000000
2.285301 -1.660210 -0.815480 10.000000
2.259376 -1.680136 -0.810829 16.000000
2.260077 -1.720083 -0.815763 11.000000
2.256399 -1.757236 -0.819287 10.000000
2.263563 -1.803538 -0.826905 14.000000
2.251360 -1.834967 -0.827532 10.000000
2.249832 -1.875619 -0.832245 9.000000
2.244031 -1.913193 -0.835467 10.000000
2.233395 -1.948592 -0.837582 10.000000
2.233794 -1.992723 -0.843367 14.000000
2.215711 -2.020929 -0.842347 10.000000
2.214975 -2.065346 -0.848060 10.000000
2.219625 -2.117469 -0.856610 16.000000
2.200232 -2.145520 -0.855424 10.000000
2.224835 -2.217671 -0.871509 10.000000
2.183092 -2.226136 -0.862555 15.000000
2.089118 -2.177283 -0.831884 12.000000
2.019518 -2.151282 -0.810665 21.000000
1.933475 -2.107025 -0.783235 16.000000
1.862607 -2.074630 -0.760865 21.000000
1.802259 -2.051681 -0.742564 28.000000
1.750994 -2.039540 -0.728547 29.000000
1.747863 -2.081011 -0.733903 35.000000
1.706203 -2.078806 -0.723787 30.000000
1.669072 -2.078760 -0.714679 29.000000
1.648807 -2.101764 -0.713695 32.000000
1.635354 -2.131492 -0.714937 24.000000
1.605717 -2.142591 -0.709914 28.000000
1.600293 -2.183655 -0.714954 29.000000
1.578754 -2.205958 -0.713748 24.000000
1.574879 -2.251078 -0.719794 28.000000
1.549745 -2.269279 -0.717280 23.000000
1.533883 -2.298341 -0.718194 25.000000
1.513550 -2.324140 -0.718086 29.000000
1.496953 -2.353096 -0.718857 20.000000
1.478334 -2.382756 -0.719863 25.000000
1.456844 -2.408097 -0.719601 23.000000
1.439059 -2.436571 -0.720287 21.000000
1.433638 -2.491041 -0.728492 24.000000
1.402831 -2.498331 -0.722878 6.000000
0.785499 1.413685 -0.395773 8.000000
0.781952 1.370697 -0.387753 21.000000
0.804435 1.374040 -0.392833 28.000000
0.816203 1.360970 -0.393282 31.000000
0.836356 1.359655 -0.397194 29.000000
0.842757 1.338055 -0.395164 35.000000
0.862842 1.336354 -0.399039 29.000000
0.882957 1.334331 -0.402882 33.000000
0.899623 1.328525 -0.405719 32.000000
0.897697 1.294178 -0.399754 19.000000
0.919697 1.296014 -0.404995 31.000000
0.922621 1.269629 -0.401391 25.000000
0.947474 1.274944 -0.407848 33.000000
0.970383 1.275443 -0.412942 46.000000
0.983767 1.264685 -0.414457 28.000000
1.000772 1.257006 -0.417026 31.000000
1.026211 1.260872 -0.423538 32.000000
1.021582 1.226624 -0.417233 24.000000
1.047063 1.229974 -0.423769 34.000000
1.054369 1.210501 -0.422447 33.000000
1.073615 1.205970 -0.426419 34.000000
1.090222 1.197108 -0.428922 42.000000
1.102899 1.184891 -0.430302 36.000000
1.119368 1.175610 -0.432766 46.000000
1.145352 1.176947 -0.439267 35.000000
1.164666 1.170980 -0.443208 23.000000
1.174217 1.154080 -0.443056 48.000000
1.200414 1.154299 -0.449570 48.000000
1.219816 1.147436 -0.453500 34.000000
1.228972 1.130033 -0.453301 51.000000
1.251822 1.125879 -0.458457 48.000000
1.271154 1.118191 -0.462369 68.000000
1.294118 1.113326 -0.467563 41.000000
1.299106 1.092104 -0.465942 27.000000
1.314539 1.080556 -0.468451 39.000000
1.337444 1.074801 -0.473627 36.000000
1.360383 1.068684 -0.478769 52.000000
1.371887 1.053346 -0.479919 37.000000
1.398638 1.049408 -0.486430 35.000000
1.413877 1.036469 -0.488825 37.000000
1.444672 1.034490 -0.496666 32.000000
1.459766 1.020978 -0.499084 23.000000
1.462881 0.999006 -0.497454 39.000000
1.497689 0.998517 -0.506591 39.000000
1.516599 0.986816 -0.510333 49.000000
1.535394 0.974820 -0.514028 53.000000
1.554187 0.962524 -0.517734 44.000000
1.572859 0.949871 -0.521391 42.000000
1.599754 0.941853 -0.527793 36.000000
1.605537 0.921671 -0.527542 25.000000
1.619720 0.905865 -0.529796 59.000000
1.638059 0.892087 -0.533370 45.000000
1.668763 0.885113 -0.541263 52.000000
1.708252 0.881653 -0.551758 49.000000
1.743416 0.875487 -0.561025 44.000000
1.774545 0.866263 -0.568687 52.000000
1.796784 0.852624 -0.573849 46.000000
1.805943 0.832536 -0.574733 25.000000
1.836769 0.822132 -0.582570 32.000000
1.867551 0.811110 -0.590362 35.000000
1.885136 0.793875 -0.593992 34.000000
1.920322 0.783633 -0.603149 52.000000
1.942088 0.767370 -0.608134 34.000000
1.972803 0.754102 -0.615863 33.000000
2.003369 0.740263 -0.623608 35.000000
2.024805 0.722764 -0.628633 17.000000
2.059820 0.709375 -0.637745 35.000000
2.090139 0.693935 -0.645539 36.000000
2.120483 0.677705 -0.653137 35.000000
2.150561 0.661106 -0.660891 36.000000
2.180649 0.643852 -0.668660 37.000000
2.233670 0.632473 -0.683357 37.000000
2.268089 0.615117 -0.692651 35.000000
2.297880 0.595713 -0.700248 24.000000
2.355352 0.582777 -0.716504 35.000000
2.380197 0.560847 -0.722791 35.000000
2.404826 0.538423 -0.729008 26.000000
2.419931 0.513512 -0.732318 21.000000
2.434843 0.488312 -0.735630 25.000000
2.430481 0.459342 -0.733341 24.000000
2.454242 0.435608 -0.739502 24.000000
2.430473 0.403445 -0.731361 11.000000
2.448918 0.378425 -0.736024 24.000000
2.443374 0.349772 -0.733570 27.000000
2.432812 0.320547 -0.729531 27.000000
2.436094 0.293437 -0.729922 29.000000
2.443905 0.266692 -0.731582 39.000000
2.441875 0.238984 -0.730469 56.000000
2.449149 0.212054 -0.732052 63.000000
2.436928 0.183655 -0.727927 32.000000
2.448359 0.157031 -0.730937 49.000000
2.445137 0.129434 -0.729588 71.000000
2.446384 0.102144 -0.729822 46.000000
2.409006 0.073682 -0.718473 24.000000
2.419278 0.047005 -0.721329 10.000000
2.395706 0.019760 -0.714264 9.000000
2.381408 -0.006901 -0.709902 10.000000
2.448256 -0.034464 -0.729822 73.000000
2.452578 -0.061875 -0.731172 95.000000
2.432565 -0.088599 -0.725382 47.000000
2.421907 -0.115274 -0.722295 25.000000
2.387032 -0.140329 -0.712150 10.000000
2.404554 -0.168316 -0.717628 9.000000
2.350018 -0.190836 -0.701785 7.000000
2.400333 -0.221966 -0.717245 9.000000
2.393033 -0.248181 -0.715512 9.000000
2.409167 -0.277105 -0.720982 9.000000
2.396569 -0.302772 -0.717671 9.000000
2.393108 -0.329535 -0.717363 9.000000
2.398898 -0.357634 -0.719747 19.000000
2.442213 -0.391945 -0.733656 41.000000
2.437804 -0.419187 -0.733184 32.000000
2.456736 -0.450755 -0.739732 93.000000
2.442316 -0.476267 -0.736338 85.000000
2.455792 -0.507390 -0.741454 95.000000
2.454811 -0.535785 -0.742312 95.000000
2.439547 -0.561061 -0.738921 76.000000
2.447319 -0.591602 -0.742447 74.000000
2.450129 -0.621197 -0.744552 57.000000
2.443213 -0.648537 -0.743908 31.000000
2.422189 -0.671871 -0.738794 62.000000
2.419361 -0.700230 -0.739483 24.000000
2.411671 -0.727146 -0.738682 20.000000
2.431130 -0.762599 -0.746233 37.000000
2.427185 -0.791392 -0.746988 49.000000
2.432137 -0.822958 -0.750221 63.000000
2.427523 -0.851813 -0.750806 36.000000
2.395723 -0.870605 -0.742749 18.000000
2.395068 -0.900723 -0.744651 20.000000
2.389621 -0.929301 -0.745071 18.000000
2.406088 -0.966687 -0.752454 21.000000
2.373279 -0.984349 -0.744425 18.000000
2.375669 -1.016549 -0.747450 18.000000
2.395352 -1.056553 -0.756094 18.000000
2.392541 -1.087223 -0.757617 16.000000
2.371901 -1.109776 -0.753600 10.000000
2.368503 -1.140307 -0.755030 20.000000
2.377350 -1.177683 -0.760836 20.000000
2.364547 -1.204047 -0.759489 16.000000
2.368192 -1.239666 -0.763804 19.000000
2.350552 -1.263604 -0.760906 13.000000
2.374383 -1.310945 -0.771954 21.000000
2.355741 -1.335338 -0.769211 14.000000
2.341309 -1.361282 -0.767579 10.000000
2.371726 -1.414768 -0.781175 16.000000
2.347927 -1.436371 -0.776969 16.000000
2.348437 -1.472959 -0.780820 18.000000
2.336227 -1.501929 -0.780679 16.000000
2.327715 -1.533463 -0.781707 16.000000
2.338778 -1.578469 -0.789548 14.000000
2.345291 -1.621099 -0.795825 13.000000
2.323564 -1.644602 -0.792767 10.000000
2.321132 -1.681972 -0.796317 16.000000
2.298831 -1.705067 -0.793076 13.000000
2.291676 -1.739550 -0.795168 12.000000
2.303184 -1.788801 -0.803885 17.000000
2.302579 -1.829553 -0.808481 16.000000
2.293886 -1.864367 -0.810399 18.000000
2.318096 -1.926899 -0.824070 16.000000
2.270727 -1.931627 -0.812954 9.000000
2.282461 -1.985398 -0.822593 19.000000
2.271753 -2.020468 -0.824222 18.000000
2.257074 -2.052245 -0.824427 17.000000
2.269374 -2.110971 -0.835415 21.000000
2.260547 -2.149456 -0.838156 16.000000
2.258163 -2.194789 -0.843354 18.000000
2.233589 -2.220656 -0.841165 16.000000
2.202934 -2.238441 -0.835907 10.000000
2.128649 -2.210621 -0.814098 24.000000
2.037676 -2.164643 -0.786205 25.000000
1.965363 -2.133728 -0.764465 21.000000
1.889784 -2.098750 -0.741941 27.000000
1.816168 -2.061531 -0.719187 27.000000
1.761545 -2.045671 -0.704311 33.000000
1.727361 -2.050280 -0.696896 40.000000
1.689070 -2.051378 -0.688428 27.000000
1.676400 -2.081287 -0.689663 32.000000
1.644252 -2.089075 -0.683653 33.000000
1.625092 -2.110924 -0.682381 31.000000
1.604505 -2.133427 -0.681351 33.000000
1.590586 -2.162710 -0.682440 31.000000
1.580632 -2.200653 -0.686211 32.000000
1.563003 -2.225904 -0.686013 28.000000
1.527296 -2.227796 -0.678657 21.000000
1.525524 -2.276691 -0.685645 29.000000
1.500092 -2.294278 -0.683145 26.000000
1.485012 -2.327885 -0.685464 29.000000
1.476017 -2.368839 -0.689796 28.000000
1.459780 -2.402369 -0.691945 28.000000
1.442123 -2.430802 -0.692599 30.000000
1.419900 -2.455819 -0.692217 26.000000
1.406850 -2.497615 -0.696538 8.000000
0.790072 1.415108 -0.381393 7.000000
0.779058 1.359420 -0.370219 20.000000
0.805475 1.371797 -0.377565 21.000000
0.813115 1.349868 -0.375535 27.000000
0.827996 1.340376 -0.376919 24.000000
0.847134 1.339447 -0.380788 28.000000
0.864552 1.333677 -0.383353 33.000000
0.881160 1.328146 -0.386077 25.000000
0.901286 1.325972 -0.389790 35.000000
0.902061 1.295567 -0.385223 25.000000
0.915550 1.285599 -0.386711 28.000000
0.932594 1.278909 -0.389194 31.000000
0.943123 1.264671 -0.389439 31.000000
0.971782 1.273050 -0.396739 32.000000
0.979856 1.254124 -0.395636 31.000000
0.993019 1.243313 -0.397037 31.000000
1.019009 1.246824 -0.403146 35.000000
1.022804 1.224362 -0.400908 23.000000
1.039508 1.216200 -0.403336 31.000000
1.052298 1.204669 -0.404695 50.000000
1.072100 1.199761 -0.408364 34.000000
1.088032 1.191383 -0.410915 43.000000
1.104550 1.182373 -0.413321 35.000000
1.127070 1.180600 -0.418370 33.000000
1.136235 1.164587 -0.418411 37.000000
1.166256 1.168597 -0.425782 12.000000
1.175183 1.152200 -0.425778 38.000000
1.187945 1.138608 -0.426868 42.000000
1.203615 1.128636 -0.429372 40.000000
1.226382 1.125023 -0.434357 44.000000
1.256881 1.126997 -0.441735 55.000000
1.268917 1.112938 -0.442960 35.000000
1.284462 1.101868 -0.445404 68.000000
1.296318 1.087448 -0.446579 21.000000
1.312126 1.075559 -0.448819 34.000000
1.338725 1.072919 -0.455071 42.000000
1.354067 1.060895 -0.457494 32.000000
1.373145 1.051559 -0.461157 54.000000
1.392187 1.041888 -0.464832 35.000000
1.411577 1.031548 -0.468298 46.000000
1.446260 1.032529 -0.477126 37.000000
1.457434 1.016245 -0.478193 18.000000
1.460403 0.994415 -0.476600 37.000000
1.479165 0.983340 -0.480215 54.000000
1.514068 0.982423 -0.489015 43.000000
1.524739 0.965360 -0.489985 53.000000
1.551544 0.958324 -0.496148 47.000000
1.570190 0.945825 -0.499701 35.000000
1.596855 0.938262 -0.506074 40.000000
1.602807 0.917818 -0.505633 18.000000
1.616953 0.902109 -0.507832 42.000000
1.643683 0.893094 -0.513951 46.000000
1.665998 0.881564 -0.518939 41.000000
1.696970 0.873803 -0.526360 50.000000
1.719202 0.861427 -0.531322 42.000000
1.776170 0.865219 -0.546721 38.000000
1.785429 0.845450 -0.547659 44.000000
1.807757 0.831281 -0.552360 18.000000
1.825440 0.815043 -0.555921 33.000000
1.856213 0.804291 -0.563452 35.000000
1.882561 0.790989 -0.569659 33.000000
1.908876 0.777226 -0.575817 35.000000
1.935154 0.762935 -0.581924 40.000000
1.965820 0.749827 -0.589459 31.000000
1.987439 0.732819 -0.594177 33.000000
2.004364 0.713758 -0.597552 26.000000
2.043849 0.702248 -0.607633 33.000000
2.078728 0.688651 -0.616516 35.000000
2.108942 0.672775 -0.624063 33.000000
2.134644 0.654766 -0.630056 34.000000
2.178506 0.641855 -0.641567 52.000000
2.208498 0.624054 -0.649019 35.000000
2.256916 0.610689 -0.661858 35.000000
2.281996 0.590443 -0.667978 26.000000
2.325636 0.574171 -0.679416 32.000000
2.369173 0.557066 -0.690948 32.000000
2.407897 0.538002 -0.701054 36.000000
2.437135 0.516135 -0.708440 27.000000
2.466166 0.493664 -0.715677 25.000000
2.485610 0.468726 -0.720184 28.000000
2.457362 0.435166 -0.711154 18.000000
2.476187 0.410202 -0.715663 18.000000
2.485240 0.383296 -0.717353 23.000000
2.484550 0.354845 -0.716300 29.000000
2.469147 0.324698 -0.711207 42.000000
2.477319 0.297766 -0.712817 71.000000
2.470770 0.269087 -0.710465 68.000000
2.478395 0.242022 -0.711997 72.000000
2.466477 0.213195 -0.708031 35.000000
2.497439 0.187854 -0.716598 32.000000
2.484955 0.159109 -0.712550 28.000000
2.457734 0.129844 -0.704375 14.000000
2.439774 0.101699 -0.699027 10.000000
2.421486 0.073905 -0.693600 9.000000
2.412566 0.046802 -0.690847 9.000000
2.427369 0.020035 -0.695053 9.000000
2.446673 -0.007068 -0.700558 10.000000
2.470472 -0.034666 -0.707362 29.000000
2.436286 -0.061348 -0.697651 19.000000
2.425905 -0.088153 -0.694745 9.000000
2.420024 -0.114895 -0.693215 9.000000
2.413841 -0.141530 -0.691686 9.000000
2.440926 -0.170480 -0.699782 8.000000
2.419817 -0.196033 -0.693974 8.000000
2.417506 -0.223003 -0.693743 9.000000
2.443655 -0.252943 -0.701830 9.000000
2.416888 -0.277336 -0.694576 9.000000
2.432881 -0.306688 -0.699678 9.000000
2.424616 -0.333037 -0.697918 9.000000
2.411375 -0.358651 -0.694866 9.000000
2.445338 -0.391578 -0.705437 22.000000
2.483595 -0.426086 -0.717286 36.000000
2.483608 -0.454617 -0.718094 84.000000
2.473760 -0.481335 -0.716326 48.000000
2.477825 -0.510863 -0.718579 81.000000
2.481526 -0.540439 -0.720666 82.000000
2.470876 -0.566998 -0.718739 72.000000
2.478633 -0.597803 -0.722102 66.000000
2.504651 -0.633722 -0.731066 35.000000
2.427918 -0.642942 -0.709849 10.000000
2.430024 -0.672590 -0.711849 10.000000
2.427292 -0.700951 -0.712486 9.000000
2.474825 -0.744504 -0.727952 62.000000
2.471142 -0.773638 -0.728651 40.000000
2.467264 -0.802545 -0.729101 69.000000
2.449341 -0.826853 -0.725412 63.000000
2.476517 -0.866864 -0.735387 37.000000
2.453374 -0.889632 -0.730512 32.000000
2.448040 -0.918616 -0.730949 21.000000
2.433442 -0.944216 -0.728610 10.000000
2.440904 -0.978428 -0.732988 19.000000
2.430156 -1.005588 -0.731905 18.000000
2.428021 -1.036447 -0.733499 19.000000
2.434373 -1.071134 -0.737758 21.000000
2.427053 -1.100161 -0.737828 10.000000
2.423552 -1.131493 -0.739481 11.000000
2.424221 -1.164600 -0.742201 20.000000
2.406958 -1.189710 -0.739766 18.000000
2.406934 -1.222864 -0.742383 20.000000
2.401981 -1.254330 -0.743834 18.000000
2.396931 -1.285386 -0.745018 18.000000
2.395319 -1.319216 -0.747683 20.000000
2.426972 -1.372238 -0.760865 10.000000
2.411802 -1.399403 -0.759454 11.000000
2.400956 -1.428417 -0.759089 16.000000
2.381110 -1.452761 -0.756279 16.000000
2.377423 -1.487075 -0.758697 16.000000
2.381340 -1.526697 -0.763706 16.000000
2.360584 -1.550604 -0.760796 13.000000
2.383595 -1.603983 -0.772167 18.000000
2.378003 -1.638806 -0.774327 9.000000
2.371866 -1.673714 -0.776469 10.000000
2.369282 -1.711440 -0.779883 14.000000
2.334450 -1.726995 -0.773168 10.000000
2.346382 -1.776374 -0.781508 17.000000
2.346159 -1.817285 -0.786050 13.000000
2.341546 -1.855433 -0.789097 16.000000
2.340147 -1.896682 -0.793485 16.000000
2.341186 -1.941918 -0.799303 10.000000
2.323759 -1.971057 -0.798459 10.000000
2.309728 -2.003159 -0.798776 14.000000
2.317090 -2.054394 -0.806641 16.000000
2.315550 -2.100466 -0.812133 18.000000
2.299977 -2.132677 -0.812274 14.000000
2.298021 -2.178071 -0.817400 16.000000
2.298008 -2.227809 -0.823930 19.000000
2.287865 -2.266861 -0.826379 10.000000
2.242084 -2.272251 -0.816711 15.000000
2.130251 -2.206363 -0.781978 16.000000
2.066652 -2.187467 -0.764690 21.000000
1.986391 -2.150533 -0.741544 24.000000
1.914681 -2.118426 -0.720792 21.000000
1.833254 -2.074859 -0.696586 26.000000
1.760458 -2.036282 -0.674780 32.000000
1.731500 -2.048942 -0.670239 30.000000
1.700455 -2.056625 -0.664253 29.000000
1.671443 -2.068463 -0.659664 32.000000
1.649619 -2.086775 -0.657322 31.000000
1.626373 -2.105589 -0.655065 35.000000
1.597110 -2.116317 -0.650508 30.000000
1.583435 -2.145536 -0.651569 32.000000
1.571007 -2.179311 -0.654038 32.000000
1.559253 -2.212327 -0.656219 24.000000
1.531935 -2.226087 -0.652665 22.000000
1.512584 -2.251719 -0.652629 28.000000
1.502341 -2.288476 -0.655814 30.000000
1.482159 -2.313848 -0.655730 26.000000
1.475997 -2.358837 -0.661061 28.000000
1.452347 -2.379835 -0.659681 27.000000
1.428431 -2.400630 -0.658292 25.000000
1.425475 -2.454016 -0.665767 23.000000
1.422147 -2.512758 -0.674472 9.000000
0.785000 1.399364 -0.362504 7.000000
0.787308 1.369644 -0.358528 18.000000
0.797433 1.352099 -0.357690 18.000000
0.817366 1.351154 -0.361296 13.000000
0.833973 1.346298 -0.363899 24.000000
0.848850 1.336628 -0.365238 16.000000
0.868843 1.334974 -0.368833 26.000000
0.880065 1.321390 -0.369148 29.000000
0.905566 1.327281 -0.375037 15.000000
0.897125 1.285376 -0.367370 23.000000
0.914105 1.278969 -0.369743 17.000000
0.933949 1.276276 -0.373322 19.000000
0.941459 1.258219 -0.372404 26.000000
0.970146 1.266636 -0.379420 21.000000
0.983409 1.255975 -0.380822 26.000000
0.994183 1.240820 -0.380858 25.000000
1.023265 1.248191 -0.387897 18.000000
1.017656 1.214541 -0.382230 27.000000
1.037412 1.210181 -0.385726 21.000000
1.050125 1.198720 -0.387028 28.000000
1.063337 1.186658 -0.388179 25.000000
1.095581 1.196337 -0.396605 22.000000
1.112100 1.187293 -0.398917 34.000000
1.121318 1.171467 -0.398949 26.000000
1.151243 1.175917 -0.406059 23.000000
1.156843 1.156278 -0.404898 27.000000
1.173067 1.146351 -0.407182 22.000000
1.188797 1.136656 -0.409577 29.000000
1.200849 1.123413 -0.410766 37.000000
1.224053 1.119422 -0.415445 24.000000
1.250459 1.118735 -0.421466 35.000000
1.284712 1.123472 -0.429795 27.000000
1.304111 1.115487 -0.433371 29.000000
1.290025 1.079186 -0.425914 30.000000
1.309070 1.070868 -0.429487 24.000000
1.324730 1.058876 -0.431625 26.000000
1.351321 1.055961 -0.437639 28.000000
1.389610 1.061473 -0.447394 24.000000
1.381608 1.031398 -0.442230 30.000000
1.428288 1.041210 -0.454301 25.000000
1.439482 1.025226 -0.455359 23.000000
1.430640 0.995251 -0.450110 28.000000
1.453363 0.987372 -0.454802 21.000000
1.488252 0.987138 -0.463277 31.000000
1.507018 0.975675 -0.466750 32.000000
1.525728 0.963974 -0.470234 29.000000
1.552617 0.956996 -0.476197 37.000000
1.571205 0.944493 -0.479591 31.000000
1.581441 0.926854 -0.480458 25.000000
1.604043 0.916296 -0.485136 31.000000
1.618177 0.900637 -0.487224 30.000000
1.644939 0.891678 -0.493139 33.000000
1.671487 0.882518 -0.499250 36.000000
1.693931 0.870292 -0.503863 26.000000
1.720663 0.859876 -0.509707 32.000000
1.773296 0.861932 -0.523447 35.000000
1.782634 0.842010 -0.524194 24.000000
1.782817 0.818183 -0.522492 30.000000
1.822567 0.811871 -0.532194 23.000000
1.853370 0.801162 -0.539466 26.000000
1.870889 0.784296 -0.542816 30.000000
1.901592 0.772556 -0.550056 29.000000
1.932362 0.760190 -0.557249 31.000000
1.958549 0.745474 -0.563162 31.000000
1.971027 0.725288 -0.565189 22.000000
1.996989 0.709785 -0.570989 29.000000
2.032023 0.696806 -0.579472 31.000000
2.076158 0.686246 -0.590443 30.000000
2.120209 0.674941 -0.601644 37.000000
2.132069 0.652578 -0.603513 26.000000
2.166828 0.637059 -0.611993 31.000000
2.201479 0.620852 -0.620418 34.000000
2.226694 0.601366 -0.626237 23.000000
2.261143 0.583730 -0.634689 27.000000
2.304824 0.567779 -0.645705 29.000000
2.357798 0.553199 -0.659365 25.000000
2.396578 0.534351 -0.669181 32.000000
2.416406 0.510703 -0.673594 31.000000
2.459637 0.491388 -0.684595 24.000000
2.516935 0.473748 -0.699482 20.000000
2.483963 0.438999 -0.689342 9.000000
2.512383 0.415320 -0.696335 24.000000
2.521500 0.388097 -0.698058 32.000000
2.525536 0.360087 -0.698461 33.000000
2.524548 0.331370 -0.697383 36.000000
2.508861 0.300955 -0.692419 37.000000
2.478422 0.269402 -0.683406 60.000000
2.514778 0.245145 -0.692979 59.000000
2.469217 0.213016 -0.679911 10.000000
2.466605 0.185205 -0.678745 9.000000
2.473217 0.158115 -0.680303 9.000000
2.474786 0.130586 -0.680382 9.000000
2.485754 0.103458 -0.683108 9.000000
2.467422 0.075234 -0.677891 8.000000
2.482587 0.048093 -0.681863 10.000000
2.507086 0.020630 -0.688562 24.000000
2.497523 -0.007193 -0.685835 33.000000
2.511749 -0.035138 -0.689727 53.000000
2.506372 -0.062921 -0.688324 33.000000
2.462213 -0.089200 -0.676333 9.000000
2.465937 -0.116797 -0.677578 9.000000
2.483785 -0.145345 -0.682714 8.000000
2.443572 -0.170300 -0.671897 7.000000
2.475200 -0.200150 -0.680920 9.000000
2.482525 -0.228538 -0.683327 8.000000
2.484718 -0.256566 -0.684333 8.000000
2.467420 -0.282584 -0.680055 8.000000
2.468983 -0.310532 -0.681061 8.000000
2.474996 -0.339321 -0.683463 8.000000
2.461740 -0.365332 -0.680352 8.000000
2.457566 -0.392732 -0.679880 8.000000
2.548323 -0.436252 -0.705741 50.000000
2.543415 -0.464551 -0.705332 43.000000
2.547652 -0.494688 -0.707553 63.000000
2.523251 -0.519121 -0.701722 36.000000
2.517466 -0.547151 -0.701152 32.000000
2.492624 -0.570711 -0.695253 20.000000
2.472242 -0.594901 -0.690674 9.000000
2.475006 -0.624765 -0.692650 8.000000
2.477395 -0.654756 -0.694701 8.000000
2.488792 -0.687363 -0.699200 8.000000
2.462649 -0.709610 -0.693243 8.000000
2.482609 -0.745242 -0.700257 12.000000
2.506587 -0.783013 -0.708721 36.000000
2.502629 -0.812228 -0.709109 38.000000
2.511950 -0.846252 -0.713559 38.000000
2.511684 -0.877416 -0.715318 29.000000
2.492934 -0.902043 -0.711800 34.000000
2.478442 -0.928078 -0.709584 13.000000
2.468241 -0.955588 -0.708664 10.000000
2.453220 -0.981138 -0.706369 10.000000
2.438071 -1.006504 -0.704078 10.000000
2.467081 -1.050533 -0.714583 16.000000
2.455563 -1.077887 -0.713397 10.000000
2.478846 -1.121258 -0.722735 10.000000
2.444741 -1.138461 -0.715040 10.000000
2.427696 -1.163788 -0.712738 10.000000
2.441133 -1.203299 -0.719127 15.000000
2.419193 -1.226246 -0.715460 10.000000
2.435598 -1.268934 -0.723174 10.000000
2.456016 -1.313965 -0.731865 16.000000
2.437363 -1.339058 -0.729366 10.000000
2.447814 -1.380602 -0.735647 10.000000
2.428467 -1.405484 -0.733054 10.000000
2.421300 -1.437505 -0.734160 10.000000
2.430291 -1.479600 -0.740294 12.000000
2.426368 -1.514383 -0.742537 10.000000
2.413852 -1.544045 -0.742258 10.000000
2.421163 -1.586795 -0.748230 12.000000
2.395786 -1.608407 -0.744091 9.000000
2.422035 -1.665230 -0.756157 9.000000
2.415762 -1.700546 -0.758125 9.000000
2.409029 -1.735848 -0.760077 9.000000
2.397276 -1.769007 -0.761055 10.000000
2.381906 -1.798578 -0.760413 9.000000
2.373860 -1.833878 -0.762227 10.000000
2.380550 -1.881171 -0.768936 13.000000
2.355671 -1.905251 -0.765991 9.000000
2.379808 -1.968367 -0.778560 9.000000
2.377034 -2.010364 -0.782614 9.000000
2.351618 -2.033446 -0.779243 10.000000
2.357893 -2.085958 -0.786988 10.000000
2.342611 -2.118412 -0.787128 9.000000
2.340242 -2.164904 -0.792378 10.000000
2.345196 -2.217343 -0.799693 10.000000
2.324841 -2.246490 -0.798456 9.000000
2.348083 -2.320691 -0.813061 10.000000
2.268518 -2.291213 -0.791398 10.000000
2.165292 -2.236790 -0.761833 10.000000
2.077952 -2.193457 -0.736879 12.000000
1.994040 -2.152930 -0.713434 11.000000
1.925404 -2.124364 -0.694557 13.000000
1.840572 -2.077124 -0.670186 17.000000
1.777126 -2.049417 -0.652629 16.000000
1.738588 -2.051051 -0.644756 21.000000
1.710609 -2.062551 -0.640154 21.000000
1.669362 -2.059301 -0.631104 26.000000
1.649514 -2.082075 -0.630263 29.000000
1.612615 -2.080756 -0.622097 23.000000
1.607130 -2.122363 -0.626910 24.000000
1.581864 -2.135895 -0.623348 27.000000
1.569618 -2.169670 -0.625732 22.000000
1.565203 -2.215302 -0.631486 22.000000
1.525389 -2.208254 -0.622162 13.000000
1.522630 -2.257887 -0.628892 21.000000
1.490958 -2.262144 -0.622972 23.000000
1.481750 -2.303706 -0.627379 17.000000
1.476924 -2.353633 -0.633874 24.000000
1.444667 -2.357078 -0.627943 20.000000
1.426044 -2.386162 -0.628743 18.000000
1.409513 -2.419198 -0.630703 16.000000
1.413317 -2.485332 -0.641027 8.000000
0.793206 1.409588 -0.350415 6.000000
0.786722 1.362319 -0.342213 10.000000
0.818183 1.383200 -0.351159 16.000000
0.828327 1.365361 -0.350322 17.000000
0.845925 1.359977 -0.352744 13.000000
0.860089 1.350668 -0.354145 21.000000
0.872236 1.336670 -0.354363 21.000000
0.900518 1.346926 -0.361099 21.000000
0.914500 1.337048 -0.362517 27.000000
0.906850 1.294546 -0.355018 9.000000
0.932460 1.299968 -0.360652 21.000000
0.934486 1.274029 -0.357588 23.000000
0.957259 1.274999 -0.362147 19.000000
0.971280 1.264021 -0.363344 31.000000
0.990524 1.261009 -0.366872 22.000000
1.004430 1.249664 -0.368077 25.000000
1.023668 1.246149 -0.371628 29.000000
1.049942 1.249298 -0.377294 10.000000
1.041466 1.211432 -0.370511 30.000000
1.051014 1.196312 -0.370629 25.000000
1.077205 1.198723 -0.376274 31.000000
1.089831 1.186854 -0.377537 29.000000
1.106244 1.177927 -0.379741 26.000000
1.118707 1.165718 -0.380957 29.000000
1.138391 1.159847 -0.384322 33.000000
1.181679 1.178173 -0.395882 17.000000
1.180727 1.151036 -0.392300 52.000000
1.192987 1.137949 -0.393438 31.000000
1.209113 1.127609 -0.395636 36.000000
1.235463 1.127333 -0.401393 56.000000
1.240648 1.106688 -0.400051 31.000000
1.256103 1.096107 -0.402319 33.000000
1.278916 1.091598 -0.406947 41.000000
1.320802 1.101875 -0.417274 26.000000
1.328813 1.084111 -0.417227 36.000000
1.332853 1.063240 -0.415881 28.000000
1.359905 1.059919 -0.421541 33.000000
1.375143 1.047695 -0.423760 50.000000
1.374705 1.023676 -0.421159 29.000000
1.397795 1.016514 -0.425553 34.000000
1.432456 1.017794 -0.433719 31.000000
1.451368 1.007365 -0.437115 27.000000
1.466215 0.993870 -0.439263 52.000000
1.489048 0.985530 -0.443828 34.000000
1.511886 0.976751 -0.448352 35.000000
1.526519 0.962412 -0.450469 58.000000
1.545455 0.950066 -0.453633 35.000000
1.572308 0.942751 -0.459349 35.000000
1.595077 0.932501 -0.463809 36.000000
1.600690 0.912601 -0.463635 22.000000
1.631738 0.906456 -0.470499 55.000000
1.654281 0.895048 -0.474994 39.000000
1.676856 0.883294 -0.479443 34.000000
1.699341 0.871133 -0.483903 53.000000
1.726068 0.860787 -0.489544 37.000000
1.752677 0.850116 -0.495385 37.000000
1.779409 0.838750 -0.500995 37.000000
1.797140 0.823085 -0.504335 24.000000
1.819322 0.808818 -0.508670 40.000000
1.863494 0.804038 -0.519402 36.000000
1.890062 0.790608 -0.525006 34.000000
1.925447 0.780547 -0.533239 34.000000
1.947283 0.764451 -0.537693 35.000000
1.969036 0.747922 -0.542157 31.000000
1.999793 0.734363 -0.549060 35.000000
2.025899 0.718614 -0.554661 24.000000
2.024395 0.692918 -0.552837 34.000000
2.091573 0.690040 -0.569652 61.000000
2.108227 0.669643 -0.572784 34.000000
2.143042 0.654838 -0.580940 55.000000
2.164039 0.634976 -0.585202 43.000000
2.198744 0.618881 -0.593385 43.000000
2.238003 0.603208 -0.602770 37.000000
2.235064 0.575943 -0.600763 14.000000
2.311655 0.568455 -0.620180 36.000000
2.350636 0.550426 -0.629461 39.000000
2.389556 0.531742 -0.638831 36.000000
2.432982 0.513247 -0.649480 35.000000
2.471602 0.492810 -0.658802 36.000000
2.500619 0.469849 -0.665526 35.000000
2.534176 0.447040 -0.673524 40.000000
2.591297 0.427616 -0.687864 56.000000
2.586293 0.397396 -0.685743 95.000000
2.580844 0.367306 -0.683537 95.000000
2.570323 0.336718 -0.679978 92.000000
2.588246 0.309899 -0.684113 95.000000
2.586646 0.280674 -0.683090 95.000000
2.555826 0.248663 -0.674364 24.000000
2.548702 0.219475 -0.672066 9.000000
2.531673 0.189697 -0.667145 8.000000
2.533596 0.161659 -0.667305 9.000000
2.573830 0.135576 -0.677636 11.000000
2.575131 0.106948 -0.677636 29.000000
2.581022 0.078549 -0.678989 80.000000
2.576839 0.049855 -0.677799 95.000000
2.577246 0.021227 -0.677799 81.000000
2.586998 -0.007429 -0.680342 91.000000
2.577083 -0.035948 -0.677717 67.000000
2.571761 -0.064454 -0.676365 67.000000
2.561203 -0.092598 -0.673660 35.000000
