x y z intensity
1.373459 0.777947 -1.161896 13.000000
1.371496 0.754127 -1.154666 15.000000
1.368752 0.730700 -1.147763 9.000000
1.391267 0.720122 -1.161145 14.000000
1.398885 0.702150 -1.162990 16.000000
1.395564 0.678797 -1.155756 15.000000
1.406453 0.662435 -1.160400 24.000000
1.413616 0.644200 -1.161940 19.000000
1.413339 0.622679 -1.157423 17.000000
1.423378 0.606164 -1.162193 21.000000
1.419023 0.583066 -1.154414 10.000000
1.432481 0.567845 -1.162076 22.000000
1.423990 0.543541 -1.151024 23.000000
1.425959 0.523863 -1.149407 21.000000
1.435298 0.506819 -1.153706 23.000000
1.440777 0.488342 -1.154871 25.000000
1.434725 0.466116 -1.146843 24.000000
1.443207 0.448965 -1.151318 24.000000
1.436760 0.426955 -1.143092 14.000000
0.823039 0.210846 -0.650431 58.000000
0.836829 0.203106 -0.660046 100.000000
0.835181 0.191459 -0.657433 100.000000
0.837059 0.180813 -0.658059 98.000000
0.839070 0.170068 -0.658356 98.000000
0.844676 0.160094 -0.661900 98.000000
0.838728 0.147858 -0.655964 98.000000
0.859811 0.140353 -0.671588 103.000000
0.853459 0.128167 -0.665782 105.000000
0.854656 0.117289 -0.666248 103.000000
0.855953 0.106346 -0.666414 105.000000
0.861083 0.095839 -0.669571 103.000000
0.865955 0.085233 -0.672931 108.000000
0.839246 0.071828 -0.651714 105.000000
0.851792 0.061963 -0.661058 103.000000
0.860344 0.051559 -0.667246 100.000000
0.860743 0.040582 -0.667512 100.000000
0.861242 0.029605 -0.667445 100.000000
0.861442 0.018628 -0.667578 100.000000
0.857623 0.007583 -0.664582 103.000000
0.865561 -0.003375 -0.670708 105.000000
0.865494 -0.014436 -0.670607 103.000000
0.865360 -0.025464 -0.670474 103.000000
0.860976 -0.036358 -0.667445 98.000000
0.864625 -0.047552 -0.670240 98.000000
0.864023 -0.058580 -0.670139 98.000000
0.871206 -0.070243 -0.676091 98.000000
0.874369 -0.081705 -0.678913 103.000000
0.865619 -0.092014 -0.672495 98.000000
0.872336 -0.103995 -0.678473 103.000000
0.867159 -0.114655 -0.675214 100.000000
0.869931 -0.126250 -0.677761 103.000000
0.868509 -0.137361 -0.677456 98.000000
0.866984 -0.148438 -0.677050 94.000000
0.880743 -0.162424 -0.689077 95.000000
0.875130 -0.172863 -0.685478 100.000000
0.876985 -0.184908 -0.688180 98.000000
0.871216 -0.195179 -0.684483 98.000000
0.872881 -0.207254 -0.687076 95.000000
0.870570 -0.218393 -0.686525 100.000000
0.868156 -0.229531 -0.685938 98.000000
0.865467 -0.240704 -0.685525 95.000000
0.870516 -0.253967 -0.690861 78.000000
0.871399 -0.266333 -0.693367 98.000000
0.864846 -0.276198 -0.689469 98.000000
0.861749 -0.287296 -0.688808 95.000000
0.862314 -0.299668 -0.691095 95.000000
0.855278 -0.309353 -0.687312 91.000000
0.855675 -0.321717 -0.689488 95.000000
0.848216 -0.331340 -0.685816 58.000000
0.859521 -0.348163 -0.696857 42.000000
0.866620 -0.363924 -0.705115 95.000000
0.859147 -0.373373 -0.701007 92.000000
0.858623 -0.386085 -0.703107 95.000000
0.854356 -0.397165 -0.702138 95.000000
0.857216 -0.411647 -0.707065 76.000000
0.849133 -0.420894 -0.703038 92.000000
0.841017 -0.429975 -0.698911 67.000000
0.853857 -0.450330 -0.712866 35.000000
0.859673 -0.467045 -0.720479 95.000000
0.854371 -0.478243 -0.719404 81.000000
0.849365 -0.489181 -0.718032 95.000000
0.843915 -0.500194 -0.716846 93.000000
0.834903 -0.509066 -0.712677 82.000000
0.832717 -0.522070 -0.714324 92.000000
0.823567 -0.530704 -0.710055 72.000000
0.838082 -0.554799 -0.726260 22.000000
0.838776 -0.570221 -0.730629 67.000000
0.842626 -0.588066 -0.737852 54.000000
0.836333 -0.598952 -0.736231 68.000000
0.829500 -0.609993 -0.734880 42.000000
0.819800 -0.618272 -0.730283 35.000000
0.822517 -0.636566 -0.737498 61.000000
0.815824 -0.647189 -0.735670 33.000000
0.811797 -0.660508 -0.736953 29.000000
0.817023 -0.681699 -0.746841 37.000000
0.825577 -0.705524 -0.759142 33.000000
0.808596 -0.708291 -0.748788 62.000000
0.819180 -0.735389 -0.764055 47.000000
0.817218 -0.751753 -0.767821 56.000000
0.815054 -0.768154 -0.771558 37.000000
0.800821 -0.773135 -0.763866 31.000000
0.795434 -0.786585 -0.764627 35.000000
0.809635 -0.820874 -0.785326 30.000000
0.789383 -0.819595 -0.771843 34.000000
0.775019 -0.823965 -0.764022 33.000000
0.779669 -0.849746 -0.775979 35.000000
0.776263 -0.866199 -0.779211 51.000000
0.775383 -0.885757 -0.785142 33.000000
0.773565 -0.905795 -0.791239 30.000000
0.774074 -0.929127 -0.800049 29.000000
0.780243 -0.958739 -0.813892 30.000000
0.764339 -0.962848 -0.806015 41.000000
0.754425 -0.972897 -0.803278 35.000000
0.753776 -0.996547 -0.811706 31.000000
0.752742 -1.020337 -0.819975 34.000000
0.736633 -1.023788 -0.811935 30.000000
0.730208 -1.040798 -0.814676 34.000000
0.725920 -1.061236 -0.820023 29.000000
0.730679 -1.095828 -0.835986 10.000000
0.720985 -1.109465 -0.835800 26.000000
0.452135 0.715187 -0.523523 42.000000
0.466780 0.719588 -0.533295 33.000000
0.469879 0.706055 -0.529816 50.000000
0.463213 0.678538 -0.515638 27.000000
0.463278 0.661779 -0.509355 26.000000
0.468013 0.651965 -0.508340 35.000000
0.477587 0.648927 -0.512648 35.000000
0.482132 0.639006 -0.511588 94.000000
0.478822 0.619082 -0.502350 48.000000
0.496077 0.625699 -0.514690 59.000000
0.505100 0.622405 -0.519118 78.000000
0.493214 0.592941 -0.501553 36.000000
0.497068 0.583017 -0.500223 35.000000
0.467334 0.535504 -0.466167 34.000000
0.484437 0.541599 -0.478410 100.000000
0.571743 0.624401 -0.559817 110.000000
1.258730 1.247914 -1.190187 10.000000
1.277914 1.237067 -1.198969 10.000000
1.276024 1.206022 -1.188101 11.000000
1.294979 1.194810 -1.196760 14.000000
1.298639 1.169420 -1.191301 10.000000
1.298826 1.141420 -1.182913 16.000000
1.298648 1.113552 -1.174343 10.000000
1.307585 1.093749 -1.174167 10.000000
1.303588 1.063502 -1.162607 10.000000
1.311295 1.044155 -1.162690 9.000000
1.322750 1.026848 -1.165056 10.000000
1.340683 1.014302 -1.173144 14.000000
1.331420 0.982444 -1.158627 10.000000
1.345715 0.967202 -1.163658 15.000000
1.345868 0.942801 -1.157553 13.000000
1.349060 0.920776 -1.154175 10.000000
1.362223 0.905579 -1.159385 10.000000
1.371951 0.887895 -1.161649 10.000000
1.371161 0.863580 -1.155084 13.000000
1.366579 0.837286 -1.145519 18.000000
1.375717 0.819491 -1.147503 13.000000
1.377646 0.797566 -1.143473 19.000000
1.386379 0.779622 -1.145267 19.000000
1.383783 0.756085 -1.138580 16.000000
1.399369 0.741836 -1.146045 10.000000
1.410724 0.725789 -1.150950 11.000000
1.418380 0.707665 -1.152804 18.000000
1.422756 0.687424 -1.151116 19.000000
1.422839 0.665685 -1.146890 16.000000
1.422610 0.644075 -1.142529 23.000000
1.433331 0.627386 -1.146961 20.000000
1.424883 0.602871 -1.136894 16.000000
1.424048 0.581487 -1.132256 10.000000
1.437598 0.566250 -1.139766 22.000000
1.432645 0.543455 -1.131908 20.000000
1.438342 0.525142 -1.133303 23.000000
1.440134 0.505441 -1.131546 16.000000
1.445584 0.487003 -1.132764 24.000000
1.443167 0.466040 -1.127840 20.000000
1.444469 0.446399 -1.125834 18.000000
1.402835 0.414423 -1.091224 13.000000
1.395890 0.393176 -1.082973 24.000000
0.839960 0.202698 -0.647875 88.000000
0.842135 0.191986 -0.648303 87.000000
0.840336 0.180402 -0.645663 86.000000
0.846255 0.170464 -0.648995 95.000000
0.855820 0.161231 -0.655504 95.000000
0.857450 0.150354 -0.655936 78.000000
0.867096 0.140689 -0.662054 95.000000
0.876300 0.130891 -0.668649 95.000000
0.873735 0.119207 -0.665873 98.000000
0.875050 0.108079 -0.666042 98.000000
0.880060 0.097423 -0.669394 98.000000
0.857362 0.083914 -0.651335 95.000000
0.878085 0.074728 -0.666649 95.000000
0.862921 0.062415 -0.654715 41.000000
0.867563 0.051693 -0.657832 83.000000
0.863980 0.040529 -0.655079 81.000000
0.864477 0.029569 -0.655013 98.000000
0.868660 0.018694 -0.658165 98.000000
0.864808 0.007616 -0.655212 100.000000
0.872812 -0.003375 -0.661217 98.000000
0.868760 -0.014370 -0.658131 100.000000
0.864642 -0.025264 -0.654980 100.000000
0.864212 -0.036257 -0.655013 100.000000
0.863914 -0.047184 -0.654715 103.000000
0.871275 -0.058680 -0.660649 95.000000
0.870573 -0.069741 -0.660482 100.000000
0.873776 -0.081137 -0.663263 100.000000
0.876703 -0.092668 -0.666210 100.000000
0.871762 -0.103293 -0.662827 100.000000
0.874477 -0.114891 -0.665671 98.000000
0.869177 -0.125415 -0.662390 100.000000
0.867969 -0.136392 -0.661819 100.000000
0.882007 -0.150151 -0.673716 77.000000
0.884331 -0.162048 -0.676277 98.000000
0.878691 -0.172471 -0.672725 100.000000
0.880589 -0.184467 -0.675385 100.000000
0.882399 -0.196564 -0.678007 98.000000
0.880157 -0.207771 -0.677524 100.000000
0.873997 -0.217976 -0.673977 98.000000
0.875502 -0.230083 -0.676386 98.000000
0.873019 -0.241187 -0.675696 91.000000
0.874076 -0.253477 -0.678236 98.000000
0.871409 -0.264526 -0.677439 98.000000
0.864570 -0.274431 -0.673869 95.000000
0.869160 -0.287992 -0.679171 98.000000
0.873555 -0.301678 -0.684392 98.000000
0.866472 -0.311444 -0.680613 98.000000
0.863118 -0.322451 -0.679774 95.000000
0.870673 -0.337932 -0.688007 54.000000
0.867062 -0.348977 -0.687051 98.000000
0.866853 -0.361645 -0.689230 91.000000
0.859380 -0.370996 -0.685175 94.000000
0.866297 -0.386945 -0.693138 95.000000
0.854694 -0.394638 -0.686279 95.000000
0.857691 -0.409070 -0.691130 95.000000
0.860181 -0.423762 -0.696216 95.000000
0.866455 -0.440222 -0.703894 37.000000
0.861768 -0.451282 -0.702685 95.000000
0.863779 -0.466268 -0.707507 95.000000
0.858868 -0.477272 -0.706178 98.000000
0.857041 -0.490368 -0.707984 98.000000
0.858599 -0.505582 -0.712652 95.000000
0.863436 -0.522974 -0.720129 95.000000
0.854226 -0.531946 -0.715907 98.000000
0.851857 -0.545149 -0.717443 70.000000
0.825487 -0.542668 -0.698719 95.000000
0.823002 -0.555552 -0.700160 85.000000
0.833844 -0.577769 -0.713053 95.000000
0.847739 -0.602715 -0.728715 95.000000
0.847500 -0.618672 -0.733086 95.000000
0.841016 -0.629492 -0.731367 95.000000
0.843718 -0.648014 -0.738436 86.000000
0.826797 -0.651406 -0.728359 53.000000
0.829649 -0.669750 -0.734998 58.000000
0.825433 -0.683206 -0.736169 86.000000
0.821041 -0.696666 -0.737288 95.000000
0.813435 -0.707379 -0.735536 74.000000
0.811882 -0.723475 -0.739366 85.000000
0.807074 -0.736901 -0.740325 95.000000
0.802165 -0.750246 -0.741188 64.000000
0.797075 -0.763549 -0.741996 71.000000
0.824507 -0.808854 -0.773349 46.000000
0.803529 -0.808128 -0.760424 37.000000
0.800718 -0.824555 -0.763784 93.000000
0.803479 -0.847101 -0.772589 57.000000
0.788238 -0.851740 -0.765077 43.000000
0.782091 -0.865106 -0.765487 61.000000
0.775153 -0.878760 -0.766138 60.000000
0.776953 -0.901541 -0.774612 37.000000
0.783101 -0.931251 -0.788721 31.000000
0.762044 -0.928837 -0.775572 56.000000
0.755118 -0.942025 -0.775657 63.000000
0.755074 -0.965500 -0.784069 43.000000
0.764883 -1.002491 -0.803161 65.000000
0.763927 -1.026398 -0.811317 35.000000
0.755176 -1.040129 -0.811350 34.000000
0.751151 -1.060746 -0.816640 33.000000
0.766080 -1.109283 -0.843086 16.000000
0.746837 -1.109152 -0.832297 24.000000
0.744054 -1.133556 -0.839945 23.000000
0.738621 -1.154485 -0.844847 24.000000
0.461409 0.741343 -0.527151 35.000000
0.471648 0.738596 -0.531612 56.000000
0.460907 0.703520 -0.512670 42.000000
0.477995 0.711364 -0.524859 35.000000
0.475997 0.690805 -0.516187 44.000000
0.468728 0.663470 -0.502127 24.000000
0.483372 0.667408 -0.511671 65.000000
0.477951 0.643804 -0.500099 58.000000
0.487524 0.640659 -0.504340 60.000000
0.494511 0.634048 -0.505905 93.000000
0.501440 0.627351 -0.507413 72.000000
0.508340 0.620538 -0.508920 74.000000
0.509243 0.607437 -0.505227 80.000000
0.494000 0.574997 -0.485101 35.000000
0.480887 0.546248 -0.467530 103.000000
0.562469 0.624237 -0.542175 120.000000
1.239694 1.250036 -1.153870 23.000000
1.273694 1.254363 -1.176321 13.000000
1.290875 1.240144 -1.181818 17.000000
1.300993 1.220403 -1.182198 12.000000
1.317059 1.206235 -1.187972 16.000000
1.323755 1.183476 -1.185431 18.000000
1.323940 1.155221 -1.177166 15.000000
1.314282 1.119092 -1.160478 16.000000
1.319966 1.096592 -1.157552 10.000000
1.338340 1.084561 -1.165747 9.000000
1.337164 1.056781 -1.156990 13.000000
1.334952 1.029587 -1.148621 11.000000
1.349583 1.014574 -1.153745 17.000000
1.354162 0.992038 -1.150339 21.000000
1.361180 0.972254 -1.150114 13.000000
1.378780 0.959114 -1.157834 21.000000
1.382058 0.936818 -1.154575 13.000000
1.388541 0.916775 -1.154079 10.000000
1.387948 0.892256 -1.147800 17.000000
1.387088 0.867881 -1.141366 14.000000
1.382403 0.841460 -1.131972 17.000000
1.391565 0.823620 -1.133901 20.000000
1.396940 0.803679 -1.132894 19.000000
1.416421 0.791625 -1.143338 22.000000
1.414374 0.767487 -1.136381 15.000000
1.407930 0.741902 -1.126868 10.000000
1.430727 0.731115 -1.139928 15.000000
1.427470 0.707411 -1.133098 16.000000
1.442267 0.692799 -1.140633 21.000000
1.445955 0.672614 -1.139405 21.000000
1.449485 0.652522 -1.138050 18.000000
1.449075 0.630724 -1.133713 24.000000
1.448475 0.608998 -1.129242 20.000000
1.455147 0.590515 -1.130482 14.000000
1.449902 0.567656 -1.123359 22.000000
1.452438 0.547594 -1.121486 23.000000
1.461973 0.530566 -1.125762 24.000000
1.456132 0.507992 -1.118246 21.000000
1.461597 0.489505 -1.119467 21.000000
1.462979 0.469723 -1.117572 25.000000
1.464218 0.449866 -1.115614 18.000000
1.469192 0.431244 -1.116482 10.000000
1.399713 0.391992 -1.061664 20.000000
1.326102 0.353406 -1.003253 33.000000
0.870609 0.208802 -0.656149 26.000000
0.853186 0.193305 -0.641835 92.000000
0.855272 0.182511 -0.642199 95.000000
0.853143 0.170925 -0.639800 95.000000
0.859013 0.160856 -0.642994 71.000000
0.852704 0.148613 -0.637494 37.000000
0.886032 0.142982 -0.661589 98.000000
0.875589 0.130014 -0.653024 95.000000
0.888958 0.120558 -0.662167 98.000000
0.890285 0.109329 -0.662337 100.000000
0.863328 0.095021 -0.641876 100.000000
0.868450 0.084501 -0.644914 98.000000
0.893313 0.075574 -0.662950 100.000000
0.878025 0.063158 -0.651226 40.000000
0.878693 0.052097 -0.651292 92.000000
0.871066 0.040628 -0.645609 86.000000
0.875546 0.029771 -0.648551 95.000000
0.875779 0.018728 -0.648651 103.000000
0.875912 0.007684 -0.648718 98.000000
0.883981 -0.003391 -0.654669 105.000000
0.863825 -0.014205 -0.639692 100.000000
0.879763 -0.025564 -0.651460 100.000000
0.867283 -0.036156 -0.642568 105.000000
0.870967 -0.047283 -0.645278 100.000000
0.874415 -0.058545 -0.648152 95.000000
0.885740 -0.070513 -0.656869 100.000000
0.884964 -0.081675 -0.656633 103.000000
0.883919 -0.092870 -0.656566 105.000000
0.886936 -0.104469 -0.659164 100.000000
0.885683 -0.115648 -0.658995 105.000000
0.884362 -0.126826 -0.658724 100.000000
0.882939 -0.137971 -0.658385 100.000000
0.877444 -0.148444 -0.655048 95.000000
0.899639 -0.163835 -0.672348 100.000000
0.870017 -0.169827 -0.651346 100.000000
0.895863 -0.186488 -0.671482 100.000000
0.893750 -0.197814 -0.671066 103.000000
0.883678 -0.207264 -0.664673 100.000000
0.865709 -0.214539 -0.652317 103.000000
0.894636 -0.233626 -0.675336 103.000000
0.884121 -0.242843 -0.669022 93.000000
0.881558 -0.253996 -0.668295 100.000000
0.878648 -0.265184 -0.667741 98.000000
0.875669 -0.276303 -0.667152 100.000000
0.880310 -0.289919 -0.672331 98.000000
0.877095 -0.301066 -0.671632 98.000000
0.877626 -0.313541 -0.673758 95.000000
0.878058 -0.326042 -0.675841 98.000000
0.870537 -0.335791 -0.672249 79.000000
0.878301 -0.351263 -0.680022 95.000000
0.874354 -0.362463 -0.679240 98.000000
0.877772 -0.376797 -0.684245 98.000000
0.873612 -0.387949 -0.683349 95.000000
0.869345 -0.399065 -0.682381 98.000000
0.864970 -0.410110 -0.681341 100.000000
0.864222 -0.422874 -0.683160 100.000000
0.863327 -0.435660 -0.684933 75.000000
0.869238 -0.452417 -0.692651 81.000000
0.871645 -0.467265 -0.697168 95.000000
0.869981 -0.480394 -0.698973 100.000000
0.868200 -0.493577 -0.700733 98.000000
0.869799 -0.508846 -0.705313 100.000000
0.864168 -0.519995 -0.704074 98.000000
0.865480 -0.535386 -0.708474 98.000000
0.863118 -0.548639 -0.710001 84.000000
0.843421 -0.550667 -0.697175 45.000000
0.834059 -0.559142 -0.692914 98.000000
0.858647 -0.590768 -0.716929 95.000000
0.858664 -0.606683 -0.721273 95.000000
0.848902 -0.615195 -0.716817 95.000000
0.858578 -0.638529 -0.729465 95.000000
0.851464 -0.649674 -0.727963 82.000000
0.844706 -0.660463 -0.726145 54.000000
0.827695 -0.663672 -0.716172 37.000000
0.830005 -0.682278 -0.722944 98.000000
0.825711 -0.695703 -0.724030 81.000000
0.824387 -0.711849 -0.727840 92.000000
0.826022 -0.730796 -0.734354 95.000000
0.811963 -0.735875 -0.726966 95.000000
0.813188 -0.754903 -0.733351 85.000000
0.808138 -0.768252 -0.734111 39.000000
0.823330 -0.802349 -0.754345 32.000000
0.817733 -0.815964 -0.754940 70.000000
0.812031 -0.829487 -0.755520 55.000000
0.802647 -0.840307 -0.753576 83.000000
0.808185 -0.865974 -0.764897 69.000000
0.795629 -0.873666 -0.760127 55.000000
0.786539 -0.883913 -0.757726 60.000000
0.784969 -0.903924 -0.763692 34.000000
0.774872 -0.914411 -0.761482 39.000000
0.781641 -0.943907 -0.775003 77.000000
0.773857 -0.957641 -0.775322 74.000000
0.760666 -0.964616 -0.770312 91.000000
0.775955 -1.008408 -0.794403 57.000000
0.767427 -1.022195 -0.794479 37.000000
0.766316 -1.046204 -0.802431 75.000000
0.762386 -1.066833 -0.807645 31.000000
0.750778 -1.077079 -0.804919 32.000000
0.765471 -1.126011 -0.830794 29.000000
0.748531 -1.129206 -0.822731 29.000000
0.745584 -1.153692 -0.830174 31.000000
0.739995 -1.174609 -0.834917 26.000000
0.465984 0.760426 -0.525175 28.000000
0.467261 0.743117 -0.519432 36.000000
0.482219 0.747602 -0.528934 29.000000
0.475970 0.719553 -0.515412 37.000000
0.486106 0.716660 -0.519795 37.000000
0.474254 0.681972 -0.500896 29.000000
0.489013 0.686025 -0.510356 47.000000
0.481260 0.658719 -0.496444 35.000000
0.493514 0.659079 -0.503262 63.000000
0.500641 0.652423 -0.504852 35.000000
0.510369 0.649055 -0.509037 36.000000
0.514777 0.638877 -0.507974 58.000000
0.510943 0.618887 -0.498917 43.000000
0.504023 0.595861 -0.487150 91.000000
0.482392 0.557317 -0.462161 61.000000
0.553101 0.623681 -0.524724 123.000000
0.707797 0.778923 -0.665016 120.000000
1.214624 1.245378 -1.112534 26.000000
1.270132 1.270849 -1.153114 29.000000
1.292572 1.263243 -1.164496 10.000000
1.306679 1.246053 -1.167186 13.000000
1.326006 1.234841 -1.175779 23.000000
1.336024 1.214818 -1.176082 16.000000
1.339590 1.189186 -1.170835 17.000000
1.323888 1.147174 -1.149028 18.000000
1.355297 1.146156 -1.168335 14.000000
1.351593 1.115304 -1.157217 16.000000
1.353901 1.089904 -1.151560 9.000000
1.342873 1.054341 -1.134669 10.000000
1.364231 1.044474 -1.145430 21.000000
1.362376 1.016821 -1.136645 12.000000
1.389707 1.011753 -1.153257 19.000000
1.390737 0.986485 -1.147032 17.000000
1.394205 0.964086 -1.143947 18.000000
1.401566 0.943612 -1.143142 21.000000
1.387310 0.909862 -1.125854 9.000000
1.407367 0.898791 -1.136558 18.000000
1.413476 0.878672 -1.135897 22.000000
1.405231 0.849916 -1.123869 18.000000
1.417955 0.834030 -1.128641 22.000000
1.426966 0.815826 -1.130528 23.000000
1.432256 0.795563 -1.129456 20.000000
1.437380 0.775269 -1.128314 20.000000
1.413143 0.739637 -1.104334 9.000000
1.435487 0.729258 -1.117633 11.000000
1.454188 0.716516 -1.128055 19.000000
1.447397 0.690765 -1.117944 14.000000
1.462176 0.675888 -1.125341 18.000000
1.473171 0.658971 -1.129768 21.000000
1.461480 0.632149 -1.116915 20.000000
1.468306 0.613570 -1.118280 21.000000
1.467430 0.591873 -1.113771 10.000000
1.458282 0.567464 -1.103895 18.000000
1.476066 0.553238 -1.113602 24.000000
1.477999 0.533240 -1.112127 21.000000
1.475873 0.511945 -1.107635 22.000000
1.481367 0.493302 -1.108804 21.000000
1.486626 0.474542 -1.109915 18.000000
1.495664 0.456973 -1.113809 19.000000
1.449841 0.423217 -1.076951 10.000000
1.438858 0.400510 -1.066067 21.000000
1.403628 0.372002 -1.038054 34.000000
0.856044 0.192942 -0.629582 36.000000
0.862093 0.182975 -0.632861 98.000000
0.860098 0.171321 -0.630275 85.000000
0.869825 0.162030 -0.636609 95.000000
0.875652 0.151745 -0.639730 45.000000
0.901222 0.144608 -0.657635 98.000000
0.894709 0.132093 -0.652095 100.000000
0.892119 0.120322 -0.649408 95.000000
0.901455 0.110093 -0.655464 100.000000
0.902515 0.098779 -0.655806 100.000000
0.903643 0.087432 -0.655840 100.000000
0.884341 0.074419 -0.641434 103.000000
0.885076 0.063325 -0.641602 40.000000
0.889789 0.052469 -0.644598 81.000000
0.898284 0.041700 -0.650729 98.000000
0.898759 0.030419 -0.650696 95.000000
0.898996 0.019139 -0.650797 95.000000
0.899097 0.007859 -0.650865 103.000000
0.895081 -0.003372 -0.647933 100.000000
0.878847 -0.014337 -0.636106 100.000000
0.878682 -0.025363 -0.635974 105.000000
0.882332 -0.036557 -0.638938 103.000000
0.881999 -0.047601 -0.638672 103.000000
0.881434 -0.058645 -0.638572 95.000000
0.888815 -0.070328 -0.644229 98.000000
0.892080 -0.081843 -0.646921 100.000000
0.891034 -0.093039 -0.646854 100.000000
0.898111 -0.105144 -0.652334 103.000000
0.896852 -0.116407 -0.652163 100.000000
0.919620 -0.131105 -0.669431 100.000000
0.898106 -0.139521 -0.654473 103.000000
0.912612 -0.153459 -0.665742 95.000000
0.906739 -0.164216 -0.662614 95.000000
0.885073 -0.171710 -0.647477 103.000000
0.910954 -0.188620 -0.667544 98.000000
0.908823 -0.200047 -0.667125 100.000000
0.906586 -0.211473 -0.666635 100.000000
0.900297 -0.221891 -0.663168 100.000000
0.878205 -0.228050 -0.648046 98.000000
0.891499 -0.243328 -0.658978 77.000000
0.896523 -0.256828 -0.664294 95.000000
0.893623 -0.268115 -0.663770 100.000000
0.882839 -0.276961 -0.657350 98.000000
0.891418 -0.291887 -0.665370 95.000000
0.892051 -0.304400 -0.667523 103.000000
0.888773 -0.315609 -0.666712 98.000000
0.885390 -0.326747 -0.665866 98.000000
0.889287 -0.340917 -0.670956 55.000000
0.885696 -0.352046 -0.669960 92.000000
0.893102 -0.367922 -0.677794 98.000000
0.885230 -0.377622 -0.674097 98.000000
0.884820 -0.390464 -0.676030 100.000000
0.876839 -0.399926 -0.672233 94.000000
0.879926 -0.414468 -0.676905 95.000000
0.875153 -0.425715 -0.676110 98.000000
0.874269 -0.438551 -0.677800 59.000000
0.895198 -0.462777 -0.696502 95.000000
0.890002 -0.474179 -0.695493 98.000000
0.881082 -0.483525 -0.691574 98.000000
0.882899 -0.498824 -0.696154 100.000000
0.880948 -0.512121 -0.697778 100.000000
0.878876 -0.525433 -0.699354 100.000000
0.869641 -0.534433 -0.695253 98.000000
0.867334 -0.547684 -0.696705 73.000000
0.861431 -0.558658 -0.695305 94.000000
0.855452 -0.569557 -0.693867 98.000000
0.869521 -0.594654 -0.709375 94.000000
0.859805 -0.603238 -0.705000 87.000000
0.863164 -0.621641 -0.711992 80.000000
0.866679 -0.639912 -0.718636 98.000000
0.859566 -0.651057 -0.717135 90.000000
0.855664 -0.664679 -0.718356 38.000000
0.851587 -0.678307 -0.719526 78.000000
0.840945 -0.686618 -0.715143 95.000000
0.836613 -0.700091 -0.716221 95.000000
0.835399 -0.716291 -0.719943 95.000000
0.837054 -0.735299 -0.726329 84.000000
0.835373 -0.751664 -0.729950 95.000000
0.839666 -0.773716 -0.738894 84.000000
0.834463 -0.787391 -0.739611 38.000000
0.840626 -0.812968 -0.751333 38.000000
0.829022 -0.820780 -0.746517 38.000000
0.831603 -0.843737 -0.755410 84.000000
0.822728 -0.854328 -0.753181 69.000000
0.813123 -0.865219 -0.751208 62.000000
0.812704 -0.884943 -0.756845 63.000000
0.808477 -0.901954 -0.760080 40.000000
0.795692 -0.909455 -0.755292 49.000000
0.794575 -0.929268 -0.760737 33.000000
0.800676 -0.959349 -0.774298 50.000000
0.782027 -0.960039 -0.764088 47.000000
0.792713 -0.997062 -0.782676 56.000000
0.789607 -1.017665 -0.788040 65.000000
0.786235 -1.038338 -0.793309 40.000000
0.785089 -1.062518 -0.801120 52.000000
0.771081 -1.069465 -0.795848 37.000000
0.774315 -1.100696 -0.808621 16.000000
0.774525 -1.128688 -0.818674 21.000000
0.767136 -1.146149 -0.820917 29.000000
0.757193 -1.159988 -0.820526 26.000000
0.751602 -1.181011 -0.825245 27.000000
0.743454 -1.198408 -0.827280 25.000000
0.475844 0.769814 -0.522468 13.000000
0.482327 0.759465 -0.521682 21.000000
0.490420 0.752991 -0.523555 21.000000
0.496053 0.742801 -0.522870 16.000000
0.508819 0.743280 -0.529739 24.000000
0.496979 0.708297 -0.511241 10.000000
0.484473 0.673715 -0.492542 24.000000
0.494265 0.670723 -0.496722 30.000000
0.493733 0.653852 -0.490615 16.000000
0.503437 0.650654 -0.494766 27.000000
0.513127 0.647329 -0.498903 26.000000
0.514746 0.633859 -0.495249 28.000000
0.527116 0.633576 -0.501937 30.000000
0.509105 0.597377 -0.479934 10.000000
0.560486 0.641968 -0.523163 103.000000
1.204050 1.255099 -1.085059 31.000000
1.274445 1.296570 -1.138222 25.000000
1.309876 1.300629 -1.159655 11.000000
1.314342 1.275030 -1.154979 10.000000
1.324687 1.255210 -1.155476 10.000000
1.332596 1.232011 -1.152751 10.000000
1.348716 1.217712 -1.158457 14.000000
1.342716 1.183704 -1.145248 10.000000
1.339352 1.152731 -1.134595 10.000000
1.367813 1.149010 -1.150890 10.000000
1.358168 1.112290 -1.134103 9.000000
1.369394 1.095260 -1.137165 10.000000
1.351517 1.054391 -1.115114 9.000000
1.372998 1.044585 -1.125682 10.000000
1.384440 1.026919 -1.128008 10.000000
1.392305 1.006616 -1.127466 10.000000
1.402716 0.989057 -1.130100 10.000000
1.417130 0.973295 -1.134924 15.000000
1.396135 0.934508 -1.112530 9.000000
1.406528 0.916490 -1.114375 10.000000
1.419758 0.900887 -1.119421 10.000000
1.415161 0.874146 -1.110474 10.000000
1.435183 0.862561 -1.120831 14.000000
1.433716 0.838074 -1.114502 10.000000
1.449963 0.823923 -1.121915 12.000000
1.458918 0.805521 -1.123755 19.000000
1.449435 0.777147 -1.111474 10.000000
1.443287 0.751027 -1.101834 10.000000
1.451082 0.732917 -1.103813 10.000000
1.462891 0.716205 -1.108005 11.000000
1.474198 0.699580 -1.112625 15.000000
1.474110 0.677568 -1.108671 12.000000
1.485496 0.660414 -1.112634 18.000000
1.492590 0.641717 -1.114077 18.000000
1.488086 0.618097 -1.107026 10.000000
1.475300 0.591875 -1.094519 16.000000
1.477940 0.571778 -1.092858 18.000000
1.480371 0.551602 -1.091133 16.000000
1.482243 0.531698 -1.089635 18.000000
1.483969 0.511774 -1.088131 16.000000
1.513138 0.500748 -1.105992 21.000000
1.518526 0.481744 -1.107117 24.000000
1.519750 0.461488 -1.105267 20.000000
1.481085 0.429954 -1.075114 17.000000
1.481838 0.410213 -1.073055 24.000000
1.446444 0.381285 -1.045499 24.000000
0.865008 0.182527 -0.620354 62.000000
0.875014 0.173306 -0.626431 95.000000
0.880765 0.163141 -0.629805 91.000000
0.894694 0.154163 -0.638636 72.000000
0.908398 0.144951 -0.647644 95.000000
0.909908 0.133587 -0.647953 98.000000
0.915366 0.122766 -0.651109 98.000000
0.916677 0.111317 -0.651281 100.000000
0.913685 0.099461 -0.648777 100.000000
0.914818 0.088062 -0.648811 100.000000
0.911606 0.076289 -0.646167 98.000000
0.904246 0.064362 -0.640533 70.000000
0.913076 0.053560 -0.646406 98.000000
0.905330 0.041801 -0.640906 95.000000
0.913965 0.030762 -0.646611 100.000000
0.901927 0.019120 -0.638086 100.000000
0.910225 0.007928 -0.643929 103.000000
0.910259 -0.003403 -0.643895 110.000000
0.889783 -0.014437 -0.629391 103.000000
0.885569 -0.025397 -0.626372 108.000000
0.893330 -0.036792 -0.632178 103.000000
0.884840 -0.047449 -0.626107 105.000000
0.924993 -0.061204 -0.654856 95.000000
0.903941 -0.071103 -0.640262 105.000000
0.907231 -0.082754 -0.642908 98.000000
0.934621 -0.097038 -0.663019 103.000000
0.909248 -0.105820 -0.645347 103.000000
0.932304 -0.120306 -0.662422 103.000000
0.906650 -0.128481 -0.644868 105.000000
0.901174 -0.139171 -0.641649 100.000000
0.915814 -0.153098 -0.652743 85.000000
0.922031 -0.166012 -0.658284 100.000000
0.924303 -0.178249 -0.660597 100.000000
0.914247 -0.188145 -0.654505 100.000000
0.916126 -0.200466 -0.656956 98.000000
0.913889 -0.211892 -0.656467 95.000000
0.911583 -0.223283 -0.655908 100.000000
0.916901 -0.236795 -0.661249 98.000000
0.906447 -0.246031 -0.654860 42.000000
0.899705 -0.256298 -0.651513 95.000000
0.893092 -0.266293 -0.647859 83.000000
0.894034 -0.278703 -0.650087 95.000000
0.906604 -0.294956 -0.660819 98.000000
0.899277 -0.305070 -0.657477 95.000000
0.899843 -0.317683 -0.659509 100.000000
0.892580 -0.327487 -0.655821 95.000000
0.896575 -0.341664 -0.660823 53.000000
0.904230 -0.357479 -0.668575 86.000000
0.900485 -0.368714 -0.667531 93.000000
0.892617 -0.378411 -0.663842 84.000000
0.896019 -0.392915 -0.668588 81.000000
0.895224 -0.406012 -0.670682 85.000000
0.890829 -0.417234 -0.669666 95.000000
0.886363 -0.428383 -0.668576 78.000000
0.885200 -0.441451 -0.670510 53.000000
0.906322 -0.465754 -0.688910 71.000000
0.901104 -0.477241 -0.687896 72.000000
0.899415 -0.490638 -0.689599 94.000000
0.890406 -0.499950 -0.685681 95.000000
0.888485 -0.513289 -0.687300 84.000000
0.882870 -0.524483 -0.686057 95.000000
0.873627 -0.533470 -0.682003 91.000000
0.874940 -0.548895 -0.686185 66.000000
0.893566 -0.575672 -0.704114 45.000000
0.890508 -0.589453 -0.705664 48.000000
0.880765 -0.598279 -0.701390 79.000000
0.884355 -0.616734 -0.708303 50.000000
0.877860 -0.627796 -0.706650 42.000000
0.874267 -0.641493 -0.707966 54.000000
0.867154 -0.652677 -0.706464 35.000000
0.869922 -0.671431 -0.713128 36.000000
0.865858 -0.685150 -0.714245 29.000000
0.855530 -0.693259 -0.709610 50.000000
0.854004 -0.709830 -0.713617 35.000000
0.868750 -0.739816 -0.730761 36.000000
0.863945 -0.753628 -0.731589 60.000000
0.865292 -0.773060 -0.737770 35.000000
0.860142 -0.786905 -0.738474 33.000000
0.851213 -0.798149 -0.736747 37.000000
0.851909 -0.817723 -0.742711 22.000000
0.849354 -0.834476 -0.745892 37.000000
0.842953 -0.848590 -0.746653 32.000000
0.839355 -0.865703 -0.749998 30.000000
0.830298 -0.876320 -0.747701 33.000000
0.823437 -0.890321 -0.748290 29.000000
0.822788 -0.910195 -0.753794 35.000000
0.804259 -0.911369 -0.743811 26.000000
0.813720 -0.944535 -0.759852 16.000000
0.819846 -0.974766 -0.773147 32.000000
0.820021 -0.998771 -0.781174 29.000000
0.811779 -1.012851 -0.781311 30.000000
0.808657 -1.033618 -0.786572 35.000000
0.802569 -1.051042 -0.789175 26.000000
0.791196 -1.061570 -0.786590 31.000000
0.782260 -1.075436 -0.786503 25.000000
0.790614 -1.113824 -0.804109 10.000000
0.785986 -1.134863 -0.808936 16.000000
0.785919 -1.163109 -0.818649 15.000000
0.766283 -1.162641 -0.808243 17.000000
0.765558 -1.190973 -0.817799 19.000000
0.751787 -1.201551 -0.815105 16.000000
0.478047 0.785326 -0.517423 22.000000
0.495573 0.793718 -0.529200 31.000000
0.487563 0.761465 -0.513843 26.000000
0.500423 0.762218 -0.520642 28.000000
0.504258 0.748103 -0.517334 35.000000
0.509730 0.737873 -0.516647 27.000000
0.507562 0.717017 -0.508398 35.000000
0.484757 0.668308 -0.479977 14.000000
0.491926 0.661896 -0.481551 32.000000
0.501650 0.658828 -0.485654 70.000000
0.508711 0.652236 -0.487207 32.000000
0.513085 0.642165 -0.486214 52.000000
0.511854 0.625424 -0.480040 67.000000
0.524141 0.625264 -0.486626 40.000000
0.542102 0.631382 -0.498321 74.000000
1.249805 1.354701 -1.116565 27.000000
1.278408 1.354384 -1.132977 33.000000
1.305176 1.349890 -1.146393 30.000000
1.329081 1.341857 -1.157183 24.000000
1.355132 1.336921 -1.171042 19.000000
1.363804 1.313285 -1.168655 10.000000
1.355918 1.275584 -1.153479 16.000000
1.359906 1.249656 -1.148698 12.000000
1.354961 1.214876 -1.135342 10.000000
1.374168 1.203178 -1.143594 16.000000
1.377338 1.177431 -1.138508 10.000000
1.387411 1.156697 -1.138128 12.000000
1.389956 1.130973 -1.132784 11.000000
1.378971 1.094867 -1.116692 9.000000
1.407418 1.090158 -1.132592 12.000000
1.405813 1.062030 -1.124217 10.000000
1.403100 1.034431 -1.116238 10.000000
1.421240 1.021401 -1.123852 16.000000
1.415196 0.991126 -1.112540 10.000000
1.422075 0.971010 -1.112335 18.000000
1.436267 0.955128 -1.116992 17.000000
1.425188 0.923387 -1.103034 10.000000
1.439052 0.907392 -1.107554 17.000000
1.448655 0.889240 -1.109723 18.000000
1.461725 0.873172 -1.114505 20.000000
1.467426 0.852627 -1.113811 20.000000
1.483868 0.838213 -1.121166 21.000000
1.474662 0.809370 -1.109271 17.000000
1.465050 0.780927 -1.097209 21.000000
1.462445 0.756657 -1.090505 15.000000
1.481933 0.743760 -1.100366 16.000000
1.500935 0.730704 -1.110496 22.000000
1.497723 0.706350 -1.103585 14.000000
1.501411 0.685918 -1.102448 21.000000
1.501079 0.663778 -1.098521 18.000000
1.504373 0.643340 -1.097183 21.000000
1.511287 0.624463 -1.098626 24.000000
1.506462 0.600855 -1.091514 15.000000
1.509155 0.580453 -1.089912 25.000000
1.503865 0.557210 -1.082650 22.000000
1.525256 0.544057 -1.095272 25.000000
1.511405 0.518311 -1.082562 25.000000
1.525038 0.501873 -1.089000 23.000000
1.530367 0.482869 -1.090066 24.000000
1.535577 0.463746 -1.091072 24.000000
1.520697 0.438835 -1.077947 16.000000
1.537144 0.423307 -1.087628 21.000000
1.525820 0.399860 -1.077056 25.000000
1.529958 0.380916 -1.078047 24.000000
0.865489 0.170551 -0.605597 98.000000
0.867350 0.159775 -0.605859 79.000000
0.877104 0.150392 -0.611949 84.000000
0.895059 0.142032 -0.623416 103.000000
0.904687 0.132111 -0.629388 105.000000
0.902028 0.120320 -0.626823 100.000000
0.903141 0.109158 -0.627228 103.000000
0.908447 0.098372 -0.630201 103.000000
0.905299 0.086733 -0.627666 103.000000
0.910411 0.075811 -0.630472 100.000000
0.907052 0.064207 -0.627801 98.000000
0.899512 0.052498 -0.622220 105.000000
0.908131 0.041714 -0.628138 98.000000
0.908604 0.030451 -0.628105 103.000000
0.908840 0.019188 -0.628239 98.000000
0.913087 0.007961 -0.631116 100.000000
0.917234 -0.003403 -0.633959 100.000000
0.908941 -0.014635 -0.628206 100.000000
0.904660 -0.025781 -0.625229 95.000000
0.896037 -0.036657 -0.619545 98.000000
0.899813 -0.047986 -0.622120 98.000000
0.895139 -0.058878 -0.619179 90.000000
0.906749 -0.070917 -0.627531 95.000000
0.909903 -0.082586 -0.630337 98.000000
0.909023 -0.093832 -0.630032 98.000000
0.916084 -0.106060 -0.635571 98.000000
0.910905 -0.116883 -0.632292 98.000000
0.913657 -0.128755 -0.634854 98.000000
0.904077 -0.138818 -0.628846 95.000000
0.922707 -0.153479 -0.642836 93.000000
0.917021 -0.164148 -0.639556 95.000000
0.923223 -0.177116 -0.644903 98.000000
0.925246 -0.189424 -0.647347 95.000000
0.931353 -0.202604 -0.652331 98.000000
0.928921 -0.214236 -0.652084 98.000000
0.930605 -0.226739 -0.654341 100.000000
0.940165 -0.241325 -0.662157 95.000000
0.937404 -0.253051 -0.661726 98.000000
0.910849 -0.257912 -0.644097 95.000000
0.904019 -0.268057 -0.640693 98.000000
0.904979 -0.280519 -0.642909 98.000000
0.901904 -0.291771 -0.642211 100.000000
0.902438 -0.304416 -0.644524 98.000000
0.899174 -0.315611 -0.643716 98.000000
0.899700 -0.328157 -0.645669 98.000000
0.903757 -0.342375 -0.650584 76.000000
0.907642 -0.356717 -0.655415 66.000000
0.907507 -0.369614 -0.657412 98.000000
0.907266 -0.382572 -0.659330 98.000000
0.903107 -0.393855 -0.658426 95.000000
0.902596 -0.406811 -0.660223 95.000000
0.905749 -0.421582 -0.664746 95.000000
0.893480 -0.429363 -0.658371 95.000000
0.896374 -0.444177 -0.662769 86.000000
0.898822 -0.459252 -0.667332 37.000000
0.904768 -0.476385 -0.674595 100.000000
0.895826 -0.485759 -0.670762 98.000000
0.894151 -0.499039 -0.672389 98.000000
0.895910 -0.514420 -0.676710 98.000000
0.893937 -0.527780 -0.678201 100.000000
0.888223 -0.538943 -0.676914 98.000000
0.882395 -0.550068 -0.675590 94.000000
0.886788 -0.568097 -0.682613 62.000000
0.887716 -0.583781 -0.686585 98.000000
0.881192 -0.595053 -0.685311 76.000000
0.878357 -0.608412 -0.686470 79.000000
0.881908 -0.626892 -0.693205 93.000000
0.878332 -0.640551 -0.694485 62.000000
0.871679 -0.651417 -0.692753 95.000000
0.874606 -0.670182 -0.699295 37.000000
0.870601 -0.683864 -0.700375 37.000000
0.853282 -0.686902 -0.690735 95.000000
0.862141 -0.711160 -0.702378 94.000000
0.863708 -0.730567 -0.708893 90.000000
0.887900 -0.769214 -0.733583 91.000000
0.876524 -0.777598 -0.729040 90.000000
0.867680 -0.788969 -0.727397 87.000000
0.859299 -0.799918 -0.725376 36.000000
0.847752 -0.807762 -0.720734 34.000000
0.844787 -0.824711 -0.724158 85.000000
0.848240 -0.847382 -0.732471 70.000000
0.835779 -0.855304 -0.727985 94.000000
0.838098 -0.878530 -0.736391 53.000000
0.837755 -0.898408 -0.741849 72.000000
0.836467 -0.918773 -0.747479 79.000000
0.832032 -0.936025 -0.750496 32.000000
0.818926 -0.943565 -0.745705 30.000000
0.819695 -0.967294 -0.753705 65.000000
0.811904 -0.981232 -0.753956 72.000000
0.809320 -1.001807 -0.759225 63.000000
0.803757 -1.019118 -0.761869 76.000000
0.800588 -1.039805 -0.767004 90.000000
0.794556 -1.057104 -0.769482 54.000000
0.783163 -1.067470 -0.766914 32.000000
0.784286 -1.095258 -0.776788 28.000000
0.784985 -1.123233 -0.786528 27.000000
0.763195 -1.119108 -0.773811 30.000000
0.760009 -1.143918 -0.781224 29.000000
0.757227 -1.168457 -0.788232 25.000000
0.749430 -1.185783 -0.790260 30.000000
0.745956 -1.210462 -0.797043 25.000000
0.483993 0.808645 -0.517160 17.000000
0.485618 0.791053 -0.511852 31.000000
0.496326 0.788317 -0.516184 27.000000
0.505231 0.781492 -0.517874 35.000000
0.503844 0.760278 -0.509999 32.000000
0.516779 0.760889 -0.516714 43.000000
0.507977 0.728829 -0.501160 37.000000
0.503057 0.704468 -0.490577 32.000000
0.495163 0.676837 -0.477376 29.000000
0.499775 0.666914 -0.476484 36.000000
0.514815 0.670699 -0.485536 37.000000
0.508630 0.646921 -0.474594 52.000000
0.512875 0.636941 -0.473596 41.000000
0.522488 0.633585 -0.477580 91.000000
0.548832 0.649863 -0.496678 98.000000
1.223380 1.348726 -1.075831 39.000000
1.255592 1.351753 -1.094102 35.000000
1.279270 1.344792 -1.104785 34.000000
1.308079 1.344020 -1.120973 40.000000
1.328937 1.333090 -1.129050 32.000000
1.346668 1.318805 -1.134442 28.000000
1.357272 1.298927 -1.135146 12.000000
1.368550 1.278391 -1.135234 10.000000
1.378828 1.258202 -1.135776 21.000000
1.392831 1.240332 -1.138310 18.000000
1.389814 1.208672 -1.128252 12.000000
1.409096 1.196652 -1.136323 21.000000
1.408772 1.167973 -1.128606 16.000000
1.412040 1.141646 -1.122947 13.000000
1.407547 1.110570 -1.112373 10.000000
1.426251 1.097913 -1.120168 12.000000
1.424524 1.069675 -1.112036 18.000000
1.425866 1.044027 -1.106384 14.000000
1.429665 1.021416 -1.103737 16.000000
1.433867 0.998407 -1.100560 18.000000
1.441334 0.977821 -1.099970 16.000000
1.445035 0.954807 -1.096632 18.000000
1.447947 0.932219 -1.093586 10.000000
1.465430 0.918271 -1.100761 19.000000
1.478725 0.902135 -1.105641 26.000000
1.484698 0.881548 -1.105016 21.000000
1.483150 0.856590 -1.098917 25.000000
1.485008 0.833903 -1.095433 24.000000
1.471836 0.803163 -1.080970 20.000000
1.484253 0.786682 -1.085388 23.000000
1.477870 0.760325 -1.076166 9.000000
1.501221 0.749268 -1.088562 16.000000
1.513173 0.732172 -1.092752 23.000000
1.517090 0.711609 -1.091797 20.000000
1.513102 0.687614 -1.085305 19.000000
1.520795 0.668532 -1.086456 23.000000
1.516337 0.644663 -1.079749 20.000000
1.530983 0.628962 -1.086619 24.000000
1.533868 0.608327 -1.085201 13.000000
1.520998 0.581763 -1.072655 25.000000
1.523093 0.561514 -1.071388 31.000000
1.533197 0.543855 -1.075214 24.000000
1.530959 0.522180 -1.071002 23.000000
1.540722 0.504354 -1.074593 28.000000
1.538115 0.482746 -1.070191 21.000000
1.551287 0.466009 -1.076730 26.000000
1.540270 0.442184 -1.066540 10.000000
1.545087 0.423032 -1.067421 24.000000
1.557484 0.406097 -1.074029 29.000000
1.537755 0.380674 -1.058017 27.000000
1.529569 0.358816 -1.050551 29.000000
0.888386 0.174105 -0.607071 34.000000
0.882114 0.161598 -0.601765 98.000000
0.912403 0.155606 -0.621743 95.000000
0.901672 0.142401 -0.613748 100.000000
0.911360 0.132449 -0.619633 103.000000
0.908637 0.120657 -0.617111 105.000000
0.909952 0.109394 -0.617280 105.000000
0.915255 0.098609 -0.620208 105.000000
0.916204 0.087328 -0.620513 105.000000
0.925483 0.076665 -0.626104 105.000000
0.926235 0.065249 -0.626274 95.000000
0.922781 0.053593 -0.623547 103.000000
0.919049 0.042004 -0.621021 103.000000
0.919524 0.030656 -0.620988 103.000000
0.928047 0.019517 -0.626685 103.000000
0.928184 0.008066 -0.626753 103.000000
0.928218 -0.003384 -0.626753 100.000000
0.928149 -0.014834 -0.626650 103.000000
0.903122 -0.025580 -0.609732 103.000000
0.902723 -0.036724 -0.609765 95.000000
0.902390 -0.047867 -0.609499 98.000000
0.905961 -0.059248 -0.612161 59.000000
0.921794 -0.071695 -0.623172 98.000000
0.916746 -0.082722 -0.620378 100.000000
0.915865 -0.094036 -0.620039 100.000000
0.914713 -0.105316 -0.619904 98.000000
0.921724 -0.117681 -0.625283 98.000000
0.936826 -0.131367 -0.636171 98.000000
0.918955 -0.140410 -0.624668 98.000000
0.937895 -0.155110 -0.638192 80.000000
0.936253 -0.166641 -0.637703 98.000000
0.926171 -0.176686 -0.631822 100.000000
0.936375 -0.190602 -0.639821 100.000000
0.938296 -0.203063 -0.642144 100.000000
0.940128 -0.215553 -0.644429 98.000000
0.941834 -0.228143 -0.646638 100.000000
0.939203 -0.239805 -0.646246 100.000000
0.912524 -0.244887 -0.628947 52.000000
0.929791 -0.261857 -0.642269 98.000000
0.918898 -0.271005 -0.636171 98.000000
0.919862 -0.283604 -0.638302 98.000000
0.916760 -0.294954 -0.637598 103.000000
0.909422 -0.305048 -0.634346 98.000000
0.910063 -0.317653 -0.636293 100.000000
0.906468 -0.328968 -0.635694 95.000000
0.914741 -0.344559 -0.643022 63.000000
0.922563 -0.360476 -0.650506 95.000000
0.930212 -0.376648 -0.657935 98.000000
0.918357 -0.384949 -0.651580 100.000000
0.914181 -0.396316 -0.650636 100.000000
0.913427 -0.409505 -0.652677 98.000000
0.912854 -0.422534 -0.654346 98.000000
0.915919 -0.437429 -0.658691 103.000000
0.911008 -0.448876 -0.657805 77.000000
0.913474 -0.464053 -0.662273 95.000000
0.915781 -0.479380 -0.666688 98.000000
0.914189 -0.492786 -0.668343 100.000000
0.905083 -0.502165 -0.664511 98.000000
0.906916 -0.517600 -0.668702 95.000000
0.901316 -0.528877 -0.667491 98.000000
0.899213 -0.542256 -0.668891 98.000000
0.893400 -0.553426 -0.667523 70.000000
0.912070 -0.580586 -0.685156 95.000000
0.909437 -0.594187 -0.686342 84.000000
0.902810 -0.605677 -0.685088 95.000000
0.892578 -0.614648 -0.681094 95.000000
0.892662 -0.630828 -0.685076 72.000000
0.889562 -0.644299 -0.686032 103.000000
0.885855 -0.658014 -0.687213 95.000000
0.878674 -0.669162 -0.685706 53.000000
0.884780 -0.690655 -0.694684 71.000000
0.880611 -0.704432 -0.695657 95.000000
0.879149 -0.721156 -0.699482 95.000000
0.887686 -0.745867 -0.710837 92.000000
0.882951 -0.759773 -0.711618 92.000000
0.887646 -0.782106 -0.720142 95.000000
0.878855 -0.793518 -0.718494 85.000000
0.870443 -0.804507 -0.716508 65.000000
0.870728 -0.824542 -0.722516 84.000000
0.855939 -0.829385 -0.715276 63.000000
0.849738 -0.843437 -0.716019 91.000000
0.852420 -0.866584 -0.724341 84.000000
0.840415 -0.874107 -0.719544 69.000000
0.845506 -0.900554 -0.730287 86.000000
0.853078 -0.930468 -0.743454 61.000000
0.851470 -0.951061 -0.748898 94.000000
0.826874 -0.945785 -0.734072 33.000000
0.836170 -0.979404 -0.749502 80.000000
0.825484 -0.990135 -0.747183 95.000000
0.833891 -1.024284 -0.762360 80.000000
0.822815 -1.034988 -0.759894 82.000000
0.816921 -1.052455 -0.762394 81.000000
0.805585 -1.062948 -0.759864 81.000000
0.796788 -1.076797 -0.759802 73.000000
0.810721 -1.122384 -0.781753 23.000000
0.791201 -1.122130 -0.771686 31.000000
0.778416 -1.132704 -0.769235 31.000000
0.771217 -1.150054 -0.771314 30.000000
0.768556 -1.174655 -0.778206 55.000000
0.766948 -1.203448 -0.787691 36.000000
0.777297 -1.250669 -0.808777 44.000000
0.766292 -1.264521 -0.808099 93.000000
0.484788 0.803073 -0.504191 18.000000
0.500153 0.807956 -0.513237 19.000000
0.499851 0.786298 -0.505447 26.000000
0.505735 0.776086 -0.504931 23.000000
0.519369 0.776519 -0.511374 33.000000
0.520065 0.758917 -0.505998 30.000000
0.528076 0.752188 -0.507761 26.000000
0.534044 0.741495 -0.506905 25.000000
0.490034 0.664280 -0.459984 21.000000
0.512881 0.678822 -0.476163 36.000000
0.509471 0.658399 -0.467941 33.000000
0.516495 0.651812 -0.469456 44.000000
0.523461 0.645138 -0.470943 71.000000
0.552612 0.665115 -0.492186 95.000000
0.655384 0.770397 -0.578056 103.000000
1.185287 1.328902 -1.025681 38.000000
1.228902 1.345561 -1.053656 35.000000
1.261206 1.348644 -1.071670 61.000000
1.290872 1.348022 -1.087185 57.000000
1.308593 1.334493 -1.092675 34.000000
1.334552 1.330284 -1.106036 37.000000
1.355329 1.319090 -1.113979 30.000000
1.372986 1.304639 -1.119269 16.000000
1.380245 1.281599 -1.117322 19.000000
1.404032 1.272478 -1.127600 16.000000
1.417356 1.254847 -1.130628 20.000000
1.418370 1.225395 -1.122906 18.000000
1.418204 1.196538 -1.115403 17.000000
1.434195 1.181421 -1.120760 24.000000
1.440769 1.157585 -1.117837 15.000000
1.426251 1.118357 -1.099724 10.000000
1.448396 1.108222 -1.110046 14.000000
1.456900 1.087426 -1.109852 13.000000
1.458258 1.061566 -1.104359 21.000000
1.448963 1.028374 -1.090922 17.000000
1.460098 1.010113 -1.093085 19.000000
1.460017 0.984968 -1.087748 18.000000
1.467267 0.964188 -1.087074 14.000000
1.459962 0.934149 -1.075781 10.000000
1.494952 0.931812 -1.096518 19.000000
1.490828 0.904080 -1.087705 20.000000
1.504011 0.887734 -1.092426 26.000000
1.498748 0.860563 -1.083812 21.000000
1.504265 0.839885 -1.083081 23.000000
1.505834 0.817094 -1.079551 27.000000
1.507130 0.794365 -1.075942 13.000000
1.515739 0.775549 -1.077602 9.000000
1.516661 0.752854 -1.073784 14.000000
1.521057 0.732056 -1.072571 15.000000
1.532508 0.715101 -1.077027 29.000000
1.536560 0.694153 -1.075623 19.000000
1.532305 0.670107 -1.069130 21.000000
1.539817 0.650904 -1.070221 21.000000
1.546783 0.631883 -1.071675 19.000000
1.534001 0.604963 -1.059434 10.000000
1.552311 0.590427 -1.068807 25.000000
1.554393 0.569934 -1.067604 27.000000
1.556684 0.549238 -1.065914 27.000000
1.558406 0.528760 -1.064578 24.000000
1.564327 0.509320 -1.065355 24.000000
1.569711 0.490060 -1.066551 25.000000
1.566879 0.468278 -1.062122 17.000000
1.571878 0.448938 -1.063074 11.000000
1.564629 0.426234 -1.055723 21.000000
1.565180 0.405814 -1.053702 23.000000
1.561230 0.384609 -1.049238 26.000000
1.557121 0.363488 -1.044706 25.000000
0.884395 0.161243 -0.589432 37.000000
0.919140 0.155946 -0.611603 98.000000
0.920739 0.144649 -0.611977 103.000000
0.922237 0.133352 -0.612318 103.000000
0.923632 0.122021 -0.612590 105.000000
0.920777 0.110160 -0.610012 103.000000
0.926116 0.099257 -0.612896 103.000000
0.922911 0.087498 -0.610453 105.000000
0.932251 0.076836 -0.615952 103.000000
0.924673 0.064802 -0.610622 86.000000
0.933687 0.053936 -0.616226 100.000000
0.929927 0.042296 -0.613713 103.000000
0.934575 0.031035 -0.616431 100.000000
0.934814 0.019551 -0.616567 100.000000
0.939125 0.008137 -0.619354 100.000000
0.939159 -0.003399 -0.619354 103.000000
0.939091 -0.014935 -0.619286 98.000000
0.913881 -0.025731 -0.602638 100.000000
0.921823 -0.037296 -0.608141 100.000000
0.913146 -0.048154 -0.602370 98.000000
0.925079 -0.060161 -0.610520 52.000000
0.928532 -0.071831 -0.613066 98.000000
0.931772 -0.083638 -0.615815 98.000000
0.935040 -0.095478 -0.618221 98.000000
0.929756 -0.106470 -0.615337 98.000000
0.932636 -0.118412 -0.617878 98.000000
0.931297 -0.129879 -0.617603 103.000000
0.929890 -0.141312 -0.617226 98.000000
0.948975 -0.156104 -0.630521 62.000000
0.938914 -0.166296 -0.624794 95.000000
0.945219 -0.179407 -0.629959 98.000000
0.951562 -0.192614 -0.634835 100.000000
0.953531 -0.205212 -0.637109 98.000000
0.955160 -0.217911 -0.639558 100.000000
0.952803 -0.229622 -0.639022 100.000000
0.950339 -0.241298 -0.638380 98.000000
0.955725 -0.255172 -0.643368 94.000000
0.932657 -0.261292 -0.629209 98.000000
0.941841 -0.276290 -0.636809 95.000000
0.934759 -0.286664 -0.633447 98.000000
0.931666 -0.298147 -0.632736 100.000000
0.924233 -0.308337 -0.629525 100.000000
0.916972 -0.318288 -0.626001 98.000000
0.925238 -0.333918 -0.633488 98.000000
0.925678 -0.346712 -0.635263 95.000000
0.937496 -0.364247 -0.645310 98.000000
0.933484 -0.375808 -0.644508 100.000000
0.933289 -0.388916 -0.646326 100.000000
0.928821 -0.400562 -0.645630 95.000000
0.924499 -0.411987 -0.644678 98.000000
0.931347 -0.428780 -0.651920 98.000000
0.926749 -0.440200 -0.650808 95.000000
0.918061 -0.449873 -0.647244 77.000000
0.931903 -0.470814 -0.659637 98.000000
0.926702 -0.482347 -0.658619 98.000000
0.928849 -0.497840 -0.662850 100.000000
0.923416 -0.509353 -0.661710 98.000000
0.917868 -0.520789 -0.660532 98.000000
0.908582 -0.529974 -0.656669 95.000000
0.910149 -0.545540 -0.660667 95.000000
0.907623 -0.559212 -0.662238 98.000000
0.926794 -0.586303 -0.679250 95.000000
0.916692 -0.595599 -0.675401 98.000000
0.920648 -0.614175 -0.682016 98.000000
0.910705 -0.623037 -0.677812 95.000000
0.914297 -0.641807 -0.684304 95.000000
0.903759 -0.650748 -0.680258 95.000000
0.893234 -0.659482 -0.676184 81.000000
0.889422 -0.673209 -0.677311 92.000000
0.895653 -0.694808 -0.686074 37.000000
0.904889 -0.719289 -0.697371 95.000000
0.890048 -0.725411 -0.690815 95.000000
0.905323 -0.755730 -0.707054 94.000000
0.897224 -0.766975 -0.705250 98.000000
