x y z intensity
1.459326 1.645569 0.047870 34.000000
1.487189 1.640701 0.048399 53.000000
1.494708 1.613477 0.048206 34.000000
1.512164 1.597095 0.048407 36.000000
1.529486 1.580511 0.048608 41.000000
1.560667 1.578010 0.049186 41.000000
1.591953 1.575000 0.049834 39.000000
1.594609 1.543661 0.049592 34.000000
1.607714 1.522745 0.049616 46.000000
1.620541 1.501772 0.049706 62.000000
1.647904 1.494039 0.050179 54.000000
1.671612 1.482611 0.050609 49.000000
1.683865 1.461056 0.050632 71.000000
1.703533 1.445847 0.050950 52.000000
1.719152 1.427159 0.051087 55.000000
1.734635 1.408334 0.051223 27.000000
1.777317 1.411130 0.052233 37.000000
1.788609 1.388598 0.052256 49.000000
1.807590 1.372059 0.052510 40.000000
1.822484 1.352246 0.052649 50.000000
1.837101 1.332295 0.052857 37.000000
1.855588 1.315095 0.053112 49.000000
1.878040 1.300444 0.053485 53.000000
1.896197 1.282744 0.053742 30.000000
1.926715 1.273010 0.054352 56.000000
1.940462 1.251931 0.054493 71.000000
1.953997 1.230783 0.054634 48.000000
1.980096 1.217276 0.055131 61.000000
1.993222 1.195635 0.055273 54.000000
2.019007 1.181426 0.055772 64.000000
2.031718 1.159431 0.055915 41.000000
2.087895 1.161522 0.057256 32.000000
2.069680 1.122089 0.056489 66.000000
2.099434 1.108860 0.057114 71.000000
2.160214 1.111105 0.058585 92.000000
2.176623 1.089835 0.058854 64.000000
2.197351 1.070508 0.059170 57.000000
2.217876 1.050837 0.059562 65.000000
2.233654 1.028804 0.059833 48.000000
2.258377 1.010605 0.060274 33.000000
2.273838 0.988049 0.060547 50.000000
2.316674 0.976896 0.061478 81.000000
2.327112 0.951644 0.061632 43.000000
2.355907 0.933683 0.062199 57.000000
2.393885 0.918822 0.063092 55.000000
2.403748 0.892834 0.063170 52.000000
2.413220 0.866689 0.063327 34.000000
2.417734 0.838984 0.063281 38.000000
2.459897 0.823846 0.064226 93.000000
2.478200 0.800150 0.064632 95.000000
2.524890 0.785073 0.065705 69.000000
2.504552 0.749035 0.065040 14.000000
2.560573 0.735624 0.066365 29.000000
2.587656 0.713121 0.067027 36.000000
2.595194 0.685016 0.067109 9.000000
2.612179 0.659275 0.067441 8.000000
2.653185 0.639011 0.068400 9.000000
2.679504 0.614655 0.068985 9.000000
2.700617 0.588727 0.069446 9.000000
2.726441 0.563408 0.070033 9.000000
2.747107 0.536707 0.070496 9.000000
2.787242 0.513134 0.071463 9.000000
2.851709 0.493161 0.073064 31.000000
2.921067 0.472527 0.074705 68.000000
2.940772 0.442963 0.075174 77.000000
2.999948 0.418604 0.076656 87.000000
3.029082 0.389240 0.077382 83.000000
3.057911 0.359152 0.078015 91.000000
3.096463 0.329676 0.078997 81.000000
3.099885 0.296024 0.079092 11.000000
3.247266 0.274485 0.082773 8.000000
3.230112 0.237799 0.082364 45.000000
3.267504 0.204887 0.083254 98.000000
3.284478 0.170082 0.083736 95.000000
3.256120 0.133214 0.082972 95.000000
3.222441 0.096746 0.082082 90.000000
3.173353 0.060752 0.080906 62.000000
3.138850 0.025969 0.080014 25.000000
3.043978 -0.007899 0.077593 8.000000
3.018710 -0.040644 0.076956 8.000000
2.963100 -0.072116 0.075645 8.000000
2.932223 -0.103273 0.074880 9.000000
2.895929 -0.133459 0.073987 9.000000
2.859404 -0.162975 0.073094 8.000000
2.872441 -0.195029 0.073477 18.000000
2.855207 -0.225052 0.073094 24.000000
2.822715 -0.253323 0.072328 46.000000
2.804853 -0.282534 0.071946 56.000000
2.771779 -0.309584 0.071180 47.000000
2.758366 -0.338507 0.070925 62.000000
2.714915 -0.363154 0.069821 84.000000
2.691030 -0.389722 0.069312 71.000000
2.656999 -0.414320 0.068547 24.000000
2.573440 -0.429955 0.066508 8.000000
2.548978 -0.454325 0.065920 9.000000
2.558573 -0.484781 0.066302 27.000000
2.533565 -0.508512 0.065714 67.000000
2.508405 -0.531896 0.065205 64.000000
2.502456 -0.559059 0.065127 62.000000
2.515736 -0.590792 0.065635 32.000000
2.567348 -0.632353 0.067077 23.000000
2.642688 -0.681417 0.069233 15.000000
2.683368 -0.722997 0.070416 32.000000
2.747571 -0.772387 0.072316 32.000000
2.820580 -0.826067 0.074379 32.000000
2.988338 -0.910473 0.078964 9.000000
3.006917 -0.951950 0.079626 9.000000
3.020165 -0.992294 0.080257 9.000000
2.995005 -1.020164 0.079782 9.000000
2.993228 -1.055653 0.079937 7.000000
3.047337 -1.112102 0.081600 8.000000
3.021127 -1.139785 0.081125 9.000000
3.017922 -1.176141 0.081277 9.000000
3.014244 -1.212502 0.081429 10.000000
3.023938 -1.254710 0.081955 9.000000
3.010145 -1.287492 0.081855 8.000000
3.032646 -1.336197 0.082754 7.000000
3.058945 -1.387559 0.083774 6.000000
3.011962 -1.405880 0.082800 4.000000
2.978514 -1.429901 0.082201 4.000000
3.003120 -1.482085 0.083116 5.000000
2.928911 -1.485207 0.081403 3.000000
2.925870 -1.523914 0.081674 2.000000
2.997308 -1.602673 0.084045 2.000000
2.822020 -1.548682 0.079399 2.000000
2.648218 -1.490962 0.074868 5.000000
2.610154 -1.507132 0.074160 7.000000
2.640998 -1.563481 0.075326 5.000000
2.675038 -1.623267 0.076703 3.000000
2.708209 -1.683881 0.077978 2.000000
2.613827 -1.664944 0.075684 1.000000
2.633246 -1.717906 0.076590 1.000000
2.606026 -1.740954 0.076251 1.000000
2.525098 -1.726853 0.074240 1.000000
2.489761 -1.742842 0.073662 2.000000
2.458366 -1.761106 0.073114 1.000000
2.435041 -1.784830 0.072809 1.000000
2.451401 -1.838270 0.073800 1.000000
2.459054 -1.886130 0.074454 1.000000
2.379344 -1.866531 0.072468 1.000000
2.487514 -1.995600 0.076226 1.000000
2.268516 -1.860887 0.070043 1.000000
2.305542 -1.933701 0.071649 1.000000
2.197136 -1.883853 0.068735 1.000000
2.232848 -1.957129 0.070334 2.000000
2.196475 -1.967987 0.069681 2.000000
2.241313 -2.052612 0.071621 2.000000
2.167680 -2.029005 0.069791 1.000000
2.196040 -2.100854 0.071250 1.000000
2.119512 -2.072279 0.069311 1.000000
2.118016 -2.116370 0.069830 1.000000
2.017951 -2.060740 0.067001 1.000000
2.054202 -2.143933 0.068794 2.000000
2.037564 -2.173432 0.068843 6.000000
1.895652 -2.066513 0.064629 7.000000
1.746180 -1.945608 0.060092 9.000000
1.612813 -1.836809 0.055962 8.000000
1.475485 -1.717689 0.051703 8.000000
1.386071 -1.649396 0.049061 9.000000
1.310917 -1.594817 0.046823 9.000000
1.240340 -1.542706 0.044775 9.000000
1.183375 -1.504977 0.043130 10.000000
1.139531 -1.482110 0.042002 23.000000
1.111423 -1.478397 0.041383 29.000000
1.098293 -1.494337 0.041382 29.000000
1.073296 -1.493989 0.040879 26.000000
1.048450 -1.493283 0.040434 30.000000
1.029360 -1.500411 0.040157 32.000000
1.018596 -1.519769 0.040210 28.000000
1.010279 -1.543318 0.040427 31.000000
0.980038 -1.533070 0.039713 29.000000
0.979256 -1.569067 0.040198 26.000000
0.964749 -1.583894 0.040137 24.000000
0.967972 -1.628631 0.040886 8.000000
1.134695 1.935942 0.065292 5.000000
1.147938 1.910690 0.065128 11.000000
1.173867 1.906611 0.065762 14.000000
1.183779 1.876851 0.065446 23.000000
1.209459 1.872307 0.066081 13.000000
1.235254 1.867373 0.066650 21.000000
1.238606 1.829077 0.066028 22.000000
1.269755 1.831951 0.066897 18.000000
1.277926 1.801762 0.066635 25.000000
1.291547 1.779712 0.066602 9.000000
1.307769 1.761533 0.066718 25.000000
1.338883 1.763185 0.067596 26.000000
1.361010 1.752464 0.068020 18.000000
1.358157 1.710232 0.067214 28.000000
1.401829 1.726398 0.068716 23.000000
1.417310 1.707275 0.068833 19.000000
1.419569 1.672709 0.068326 26.000000
1.457304 1.679818 0.069531 9.000000
1.455608 1.641427 0.068862 29.000000
1.483427 1.636592 0.069602 32.000000
1.494305 1.613074 0.069556 25.000000
1.515197 1.600321 0.069916 33.000000
1.532558 1.583767 0.070185 26.000000
1.549650 1.566944 0.070454 29.000000
1.570160 1.553502 0.070816 30.000000
1.601383 1.550207 0.071729 11.000000
1.607240 1.522339 0.071449 35.000000
1.616403 1.497971 0.071396 31.000000
1.636323 1.483630 0.071760 29.000000
1.663657 1.475638 0.072519 37.000000
1.679614 1.457440 0.072723 32.000000
1.699177 1.442273 0.073090 33.000000
1.714830 1.423626 0.073294 35.000000
1.749607 1.420592 0.074391 18.000000
1.765022 1.401392 0.074598 31.000000
1.779749 1.382605 0.074804 32.000000
1.794751 1.363130 0.075011 28.000000
1.813490 1.346427 0.075384 33.000000
1.832156 1.329499 0.075758 32.000000
1.846533 1.309384 0.075965 32.000000
1.873026 1.297738 0.076677 32.000000
1.895288 1.282814 0.077223 18.000000
1.913364 1.264883 0.077602 32.000000
1.935418 1.249362 0.078081 36.000000
1.948924 1.228189 0.078292 30.000000
1.966404 1.209493 0.078673 58.000000
1.983731 1.190563 0.078985 33.000000
2.018150 1.181497 0.080052 31.000000
2.026593 1.157025 0.080023 36.000000
2.052162 1.142154 0.080753 20.000000
2.077603 1.126926 0.081412 35.000000
2.111818 1.115936 0.082492 49.000000
2.132739 1.097461 0.082983 35.000000
2.166870 1.085359 0.083996 43.000000
2.196530 1.070508 0.084838 35.000000
2.198990 1.042276 0.084714 33.000000
2.228290 1.026713 0.085559 37.000000
2.207378 0.988147 0.084487 12.000000
2.268423 0.985982 0.086559 35.000000
2.278997 0.961283 0.086710 33.000000
2.317018 0.947861 0.087914 31.000000
2.350411 0.931841 0.088945 36.000000
2.365035 0.908076 0.089276 35.000000
2.384151 0.885795 0.089783 29.000000
2.421842 0.869990 0.090999 33.000000
2.407434 0.835707 0.090271 11.000000
2.444811 0.819005 0.091490 72.000000
2.477326 0.800071 0.092457 73.000000
2.509688 0.780621 0.093504 29.000000
2.498887 0.747523 0.092873 9.000000
2.521259 0.724503 0.093567 9.000000
2.567486 0.707728 0.095155 10.000000
2.608868 0.688760 0.096487 35.000000
2.562828 0.646963 0.094603 7.000000
2.628063 0.633076 0.096914 8.000000
2.654230 0.608984 0.097713 8.000000
2.704571 0.589792 0.099496 8.000000
2.705933 0.559362 0.099401 8.000000
2.746167 0.536707 0.100745 8.000000
2.781377 0.512229 0.101910 9.000000
2.860584 0.494776 0.104700 35.000000
2.920073 0.472527 0.106772 27.000000
2.920100 0.439985 0.106682 36.000000
2.989033 0.417222 0.109121 53.000000
3.008232 0.386692 0.109756 33.000000
3.046952 0.357986 0.111115 57.000000
3.080511 0.328088 0.112296 45.000000
3.083917 0.294598 0.112296 9.000000
3.116723 0.263540 0.113478 8.000000
3.248957 0.239267 0.118290 32.000000
3.256431 0.204262 0.118472 89.000000
3.268404 0.169307 0.118935 95.000000
3.245041 0.132805 0.118027 50.000000
3.201381 0.096146 0.116490 61.000000
3.162296 0.060561 0.115036 44.000000
3.102821 0.025679 0.112856 13.000000
3.087925 -0.008015 0.112405 8.000000
2.977726 -0.040106 0.108403 7.000000
2.937129 -0.071508 0.106948 8.000000
2.876308 -0.101250 0.104766 8.000000
2.860016 -0.131849 0.104220 7.000000
2.863431 -0.163172 0.104402 9.000000
2.841563 -0.192911 0.103674 15.000000
2.834321 -0.223394 0.103492 13.000000
2.816786 -0.252876 0.102947 55.000000
2.779049 -0.279944 0.101674 33.000000
2.765877 -0.309029 0.101225 37.000000
2.747514 -0.337205 0.100680 61.000000
2.704090 -0.361745 0.099226 31.000000
2.675282 -0.387490 0.098235 60.000000
2.646222 -0.412698 0.097327 18.000000
2.562707 -0.428229 0.094342 7.000000
2.577623 -0.459507 0.094988 12.000000
2.552789 -0.483771 0.094263 26.000000
2.552293 -0.512446 0.094364 37.000000
2.507466 -0.531818 0.092915 48.000000
2.501595 -0.558980 0.092837 32.000000
2.500276 -0.587207 0.092940 30.000000
2.551986 -0.628686 0.095029 21.000000
2.549842 -0.657624 0.095130 9.000000
2.672786 -0.720312 0.099919 27.000000
2.727372 -0.766890 0.102177 24.000000
2.766846 -0.810526 0.103891 22.000000
3.030306 -0.923487 0.114057 8.000000
3.077312 -0.974481 0.116118 7.000000
3.090303 -1.015598 0.116917 8.000000
3.050699 -1.039405 0.115643 8.000000
3.086404 -1.088802 0.117336 6.000000
3.093185 -1.129137 0.117952 8.000000
3.094842 -1.167914 0.118286 7.000000
3.026047 -1.179672 0.116043 7.000000
3.087323 -1.242246 0.118696 6.000000
3.092064 -1.283342 0.119307 6.000000
3.073362 -1.314909 0.118925 6.000000
3.045251 -1.342142 0.118290 7.000000
3.080466 -1.397883 0.120037 6.000000
3.024429 -1.412222 0.118237 2.000000
2.995422 -1.438554 0.117605 2.000000
2.988554 -1.475448 0.117755 2.000000
2.936620 -1.489728 0.116142 2.000000
2.986802 -1.556239 0.118579 1.000000
2.938887 -1.572136 0.117144 1.000000
2.952247 -1.620825 0.118271 1.000000
2.520844 -1.419847 0.101424 2.000000
2.587416 -1.494726 0.104570 6.000000
2.631181 -1.558482 0.106831 4.000000
2.631178 -1.597336 0.107247 3.000000
2.600966 -1.617992 0.106538 2.000000
2.755869 -1.756348 0.113464 1.000000
2.729413 -1.824354 0.113584 1.000000
2.562229 -1.794535 0.107747 1.000000
2.566825 -1.839894 0.108586 1.000000
2.615172 -1.918004 0.111210 1.000000
2.454182 -1.841457 0.105025 1.000000
2.501335 -1.919786 0.107644 1.000000
2.421853 -1.899904 0.104803 1.000000
2.506322 -2.010650 0.109201 1.000000
2.304899 -1.933150 0.101687 1.000000
2.273550 -1.992818 0.101732 1.000000
2.203289 -1.974116 0.099275 1.000000
2.255405 -2.065556 0.102349 1.000000
2.127003 -1.990897 0.097232 1.000000
2.282147 -2.183204 0.105115 1.000000
2.215353 -2.166065 0.102835 1.000000
2.110397 -2.108757 0.098747 1.000000
2.080266 -2.124481 0.098144 1.000000
2.032824 -2.121738 0.096720 2.000000
2.071197 -2.209344 0.099311 5.000000
1.918699 -2.091779 0.092823 6.000000
1.772404 -1.974883 0.086534 8.000000
1.645339 -1.873839 0.081014 7.000000
1.510959 -1.758904 0.075120 7.000000
1.424257 -1.694913 0.071517 8.000000
1.326469 -1.613742 0.067226 8.000000
1.255634 -1.561817 0.064308 9.000000
1.170669 -1.488912 0.060549 9.000000
1.130108 -1.469825 0.059101 10.000000
1.111084 -1.478001 0.058716 21.000000
1.086171 -1.477890 0.058016 21.000000
1.075931 -1.497711 0.058163 13.000000
1.045300 -1.488803 0.057153 25.000000
1.043218 -1.520684 0.057713 18.000000
1.021099 -1.523585 0.057176 21.000000
1.001786 -1.530380 0.056797 25.000000
0.987892 -1.545369 0.056784 21.000000
0.971092 -1.556009 0.056560 22.000000
0.969723 -1.592034 0.057257 20.000000
0.924333 -1.555248 0.055347 8.000000
1.143214 1.953396 0.086265 8.000000
1.146373 1.910826 0.085340 21.000000
1.167061 1.898236 0.085748 31.000000
1.190208 1.889669 0.086282 25.000000
1.207962 1.872443 0.086497 28.000000
1.228174 1.859173 0.086837 29.000000
1.231525 1.820935 0.086072 27.000000
1.256884 1.815656 0.086800 31.000000
1.285174 1.814127 0.087797 21.000000
1.287205 1.775801 0.086948 27.000000
1.300411 1.753641 0.086885 31.000000
1.322368 1.743419 0.087418 29.000000
1.335157 1.721021 0.087418 32.000000
1.353718 1.706451 0.087751 30.000000
1.375294 1.695495 0.088286 31.000000
1.393631 1.680426 0.088619 34.000000
1.415066 1.669033 0.089156 26.000000
1.423295 1.642202 0.088877 29.000000
1.444396 1.630343 0.089414 35.000000
1.475439 1.629321 0.090570 32.000000
1.486243 1.605808 0.090426 39.000000
1.507120 1.593197 0.090967 35.000000
1.524335 1.576651 0.091302 36.000000
1.548439 1.567011 0.091987 35.000000
1.561847 1.546539 0.092114 31.000000
1.582219 1.532895 0.092593 35.000000
1.598840 1.515601 0.092929 48.000000
1.611597 1.494641 0.092987 38.000000
1.638875 1.486986 0.093891 62.000000
1.655031 1.469073 0.094229 36.000000
1.678460 1.457440 0.094926 50.000000
1.701896 1.445506 0.095626 63.000000
1.709830 1.420502 0.095470 35.000000
1.736875 1.411143 0.096387 33.000000
1.763921 1.401461 0.097307 35.000000
1.775116 1.379059 0.097366 34.000000
1.801950 1.368691 0.098292 50.000000
1.816811 1.348922 0.098499 42.000000
1.835438 1.331949 0.098994 42.000000
1.853922 1.314679 0.099490 42.000000
1.868155 1.294406 0.099698 31.000000
1.898656 1.285194 0.100854 37.000000
1.916760 1.267148 0.101285 35.000000
1.934644 1.248870 0.101786 35.000000
1.948080 1.227697 0.101997 54.000000
1.961093 1.206805 0.102279 35.000000
1.991235 1.195635 0.103379 39.000000
2.017079 1.181426 0.104332 51.000000
2.025524 1.156954 0.104323 32.000000
2.037994 1.134792 0.104536 38.000000
2.058960 1.117324 0.105199 42.000000
2.088645 1.104119 0.106312 36.000000
2.109436 1.085957 0.106979 45.000000
2.161294 1.083047 0.109228 56.000000
2.150515 1.048543 0.108246 40.000000
2.206902 1.046482 0.110729 68.000000
2.209097 1.018200 0.110499 30.000000
2.233696 1.000247 0.111404 34.000000
2.244388 0.975948 0.111554 43.000000
2.282466 0.963149 0.113147 32.000000
2.311325 0.945816 0.114212 36.000000
2.330682 0.924322 0.114899 37.000000
2.340486 0.899197 0.115052 34.000000
2.373545 0.882392 0.116430 54.000000
2.387684 0.858242 0.116815 29.000000
2.415781 0.838828 0.117891 49.000000
2.443630 0.818848 0.118969 84.000000
2.457123 0.793849 0.119357 51.000000
2.470412 0.768590 0.119746 31.000000
2.459413 0.735910 0.118979 9.000000
2.496057 0.717444 0.120526 9.000000
2.556637 0.705072 0.123238 24.000000
2.573830 0.679751 0.123865 26.000000
2.629493 0.664002 0.126354 42.000000
2.655958 0.640097 0.127452 50.000000
2.682190 0.615688 0.128468 24.000000
2.674025 0.583404 0.127936 10.000000
2.680213 0.554305 0.128019 9.000000
2.730180 0.533746 0.130292 9.000000
2.780081 0.512229 0.132484 10.000000
2.819885 0.487963 0.134297 14.000000
2.884206 0.466850 0.137199 66.000000
2.923687 0.440730 0.138931 81.000000
2.928293 0.408843 0.139021 59.000000
2.977121 0.382778 0.141226 95.000000
3.020746 0.355070 0.143199 57.000000
3.029430 0.322797 0.143527 37.000000
3.017865 0.288421 0.142914 9.000000
3.115385 0.263540 0.147483 9.000000
3.182812 0.234399 0.150643 35.000000
3.225029 0.202286 0.152529 87.000000
3.222016 0.166981 0.152392 88.000000
3.193750 0.130762 0.151074 81.000000
3.159977 0.094946 0.149422 44.000000
3.100925 0.059413 0.146589 68.000000
3.041469 0.025183 0.143849 22.000000
3.016590 -0.007834 0.142668 8.000000
2.951393 -0.039679 0.139598 9.000000
2.945769 -0.071661 0.139362 8.000000
2.929894 -0.103184 0.138653 8.000000
2.898617 -0.133690 0.137236 9.000000
2.857131 -0.162887 0.135346 8.000000
2.850224 -0.193588 0.135110 22.000000
2.808124 -0.221431 0.133220 52.000000
2.795593 -0.251003 0.132748 52.000000
2.772801 -0.279443 0.131718 78.000000
2.754675 -0.307835 0.131010 76.000000
2.701632 -0.331727 0.128566 67.000000
2.678089 -0.358350 0.127622 95.000000
2.654273 -0.384625 0.126597 32.000000
2.625256 -0.409537 0.125337 26.000000
2.625555 -0.438853 0.125573 53.000000
2.605925 -0.464769 0.124785 61.000000
2.581121 -0.489272 0.123763 87.000000
2.546283 -0.511383 0.122272 80.000000
2.506370 -0.531740 0.120547 54.000000
2.510169 -0.561081 0.120939 91.000000
2.523409 -0.592840 0.121799 33.000000
2.541083 -0.626216 0.122812 26.000000
2.587324 -0.667525 0.125309 33.000000
2.637763 -0.711210 0.128036 25.000000
2.706843 -0.761308 0.131609 31.000000
2.751146 -0.806049 0.134093 24.000000
3.048062 -0.929119 0.148850 9.000000
3.175822 -1.005853 0.155514 9.000000
3.188452 -1.048154 0.156475 8.000000
3.167410 -1.079488 0.155907 7.000000
3.141422 -1.108851 0.155005 4.000000
3.133900 -1.144557 0.155034 3.000000
3.116589 -1.176837 0.154598 2.000000
2.899019 -1.130480 0.144209 3.000000
3.067265 -1.234583 0.153035 2.000000
3.076794 -1.277392 0.153987 2.000000
3.048973 -1.304879 0.153092 2.000000
3.148840 -1.388282 0.158646 2.000000
2.997155 -1.360515 0.151537 1.000000
3.013849 -1.407791 0.152943 2.000000
2.998402 -1.440514 0.152740 2.000000
2.960157 -1.461974 0.151291 1.000000
2.855040 -1.448940 0.146518 1.000000
2.878960 -1.500626 0.148376 1.000000
2.937361 -1.571932 0.151952 1.000000
2.567386 -1.446732 0.133960 3.000000
2.590371 -1.497134 0.135729 6.000000
2.556731 -1.515100 0.134641 6.000000
2.582808 -1.568720 0.136627 3.000000
2.587120 -1.609422 0.137477 1.000000
2.573647 -1.640216 0.137423 2.000000
2.584933 -1.687298 0.138714 1.000000
2.782295 -1.859737 0.150079 1.000000
2.597058 -1.777066 0.140831 1.000000
2.344337 -1.641989 0.127827 1.000000
2.456151 -1.760552 0.134596 2.000000
2.396578 -1.757690 0.132099 1.000000
2.425184 -1.819722 0.134485 1.000000
2.377533 -1.824738 0.132660 1.000000
2.369270 -1.859808 0.132955 1.000000
2.442330 -1.960619 0.137960 1.000000
2.270227 -1.863609 0.129020 1.000000
2.291859 -1.923516 0.131159 1.000000
2.172182 -1.863894 0.125116 1.000000
2.151810 -1.887413 0.124854 1.000000
2.127369 -1.907423 0.124287 2.000000
2.161660 -1.981179 0.127188 2.000000
2.180087 -2.042212 0.129207 2.000000
2.154123 -2.062390 0.128626 1.000000
2.063694 -2.019331 0.124180 1.000000
2.069813 -2.069992 0.125541 1.000000
2.061165 -2.106719 0.126038 1.000000
2.010482 -2.100177 0.123973 2.000000
2.028461 -2.165685 0.126167 3.000000
1.987929 -2.169205 0.124745 6.000000
1.787539 -1.993561 0.113112 8.000000
1.703191 -1.941511 0.108786 8.000000
1.529063 -1.781792 0.098610 8.000000
1.435753 -1.710285 0.093443 9.000000
1.334704 -1.625388 0.087751 9.000000
1.263795 -1.573563 0.083900 9.000000
1.191113 -1.516529 0.079867 9.000000
1.131962 -1.473900 0.076743 10.000000
1.112955 -1.482109 0.076254 17.000000
1.084995 -1.478001 0.075152 18.000000
1.074692 -1.497767 0.075280 16.000000
1.061288 -1.513457 0.075201 19.000000
1.033508 -1.508376 0.074165 20.000000
1.022646 -1.527849 0.074290 24.000000
1.003292 -1.534673 0.073808 18.000000
0.986604 -1.545481 0.073528 18.000000
0.975089 -1.564545 0.073591 18.000000
0.963221 -1.583611 0.073706 13.000000
0.963803 -1.624046 0.074809 8.000000
1.135162 1.939705 0.105949 8.000000
1.148466 1.914428 0.105721 29.000000
1.161354 1.889046 0.105485 29.000000
1.181746 1.876309 0.105959 30.000000
1.204710 1.867498 0.106606 32.000000
1.211182 1.833490 0.105878 31.000000
1.222594 1.807786 0.105623 34.000000
1.253502 1.810808 0.106993 32.000000
1.264423 1.784855 0.106733 32.000000
1.274879 1.758891 0.106400 32.000000
1.299811 1.752974 0.107356 30.000000
1.318815 1.738705 0.107756 36.000000
1.331497 1.716410 0.107661 33.000000
1.353119 1.705720 0.108308 33.000000
1.374694 1.694829 0.109023 37.000000
1.386655 1.672071 0.108923 32.000000
1.404710 1.656871 0.109321 36.000000
1.429172 1.649019 0.110224 34.000000
1.447042 1.633349 0.110557 36.000000
1.468065 1.621247 0.111211 45.000000
1.484907 1.605808 0.111679 37.000000
1.498853 1.585872 0.111757 37.000000
1.519526 1.572993 0.112414 58.000000
1.536569 1.556352 0.112815 39.000000
1.564051 1.549987 0.113924 37.000000
1.573704 1.525876 0.113809 31.000000
1.590250 1.508594 0.114144 68.000000
1.606594 1.491177 0.114479 73.000000
1.630198 1.480206 0.115337 52.000000
1.649946 1.465622 0.115936 81.000000
1.669632 1.450822 0.116604 60.000000
1.692923 1.438971 0.117402 48.000000
1.712380 1.423558 0.118006 55.000000
1.735576 1.411074 0.118877 29.000000
1.754728 1.395109 0.119485 48.000000
1.777753 1.381986 0.120361 56.000000
1.792755 1.362510 0.120636 36.000000
1.807482 1.342829 0.120981 66.000000
1.822002 1.323009 0.121256 52.000000
1.844529 1.308762 0.122139 39.000000
1.866836 1.294267 0.122956 53.000000
1.876726 1.270987 0.122963 26.000000
1.902935 1.258744 0.124054 51.000000
1.929114 1.246020 0.125220 85.000000
1.942590 1.224893 0.125500 37.000000
1.964360 1.208859 0.126328 69.000000
1.989958 1.195493 0.127432 52.000000
2.007179 1.176235 0.127991 36.000000
2.032911 1.161694 0.129101 62.000000
2.054157 1.144297 0.129939 28.000000
2.048897 1.112346 0.129049 35.000000
2.087346 1.103975 0.130996 69.000000
2.103693 1.083453 0.131490 35.000000
2.128726 1.067165 0.132613 69.000000
2.153686 1.050513 0.133667 63.000000
2.160455 1.024862 0.133608 37.000000
2.216826 1.022157 0.136696 45.000000
2.232350 1.000023 0.137199 25.000000
2.238390 0.973956 0.137143 35.000000
2.290226 0.967033 0.139895 46.000000
2.300560 0.942033 0.140123 35.000000
2.329226 0.924322 0.141479 39.000000
2.343843 0.900758 0.141991 52.000000
2.358116 0.876940 0.142504 35.000000
2.386288 0.858010 0.143867 39.000000
2.386081 0.828766 0.143455 29.000000
2.427936 0.814087 0.145675 52.000000
2.450953 0.792235 0.146763 88.000000
2.454611 0.764060 0.146635 25.000000
2.453220 0.734400 0.146223 9.000000
2.475439 0.711846 0.147314 9.000000
2.535930 0.699600 0.150615 24.000000
2.577111 0.680945 0.152779 69.000000
2.618240 0.661474 0.154946 31.000000
2.654372 0.639931 0.156832 42.000000
2.680593 0.615604 0.158147 57.000000
2.701781 0.589622 0.159177 51.000000
2.727589 0.564335 0.160497 30.000000
2.718853 0.531745 0.159803 11.000000
2.748987 0.506628 0.161328 16.000000
2.828060 0.489578 0.165825 36.000000
2.862801 0.463569 0.167733 35.000000
2.897291 0.436918 0.169554 61.000000
2.921633 0.408152 0.170800 69.000000
2.960527 0.380867 0.172914 75.000000
2.984372 0.350989 0.174254 62.000000
3.037588 0.323762 0.177242 62.000000
3.016105 0.288329 0.175887 9.000000
3.033990 0.256804 0.176849 9.000000
3.180959 0.234399 0.185257 54.000000
3.198245 0.200723 0.186225 81.000000
3.225127 0.167239 0.187774 95.000000
3.181920 0.130353 0.185259 54.000000
3.128207 0.094046 0.182065 62.000000
3.094134 0.059317 0.180032 62.000000
3.034712 0.025142 0.176641 19.000000
2.979899 -0.007652 0.173445 9.000000
2.969643 -0.039948 0.172864 8.000000
2.934078 -0.071418 0.170830 8.000000
2.893274 -0.101953 0.168506 9.000000
2.876988 -0.132681 0.167634 9.000000
2.850486 -0.162516 0.166182 9.000000
2.828646 -0.192234 0.165020 19.000000
2.801512 -0.220953 0.163567 12.000000
2.784021 -0.250110 0.162610 73.000000
2.756284 -0.277856 0.161073 48.000000
2.713466 -0.303397 0.158752 29.000000
2.670326 -0.327993 0.156347 18.000000
2.641889 -0.353632 0.154897 10.000000
2.608257 -0.378018 0.153076 9.000000
2.594123 -0.404838 0.152416 14.000000
2.584705 -0.432186 0.152046 20.000000
2.599474 -0.463731 0.153124 71.000000
2.555075 -0.484542 0.150729 74.000000
2.525200 -0.507371 0.149203 64.000000
2.509766 -0.532698 0.148468 63.000000
2.498934 -0.558824 0.148101 76.000000
2.483031 -0.583623 0.147368 37.000000
2.549257 -0.628445 0.151613 27.000000
2.556774 -0.659878 0.152317 9.000000
2.631441 -0.709743 0.157128 29.000000
2.681271 -0.754376 0.160411 27.000000
2.735199 -0.801749 0.163974 25.000000
2.907748 -0.886793 0.174701 8.000000
3.145338 -0.996704 0.189416 6.000000
3.210213 -1.055850 0.193795 6.000000
3.222267 -1.098405 0.195018 5.000000
3.139590 -1.108444 0.190525 2.000000
3.202396 -1.169946 0.194783 2.000000
3.012021 -1.137627 0.183749 2.000000
2.864659 -1.117684 0.175299 3.000000
3.162585 -1.273747 0.194053 2.000000
3.166955 -1.315695 0.194980 2.000000
3.083657 -1.320601 0.190518 2.000000
3.096706 -1.365807 0.191805 2.000000
3.227154 -1.465480 0.200641 1.000000
2.957749 -1.382126 0.184516 1.000000
2.929083 -1.407772 0.183372 1.000000
2.909111 -1.437347 0.182793 1.000000
2.960110 -1.502785 0.186707 1.000000
2.832910 -1.477246 0.179395 1.000000
2.935529 -1.571627 0.186657 1.000000
3.049481 -1.675603 0.194734 1.000000
2.491837 -1.404784 0.159827 2.000000
2.549831 -1.474370 0.164299 7.000000
2.572274 -1.525011 0.166440 6.000000
2.602757 -1.580940 0.169124 4.000000
2.547299 -1.585402 0.166353 2.000000
2.588807 -1.650673 0.169853 2.000000
2.474465 -1.616040 0.163230 2.000000
2.631057 -1.759520 0.174424 1.000000
2.350853 -1.647457 0.157490 1.000000
2.397691 -1.719632 0.161602 1.000000
2.326429 -1.707294 0.157694 1.000000
2.439487 -1.831527 0.166324 1.000000
2.308479 -1.772859 0.158258 1.000000
2.265440 -1.779441 0.156277 1.000000
2.370450 -1.904147 0.164572 1.000000
2.280097 -1.872937 0.159347 1.000000
2.232773 -1.875259 0.157014 1.000000
2.276585 -1.954791 0.161218 1.000000
2.157566 -1.893913 0.153805 1.000000
2.155353 -1.934012 0.154788 2.000000
2.196755 -2.014747 0.158870 2.000000
2.145478 -2.011296 0.156291 2.000000
2.112644 -2.024300 0.155048 2.000000
2.094036 -2.050684 0.154955 1.000000
2.032734 -2.034580 0.151611 1.000000
2.062855 -2.110109 0.155109 2.000000
2.025874 -2.118130 0.153521 2.000000
2.053943 -2.194761 0.156985 3.000000
1.993777 -2.175579 0.153576 7.000000
1.830056 -2.040991 0.142243 8.000000
1.692523 -1.929461 0.132782 9.000000
1.531598 -1.784792 0.121243 8.000000
1.438281 -1.713359 0.114980 9.000000
1.356243 -1.651695 0.109456 9.000000
1.288254 -1.604031 0.104987 9.000000
1.209089 -1.539445 0.099591 9.000000
1.146716 -1.493078 0.095435 10.000000
1.112445 -1.481486 0.093577 23.000000
1.072671 -1.461283 0.091226 21.000000
1.071331 -1.493091 0.092146 20.000000
1.055102 -1.504658 0.091809 25.000000
1.038706 -1.516001 0.091472 23.000000
1.008309 -1.506481 0.089897 29.000000
1.000111 -1.529877 0.090305 22.000000
0.988843 -1.549075 0.090461 25.000000
0.971997 -1.559687 0.090068 25.000000
0.955039 -1.570188 0.089731 19.000000
0.955753 -1.610527 0.091095 8.000000
1.138414 1.948188 0.126766 8.000000
1.138997 1.901376 0.125065 25.000000
1.164816 1.897351 0.126172 31.000000
1.166697 1.854979 0.124728 29.000000
1.189496 1.846381 0.125549 29.000000
1.204005 1.824955 0.125513 32.000000
1.218134 1.803516 0.125472 31.000000
1.243304 1.798356 0.126516 36.000000
1.262752 1.784722 0.127050 32.000000
1.267431 1.750672 0.126129 28.000000
1.292269 1.744752 0.127176 34.000000
1.308172 1.726636 0.127413 31.000000
1.326847 1.712265 0.127877 32.000000
1.348423 1.701675 0.128636 34.000000
1.369951 1.690751 0.129464 33.000000
1.385062 1.671872 0.129632 36.000000
1.403183 1.656672 0.130096 33.000000
1.424371 1.645046 0.130861 36.000000
1.445509 1.633149 0.131628 51.000000
1.459831 1.613644 0.131726 35.000000
1.480649 1.601275 0.132495 63.000000
1.494559 1.581378 0.132657 63.000000
1.518658 1.572191 0.133667 52.000000
1.542712 1.562585 0.134747 49.000000
1.563176 1.549179 0.135457 36.000000
1.572766 1.525072 0.135312 37.000000
1.585157 1.504957 0.135471 39.000000
1.601464 1.487513 0.135872 62.000000
1.621264 1.473292 0.136585 53.000000
1.648463 1.465420 0.137923 81.000000
1.660614 1.444003 0.138014 59.000000
1.691429 1.438699 0.139674 79.000000
1.707046 1.420094 0.140081 41.000000
1.730201 1.407652 0.141052 32.000000
1.753290 1.394835 0.142094 52.000000
1.768431 1.375583 0.142436 49.000000
1.791241 1.362235 0.143484 73.000000
1.802032 1.339577 0.143509 44.000000
1.816521 1.319801 0.143852 50.000000
1.838940 1.305597 0.144836 55.000000
1.853079 1.285458 0.145181 34.000000
1.887663 1.279106 0.147136 34.000000
1.897310 1.255642 0.147162 52.000000
1.910599 1.235255 0.147579 40.000000
1.936616 1.222370 0.148900 71.000000
1.954102 1.203696 0.149506 52.000000
1.975639 1.187428 0.150508 63.000000
2.001382 1.173356 0.151769 51.000000
2.018414 1.153907 0.152451 41.000000
2.043931 1.139151 0.153719 34.000000
2.056169 1.116752 0.154005 60.000000
2.072601 1.096614 0.154620 50.000000
2.097739 1.080807 0.155896 64.000000
2.113819 1.060092 0.156515 49.000000
2.143035 1.046063 0.158200 62.000000
2.154268 1.022650 0.158492 67.000000
2.169811 1.001254 0.159116 47.000000
2.207869 0.989745 0.161331 35.000000
2.236823 0.973657 0.162960 38.000000
2.251865 0.951125 0.163518 47.000000
2.275882 0.932274 0.164820 41.000000
2.313631 0.918722 0.167130 39.000000
2.328110 0.895233 0.167694 34.000000
2.356425 0.876786 0.169266 57.000000
2.375195 0.854477 0.170170 36.000000
2.389018 0.830250 0.170738 45.000000
2.421484 0.812344 0.172734 78.000000
2.434903 0.787473 0.173307 61.000000
2.419542 0.753442 0.171772 17.000000
2.441940 0.731381 0.173021 9.000000
2.464041 0.709087 0.174272 9.000000
2.519655 0.695458 0.177822 34.000000
2.560850 0.676957 0.180441 53.000000
2.626096 0.663836 0.184684 37.000000
2.633139 0.635168 0.184933 44.000000
2.664158 0.612169 0.186803 52.000000
2.699837 0.589538 0.189017 68.000000
2.745170 0.568294 0.191918 57.000000
2.765858 0.541240 0.193115 54.000000
2.781359 0.512961 0.193972 35.000000
2.781895 0.481829 0.193802 17.000000
2.841155 0.460290 0.197745 35.000000
2.890299 0.436084 0.200919 71.000000
2.909679 0.406681 0.202127 65.000000
2.943677 0.378866 0.204277 63.000000
2.977305 0.350314 0.206520 63.000000
3.020653 0.322175 0.209362 44.000000
3.009010 0.287854 0.208423 9.000000
3.121314 0.264286 0.216086 9.000000
3.183691 0.234766 0.220312 50.000000
3.191013 0.200410 0.220755 81.000000
3.193067 0.165688 0.220852 91.000000
3.154762 0.129235 0.218096 48.000000
3.101173 0.093296 0.214401 68.000000
3.067024 0.058839 0.211988 38.000000
2.987688 0.024861 0.206564 13.000000
2.977803 -0.007652 0.205875 8.000000
2.947605 -0.039679 0.203806 8.000000
2.912158 -0.070933 0.201392 9.000000
2.871299 -0.101162 0.198633 8.000000
2.870068 -0.132451 0.198633 9.000000
2.833539 -0.161664 0.196219 9.000000
2.821676 -0.191809 0.195443 21.000000
2.719976 -0.214673 0.188549 10.000000
2.727408 -0.245113 0.189154 17.000000
2.679977 -0.270264 0.186053 10.000000
2.657018 -0.297214 0.184593 9.000000
2.633861 -0.323652 0.183135 9.000000
2.605488 -0.348916 0.181333 9.000000
2.581802 -0.374358 0.179877 9.000000
2.572644 -0.401679 0.179453 10.000000
2.577943 -0.431283 0.180061 27.000000
2.563324 -0.457515 0.179294 63.000000
2.543445 -0.482524 0.178105 73.000000
2.528280 -0.508196 0.177340 80.000000
2.503161 -0.531505 0.175811 73.000000
2.472872 -0.553300 0.174020 81.000000
2.466749 -0.580042 0.173865 40.000000
2.528119 -0.623587 0.178498 29.000000
2.530849 -0.653481 0.179022 13.000000
2.629524 -0.709577 0.186371 28.000000
2.650503 -0.746180 0.188251 27.000000
2.723622 -0.798680 0.193788 27.000000
2.710082 -0.826831 0.193274 8.000000
3.033751 -0.961829 0.216898 3.000000
3.098956 -1.019680 0.222138 3.000000
3.158600 -1.077264 0.226927 3.000000
3.132647 -1.106579 0.225604 1.000000
3.204684 -1.171450 0.231493 2.000000
3.112517 -1.176328 0.225434 2.000000
2.853204 -1.113962 0.207240 2.000000
3.141888 -1.265769 0.228868 2.000000
3.031162 -1.259754 0.221489 1.000000
3.081504 -1.320088 0.225894 1.000000
3.094327 -1.365704 0.227600 1.000000
3.070242 -1.395199 0.226619 1.000000
2.901226 -1.356668 0.214829 1.000000
2.818898 -1.355777 0.209523 1.000000
3.036726 -1.500957 0.226485 1.000000
2.873466 -1.459454 0.215084 1.000000
2.861822 -1.492910 0.215120 1.000000
2.832240 -1.516942 0.213730 1.000000
2.968553 -1.631917 0.225035 1.000000
2.547940 -1.473920 0.194818 6.000000
2.531735 -1.501648 0.194458 7.000000
2.545011 -1.547339 0.196401 5.000000
2.528068 -1.575032 0.196036 2.000000
2.586461 -1.650861 0.201478 2.000000
2.514335 -1.642971 0.196760 2.000000
2.450716 -1.639823 0.192804 1.000000
2.576748 -1.765114 0.203840 1.000000
2.573698 -1.804655 0.204662 1.000000
2.379493 -1.707545 0.190245 1.000000
2.409034 -1.768958 0.193768 1.000000
2.345683 -1.762223 0.189761 1.000000
2.397517 -1.842430 0.195108 1.000000
2.267426 -1.782172 0.185652 1.000000
2.263402 -1.819372 0.186493 1.000000
2.301241 -1.891587 0.190844 1.000000
2.253732 -1.894165 0.188156 1.000000
2.236721 -1.921904 0.187934 1.000000
2.136891 -1.877097 0.180821 1.000000
2.171970 -1.950327 0.185044 2.000000
2.154222 -1.977356 0.184913 2.000000
2.143501 -2.011027 0.185321 2.000000
2.136613 -2.047305 0.186036 2.000000
2.078521 -2.035554 0.182365 1.000000
2.088025 -2.089922 0.184639 2.000000
2.047729 -2.094752 0.182542 2.000000
2.017900 -2.109753 0.181384 2.000000
1.991371 -2.127978 0.180540 3.000000
1.991703 -2.175308 0.182072 6.000000
1.838119 -2.051891 0.169552 7.000000
1.736770 -1.981692 0.161697 9.000000
1.578669 -1.841410 0.148315 8.000000
1.494434 -1.781986 0.141785 9.000000
1.389559 -1.693944 0.133101 9.000000
1.308608 -1.631093 0.126590 9.000000
1.223058 -1.558838 0.119519 9.000000
1.145278 -1.492905 0.113153 10.000000
1.108092 -1.477324 0.110657 14.000000
1.065439 -1.453067 0.107579 15.000000
1.069927 -1.492922 0.109272 20.000000
1.050835 -1.500401 0.108528 26.000000
1.037302 -1.515832 0.108430 26.000000
1.009698 -1.510464 0.106863 27.000000
1.001444 -1.533889 0.107352 24.000000
0.982072 -1.540488 0.106612 24.000000
0.965318 -1.551099 0.106221 22.000000
0.958762 -1.578552 0.106931 22.000000
0.913550 -1.541702 0.103368 8.000000
1.127656 1.929922 0.145742 8.000000
1.135755 1.896080 0.144724 15.000000
1.160303 1.892825 0.146056 25.000000
1.178156 1.875835 0.146406 18.000000
1.182285 1.837654 0.145029 24.000000
1.213180 1.841352 0.146960 22.000000
1.221984 1.811455 0.146232 23.000000
1.244401 1.802127 0.147101 29.000000
1.278289 1.808831 0.149387 16.000000
1.271560 1.758426 0.146956 24.000000
1.284610 1.736400 0.146875 25.000000
1.297419 1.714372 0.146723 23.000000
1.325125 1.711934 0.148340 32.000000
1.346697 1.701343 0.149213 21.000000
1.355735 1.674910 0.148711 26.000000
1.383403 1.671540 0.150275 30.000000
1.404746 1.660148 0.151219 21.000000
1.416182 1.637168 0.151055 29.000000
1.433863 1.621606 0.151519 27.000000
1.451479 1.605911 0.152048 26.000000
1.472214 1.593615 0.152930 35.000000
1.486113 1.573793 0.153108 25.000000
1.510060 1.564613 0.154279 33.000000
1.527025 1.548048 0.154811 30.000000
1.540249 1.527770 0.154921 24.000000
1.567580 1.521264 0.156457 36.000000
1.583486 1.504556 0.156992 26.000000
1.599860 1.487179 0.157460 30.000000
1.623346 1.476245 0.158649 55.000000
1.628214 1.448443 0.158034 27.000000
1.666455 1.450214 0.160677 63.000000
1.678408 1.428596 0.160786 35.000000
1.697752 1.413306 0.161555 30.000000
1.724698 1.404094 0.163126 33.000000
1.732139 1.378964 0.162801 24.000000
1.758848 1.369047 0.164310 32.000000
1.777686 1.352764 0.165156 33.000000
1.796384 1.336189 0.165936 29.000000
1.802773 1.310593 0.165606 32.000000
1.833220 1.302295 0.167432 32.000000
1.846983 1.282683 0.167914 26.000000
1.877389 1.273578 0.169820 31.000000
1.891205 1.252958 0.170167 28.000000
1.908929 1.234838 0.170958 34.000000
1.930720 1.219218 0.172057 48.000000
1.939684 1.195427 0.172100 29.000000
1.965402 1.181866 0.173581 36.000000
1.986778 1.165363 0.174688 32.000000
1.999326 1.143580 0.175041 29.000000
2.011451 1.122079 0.175464 31.000000
2.045477 1.111918 0.177719 32.000000
2.066259 1.094209 0.178766 33.000000
2.086929 1.076165 0.179888 47.000000
2.103027 1.055547 0.180558 32.000000
2.136732 1.043437 0.182834 34.000000
2.161523 1.026489 0.184277 35.000000
2.176962 1.005215 0.185028 27.000000
2.201396 0.987556 0.186478 34.000000
2.216602 0.965471 0.187159 28.000000
2.236145 0.945153 0.188228 32.000000
2.287764 0.937720 0.192009 33.000000
2.293121 0.911130 0.192000 29.000000
2.330778 0.896794 0.194556 33.000000
2.349753 0.874816 0.195640 34.000000
2.363807 0.850869 0.196337 24.000000
2.387006 0.830172 0.197815 40.000000
2.405277 0.807273 0.198828 35.000000
2.423460 0.784091 0.199843 34.000000
2.417449 0.753365 0.198980 10.000000
2.415962 0.724148 0.198428 8.000000
2.457212 0.707395 0.201330 9.000000
2.527185 0.698032 0.206753 33.000000
2.520194 0.666598 0.205733 14.000000
2.594866 0.656337 0.211486 38.000000
2.630902 0.635002 0.214098 34.000000
2.652269 0.609768 0.215531 34.000000
2.683031 0.586177 0.217673 48.000000
2.708775 0.561047 0.219422 35.000000
2.744051 0.537323 0.222051 32.000000
2.749701 0.507447 0.222222 23.000000
2.730454 0.473231 0.220411 6.000000
2.799418 0.453821 0.225739 9.000000
2.823907 0.426323 0.227500 13.000000
2.872790 0.401759 0.231162 26.000000
2.926397 0.376865 0.235315 53.000000
2.950171 0.347309 0.237087 32.000000
2.993365 0.319437 0.240361 29.000000
2.996683 0.286812 0.240453 9.000000
3.098957 0.262603 0.248511 9.000000
3.151329 0.232468 0.252590 42.000000
3.183496 0.200098 0.255078 64.000000
3.165540 0.164299 0.253581 40.000000
3.152250 0.129235 0.252481 54.000000
3.078684 0.092696 0.246498 33.000000
3.054617 0.058647 0.244598 33.000000
2.990295 0.024902 0.239410 10.000000
2.960483 -0.007614 0.237107 7.000000
2.925327 -0.039410 0.234313 8.000000
2.874875 -0.069994 0.230321 8.000000
2.883956 -0.101689 0.231119 8.000000
2.847781 -0.131444 0.228238 18.000000
2.831282 -0.161577 0.227041 24.000000
2.799536 -0.190370 0.224647 18.000000
2.712837 -0.214198 0.217780 9.000000
2.690482 -0.241905 0.216102 8.000000
2.687670 -0.271182 0.216102 9.000000
2.644985 -0.296024 0.212831 8.000000
2.621776 -0.322354 0.211156 8.000000
2.593437 -0.347511 0.209084 9.000000
2.574715 -0.373563 0.207729 8.000000
2.550796 -0.398522 0.206059 8.000000
2.580780 -0.431946 0.208763 64.000000
2.566081 -0.458311 0.207808 34.000000
2.531593 -0.480585 0.205345 63.000000
2.511569 -0.505090 0.203997 48.000000
2.491296 -0.529277 0.202650 41.000000
2.465993 -0.551978 0.200909 61.000000
2.445249 -0.575321 0.199567 36.000000
2.443705 -0.603124 0.199808 26.000000
2.514292 -0.649581 0.205901 24.000000
2.584050 -0.697717 0.212060 17.000000
2.662706 -0.749982 0.218914 27.000000
2.726147 -0.799997 0.224657 29.000000
2.669605 -0.815100 0.220544 8.000000
2.993211 -0.949383 0.247728 3.000000
3.044281 -1.002235 0.252644 2.000000
3.047347 -1.040129 0.253527 2.000000
2.838623 -1.003287 0.236675 2.000000
3.262933 -1.193395 0.272797 1.000000
3.002634 -1.135372 0.251759 1.000000
3.092859 -1.246821 0.260818 1.000000
3.148220 -1.309219 0.266353 1.000000
3.234612 -1.386663 0.274489 1.000000
3.169156 -1.399629 0.269894 1.000000
2.982711 -1.435175 0.256639 1.000000
3.083079 -1.525062 0.266267 1.000000
2.955240 -1.502176 0.256214 1.000000
3.080111 -1.608175 0.268118 1.000000
2.956903 -1.585148 0.258475 1.000000
2.726610 -1.538569 0.240234 1.000000
2.545779 -1.473379 0.225247 4.000000
2.521000 -1.496019 0.224125 6.000000
2.525788 -1.536429 0.225578 4.000000
2.530021 -1.577123 0.227024 2.000000
2.453859 -1.567112 0.221353 1.000000
2.524280 -1.651158 0.228851 1.000000
2.530947 -1.695316 0.230561 1.000000
2.541084 -1.742651 0.232731 1.000000
2.442142 -1.753536 0.226070 1.000000
2.471130 -1.815553 0.230006 1.000000
2.399329 -1.803538 0.224684 1.000000
2.328103 -1.790205 0.219293 1.000000
2.378966 -1.871034 0.225439 1.000000
2.513819 -2.021974 0.239703 1.000000
2.349118 -1.932126 0.225436 1.000000
2.258398 -1.985218 0.221193 1.000000
2.192082 -1.969790 0.216250 1.000000
2.148404 -1.973447 0.213430 1.000000
2.155796 -2.024141 0.215806 1.000000
2.116355 -2.029504 0.213268 1.000000
2.079947 -2.038600 0.211194 1.000000
2.004732 -2.008205 0.205162 1.000000
2.066397 -2.115621 0.213272 2.000000
2.001886 -2.094795 0.208336 2.000000
1.975519 -2.112872 0.207269 3.000000
1.908659 -2.086452 0.202018 7.000000
1.872514 -2.092350 0.199991 6.000000
1.790527 -2.045080 0.192932 8.000000
1.505469 -1.796924 0.165306 8.000000
1.403624 -1.712899 0.155687 9.000000
1.303826 -1.626881 0.146060 9.000000
1.246097 -1.589941 0.141023 9.000000
1.165078 -1.520273 0.133242 9.000000
1.103633 -1.473050 0.127587 10.000000
1.084582 -1.480962 0.126792 10.000000
1.065563 -1.488585 0.125999 16.000000
1.055098 -1.508296 0.126179 14.000000
1.033027 -1.511433 0.125047 21.000000
1.011024 -1.514336 0.123920 21.000000
0.999932 -1.533609 0.124095 14.000000
0.977885 -1.536001 0.122974 19.000000
0.971654 -1.563532 0.123815 15.000000
0.958197 -1.577705 0.123586 10.000000
0.969011 -1.635249 0.126795 7.000000
1.128186 1.933750 0.166279 7.000000
1.133795 1.895607 0.164733 20.000000
1.159556 1.891603 0.166155 20.000000
1.161433 1.849283 0.164277 27.000000
1.192272 1.853289 0.166451 22.000000
1.201399 1.823485 0.165613 23.000000
1.222831 1.815122 0.166728 25.000000
1.248186 1.809866 0.168161 22.000000
1.264893 1.792066 0.168451 25.000000
1.275539 1.766044 0.167969 22.000000
1.294676 1.751974 0.168636 26.000000
1.319626 1.745724 0.170011 29.000000
1.335467 1.727245 0.170292 26.000000
1.347997 1.704722 0.170113 29.000000
1.382095 1.709332 0.172737 29.000000
1.387896 1.678759 0.171770 26.000000
1.406100 1.663489 0.172370 29.000000
1.424104 1.648019 0.172970 25.000000
1.435375 1.624878 0.172776 33.000000
1.459645 1.616479 0.174171 32.000000
1.470422 1.593084 0.173904 29.000000
1.498006 1.587763 0.175705 34.000000
1.515182 1.571322 0.176307 35.000000
1.528726 1.551065 0.176438 29.000000
1.555536 1.545398 0.178253 35.000000
1.572321 1.528278 0.178857 21.000000
1.585293 1.507522 0.178987 51.000000
1.601704 1.490038 0.179523 47.000000
1.621533 1.475775 0.180402 33.000000
1.645023 1.464543 0.181761 58.000000
1.664630 1.449673 0.182713 37.000000
1.680380 1.431287 0.183186 36.000000
1.695927 1.412833 0.183727 37.000000
1.703545 1.387815 0.183369 18.000000
1.738104 1.384631 0.185924 37.000000
1.737421 1.353261 0.184729 60.000000
1.779393 1.355715 0.188202 37.000000
1.786131 1.330169 0.187841 56.000000
1.804619 1.313457 0.188740 34.000000
1.826958 1.299339 0.189995 46.000000
1.849216 1.284975 0.191322 62.000000
1.850782 1.256235 0.190463 20.000000
1.881025 1.246897 0.192575 41.000000
1.907051 1.234351 0.194268 61.000000
1.920410 1.213407 0.194755 36.000000
1.950241 1.203134 0.196884 63.000000
1.967494 1.184295 0.197734 60.000000
1.984592 1.165222 0.198586 37.000000
2.001534 1.145914 0.199440 36.000000
2.013897 1.123942 0.199793 17.000000
2.034801 1.106589 0.201082 35.000000
2.077388 1.100992 0.204541 64.000000
2.089199 1.078162 0.204901 42.000000
2.109769 1.059730 0.206131 65.000000
2.130146 1.041032 0.207364 64.000000
2.150329 1.021993 0.208600 48.000000
2.174761 1.004995 0.210276 69.000000
2.221900 0.997460 0.214146 21.000000
2.228079 0.971145 0.214081 41.000000
2.252265 0.952616 0.215697 56.000000
2.294633 0.941425 0.219152 35.000000
2.290855 0.910828 0.218134 36.000000
2.337857 0.900067 0.221966 72.000000
2.356862 0.877986 0.223157 40.000000
2.380242 0.857545 0.224870 53.000000
2.356464 0.820042 0.222077 32.000000
2.421830 0.813461 0.227710 95.000000
2.435257 0.788537 0.228389 95.000000
2.434219 0.758984 0.227812 12.000000
2.442266 0.732578 0.228125 9.000000
2.483575 0.715510 0.231481 10.000000
2.515177 0.695138 0.234031 53.000000
2.541870 0.672729 0.235979 66.000000
2.582753 0.653648 0.239434 31.000000
2.613895 0.631412 0.241919 60.000000
2.640064 0.607285 0.243877 91.000000
2.656185 0.580692 0.245024 68.000000
2.696482 0.558856 0.248418 82.000000
2.761031 0.540981 0.254067 95.000000
2.737339 0.505468 0.251540 23.000000
2.747534 0.476465 0.252161 9.000000
2.777152 0.450545 0.254671 8.000000
2.826207 0.426979 0.258815 9.000000
2.860263 0.400290 0.261786 9.000000
2.903932 0.374229 0.265486 10.000000
2.947352 0.347218 0.269280 29.000000
3.010405 0.321460 0.274795 39.000000
2.988869 0.286245 0.272719 9.000000
3.051352 0.258721 0.278240 9.000000
3.158262 0.233201 0.287838 76.000000
3.170530 0.199375 0.288841 95.000000
3.177547 0.165074 0.289391 95.000000
3.134331 0.128622 0.285411 95.000000
3.090786 0.093146 0.281429 95.000000
3.061768 0.058839 0.278709 87.000000
3.002394 0.025027 0.273363 17.000000
2.962652 -0.007626 0.269736 11.000000
2.927618 -0.039388 0.266563 21.000000
2.912057 -0.070965 0.265203 43.000000
2.906098 -0.102478 0.264750 73.000000
2.875007 -0.132823 0.262030 56.000000
2.853534 -0.162997 0.260129 67.000000
2.781970 -0.189270 0.253784 19.000000
2.715219 -0.214507 0.247809 7.000000
2.678082 -0.240930 0.244556 9.000000
2.655464 -0.268098 0.242662 9.000000
2.622665 -0.293645 0.239865 9.000000
2.619349 -0.322192 0.239784 9.000000
2.561422 -0.343461 0.234728 9.000000
2.557542 -0.371257 0.234570 9.000000
2.528746 -0.395288 0.232232 10.000000
2.563563 -0.429318 0.235687 18.000000
2.544079 -0.454568 0.234174 95.000000
2.514550 -0.477640 0.231761 72.000000
2.494571 -0.501986 0.230253 64.000000
2.474345 -0.526014 0.228746 81.000000
2.444235 -0.547393 0.226341 71.000000
2.442942 -0.575167 0.226637 90.000000
2.422055 -0.598118 0.225059 34.000000
2.391375 -0.618184 0.222585 9.000000
2.523903 -0.681885 0.235439 32.000000
2.597855 -0.732166 0.242815 24.000000
2.670979 -0.784302 0.250175 27.000000
2.652838 -0.810309 0.249025 8.000000
2.771986 -0.879885 0.260829 3.000000
2.946740 -0.970871 0.277962 2.000000
2.874826 -0.981793 0.271790 2.000000
3.108075 -1.099427 0.294655 1.000000
3.086700 -1.129541 0.293362 1.000000
3.060239 -1.157890 0.291628 1.000000
2.857328 -1.116838 0.273147 2.000000
2.974334 -1.200130 0.285170 1.000000
2.938175 -1.222696 0.282468 1.000000
3.016260 -1.293947 0.290907 1.000000
2.924541 -1.292503 0.283011 1.000000
2.873382 -1.345130 0.279932 1.000000
2.858510 -1.376428 0.279543 1.000000
2.785320 -1.378901 0.273362 1.000000
2.783499 -1.415955 0.274293 1.000000
2.745831 -1.434749 0.271631 1.000000
2.686371 -1.440725 0.266797 1.000000
2.701041 -1.486767 0.269377 1.000000
2.684701 -1.516236 0.268905 1.000000
2.538678 -1.470613 0.255333 5.000000
2.509653 -1.490662 0.253585 6.000000
2.488946 -1.515433 0.252706 6.000000
2.531784 -1.578937 0.258205 3.000000
2.552197 -1.630679 0.261528 2.000000
2.530124 -1.655783 0.260542 2.000000
2.495325 -1.672383 0.258365 1.000000
2.616583 -1.795450 0.272350 1.000000
2.519395 -1.769527 0.263661 1.000000
2.706175 -1.945363 0.284807 1.000000
2.588425 -1.904018 0.273901 2.000000
2.436103 -1.833404 0.259327 2.000000
2.448080 -1.883670 0.262054 2.000000
2.380381 -1.873374 0.256333 2.000000
2.379191 -1.914970 0.257786 2.000000
2.354299 -1.937714 0.256805 1.000000
2.413061 -2.030766 0.264941 1.000000
2.262336 -1.946640 0.250071 1.000000
2.196055 -1.931826 0.244434 1.000000
2.097022 -1.885774 0.235085 1.000000
2.112978 -1.942383 0.238535 2.000000
2.026258 -1.903991 0.230485 2.000000
2.088057 -2.005432 0.239276 2.000000
1.998420 -1.961889 0.230851 2.000000
1.977754 -1.982813 0.230079 5.000000
1.935175 -1.982939 0.226944 7.000000
1.910014 -2.000375 0.225858 8.000000
1.901688 -2.035689 0.226804 9.000000
1.892874 -2.071131 0.227653 9.000000
1.860229 -2.080518 0.225757 8.000000
1.798125 -2.055669 0.220250 8.000000
