x y z intensity
1.110340 1.283720 0.334776 28.000000
1.134133 1.282123 0.338743 30.000000
1.154182 1.277045 0.341863 33.000000
1.171489 1.267578 0.343911 32.000000
1.184863 1.254795 0.345093 40.000000
1.202018 1.244894 0.347097 35.000000
1.215700 1.231212 0.348120 31.000000
1.239177 1.228313 0.352219 33.000000
1.252649 1.214244 0.353197 33.000000
1.261968 1.197128 0.353342 51.000000
1.285907 1.192823 0.357257 52.000000
1.295389 1.174947 0.357240 32.000000
1.315190 1.167232 0.360282 45.000000
1.324309 1.149068 0.360207 34.000000
1.347746 1.144044 0.364272 40.000000
1.352769 1.122478 0.363130 32.000000
1.372368 1.113748 0.366145 30.000000
1.384597 1.098214 0.367026 35.000000
1.419538 1.100899 0.374134 48.000000
1.435535 1.087783 0.375996 33.000000
1.451091 1.074861 0.377975 37.000000
1.470504 1.064553 0.380986 33.000000
1.478227 1.045085 0.380749 30.000000
1.501482 1.037110 0.384747 32.000000
1.525033 1.028297 0.388588 33.000000
1.532021 1.008739 0.388470 37.000000
1.551064 0.997034 0.391404 40.000000
1.569991 0.985090 0.394348 34.000000
1.597548 0.977545 0.399212 45.000000
1.612207 0.962344 0.401074 35.000000
1.635255 0.951851 0.405034 36.000000
1.641219 0.931310 0.404812 33.000000
1.668342 0.922572 0.409781 37.000000
1.695674 0.912977 0.414645 36.000000
1.705474 0.894159 0.415367 62.000000
1.723799 0.879664 0.418260 34.000000
1.746356 0.867090 0.422099 49.000000
1.760132 0.849792 0.423889 53.000000
1.800063 0.845039 0.432115 35.000000
1.809130 0.825042 0.432798 31.000000
1.827007 0.808876 0.435611 32.000000
1.849147 0.794315 0.439435 32.000000
1.889259 0.786904 0.447540 36.000000
1.911222 0.771610 0.451453 33.000000
1.924077 0.752075 0.453104 32.000000
1.959486 0.741271 0.460251 35.000000
1.972058 0.721150 0.461848 30.000000
2.002755 0.707499 0.467883 36.000000
2.014877 0.686971 0.469557 36.000000
2.036109 0.669258 0.473391 34.000000
2.052585 0.649697 0.476086 35.000000
2.087537 0.635483 0.483109 36.000000
2.113030 0.617840 0.487982 37.000000
2.161935 0.606305 0.498212 55.000000
2.187248 0.587363 0.502969 32.000000
2.226570 0.571789 0.511132 32.000000
2.251568 0.551857 0.515980 33.000000
2.266944 0.529070 0.518516 32.000000
2.310662 0.512411 0.527731 35.000000
2.330391 0.489966 0.531516 34.000000
2.369105 0.470860 0.539518 35.000000
2.397995 0.449219 0.545425 33.000000
2.426752 0.426895 0.551265 22.000000
2.445742 0.402456 0.554850 34.000000
2.478864 0.379837 0.561717 35.000000
2.507016 0.355894 0.567577 47.000000
2.559034 0.334500 0.578836 42.000000
2.586807 0.309061 0.584551 52.000000
2.619086 0.283612 0.591284 45.000000
2.655958 0.257992 0.599199 59.000000
2.658629 0.228696 0.599533 16.000000
2.738800 0.205146 0.617328 16.000000
2.755467 0.175752 0.620703 10.000000
2.820522 0.148602 0.635048 49.000000
2.895043 0.120547 0.651682 69.000000
2.940103 0.089894 0.661647 72.000000
2.970101 0.057986 0.668324 95.000000
2.965688 0.025142 0.667319 95.000000
2.965781 -0.007607 0.667412 58.000000
2.897218 -0.039427 0.651953 14.000000
2.896675 -0.071513 0.651953 9.000000
2.876178 -0.102721 0.647383 21.000000
2.874918 -0.134500 0.647383 98.000000
2.863467 -0.165716 0.645099 91.000000
2.866360 -0.197723 0.646106 95.000000
2.786310 -0.223129 0.628380 93.000000
2.788545 -0.254261 0.629214 87.000000
2.746831 -0.281117 0.620185 95.000000
2.748396 -0.311981 0.621108 79.000000
2.696439 -0.336311 0.609899 87.000000
2.678112 -0.364087 0.606360 23.000000
2.640266 -0.388616 0.598365 10.000000
2.631024 -0.416982 0.596938 10.000000
2.611928 -0.443607 0.593326 10.000000
2.602156 -0.471570 0.591903 10.000000
2.572906 -0.495571 0.585951 19.000000
2.562635 -0.523029 0.584532 20.000000
2.552058 -0.550135 0.582870 25.000000
2.550694 -0.579380 0.583469 30.000000
2.539487 -0.606463 0.582054 34.000000
2.542179 -0.636835 0.583656 67.000000
2.521051 -0.661063 0.579825 61.000000
2.504222 -0.686349 0.577167 67.000000
2.496591 -0.713950 0.576598 78.000000
2.474683 -0.737368 0.572782 71.000000
2.438555 -0.755978 0.565727 74.000000
2.453408 -0.790356 0.570491 22.000000
2.500269 -0.835922 0.582715 24.000000
2.454217 -0.850651 0.573351 19.000000
2.495434 -0.895748 0.584461 23.000000
2.467182 -0.916619 0.579497 26.000000
2.429796 -0.933173 0.572233 34.000000
2.405768 -0.954689 0.568365 28.000000
2.571683 -1.053244 0.609234 28.000000
2.789508 -1.178583 0.662894 27.000000
2.758540 -1.201715 0.657771 26.000000
2.776483 -1.246171 0.664295 34.000000
2.740527 -1.266628 0.658021 48.000000
2.740091 -1.302815 0.659983 79.000000
2.716909 -1.328844 0.656819 90.000000
2.697998 -1.356590 0.654626 73.000000
2.674415 -1.381902 0.651379 74.000000
2.663505 -1.413707 0.651307 69.000000
2.639106 -1.438873 0.648257 37.000000
2.648934 -1.482285 0.653350 34.000000
2.641210 -1.516338 0.654218 30.000000
2.624574 -1.545427 0.652983 29.000000
2.641138 -1.594542 0.660020 37.000000
2.615011 -1.618953 0.656872 31.000000
2.613868 -1.658225 0.659600 17.000000
2.571201 -1.670922 0.651913 22.000000
2.557095 -1.701855 0.651515 31.000000
2.554192 -1.741626 0.654412 29.000000
2.503198 -1.747192 0.644700 26.000000
2.495620 -1.783816 0.646460 28.000000
2.476198 -1.811178 0.644929 31.000000
2.448750 -1.832485 0.641251 27.000000
2.420570 -1.853999 0.637868 29.000000
2.412071 -1.889481 0.639220 32.000000
2.387142 -1.913548 0.636864 27.000000
2.377806 -1.948893 0.638196 25.000000
2.367405 -1.984969 0.639704 22.000000
2.357184 -2.020333 0.640907 26.000000
2.319914 -2.033926 0.635326 29.000000
2.298093 -2.059113 0.633499 25.000000
2.282436 -2.091494 0.633871 24.000000
2.269823 -2.127196 0.635233 30.000000
2.247053 -2.151807 0.633295 26.000000
2.240722 -2.194140 0.636523 25.000000
2.196498 -2.197562 0.628621 19.000000
2.192676 -2.243164 0.632715 25.000000
2.174548 -2.274860 0.632929 31.000000
2.147002 -2.294693 0.629791 28.000000
2.121572 -2.318754 0.627933 26.000000
2.106836 -2.352502 0.628710 24.000000
2.061409 -2.353949 0.620905 10.000000
2.009798 -2.347215 0.611293 18.000000
1.955502 -2.335857 0.600570 10.000000
1.781619 -2.174630 0.552139 10.000000
1.696313 -2.117966 0.531179 12.000000
1.615379 -2.063530 0.511218 11.000000
1.549017 -2.022275 0.494957 13.000000
1.485502 -1.984600 0.479910 15.000000
1.428764 -1.953690 0.466927 16.000000
1.351243 -1.889012 0.446180 10.000000
1.299446 -1.859815 0.434253 10.000000
1.284468 -1.882451 0.434575 18.000000
1.258276 -1.888648 0.431081 25.000000
1.230565 -1.889691 0.426530 20.000000
1.212329 -1.907565 0.425845 22.000000
1.191342 -1.921182 0.424231 22.000000
1.177776 -1.947135 0.425302 17.000000
1.155070 -1.955337 0.422551 20.000000
1.155652 -2.006580 0.429057 9.000000
0.855831 1.512559 0.335440 8.000000
0.851748 1.469296 0.329338 26.000000
0.867851 1.459529 0.330710 26.000000
0.886402 1.453793 0.332990 33.000000
0.897192 1.435306 0.332387 32.000000
0.914680 1.429700 0.334776 35.000000
0.924983 1.411042 0.334100 51.000000
0.943201 1.404510 0.336335 32.000000
0.963336 1.402381 0.339661 36.000000
0.973050 1.383348 0.338967 26.000000
0.993993 1.380248 0.342203 27.000000
1.009083 1.368865 0.343421 36.000000
1.026328 1.361818 0.345738 32.000000
1.038257 1.346256 0.345962 34.000000
1.053030 1.334448 0.347180 35.000000
1.073105 1.330584 0.350459 32.000000
1.090866 1.322113 0.352638 39.000000
1.095865 1.298497 0.350780 27.000000
1.112670 1.290238 0.353066 37.000000
1.136562 1.288614 0.357234 50.000000
1.150112 1.276135 0.358466 36.000000
1.164144 1.263067 0.359591 51.000000
1.178016 1.249784 0.360662 36.000000
1.197979 1.243978 0.363956 35.000000
1.221957 1.240753 0.368081 57.000000
1.228164 1.220440 0.367202 25.000000
1.255644 1.220082 0.372389 63.000000
1.258447 1.195720 0.370297 56.000000
1.281865 1.191840 0.374574 57.000000
1.294975 1.177255 0.375557 60.000000
1.311137 1.166246 0.377756 46.000000
1.324010 1.151291 0.378688 56.000000
1.336225 1.136720 0.379783 92.000000
1.348770 1.121492 0.380714 21.000000
1.364502 1.109674 0.382819 36.000000
1.380190 1.097608 0.384929 48.000000
1.419307 1.102888 0.393291 35.000000
1.419432 1.078358 0.391087 58.000000
1.450902 1.076758 0.397292 46.000000
1.462419 1.060667 0.398251 37.000000
1.489700 1.055756 0.403584 61.000000
1.493313 1.033251 0.402220 16.000000
1.520615 1.027609 0.407463 46.000000
1.531631 1.010741 0.408381 50.000000
1.546577 0.996344 0.410388 37.000000
1.565827 0.983991 0.413317 62.000000
1.597148 0.979336 0.419648 37.000000
1.611882 0.964086 0.421622 35.000000
1.626494 0.948626 0.423542 36.000000
1.632443 0.928133 0.423267 21.000000
1.659494 0.919376 0.428496 35.000000
1.686573 0.910180 0.433682 50.000000
1.696348 0.891410 0.434461 33.000000
1.719025 0.879181 0.438563 64.000000
1.737181 0.864370 0.441507 36.000000
1.759698 0.851366 0.445569 35.000000
1.795343 0.844170 0.452981 35.000000
1.817711 0.830247 0.457008 16.000000
1.822077 0.808252 0.456705 30.000000
1.848719 0.795612 0.461802 35.000000
1.857164 0.775257 0.462558 32.000000
1.874580 0.758178 0.465431 33.000000
1.923450 0.753464 0.476237 35.000000
1.945269 0.737164 0.480193 31.000000
1.966875 0.720625 0.484222 35.000000
1.965367 0.695591 0.482623 12.000000
2.014230 0.688014 0.493439 36.000000
2.035443 0.670245 0.497430 38.000000
2.047269 0.649159 0.499099 35.000000
2.068174 0.630676 0.503036 35.000000
2.098316 0.614552 0.509249 35.000000
2.147015 0.603110 0.519946 30.000000
2.186357 0.588203 0.528461 34.000000
2.225608 0.572571 0.536992 19.000000
2.255298 0.553671 0.543190 30.000000
2.275342 0.532031 0.547119 34.000000
2.304816 0.512115 0.553262 33.000000
2.314981 0.487513 0.554848 31.000000
2.353515 0.468582 0.563291 35.000000
2.387184 0.447940 0.570603 33.000000
2.406285 0.424053 0.574417 29.000000
2.415530 0.398111 0.575945 24.000000
2.463047 0.378047 0.586563 34.000000
2.500681 0.355577 0.594899 36.000000
2.552657 0.334177 0.606684 35.000000
2.589952 0.309973 0.615121 37.000000
2.622170 0.284497 0.622255 50.000000
2.639594 0.256882 0.625948 39.000000
2.671344 0.230116 0.633008 36.000000
2.731928 0.204888 0.647051 32.000000
2.763126 0.176510 0.654034 34.000000
2.847468 0.150309 0.673843 51.000000
2.882930 0.120254 0.681983 42.000000
2.927787 0.089653 0.692517 66.000000
2.957803 0.057798 0.699419 95.000000
2.943670 0.025018 0.696152 88.000000
2.929165 -0.007532 0.692701 83.000000
2.865641 -0.039095 0.677652 10.000000
2.855283 -0.070580 0.675351 10.000000
2.883564 -0.103243 0.682164 28.000000
2.867716 -0.134410 0.678622 95.000000
2.851521 -0.165255 0.674993 87.000000
2.830133 -0.195531 0.670304 81.000000
2.793867 -0.224033 0.662080 27.000000
2.762155 -0.252315 0.655009 95.000000
2.725399 -0.279370 0.646794 65.000000
2.712464 -0.308423 0.644239 93.000000
2.675238 -0.334162 0.635862 80.000000
2.656967 -0.361779 0.632083 37.000000
2.638404 -0.388992 0.628307 42.000000
2.643669 -0.419701 0.630348 58.000000
2.595704 -0.441643 0.619703 24.000000
2.619483 -0.475503 0.626159 77.000000
2.599888 -0.501699 0.622310 67.000000
2.584706 -0.528387 0.619525 83.000000
2.569318 -0.554947 0.616827 72.000000
2.563138 -0.583374 0.616333 77.000000
2.528221 -0.604840 0.608996 93.000000
2.540428 -0.637529 0.612983 52.000000
2.486279 -0.653152 0.601025 24.000000
2.469718 -0.677967 0.598107 91.000000
2.452812 -0.702654 0.595273 66.000000
2.454308 -0.732544 0.596983 95.000000
2.436901 -0.756784 0.594153 69.000000
2.433140 -0.785225 0.594566 35.000000
2.429106 -0.813608 0.595057 37.000000
2.415516 -0.838818 0.593204 32.000000
2.387970 -0.858900 0.587890 20.000000
2.374023 -0.883514 0.586047 35.000000
2.364184 -0.909857 0.585333 31.000000
2.363241 -0.939482 0.586708 35.000000
2.415991 -0.991669 0.601708 33.000000
2.696778 -1.141639 0.673667 76.000000
2.760047 -1.204674 0.691780 71.000000
2.769258 -1.244935 0.696141 33.000000
2.737783 -1.267450 0.690727 28.000000
2.759007 -1.314542 0.698601 42.000000
2.740087 -1.343011 0.696341 35.000000
2.751402 -1.386454 0.701954 36.000000
2.736166 -1.416927 0.700701 33.000000
2.716238 -1.444918 0.698437 35.000000
2.696072 -1.472621 0.696080 34.000000
2.679922 -1.502518 0.694830 29.000000
2.621207 -1.507806 0.682477 23.000000
2.642460 -1.559063 0.691040 32.000000
2.625376 -1.588240 0.689696 32.000000
2.620443 -1.624939 0.691636 34.000000
2.593982 -1.649213 0.688197 15.000000
2.567828 -1.672437 0.684575 18.000000
2.545561 -1.697997 0.681954 34.000000
2.518940 -1.720524 0.678253 26.000000
2.483678 -1.737750 0.672680 20.000000
2.484667 -1.779251 0.676473 32.000000
2.449523 -1.795027 0.670537 28.000000
2.456839 -1.843157 0.676643 36.000000
2.417410 -1.855261 0.669551 31.000000
2.389066 -1.876459 0.665981 31.000000
2.376372 -1.908677 0.666409 32.000000
2.355710 -1.934766 0.664600 26.000000
2.349059 -1.973807 0.667327 24.000000
2.327785 -1.999488 0.665410 31.000000
2.305458 -2.025744 0.663781 29.000000
2.301888 -2.067179 0.667231 32.000000
2.275204 -2.089855 0.664441 29.000000
2.259960 -2.121234 0.664512 31.000000
2.239883 -2.150063 0.663816 31.000000
2.222929 -2.182106 0.664157 24.000000
2.203055 -2.209772 0.663058 25.000000
2.175108 -2.230997 0.660172 29.000000
2.154671 -2.258058 0.659067 29.000000
2.139666 -2.293030 0.660210 34.000000
2.117436 -2.320706 0.659280 31.000000
2.112407 -2.365532 0.663168 32.000000
2.050791 -2.348607 0.649966 16.000000
2.003645 -2.344716 0.640517 22.000000
1.952577 -2.337151 0.630390 10.000000
1.771789 -2.169438 0.577883 10.000000
1.700001 -2.127250 0.559597 16.000000
1.619210 -2.072910 0.538672 18.000000
1.554731 -2.036584 0.522872 18.000000
1.474707 -1.974745 0.500958 19.000000
1.418173 -1.943741 0.487284 19.000000
1.359765 -1.907813 0.472778 15.000000
1.293876 -1.858687 0.455261 10.000000
1.274420 -1.872504 0.453428 22.000000
1.234768 -1.858227 0.444961 24.000000
1.230229 -1.896800 0.449140 31.000000
1.184205 -1.868454 0.437539 25.000000
1.186780 -1.919357 0.444586 26.000000
1.168116 -1.936895 0.443794 23.000000
1.149290 -1.954209 0.443065 19.000000
1.148537 -2.000526 0.448729 9.000000
0.844026 1.498777 0.348076 8.000000
0.853167 1.476303 0.346481 20.000000
0.864366 1.458051 0.345916 34.000000
0.880416 1.448125 0.347288 29.000000
0.897998 1.442674 0.349774 32.000000
0.916463 1.436477 0.352163 33.000000
0.926929 1.417768 0.351459 30.000000
0.938885 1.403615 0.351917 32.000000
0.965374 1.408973 0.357329 28.000000
0.980870 1.397896 0.358660 22.000000
0.986852 1.375268 0.357003 34.000000
1.002004 1.363969 0.358270 27.000000
1.022823 1.360331 0.361615 32.000000
1.040035 1.353057 0.364092 32.000000
1.051870 1.337285 0.364270 30.000000
1.069643 1.329093 0.366542 39.000000
1.089752 1.324926 0.370035 32.000000
1.094881 1.301230 0.368040 27.000000
1.108528 1.289229 0.369368 32.000000
1.125932 1.280260 0.371601 33.000000
1.146577 1.274635 0.374908 48.000000
1.160020 1.262049 0.376194 34.000000
1.177236 1.252324 0.378394 53.000000
1.193831 1.242901 0.380707 47.000000
1.214408 1.236238 0.384002 32.000000
1.220547 1.215969 0.383077 24.000000
1.244446 1.212234 0.387419 37.000000
1.257321 1.198491 0.388615 35.000000
1.274089 1.187476 0.390741 71.000000
1.290332 1.176654 0.392983 49.000000
1.306973 1.165150 0.395121 59.000000
1.326704 1.157099 0.398479 71.000000
1.339483 1.141951 0.399471 33.000000
1.340479 1.117712 0.397244 29.000000
1.360382 1.108575 0.400397 35.000000
1.379816 1.099544 0.403726 35.000000
1.387737 1.081248 0.403657 42.000000
1.434585 1.091945 0.414624 35.000000
1.446272 1.076024 0.415640 40.000000
1.461786 1.062798 0.417783 37.000000
1.477476 1.048975 0.419760 31.000000
1.496719 1.038065 0.423044 32.000000
1.511936 1.024132 0.425148 35.000000
1.522923 1.007252 0.426121 44.000000
1.533737 0.990314 0.427036 48.000000
1.561143 0.983182 0.432343 37.000000
1.588314 0.975967 0.437841 60.000000
1.603008 0.960762 0.439863 52.000000
1.621782 0.947801 0.443038 35.000000
1.644655 0.936886 0.447312 32.000000
1.659000 0.920906 0.449355 41.000000
1.677496 0.906967 0.452437 40.000000
1.700219 0.895042 0.456743 64.000000
1.722849 0.882710 0.461001 38.000000
1.736554 0.865872 0.463073 40.000000
1.754681 0.850693 0.466128 53.000000
1.785852 0.841476 0.472684 32.000000
1.794959 0.821466 0.473365 27.000000
1.817022 0.807565 0.477674 33.000000
1.839088 0.792994 0.481869 32.000000
1.856544 0.776376 0.484967 34.000000
1.864946 0.755656 0.485598 34.000000
1.909161 0.749138 0.495755 35.000000
1.948947 0.740028 0.504698 47.000000
1.956867 0.718426 0.505353 30.000000
1.978264 0.701565 0.509612 29.000000
2.004166 0.685840 0.514929 39.000000
2.020711 0.666664 0.517893 34.000000
2.046381 0.650024 0.523229 42.000000
2.067265 0.631485 0.527324 35.000000
2.106542 0.618245 0.536309 36.000000
2.155240 0.606568 0.547480 55.000000
2.161711 0.582722 0.548042 33.000000
2.200820 0.567219 0.556935 30.000000
2.235111 0.549755 0.564582 36.000000
2.264608 0.530484 0.571049 32.000000
2.289194 0.509488 0.576260 34.000000
2.318253 0.489147 0.582747 40.000000
2.347271 0.468206 0.589244 32.000000
2.380788 0.447559 0.596872 32.000000
2.399850 0.423670 0.600843 30.000000
2.433107 0.401758 0.608335 30.000000
2.461282 0.378472 0.614714 36.000000
2.489223 0.354576 0.621100 34.000000
2.541064 0.333303 0.633413 33.000000
2.573444 0.308572 0.640937 37.000000
2.605572 0.283200 0.648468 35.000000
2.632692 0.256633 0.654639 35.000000
2.678788 0.231200 0.665787 28.000000
2.744070 0.206257 0.681584 34.000000
2.765520 0.177043 0.686566 48.000000
2.839957 0.150220 0.704781 62.000000
2.885027 0.120569 0.715696 62.000000
2.910461 0.089264 0.721893 71.000000
2.945158 0.057703 0.730408 95.000000
2.926210 0.024843 0.725687 91.000000
2.921449 -0.007532 0.724483 85.000000
2.911469 -0.039825 0.721985 37.000000
2.881810 -0.071331 0.714765 79.000000
2.851714 -0.102283 0.707455 77.000000
2.855305 -0.134092 0.708569 95.000000
2.843998 -0.165165 0.706073 95.000000
2.822661 -0.195353 0.701084 95.000000
2.752621 -0.221137 0.684075 32.000000
2.725851 -0.249401 0.677891 90.000000
2.713355 -0.278616 0.675230 88.000000
2.695714 -0.307068 0.671370 81.000000
2.677769 -0.335114 0.667427 95.000000
2.659523 -0.362754 0.663573 95.000000
2.636182 -0.389366 0.658438 73.000000
2.631826 -0.418519 0.658019 88.000000
2.598423 -0.442861 0.650496 32.000000
2.607780 -0.474218 0.653757 88.000000
2.583382 -0.499441 0.648471 59.000000
2.577841 -0.527974 0.647975 68.000000
2.562479 -0.554370 0.645090 73.000000
2.546831 -0.580639 0.642208 43.000000
2.530902 -0.606615 0.639330 38.000000
2.533614 -0.636954 0.641141 34.000000
2.503073 -0.658768 0.634613 24.000000
2.500436 -0.687707 0.635152 31.000000
2.502113 -0.718173 0.636958 35.000000
2.480301 -0.741561 0.632661 27.000000
2.490639 -0.774904 0.636753 32.000000
2.477413 -0.801023 0.634913 30.000000
2.473186 -0.829967 0.635360 28.000000
2.473186 -0.860528 0.636987 27.000000
2.445362 -0.881326 0.631525 20.000000
2.458493 -0.916837 0.636520 27.000000
2.448441 -0.943945 0.635696 28.000000
2.442573 -0.972770 0.635966 26.000000
2.454234 -1.009170 0.641093 32.000000
2.519308 -1.068511 0.660023 32.000000
2.770223 -1.211427 0.728242 34.000000
2.827951 -1.273839 0.745709 31.000000
2.787373 -1.293008 0.737635 24.000000
2.799427 -1.336630 0.743470 35.000000
2.784630 -1.367782 0.742399 36.000000
2.752467 -1.389487 0.736294 30.000000
2.737085 -1.420057 0.735133 62.000000
2.700047 -1.438995 0.728087 32.000000
2.684211 -1.468940 0.726840 33.000000
2.676474 -1.503458 0.727803 33.000000
2.630500 -1.516201 0.718396 25.000000
2.609649 -1.542860 0.715914 32.000000
2.605213 -1.579328 0.717928 32.000000
2.596192 -1.613313 0.718785 30.000000
2.586291 -1.647867 0.719824 23.000000
2.539683 -1.657886 0.710305 19.000000
2.529716 -1.691341 0.711060 30.000000
2.515233 -1.722035 0.710573 32.000000
2.484452 -1.741445 0.705552 24.000000
2.480791 -1.780850 0.708743 33.000000
2.461369 -1.808212 0.707021 35.000000
2.433968 -1.829529 0.703049 31.000000
2.405740 -1.851052 0.699373 33.000000
2.381853 -1.874561 0.696447 32.000000
2.353949 -1.894644 0.692410 30.000000
2.359095 -1.942919 0.698601 29.000000
2.341776 -1.971987 0.697799 23.000000
2.316042 -1.995252 0.695062 32.000000
2.290857 -2.017383 0.692043 31.000000
2.261067 -2.036741 0.688118 29.000000
2.271463 -2.091230 0.696014 32.000000
2.244537 -2.113578 0.693082 27.000000
2.235937 -2.151604 0.695334 29.000000
2.222401 -2.187105 0.696761 30.000000
2.181793 -2.193983 0.689181 20.000000
2.167526 -2.229150 0.690498 31.000000
2.133713 -2.242063 0.685021 31.000000
2.115406 -2.273300 0.685144 27.000000
2.120835 -2.328696 0.692477 34.000000
2.094951 -2.352711 0.690411 30.000000
2.062356 -2.368963 0.686209 16.000000
1.992979 -2.339170 0.668869 22.000000
1.863773 -2.237728 0.631777 9.000000
1.741415 -2.136601 0.595704 15.000000
1.702435 -2.137107 0.588547 16.000000
1.630756 -2.094580 0.569795 15.000000
1.558352 -2.046019 0.549870 21.000000
1.474406 -1.981132 0.526067 17.000000
1.412179 -1.942393 0.509760 12.000000
1.349282 -1.897797 0.492226 14.000000
1.289224 -1.856713 0.476057 10.000000
1.271456 -1.875286 0.475321 19.000000
1.227482 -1.852203 0.464211 25.000000
1.225586 -1.894830 0.469610 24.000000
1.181107 -1.871425 0.458718 26.000000
1.182217 -1.917392 0.464871 24.000000
1.158496 -1.926531 0.462110 20.000000
1.144637 -1.952235 0.463297 21.000000
1.135220 -1.986475 0.466387 8.000000
0.840491 1.497170 0.363340 8.000000
0.847221 1.470472 0.360629 18.000000
0.859879 1.456995 0.361226 20.000000
0.883523 1.459616 0.365796 21.000000
0.897028 1.445239 0.366182 28.000000
0.909435 1.431290 0.366665 21.000000
0.930493 1.428996 0.370216 27.000000
0.938069 1.406047 0.368406 26.000000
0.969214 1.420010 0.376299 19.000000
0.965311 1.380821 0.370184 22.000000
0.986156 1.377654 0.373707 16.000000
1.003442 1.370792 0.376271 25.000000
1.018522 1.359269 0.377545 26.000000
1.039383 1.355278 0.381050 16.000000
1.053589 1.343849 0.382492 31.000000
1.059225 1.320364 0.380484 23.000000
1.082321 1.320030 0.385216 25.000000
1.087499 1.296432 0.383132 25.000000
1.101742 1.283936 0.384350 21.000000
1.121725 1.279141 0.387949 29.000000
1.142292 1.273510 0.391404 27.000000
1.155736 1.260924 0.392743 25.000000
1.169661 1.247642 0.393868 31.000000
1.182836 1.234734 0.395207 26.000000
1.199902 1.224663 0.397461 27.000000
1.216292 1.214838 0.399883 28.000000
1.229704 1.200887 0.400960 23.000000
1.256549 1.200659 0.406811 34.000000
1.259170 1.176309 0.404419 30.000000
1.271701 1.162319 0.405661 29.000000
1.302646 1.164000 0.412431 42.000000
1.318744 1.152686 0.414789 29.000000
1.331049 1.138019 0.415942 32.000000
1.347360 1.125922 0.418089 25.000000
1.366955 1.117038 0.421569 22.000000
1.375121 1.098771 0.421512 35.000000
1.406434 1.097987 0.428286 26.000000
1.418194 1.082307 0.429350 27.000000
1.445426 1.078083 0.435162 35.000000
1.453386 1.058691 0.434836 28.000000
1.468749 1.045306 0.437087 29.000000
1.483947 1.031662 0.439287 23.000000
1.511149 1.026002 0.445043 28.000000
1.526270 1.011761 0.447204 36.000000
1.541220 0.997314 0.449371 34.000000
1.556111 0.982661 0.451485 29.000000
1.583463 0.975091 0.457010 51.000000
1.598145 0.959824 0.459141 32.000000
1.612704 0.944406 0.461217 32.000000
1.626906 0.929072 0.463476 27.000000
1.636919 0.910813 0.464359 28.000000
1.663820 0.901685 0.470004 32.000000
1.695035 0.894379 0.476813 34.000000
1.713371 0.879826 0.480076 31.000000
1.718542 0.858395 0.479592 33.000000
1.745117 0.847900 0.485352 34.000000
1.776201 0.838662 0.492222 27.000000
1.789507 0.820970 0.494305 25.000000
1.802858 0.802871 0.496205 27.000000
1.833619 0.792491 0.503118 28.000000
1.864589 0.781239 0.509860 28.000000
1.886398 0.766031 0.514362 29.000000
1.903623 0.748558 0.517519 27.000000
1.934257 0.735991 0.524433 30.000000
1.942141 0.714490 0.525084 22.000000
1.981727 0.704217 0.534421 30.000000
2.003028 0.686813 0.538715 28.000000
2.014963 0.665996 0.540616 30.000000
2.035964 0.647947 0.544857 29.000000
2.070621 0.633846 0.553021 31.000000
2.086669 0.613456 0.555975 34.000000
2.139796 0.603446 0.568987 30.000000
2.150915 0.580896 0.570859 22.000000
2.185228 0.564297 0.578874 26.000000
2.238223 0.551566 0.591804 26.000000
2.258249 0.529900 0.596046 27.000000
2.277982 0.508065 0.600367 28.000000
2.297563 0.485770 0.604622 22.000000
2.340727 0.467829 0.615046 29.000000
2.364648 0.445386 0.620492 26.000000
2.374117 0.419914 0.622120 10.000000
2.421510 0.400658 0.633827 29.000000
2.454394 0.378159 0.641720 26.000000
2.487139 0.354944 0.649621 24.000000
2.538855 0.333612 0.662380 33.000000
2.556743 0.307173 0.666461 26.000000
2.579156 0.280857 0.671799 28.000000
2.635008 0.257324 0.685837 31.000000
2.608747 0.225527 0.678561 9.000000
2.731631 0.205634 0.710091 30.000000
2.782002 0.178418 0.722988 26.000000
2.812757 0.149017 0.730697 29.000000
2.862622 0.119780 0.743342 34.000000
2.902405 0.089172 0.753479 37.000000
2.917745 0.057231 0.757338 59.000000
2.913274 0.024802 0.756174 71.000000
2.913365 -0.007532 0.756174 36.000000
2.874468 -0.039337 0.746126 82.000000
2.854481 -0.070761 0.741101 63.000000
2.853491 -0.102451 0.740921 83.000000
2.842562 -0.133685 0.738409 92.000000
2.811958 -0.163581 0.730697 58.000000
2.810004 -0.194752 0.730519 51.000000
2.759453 -0.222128 0.717793 61.000000
2.723183 -0.249670 0.708750 34.000000
2.720252 -0.279845 0.708578 39.000000
2.721871 -0.310568 0.709486 37.000000
2.689514 -0.337183 0.701709 32.000000
2.647302 -0.361846 0.691432 34.000000
2.657625 -0.393283 0.694851 27.000000
2.643660 -0.421315 0.691925 24.000000
2.619846 -0.447336 0.686418 26.000000
2.614820 -0.476404 0.686082 18.000000
2.590446 -0.501707 0.680668 23.000000
2.622818 -0.538267 0.690153 24.000000
2.602631 -0.564217 0.685822 21.000000
2.615219 -0.597315 0.690218 26.000000
2.594499 -0.623003 0.685891 20.000000
2.578129 -0.649391 0.682899 15.000000
2.594339 -0.684131 0.688442 21.000000
2.563469 -0.706439 0.681559 15.000000
2.592919 -0.745545 0.690811 24.000000
2.584590 -0.774357 0.690131 24.000000
2.566841 -0.800031 0.686890 21.000000
2.571776 -0.833049 0.689837 24.000000
2.553311 -0.858569 0.686686 19.000000
2.530167 -0.882120 0.682137 10.000000
2.556840 -0.923301 0.691235 22.000000
2.537575 -0.948328 0.687832 16.000000
2.549773 -0.985124 0.693124 24.000000
2.552434 -1.018742 0.695772 24.000000
2.563683 -1.056179 0.700861 22.000000
2.605526 -1.107654 0.714762 30.000000
2.739952 -1.200559 0.753927 27.000000
2.819384 -1.273060 0.778516 24.000000
2.792368 -1.298080 0.773596 27.000000
2.782306 -1.331276 0.773650 29.000000
2.746086 -1.351139 0.766123 29.000000
2.735491 -1.383946 0.766180 29.000000
2.703037 -1.405564 0.760085 28.000000
2.691793 -1.437939 0.760048 34.000000
2.667352 -1.463217 0.756292 28.000000
2.651279 -1.492971 0.754953 21.000000
2.635206 -1.521960 0.753326 27.000000
2.605935 -1.543813 0.748293 22.000000
2.609732 -1.585361 0.752850 32.000000
2.567156 -1.599517 0.744433 24.000000
2.570032 -1.641102 0.748874 14.000000
2.543985 -1.664341 0.744961 13.000000
2.505567 -1.679096 0.737400 24.000000
2.511214 -1.723351 0.742898 19.000000
2.476467 -1.740020 0.736542 27.000000
2.445715 -1.758887 0.731293 20.000000
2.441594 -1.798227 0.734487 29.000000
2.410336 -1.816399 0.729250 27.000000
2.382927 -1.837090 0.725107 23.000000
2.377507 -1.876244 0.728177 29.000000
2.334462 -1.884158 0.719281 21.000000
2.359038 -1.947005 0.731351 19.000000
2.318672 -1.958093 0.723918 23.000000
2.304802 -1.989969 0.724233 17.000000
2.290605 -2.021816 0.724534 26.000000
2.260768 -2.041263 0.720412 21.000000
2.256680 -2.082504 0.724048 24.000000
2.222857 -2.098093 0.718785 26.000000
2.207249 -2.129191 0.718863 18.000000
2.197369 -2.167959 0.721492 15.000000
2.174151 -2.191951 0.719267 24.000000
2.142894 -2.209531 0.714973 17.000000
2.139387 -2.254164 0.719424 32.000000
2.097701 -2.260549 0.711758 21.000000
2.093306 -2.305084 0.716067 24.000000
2.080606 -2.343257 0.718391 27.000000
2.052488 -2.362242 0.714825 10.000000
2.016766 -2.374312 0.709242 10.000000
1.862728 -2.243321 0.661636 9.000000
1.777498 -2.187785 0.637215 9.000000
1.695612 -2.135316 0.614306 10.000000
1.622130 -2.088242 0.593391 10.000000
1.548820 -2.040447 0.572857 10.000000
1.470995 -1.983511 0.550272 11.000000
1.407160 -1.940145 0.531862 10.000000
1.371547 -1.936109 0.524592 9.000000
1.291706 -1.867351 0.500150 10.000000
1.261250 -1.865075 0.493878 11.000000
1.240569 -1.879354 0.492049 24.000000
1.206519 -1.872887 0.484904 18.000000
1.179088 -1.873422 0.479709 23.000000
1.178808 -1.920153 0.486352 21.000000
1.155054 -1.929324 0.483401 17.000000
1.142381 -1.954341 0.484435 16.000000
1.142549 -2.005582 0.491907 6.000000
0.834465 1.491196 0.377419 8.000000
0.852274 1.486244 0.380211 16.000000
0.868663 1.476336 0.381764 21.000000
0.887466 1.470444 0.384355 21.000000
0.897591 1.452370 0.383827 25.000000
0.918833 1.450195 0.387471 27.000000
0.934839 1.439561 0.388975 25.000000
0.949824 1.429248 0.390586 26.000000
0.962818 1.414208 0.390922 23.000000
0.969245 1.391607 0.389121 17.000000
0.987367 1.384369 0.391677 27.000000
0.996905 1.365105 0.390809 26.000000
1.019890 1.365852 0.395737 26.000000
1.031993 1.350181 0.395937 30.000000
1.046159 1.338838 0.397428 25.000000
1.063950 1.330551 0.399902 29.000000
1.087882 1.329621 0.404677 26.000000
1.086279 1.298946 0.400378 22.000000
1.103778 1.290111 0.402807 32.000000
1.120560 1.281578 0.405403 30.000000
1.137954 1.272279 0.407793 30.000000
1.154678 1.263281 0.410352 35.000000
1.171963 1.253512 0.412756 29.000000
1.191928 1.247559 0.416449 32.000000
1.209083 1.237276 0.418817 29.000000
1.215363 1.216983 0.417815 17.000000
1.235755 1.209789 0.421316 35.000000
1.248629 1.196046 0.422620 53.000000
1.268481 1.188781 0.426305 35.000000
1.285226 1.177476 0.428591 52.000000
1.305000 1.169603 0.432246 34.000000
1.317945 1.154621 0.433293 47.000000
1.333969 1.143071 0.435708 42.000000
1.349951 1.131273 0.438130 24.000000
1.354576 1.110002 0.436873 62.000000
1.363074 1.091382 0.436652 36.000000
1.397687 1.094102 0.445102 33.000000
1.417173 1.084358 0.448657 61.000000
1.436561 1.074274 0.452225 35.000000
1.444616 1.054873 0.451903 36.000000
1.467770 1.047158 0.456656 33.000000
1.483042 1.033468 0.458965 24.000000
1.502209 1.022301 0.462456 45.000000
1.521265 1.010783 0.465900 58.000000
1.536259 0.996334 0.468174 35.000000
1.551080 0.981678 0.470396 58.000000
1.574083 0.971845 0.475052 37.000000
1.592871 0.959180 0.478477 40.000000
1.615767 0.948604 0.483159 43.000000
1.613437 0.923203 0.480352 26.000000
1.661507 0.926311 0.492449 66.000000
1.680028 0.912220 0.495860 58.000000
1.693949 0.895858 0.498142 50.000000
1.707980 0.879039 0.500188 64.000000
1.730469 0.866272 0.504761 50.000000
1.739685 0.847107 0.505737 50.000000
1.779445 0.841996 0.515333 56.000000
1.797238 0.826225 0.518739 24.000000
1.819474 0.811917 0.523298 35.000000
1.845835 0.799360 0.529204 42.000000
1.876693 0.788154 0.536400 39.000000
1.903019 0.774502 0.542339 57.000000
1.929309 0.760320 0.548229 42.000000
1.946458 0.742228 0.551508 37.000000
1.968019 0.725541 0.556076 36.000000
1.971215 0.701934 0.555521 21.000000
2.001596 0.687717 0.562538 53.000000
2.022775 0.669884 0.567063 71.000000
2.043649 0.651813 0.571666 53.000000
2.073788 0.635997 0.578652 52.000000
2.089770 0.615638 0.581918 67.000000
2.124196 0.600259 0.590287 36.000000
2.153923 0.582928 0.597309 49.000000
2.188180 0.566147 0.605638 20.000000
2.203555 0.544040 0.608728 41.000000
2.246897 0.528356 0.619746 37.000000
2.276002 0.508677 0.626818 42.000000
2.300275 0.487327 0.632529 43.000000
2.329147 0.466430 0.639474 45.000000
2.357823 0.444931 0.646428 36.000000
2.376785 0.421143 0.650711 35.000000
2.409708 0.399405 0.658983 24.000000
2.466431 0.380713 0.673703 45.000000
2.503824 0.358043 0.683304 57.000000
2.555436 0.336439 0.696589 54.000000
2.582818 0.310886 0.703523 73.000000
2.610098 0.284717 0.710298 47.000000
2.651429 0.259424 0.721080 45.000000
2.682889 0.232443 0.729259 52.000000
2.733396 0.206188 0.742501 32.000000
2.764372 0.177623 0.750607 49.000000
2.828771 0.150207 0.767786 54.000000
2.863955 0.120094 0.777033 49.000000
2.908544 0.089618 0.788990 69.000000
2.928579 0.057610 0.794224 73.000000
2.967645 0.025337 0.804879 61.000000
2.933960 -0.007607 0.795718 37.000000
2.919206 -0.040065 0.791699 32.000000
2.894440 -0.071960 0.785156 35.000000
2.888701 -0.103922 0.783756 31.000000
2.887422 -0.136095 0.783665 30.000000
2.852053 -0.166301 0.774417 32.000000
2.874137 -0.199680 0.780684 29.000000
2.838097 -0.228938 0.771350 14.000000
2.825874 -0.259565 0.768466 35.000000
2.803620 -0.288988 0.762971 30.000000
2.814709 -0.321822 0.766622 37.000000
2.796670 -0.351277 0.762347 32.000000
2.783096 -0.381156 0.759470 32.000000
2.774059 -0.411264 0.757633 31.000000
2.759915 -0.440593 0.754672 26.000000
2.764484 -0.472878 0.756747 12.000000
2.744918 -0.501040 0.752487 31.000000
2.739273 -0.531644 0.752046 31.000000
2.728635 -0.561099 0.750216 32.000000
2.722384 -0.591386 0.749600 30.000000
2.725194 -0.623740 0.751580 28.000000
2.718303 -0.653955 0.750873 31.000000
2.720423 -0.686533 0.752846 24.000000
2.694122 -0.711917 0.747047 10.000000
2.742064 -0.757191 0.761864 35.000000
2.738347 -0.788995 0.762347 30.000000
2.757373 -0.827667 0.769282 35.000000
2.775854 -0.867139 0.776291 34.000000
2.793872 -0.906768 0.783008 35.000000
2.834218 -0.954909 0.796324 46.000000
2.832763 -0.989643 0.798044 29.000000
2.849035 -1.031064 0.804798 19.000000
2.864804 -1.072901 0.811534 36.000000
2.866542 -1.109914 0.814312 35.000000
2.867778 -1.147228 0.816983 36.000000
2.832858 -1.169789 0.809430 32.000000
2.819992 -1.201133 0.808269 31.000000
2.798077 -1.228492 0.804465 34.000000
2.784383 -1.259834 0.803405 26.000000
2.757442 -1.284567 0.798247 14.000000
2.769405 -1.327923 0.804699 36.000000
2.733275 -1.347844 0.796921 32.000000
2.709649 -1.374037 0.793241 35.000000
2.698703 -1.406554 0.793256 32.000000
2.675006 -1.431645 0.789108 32.000000
2.646497 -1.454597 0.783999 36.000000
2.638836 -1.488966 0.785175 29.000000
2.597272 -1.503833 0.776230 12.000000
2.618178 -1.555032 0.786058 33.000000
2.584457 -1.574230 0.779533 31.000000
2.579518 -1.610726 0.781742 32.000000
2.549553 -1.631641 0.776482 22.000000
2.519472 -1.652093 0.771141 13.000000
2.513409 -1.688290 0.773144 33.000000
2.482932 -1.707994 0.767819 26.000000
2.464235 -1.735613 0.766111 13.000000
2.457142 -1.771545 0.767994 36.000000
2.413718 -1.782213 0.759110 30.000000
2.405865 -1.817805 0.760986 34.000000
2.378451 -1.838544 0.756647 32.000000
2.369902 -1.873962 0.758407 30.000000
2.348798 -1.900960 0.756791 33.000000
2.343118 -1.939379 0.759641 29.000000
2.277628 -1.927599 0.743131 10.000000
2.286152 -1.978150 0.750707 29.000000
2.285711 -2.023499 0.756113 28.000000
2.274625 -2.058513 0.757598 31.000000
2.251577 -2.084454 0.755669 30.000000
2.218526 -2.099226 0.749874 24.000000
2.216919 -2.143861 0.754702 29.000000
2.172265 -2.148559 0.745651 24.000000
2.142397 -2.165550 0.740984 10.000000
2.158731 -2.231761 0.753021 32.000000
2.121479 -2.241336 0.745885 28.000000
2.109687 -2.279733 0.748438 29.000000
2.095101 -2.313653 0.749503 31.000000
2.072560 -2.341098 0.748414 31.000000
2.060476 -2.378369 0.750503 21.000000
1.986765 -2.346084 0.730789 16.000000
1.955676 -2.360289 0.725880 12.000000
1.797741 -2.219880 0.674187 13.000000
1.700615 -2.148705 0.644560 10.000000
1.624206 -2.097887 0.621624 13.000000
1.556859 -2.058101 0.602493 17.000000
1.483047 -2.004531 0.579844 11.000000
1.417985 -1.962109 0.560884 16.000000
1.365318 -1.934478 0.546542 13.000000
1.286881 -1.865009 0.520869 9.000000
1.257994 -1.867570 0.515675 24.000000
1.233035 -1.872961 0.511337 23.000000
1.201717 -1.870591 0.505012 28.000000
1.188752 -1.896695 0.506444 30.000000
1.168931 -1.909512 0.504342 27.000000
1.147710 -1.922819 0.502381 26.000000
1.128873 -1.940134 0.501511 22.000000
1.135241 -1.998961 0.511275 9.000000
0.829712 1.489914 0.392693 8.000000
0.850996 1.488652 0.396548 14.000000
0.868873 1.483455 0.399398 29.000000
0.880231 1.464928 0.398688 21.000000
0.899014 1.458789 0.401382 28.000000
0.916757 1.453022 0.404246 29.000000
0.930166 1.438218 0.404658 25.000000
0.945151 1.427959 0.406323 32.000000
0.960942 1.416948 0.407827 29.000000
0.968249 1.393795 0.405789 21.000000
0.957495 1.347424 0.396933 35.000000
0.992404 1.363835 0.406535 29.000000
1.018305 1.368416 0.412774 33.000000
1.030464 1.352768 0.413040 33.000000
1.045364 1.340805 0.414429 29.000000
1.065518 1.336812 0.418354 34.000000
1.080288 1.324512 0.419697 25.000000
1.081818 1.297566 0.416468 28.000000
1.096102 1.285087 0.417795 36.000000
1.119262 1.283901 0.422843 32.000000
1.136685 1.274561 0.425337 37.000000
1.150166 1.261885 0.426787 32.000000
1.164131 1.248618 0.428076 37.000000
1.184033 1.242695 0.431913 34.000000
1.200649 1.232934 0.434541 29.000000
1.214300 1.219067 0.435733 25.000000
1.227246 1.205524 0.437087 37.000000
1.244120 1.194688 0.439514 45.000000
1.242710 1.167515 0.435864 86.000000
1.280186 1.176544 0.445847 35.000000
1.300428 1.168226 0.449487 64.000000
1.316569 1.156825 0.452003 60.000000
1.336285 1.148386 0.455778 64.000000
1.326385 1.114708 0.449467 32.000000
1.357484 1.114767 0.456796 51.000000
1.361902 1.093477 0.455491 39.000000
1.385051 1.087123 0.460443 61.000000
1.396770 1.071572 0.461609 37.000000
1.431537 1.073257 0.470348 58.000000
1.439548 1.053859 0.470034 37.000000
1.462718 1.046136 0.474990 30.000000
1.485844 1.037979 0.479908 35.000000
1.501051 1.023937 0.482220 45.000000
1.504081 1.001655 0.480740 52.000000
1.527076 0.992605 0.485631 68.000000
1.545991 0.980579 0.489191 42.000000
1.564788 0.968197 0.492761 67.000000
1.583522 0.955571 0.496341 49.000000
1.606115 0.945387 0.501348 35.000000
1.624738 0.932050 0.504833 37.000000
1.639076 0.916052 0.507084 53.000000
1.670183 0.909069 0.514444 43.000000
1.696917 0.899532 0.520760 75.000000
1.702407 0.878190 0.520239 46.000000
1.724670 0.865723 0.525208 64.000000
1.738405 0.848307 0.527316 60.000000
1.769250 0.839308 0.534820 33.000000
1.778356 0.819298 0.535564 30.000000
1.800359 0.805319 0.540395 47.000000
1.831086 0.794822 0.547885 35.000000
1.852881 0.779966 0.552683 37.000000
1.887996 0.770147 0.561474 34.000000
1.923155 0.759666 0.570224 35.000000
1.940342 0.741505 0.573606 48.000000
1.957340 0.723142 0.576994 29.000000
1.974147 0.704379 0.580389 33.000000
1.990825 0.685413 0.583725 53.000000
2.011810 0.667761 0.588538 35.000000
2.032692 0.649805 0.593294 42.000000
2.062744 0.634033 0.600537 71.000000
2.097159 0.619179 0.609273 33.000000
2.089839 0.591827 0.605866 47.000000
2.138000 0.579773 0.618518 31.000000
2.167413 0.562022 0.625951 32.000000
2.192140 0.542381 0.631908 46.000000
2.239969 0.527918 0.644617 35.000000
2.273772 0.509213 0.653300 41.000000
2.283872 0.484808 0.655167 43.000000
2.317296 0.464958 0.663722 32.000000
2.350618 0.444476 0.672288 38.000000
2.364798 0.419920 0.675526 28.000000
2.416616 0.401462 0.689452 33.000000
2.458937 0.380319 0.700762 61.000000
2.491464 0.356961 0.709213 40.000000
2.533383 0.334225 0.720467 40.000000
2.565532 0.309404 0.728936 51.000000
2.597346 0.283945 0.737494 36.000000
2.629061 0.257763 0.745811 36.000000
2.665213 0.231356 0.755660 22.000000
2.720365 0.205652 0.770956 35.000000
2.751250 0.177139 0.779202 43.000000
2.820262 0.150028 0.798419 54.000000
2.855344 0.120004 0.808121 37.000000
2.890093 0.089229 0.817828 37.000000
2.967881 0.058465 0.839695 61.000000
2.997218 0.025667 0.847955 42.000000
2.997313 -0.007795 0.847955 33.000000
3.054755 -0.041955 0.864288 36.000000
3.044458 -0.075822 0.861470 32.000000
3.029068 -0.109204 0.857291 31.000000
2.998887 -0.141584 0.848936 31.000000
3.006779 -0.175566 0.851465 27.000000
3.004678 -0.209189 0.851465 28.000000
2.944644 -0.237970 0.834769 24.000000
2.946719 -0.271202 0.835941 29.000000
2.929169 -0.302563 0.831676 28.000000
2.940056 -0.336797 0.835284 30.000000
2.936208 -0.369548 0.834908 33.000000
2.917776 -0.400336 0.830462 29.000000
2.927481 -0.434956 0.834158 32.000000
2.960619 -0.473695 0.844533 34.000000
2.960039 -0.507495 0.845413 28.000000
2.959156 -0.541210 0.846195 32.000000
2.967227 -0.576963 0.849778 33.000000
2.970140 -0.612062 0.851907 33.000000
2.986833 -0.650251 0.857990 45.000000
2.979663 -0.683485 0.857312 33.000000
2.986147 -0.720008 0.860583 34.000000
2.996738 -0.758026 0.865293 33.000000
3.030305 -0.802327 0.876530 25.000000
3.035288 -0.839953 0.879771 35.000000
3.016753 -0.871111 0.876185 35.000000
3.002491 -0.903251 0.873847 31.000000
2.987862 -0.935387 0.871811 33.000000
2.963804 -0.964142 0.866701 30.000000
2.953241 -0.997017 0.865615 32.000000
2.937636 -1.028399 0.863292 32.000000
2.903553 -1.053010 0.855632 24.000000
2.878379 -1.080305 0.850654 29.000000
2.888967 -1.121149 0.856241 36.000000
2.836341 -1.137187 0.843095 27.000000
2.832673 -1.172411 0.844590 33.000000
2.806561 -1.198272 0.839351 32.000000
2.771360 -1.219759 0.831475 30.000000
2.775511 -1.258484 0.835421 30.000000
2.757159 -1.287688 0.833040 26.000000
2.738754 -1.316121 0.830278 32.000000
2.728467 -1.349020 0.830441 36.000000
2.692232 -1.368324 0.822332 31.000000
2.681320 -1.400743 0.822306 35.000000
2.657604 -1.425838 0.818157 31.000000
2.641869 -1.455688 0.816727 32.000000
2.634154 -1.490005 0.818001 32.000000
2.600998 -1.509874 0.811261 24.000000
2.609636 -1.553304 0.817347 35.000000
2.584213 -1.577450 0.813217 34.000000
2.562802 -1.603877 0.810296 32.000000
2.549197 -1.635141 0.809964 26.000000
2.519099 -1.655691 0.804470 17.000000
2.500913 -1.683779 0.802756 29.000000
2.498354 -1.722745 0.806177 33.000000
2.443943 -1.725542 0.792829 24.000000
2.444641 -1.766997 0.797424 36.000000
2.416875 -1.789142 0.793350 36.000000
2.381906 -1.804417 0.786362 35.000000
2.373665 -1.839898 0.788284 35.000000
2.357461 -1.869246 0.787560 35.000000
2.340908 -1.898488 0.786830 30.000000
2.345581 -1.946928 0.793845 34.000000
2.294916 -1.947926 0.781676 29.000000
2.292029 -1.989225 0.785855 35.000000
2.263260 -2.008247 0.781155 36.000000
2.244243 -2.037346 0.780494 32.000000
2.236473 -2.075358 0.783270 37.000000
2.217589 -2.103398 0.782203 32.000000
2.200954 -2.135467 0.782654 30.000000
2.181406 -2.163219 0.781471 33.000000
2.140208 -2.170922 0.773197 23.000000
2.140444 -2.218857 0.779376 35.000000
2.119996 -2.245965 0.778074 34.000000
2.108074 -2.284423 0.780710 32.000000
2.086970 -2.311106 0.779381 36.000000
2.057898 -2.331371 0.775820 33.000000
2.033054 -2.353868 0.773179 25.000000
1.988057 -2.354798 0.763616 22.000000
1.938327 -2.346658 0.751317 11.000000
1.799367 -2.228975 0.704730 18.000000
1.697439 -2.149510 0.671179 18.000000
1.629090 -2.111190 0.651234 19.000000
1.549985 -2.056079 0.626593 21.000000
1.487941 -2.018223 0.607758 18.000000
1.408623 -1.956345 0.582158 16.000000
1.348859 -1.915982 0.563520 19.000000
1.272516 -1.851285 0.538234 10.000000
1.249222 -1.861769 0.535170 25.000000
1.226999 -1.871277 0.531833 30.000000
1.198286 -1.873019 0.526412 32.000000
1.178691 -1.886059 0.524250 34.000000
1.160235 -1.903674 0.523371 32.000000
1.139130 -1.916952 0.521344 30.000000
1.121586 -1.933535 0.520241 26.000000
1.112068 -1.967554 0.523855 9.000000
0.827209 1.492725 0.409025 7.000000
0.843758 1.482977 0.410685 22.000000
0.860201 1.473069 0.412292 20.000000
0.882947 1.476044 0.417653 28.000000
0.891693 1.453252 0.415720 24.000000
0.901683 1.435120 0.415109 25.000000
0.925439 1.436821 0.420234 31.000000
0.935989 1.417870 0.419395 23.000000
0.948066 1.403434 0.419901 29.000000
0.960855 1.388368 0.420238 21.000000
0.981010 1.385612 0.424309 26.000000
0.990645 1.366331 0.423371 31.000000
1.010757 1.363075 0.427460 26.000000
1.025818 1.351326 0.428955 30.000000
1.045967 1.347554 0.433018 31.000000
1.054871 1.327774 0.431946 27.000000
1.074971 1.323545 0.436025 35.000000
1.067912 1.285011 0.428723 14.000000
1.097168 1.291512 0.436485 35.000000
1.108305 1.275094 0.436570 35.000000
1.128260 1.269976 0.440571 29.000000
1.145547 1.260435 0.443169 34.000000
1.165506 1.254740 0.447199 36.000000
1.179442 1.241182 0.448442 30.000000
1.199360 1.234940 0.452442 35.000000
1.202288 1.211175 0.450084 12.000000
1.229530 1.210791 0.456382 37.000000
1.221559 1.176891 0.450104 61.000000
1.255242 1.183064 0.459160 37.000000
1.271923 1.171738 0.461594 62.000000
1.302426 1.173646 0.469425 45.000000
1.315000 1.158968 0.470755 39.000000
1.327462 1.144179 0.472028 52.000000
1.329071 1.119452 0.469226 19.000000
1.333650 1.098374 0.467876 37.000000
1.356780 1.092375 0.473008 53.000000
1.391258 1.094963 0.482102 35.000000
1.387782 1.067520 0.478011 71.000000
1.418577 1.066333 0.485774 33.000000
1.437860 1.056038 0.489600 35.000000
1.449264 1.039722 0.490729 49.000000
1.476289 1.034412 0.497175 18.000000
1.495486 1.023191 0.500924 54.000000
1.506559 1.006266 0.502014 62.000000
1.521495 0.991799 0.504385 51.000000
1.540381 0.979770 0.508102 69.000000
1.555115 0.964844 0.510428 49.000000
1.582031 0.957187 0.516797 52.000000
1.604902 0.946596 0.521838 59.000000
1.598190 0.919163 0.517555 18.000000
1.641835 0.919867 0.529260 62.000000
1.664472 0.908167 0.534223 63.000000
1.678400 0.891848 0.536664 52.000000
1.705199 0.881701 0.542951 74.000000
1.714575 0.862584 0.543986 66.000000
1.728333 0.845276 0.546143 45.000000
1.750334 0.832122 0.551223 54.000000
1.794174 0.828635 0.563106 20.000000
1.798630 0.806599 0.562611 39.000000
1.829303 0.796046 0.570359 44.000000
1.864423 0.786677 0.579440 36.000000
1.886249 0.771191 0.584410 39.000000
1.907935 0.755342 0.589392 51.000000
1.938450 0.742434 0.597019 42.000000
1.950931 0.722349 0.599128 35.000000
1.954072 0.698928 0.598601 26.000000
1.984357 0.684813 0.606196 47.000000
2.009855 0.668673 0.612552 64.000000
2.026203 0.648993 0.615939 41.000000
2.056045 0.633350 0.623643 45.000000
2.081230 0.615762 0.629832 54.000000
2.115496 0.600314 0.638891 55.000000
2.140317 0.581800 0.645176 47.000000
2.160530 0.561383 0.649933 27.000000
2.189714 0.543036 0.657639 39.000000
2.237492 0.528511 0.670816 37.000000
2.261852 0.507645 0.677008 49.000000
2.276620 0.484364 0.680329 33.000000
2.309953 0.464508 0.689195 46.000000
2.343110 0.444021 0.698224 36.000000
2.371432 0.422061 0.705708 34.000000
2.409004 0.401074 0.716014 34.000000
2.441645 0.378455 0.724847 40.000000
2.474066 0.355278 0.733769 36.000000
2.530117 0.334529 0.749505 48.000000
2.552657 0.308583 0.755631 40.000000
2.593994 0.284136 0.767158 47.000000
2.615994 0.257042 0.773134 37.000000
2.676013 0.232764 0.790320 33.000000
2.730930 0.206841 0.806018 35.000000
2.747380 0.177273 0.810516 40.000000
2.806605 0.149594 0.827639 36.000000
2.851163 0.120115 0.840623 49.000000
2.876312 0.088989 0.847870 40.000000
2.948971 0.058182 0.869067 39.000000
2.987807 0.025572 0.880467 41.000000
3.002290 -0.007833 0.884802 33.000000
3.073936 -0.042351 0.905905 35.000000
3.116402 -0.077759 0.918625 36.000000
3.139374 -0.113438 0.925591 33.000000
3.185883 -0.150786 0.939418 34.000000
3.217573 -0.188364 0.949204 33.000000
3.244025 -0.226255 0.957369 32.000000
3.236555 -0.262077 0.955853 14.000000
3.286098 -0.303079 0.971069 37.000000
3.263549 -0.337846 0.965110 43.000000
3.250052 -0.373177 0.961976 37.000000
3.269686 -0.412393 0.968400 36.000000
3.236454 -0.445057 0.959734 39.000000
3.250447 -0.484045 0.964745 34.000000
3.230696 -0.518035 0.960103 33.000000
3.172854 -0.545208 0.944003 15.000000
3.209289 -0.588318 0.956042 33.000000
3.155653 -0.614937 0.941267 34.000000
3.144002 -0.649237 0.939352 34.000000
3.122688 -0.681284 0.934428 34.000000
3.101034 -0.712915 0.929511 35.000000
3.079147 -0.744131 0.924500 32.000000
3.080296 -0.780731 0.926392 31.000000
3.025110 -0.802863 0.911702 18.000000
3.044113 -0.844187 0.918987 33.000000
3.020940 -0.874219 0.913898 33.000000
3.006648 -0.906515 0.911604 36.000000
2.973758 -0.932858 0.903645 31.000000
2.963261 -0.966231 0.902852 34.000000
2.943566 -0.996129 0.898885 32.000000
2.927976 -1.027512 0.896609 29.000000
2.862558 -1.040350 0.878696 18.000000
2.887021 -1.085902 0.888804 35.000000
2.852581 -1.109521 0.880715 33.000000
2.831416 -1.137818 0.876884 34.000000
2.823259 -1.171344 0.877004 32.000000
2.788258 -1.193427 0.868857 34.000000
2.779562 -1.226467 0.868981 34.000000
2.753027 -1.251454 0.863512 29.000000
2.748012 -1.286148 0.864814 29.000000
2.703625 -1.302158 0.853791 34.000000
2.715010 -1.345441 0.860847 34.000000
2.700302 -1.375625 0.859309 42.000000
2.667969 -1.397076 0.852516 33.000000
2.648544 -1.424408 0.849533 35.000000
2.636925 -1.456585 0.849460 35.000000
2.608223 -1.479169 0.843963 28.000000
2.583931 -1.503132 0.839453 25.000000
2.592154 -1.546930 0.846033 35.000000
2.570921 -1.573597 0.843155 35.000000
