x y z intensity
3.321667 -0.225739 0.193782 9.000000
3.274237 -0.258236 0.191167 7.000000
3.211567 -0.288520 0.187582 9.000000
3.188351 -0.321411 0.186323 9.000000
3.140080 -0.351098 0.183711 9.000000
3.136024 -0.385193 0.183614 9.000000
3.101993 -0.415219 0.181874 17.000000
3.112124 -0.451044 0.182648 70.000000
3.111962 -0.485651 0.182841 55.000000
3.047491 -0.509568 0.179270 25.000000
3.076127 -0.548763 0.181201 93.000000
3.045493 -0.577544 0.179659 76.000000
3.019474 -0.606682 0.178408 62.000000
3.002930 -0.637372 0.177642 61.000000
2.986055 -0.667756 0.176971 52.000000
2.944652 -0.692125 0.174765 31.000000
2.912744 -0.718053 0.173231 36.000000
2.890266 -0.745949 0.172184 21.000000
2.877234 -0.776038 0.171805 75.000000
2.854256 -0.803046 0.170760 64.000000
2.840584 -0.832639 0.170292 68.000000
2.850453 -0.869319 0.171259 26.000000
2.950241 -0.934882 0.177667 19.000000
3.096409 -1.018419 0.186924 24.000000
3.241166 -1.104848 0.196161 9.000000
3.440840 -1.214801 0.208806 6.000000
3.502474 -1.279575 0.213035 9.000000
3.483671 -1.315768 0.212522 9.000000
3.492466 -1.362631 0.213717 9.000000
3.472824 -1.398697 0.213089 8.000000
3.448155 -1.432518 0.212292 8.000000
3.441582 -1.473885 0.212631 8.000000
3.471234 -1.530994 0.215002 6.000000
3.458964 -1.570747 0.215053 4.000000
3.437140 -1.606140 0.214423 4.000000
3.401515 -1.634832 0.212948 3.000000
3.392471 -1.676168 0.213164 2.000000
3.378532 -1.715208 0.213098 2.000000
3.315390 -1.728840 0.209948 2.000000
3.344830 -1.790759 0.212683 2.000000
3.416994 -1.877541 0.218202 1.000000
3.009338 -1.696528 0.193020 2.000000
3.029544 -1.751751 0.195210 6.000000
3.031762 -1.797426 0.196171 4.000000
3.127575 -1.899720 0.203226 2.000000
3.127964 -1.946799 0.204274 1.000000
3.152872 -2.010332 0.206862 1.000000
3.068002 -2.003671 0.202383 1.000000
3.091700 -2.067575 0.204961 1.000000
2.906881 -2.037117 0.194740 1.000000
3.107667 -2.228829 0.209453 1.000000
2.877849 -2.111964 0.195071 1.000000
2.962520 -2.224211 0.201985 1.000000
2.977661 -2.286775 0.204133 1.000000
2.795482 -2.195775 0.192841 1.000000
3.004905 -2.413796 0.208620 1.000000
2.878092 -2.364147 0.201139 1.000000
2.775674 -2.331229 0.195192 1.000000
2.719780 -2.335340 0.192603 1.000000
2.667877 -2.341865 0.190183 1.000000
2.638449 -2.367497 0.189482 1.000000
2.616236 -2.399473 0.189207 1.000000
2.655439 -2.489363 0.193440 1.000000
2.617371 -2.507921 0.192090 1.000000
2.550657 -2.497852 0.188744 5.000000
2.392698 -2.394870 0.178459 7.000000
2.268791 -2.320763 0.170593 10.000000
2.122508 -2.219165 0.160844 10.000000
2.023236 -2.161949 0.154638 9.000000
1.936427 -2.112999 0.149158 11.000000
1.843390 -2.055861 0.143279 11.000000
1.738623 -1.982014 0.136399 10.000000
1.658418 -1.932577 0.131282 9.000000
1.589172 -1.893109 0.127043 13.000000
1.552709 -1.890959 0.125311 26.000000
1.513386 -1.884347 0.123334 33.000000
1.489771 -1.896816 0.122710 30.000000
1.453926 -1.893080 0.121002 31.000000
1.442281 -1.920741 0.121322 31.000000
1.421363 -1.936301 0.120881 26.000000
1.417766 -1.975911 0.121943 23.000000
1.399158 -1.995308 0.121747 26.000000
1.385882 -2.022708 0.122046 26.000000
1.355523 -2.025242 0.120853 31.000000
1.344412 -2.056556 0.121393 25.000000
1.332788 -2.087883 0.121926 29.000000
1.310083 -2.102188 0.121396 25.000000
1.307988 -2.150475 0.122893 25.000000
1.297276 -2.186022 0.123646 9.000000
0.946999 1.620616 0.105452 8.000000
0.949164 1.584480 0.104221 24.000000
0.968939 1.578290 0.104955 26.000000
0.985978 1.567647 0.105408 28.000000
1.005665 1.561031 0.106146 29.000000
1.019831 1.545796 0.106314 30.000000
1.033737 1.530507 0.106479 31.000000
1.058795 1.531476 0.107741 34.000000
1.075357 1.519866 0.108196 34.000000
1.085952 1.499998 0.108069 30.000000
1.099171 1.484042 0.108173 32.000000
1.118276 1.475995 0.108918 32.000000
1.137297 1.467656 0.109609 31.000000
1.156234 1.459137 0.110302 35.000000
1.172000 1.446445 0.110757 32.000000
1.194019 1.441269 0.111752 36.000000
1.203189 1.420549 0.111554 32.000000
1.212022 1.399798 0.111352 31.000000
1.237117 1.397706 0.112652 35.000000
1.252240 1.384181 0.112994 41.000000
1.270580 1.374092 0.113697 59.000000
1.285458 1.360130 0.114098 50.000000
1.307155 1.353233 0.115051 54.000000
1.332343 1.349506 0.116373 42.000000
1.346954 1.334894 0.116721 36.000000
1.364975 1.323582 0.117435 34.000000
1.371631 1.302234 0.117223 34.000000
1.385742 1.287140 0.117570 60.000000
1.414451 1.285355 0.119162 59.000000
1.435878 1.276440 0.120136 67.000000
1.449742 1.260638 0.120489 50.000000
1.474774 1.254416 0.121783 76.000000
1.496063 1.244577 0.122768 37.000000
1.505701 1.225003 0.122750 31.000000
1.534616 1.220869 0.124372 37.000000
1.543931 1.200955 0.124354 39.000000
1.568825 1.193089 0.125668 62.000000
1.585788 1.178827 0.126288 37.000000
1.602575 1.164358 0.126910 38.000000
1.619244 1.149619 0.127533 43.000000
1.635793 1.134729 0.128158 35.000000
1.664613 1.127964 0.129750 28.000000
1.672628 1.106948 0.129735 37.000000
1.692724 1.094393 0.130750 35.000000
1.717217 1.083888 0.132032 63.000000
1.733203 1.067626 0.132605 37.000000
1.761826 1.058918 0.134219 66.000000
1.773267 1.039618 0.134471 44.000000
1.801846 1.030098 0.136094 39.000000
1.834744 1.022564 0.137986 34.000000
1.845729 1.002457 0.138243 45.000000
1.887390 0.998619 0.140803 53.000000
1.911471 0.984837 0.142053 57.000000
1.926518 0.966160 0.142646 42.000000
1.954735 0.954149 0.144300 62.000000
1.969487 0.934933 0.144898 62.000000
1.984086 0.915552 0.145497 43.000000
2.007567 0.899953 0.146695 30.000000
2.030980 0.884057 0.147964 37.000000
2.058848 0.869600 0.149502 49.000000
2.072761 0.849069 0.150110 36.000000
2.104987 0.835871 0.152058 34.000000
2.137205 0.821824 0.153943 32.000000
2.150705 0.800241 0.154489 37.000000
2.168656 0.780175 0.155372 33.000000
2.200535 0.764747 0.157268 32.000000
2.222847 0.745706 0.158565 40.000000
2.268779 0.733746 0.161483 43.000000
2.290945 0.713397 0.162643 36.000000
2.308135 0.691306 0.163540 35.000000
2.344194 0.674599 0.165796 36.000000
2.375400 0.655641 0.167642 52.000000
2.387233 0.631062 0.168208 33.000000
2.456827 0.621047 0.172780 30.000000
2.482812 0.598906 0.174375 33.000000
2.518310 0.578656 0.176577 34.000000
2.548763 0.556549 0.178441 38.000000
2.574207 0.532902 0.179966 54.000000
2.618999 0.512502 0.182861 42.000000
2.609670 0.481297 0.181998 12.000000
2.604954 0.451183 0.181476 8.000000
2.703282 0.437953 0.188149 10.000000
2.752196 0.415247 0.191319 57.000000
2.781238 0.388729 0.193205 48.000000
2.829888 0.364221 0.196381 63.000000
2.873273 0.338074 0.199304 52.000000
2.916493 0.311065 0.202143 37.000000
2.954391 0.282629 0.204640 47.000000
2.972207 0.251661 0.205763 18.000000
3.079226 0.227062 0.213083 32.000000
3.106384 0.195095 0.214900 57.000000
3.173142 0.164654 0.219474 42.000000
3.214567 0.131685 0.222231 36.000000
3.250748 0.097796 0.224742 26.000000
3.281466 0.062953 0.226810 9.000000
3.356785 0.027932 0.232083 25.000000
3.461634 -0.008895 0.239325 95.000000
3.451342 -0.046460 0.238635 91.000000
3.440735 -0.083807 0.237946 91.000000
3.399697 -0.119779 0.235187 69.000000
3.363361 -0.155216 0.232773 84.000000
3.336505 -0.190359 0.231049 22.000000
3.314350 -0.225299 0.229568 9.000000
3.182422 -0.251172 0.220605 6.000000
3.189428 -0.286635 0.221197 9.000000
3.156418 -0.318311 0.219130 9.000000
3.137859 -0.351001 0.217999 9.000000
3.128947 -0.384488 0.217559 9.000000
3.104832 -0.415785 0.216086 18.000000
3.085327 -0.447369 0.214958 62.000000
3.085201 -0.481707 0.215207 48.000000
3.035479 -0.507827 0.212018 25.000000
3.029830 -0.540779 0.211924 36.000000
3.004108 -0.569917 0.210363 30.000000
2.973296 -0.597646 0.208555 22.000000
2.937432 -0.623715 0.206313 10.000000
2.920715 -0.653503 0.205536 18.000000
2.918338 -0.686231 0.205695 68.000000
2.925256 -0.721545 0.206537 71.000000
2.864110 -0.739531 0.202595 29.000000
2.860692 -0.771957 0.202755 73.000000
2.837767 -0.798900 0.201551 64.000000
2.828929 -0.829561 0.201281 70.000000
2.829364 -0.863223 0.201781 30.000000
2.914874 -0.924139 0.208399 18.000000
2.999448 -0.986938 0.215005 16.000000
3.570089 -1.261101 0.257108 7.000000
3.542020 -1.294761 0.255861 8.000000
3.532497 -1.335053 0.255852 7.000000
3.550241 -1.386102 0.257869 6.000000
3.553711 -1.431680 0.258867 5.000000
3.482611 -1.447377 0.254476 6.000000
3.549232 -1.520458 0.260181 6.000000
3.546153 -1.565121 0.260834 5.000000
3.438126 -1.562375 0.253773 2.000000
3.479663 -1.627156 0.257661 2.000000
3.425837 -1.647690 0.254636 2.000000
3.439238 -1.699906 0.256505 2.000000
3.344963 -1.698931 0.250376 2.000000
3.397031 -1.772109 0.255352 1.000000
3.329201 -1.783113 0.251232 1.000000
3.418863 -1.879468 0.259171 1.000000
2.972356 -1.676393 0.226274 2.000000
3.005706 -1.738726 0.229819 6.000000
3.029500 -1.796887 0.232690 5.000000
3.018204 -1.835035 0.232917 2.000000
3.040457 -1.894260 0.235769 1.000000
3.120575 -1.991770 0.243084 1.000000
3.157537 -2.063265 0.247093 1.000000
3.155660 -2.111515 0.248263 1.000000
2.988369 -2.047081 0.236402 1.000000
2.933199 -2.056734 0.233249 1.000000
2.886199 -2.071162 0.230757 1.000000
2.887623 -2.120388 0.232263 1.000000
2.900190 -2.178803 0.234620 1.000000
2.789191 -2.143421 0.226982 1.000000
2.922547 -2.297091 0.239292 1.000000
2.883297 -2.370029 0.239114 1.000000
2.685379 -2.256946 0.224193 1.000000
2.702231 -2.321894 0.227047 1.000000
2.628001 -2.308499 0.222378 1.000000
2.643491 -2.373732 0.225216 1.000000
2.621093 -2.405896 0.224988 1.000000
2.638435 -2.475372 0.228111 1.000000
2.518537 -2.413265 0.219291 1.000000
2.534868 -2.482468 0.222404 5.000000
2.444259 -2.446479 0.216140 7.000000
2.291921 -2.344552 0.204310 9.000000
2.148977 -2.246796 0.193167 9.000000
2.049339 -2.189923 0.185795 10.000000
1.927672 -2.105375 0.176219 10.000000
1.841449 -2.055608 0.169859 10.000000
1.753217 -2.000458 0.163228 10.000000
1.672870 -1.951289 0.157166 9.000000
1.593849 -1.900530 0.151217 10.000000
1.554154 -1.894593 0.148867 20.000000
1.508491 -1.880233 0.145926 28.000000
1.488002 -1.896521 0.145410 29.000000
1.461217 -1.904741 0.144368 30.000000
1.434530 -1.912536 0.143256 30.000000
1.422553 -1.940106 0.143638 25.000000
1.410094 -1.967574 0.144014 21.000000
1.397296 -1.995084 0.144309 29.000000
1.384009 -2.022483 0.144672 28.000000
1.353661 -2.025018 0.143267 28.000000
1.342535 -2.056331 0.143915 27.000000
1.328213 -2.083447 0.144189 26.000000
1.297641 -2.085084 0.142789 21.000000
1.285259 -2.116113 0.143345 24.000000
1.246907 -2.104273 0.141087 9.000000
0.953977 1.632679 0.123295 7.000000
0.951163 1.587913 0.121202 16.000000
0.964746 1.573810 0.121440 19.000000
0.987103 1.571645 0.122664 18.000000
0.998733 1.552356 0.122513 26.000000
1.015558 1.541403 0.123021 19.000000
1.035059 1.534360 0.123863 24.000000
1.054481 1.527087 0.124651 27.000000
1.079636 1.527729 0.126171 16.000000
1.078634 1.491630 0.124659 24.000000
1.091770 1.475740 0.124827 20.000000
1.110784 1.467757 0.125616 23.000000
1.129715 1.459483 0.126465 30.000000
1.148562 1.451030 0.127260 19.000000
1.167438 1.442283 0.128057 27.000000
1.186228 1.433298 0.128856 27.000000
1.198544 1.416456 0.129022 21.000000
1.207344 1.395743 0.128780 26.000000
1.222418 1.382475 0.129175 22.000000
1.244125 1.376495 0.130327 27.000000
1.265765 1.370143 0.131484 32.000000
1.280660 1.356218 0.131941 25.000000
1.298790 1.345711 0.132694 32.000000
1.320386 1.338564 0.133862 26.000000
1.334882 1.324067 0.134265 26.000000
1.360001 1.319818 0.135739 35.000000
1.373801 1.305322 0.136203 25.000000
1.388007 1.290247 0.136609 31.000000
1.409359 1.281649 0.137736 35.000000
1.419564 1.262830 0.137782 27.000000
1.444512 1.257070 0.139277 51.000000
1.465759 1.247597 0.140415 32.000000
1.486970 1.237839 0.141498 29.000000
1.496542 1.218351 0.141546 29.000000
1.525375 1.214358 0.143367 24.000000
1.542435 1.200596 0.144093 32.000000
1.567379 1.192727 0.145618 32.000000
1.576337 1.172513 0.145610 26.000000
1.597088 1.161063 0.146711 34.000000
1.609656 1.143479 0.147014 29.000000
1.625837 1.129102 0.147809 27.000000
1.662830 1.128026 0.150412 29.000000
1.683380 1.115270 0.151467 26.000000
1.687058 1.091315 0.151088 32.000000
1.707296 1.078130 0.152147 34.000000
1.718976 1.059405 0.152518 29.000000
1.747499 1.050833 0.154336 33.000000
1.771758 1.039241 0.155782 32.000000
1.791604 1.024766 0.156855 32.000000
1.802469 1.005499 0.157234 30.000000
1.843995 1.002393 0.160213 29.000000
1.863598 0.986888 0.161233 31.000000
1.905264 0.982486 0.164229 37.000000
1.924805 0.966094 0.165256 32.000000
1.944113 0.949375 0.166353 34.000000
1.958881 0.930256 0.167001 34.000000
1.973297 0.911172 0.167718 28.000000
2.005818 0.899819 0.169910 32.000000
2.024648 0.881863 0.170951 28.000000
2.038704 0.861700 0.171608 31.000000
2.070980 0.848863 0.173815 32.000000
2.089288 0.830141 0.174933 27.000000
2.112123 0.812664 0.176305 27.000000
2.148880 0.800031 0.178915 31.000000
2.171514 0.781652 0.180365 21.000000
2.189266 0.761401 0.181428 32.000000
2.235159 0.750177 0.184766 30.000000
2.252728 0.728851 0.185764 32.000000
2.288963 0.713324 0.188404 36.000000
2.306145 0.691232 0.189409 32.000000
2.327885 0.670163 0.190734 35.000000
2.363831 0.652912 0.193389 28.000000
2.375632 0.628361 0.193932 14.000000
2.435405 0.616003 0.198490 32.000000
2.466168 0.595242 0.200692 25.000000
2.491967 0.572914 0.202504 26.000000
2.546688 0.556390 0.206611 35.000000
2.581878 0.534763 0.209143 31.000000
2.572854 0.503800 0.208198 31.000000
2.587954 0.477598 0.209150 9.000000
2.578217 0.446846 0.208122 6.000000
2.671501 0.433084 0.215424 10.000000
2.745054 0.414418 0.221148 32.000000
2.754325 0.385192 0.221630 29.000000
2.817645 0.362860 0.226570 46.000000
2.861072 0.336820 0.229926 30.000000
2.904158 0.309918 0.233198 32.000000
2.942107 0.281588 0.236074 35.000000
2.875475 0.243665 0.230589 7.000000
3.022095 0.222935 0.242231 9.000000
3.103909 0.195095 0.248701 26.000000
3.135676 0.162749 0.251189 26.000000
3.202049 0.131277 0.256470 35.000000
3.228135 0.097196 0.258464 13.000000
3.418381 0.065631 0.273726 9.000000
3.389001 0.028223 0.271332 32.000000
3.433961 -0.008831 0.275028 54.000000
3.433645 -0.046259 0.275028 95.000000
3.407997 -0.082974 0.273032 57.000000
3.387030 -0.119427 0.271436 42.000000
3.335687 -0.153964 0.267342 78.000000
3.303992 -0.188553 0.264948 12.000000
3.276900 -0.222831 0.262952 8.000000
3.189820 -0.251859 0.256071 8.000000
3.137241 -0.282074 0.251986 7.000000
3.138921 -0.316712 0.252385 9.000000
3.100675 -0.347024 0.249498 8.000000
3.101610 -0.381351 0.249801 8.000000
3.062726 -0.410394 0.246918 10.000000
3.072887 -0.445842 0.247922 31.000000
3.043227 -0.475457 0.245838 21.000000
2.993705 -0.501057 0.242165 10.000000
2.973317 -0.531045 0.240787 9.000000
2.947812 -0.559598 0.239106 9.000000
2.946452 -0.592548 0.239319 8.000000
2.895949 -0.615245 0.235566 9.000000
2.903743 -0.649963 0.236574 9.000000
2.906159 -0.683764 0.237183 33.000000
2.888895 -0.713000 0.236209 46.000000
2.856931 -0.738103 0.233960 35.000000
2.843899 -0.767878 0.233384 34.000000
2.830624 -0.797278 0.232719 56.000000
2.817019 -0.826663 0.232145 56.000000
2.803085 -0.855855 0.231572 26.000000
2.898189 -0.919244 0.239864 22.000000
2.992202 -0.985089 0.248322 10.000000
3.529480 -1.247465 0.294276 3.000000
3.543817 -1.296127 0.296281 3.000000
3.618081 -1.368088 0.303362 4.000000
3.570424 -1.394822 0.300273 5.000000
3.536677 -1.425737 0.298244 5.000000
3.470407 -1.443203 0.293611 5.000000
3.477437 -1.490760 0.295095 4.000000
3.506591 -1.548654 0.298631 2.000000
3.544031 -1.611670 0.302814 1.000000
3.494905 -1.634900 0.299627 1.000000
3.481327 -1.675091 0.299541 1.000000
3.382451 -1.673148 0.292122 1.000000
3.372973 -1.714513 0.292431 1.000000
3.376191 -1.762763 0.293891 1.000000
3.299719 -1.861963 0.290729 1.000000
3.024731 -1.750575 0.267624 4.000000
3.001190 -1.780975 0.266815 5.000000
2.960240 -1.800705 0.264379 1.000000
3.147718 -1.962173 0.282451 1.000000
3.126149 -1.996458 0.281997 1.000000
3.071504 -2.106409 0.281310 1.000000
3.069228 -2.153440 0.282505 1.000000
2.952441 -2.119946 0.273308 1.000000
2.824005 -2.375055 0.272803 1.000000
2.665587 -2.291981 0.259254 1.000000
2.666632 -2.344072 0.261177 1.000000
2.729902 -2.453071 0.269307 1.000000
2.728657 -2.506446 0.271074 1.000000
2.573459 -2.467849 0.259331 1.000000
2.564319 -2.513342 0.260376 4.000000
2.466278 -2.470551 0.252396 5.000000
2.310323 -2.365357 0.238448 8.000000
2.177611 -2.278675 0.226624 9.000000
2.074295 -2.218516 0.217633 8.000000
1.962519 -2.145329 0.207719 9.000000
1.855885 -2.073768 0.198215 9.000000
1.800383 -2.056338 0.193994 9.000000
1.690372 -1.973545 0.183880 9.000000
1.601562 -1.911621 0.175858 9.000000
1.549045 -1.890361 0.171817 10.000000
1.509694 -1.883757 0.169122 18.000000
1.489162 -1.900078 0.168531 25.000000
1.456348 -1.900342 0.166553 29.000000
1.426648 -1.904186 0.164930 21.000000
1.423514 -1.943763 0.166414 19.000000
1.402363 -1.959092 0.165825 20.000000
1.392501 -1.990624 0.166529 18.000000
1.373617 -2.009753 0.166276 23.000000
1.351725 -2.024646 0.165680 21.000000
1.343232 -2.060134 0.166700 20.000000
1.310099 -2.057820 0.164751 21.000000
1.316605 -2.118607 0.167770 17.000000
1.302630 -2.144826 0.168009 17.000000
1.286927 -2.171748 0.168394 7.000000
0.957325 1.640888 0.141096 7.000000
0.954640 1.596075 0.138703 15.000000
0.977154 1.594048 0.140018 19.000000
0.981119 1.562179 0.138773 25.000000
1.008846 1.568168 0.140844 20.000000
1.017623 1.544550 0.140280 21.000000
1.038988 1.542233 0.141662 26.000000
1.061382 1.539001 0.142994 20.000000
1.075159 1.523256 0.143183 26.000000
1.077057 1.491236 0.141832 16.000000
1.099142 1.487374 0.143167 25.000000
1.118225 1.479293 0.144064 26.000000
1.137281 1.470919 0.145020 24.000000
1.156309 1.462307 0.145923 28.000000
1.175251 1.453514 0.146885 26.000000
1.190987 1.440582 0.147400 26.000000
1.206608 1.427479 0.147915 27.000000
1.215540 1.406661 0.147638 16.000000
1.230793 1.393286 0.148150 35.000000
1.252556 1.387138 0.149460 30.000000
1.264225 1.369686 0.149518 28.000000
1.285959 1.363011 0.150834 34.000000
1.300704 1.348898 0.151350 31.000000
1.318833 1.338104 0.152213 29.000000
1.346953 1.338174 0.154351 35.000000
1.354340 1.316403 0.154061 10.000000
1.372235 1.304916 0.154932 48.000000
1.393738 1.296571 0.156213 35.000000
1.415156 1.287949 0.157441 33.000000
1.436604 1.278990 0.158733 48.000000
1.450445 1.263146 0.159204 36.000000
1.471755 1.253588 0.160443 41.000000
1.477715 1.231046 0.160087 35.000000
1.491085 1.214731 0.160500 19.000000
1.519867 1.210776 0.162579 35.000000
1.540880 1.200177 0.163832 38.000000
1.557464 1.186628 0.164729 34.000000
1.570357 1.169477 0.165149 51.000000
1.587098 1.155138 0.165990 31.000000
1.611783 1.146306 0.167618 42.000000
1.632383 1.134303 0.168888 53.000000
1.632316 1.107949 0.167981 21.000000
1.669254 1.106518 0.170894 44.000000
1.685398 1.090884 0.171688 36.000000
1.701416 1.075036 0.172546 34.000000
1.717060 1.059281 0.173344 37.000000
1.741296 1.048140 0.175001 48.000000
1.769809 1.039116 0.177094 50.000000
1.781063 1.019690 0.177471 44.000000
1.792064 1.000139 0.177786 20.000000
1.820381 0.989980 0.179893 37.000000
1.852924 0.982029 0.182440 63.000000
1.890017 0.975371 0.185366 34.000000
1.927278 0.968066 0.188301 55.000000
1.942192 0.949176 0.189067 37.000000
1.965886 0.934333 0.190707 37.000000
1.975822 0.913062 0.191041 59.000000
1.985624 0.891390 0.191374 21.000000
2.031752 0.885573 0.195217 42.000000
2.064194 0.873070 0.197685 37.000000
2.087286 0.856356 0.199349 33.000000
2.105736 0.837226 0.200507 35.000000
2.133353 0.821334 0.202549 43.000000
2.142177 0.798011 0.202830 35.000000
2.169394 0.781581 0.204950 36.000000
2.201248 0.766027 0.207449 17.000000
2.223552 0.746862 0.209067 61.000000
2.264694 0.733309 0.212393 81.000000
2.282080 0.711548 0.213574 56.000000
2.313474 0.693946 0.216095 61.000000
2.344801 0.675529 0.218547 67.000000
2.351979 0.650034 0.218846 36.000000
2.392632 0.633232 0.222124 35.000000
2.413788 0.610886 0.223770 20.000000
2.454156 0.592825 0.227135 35.000000
2.504178 0.576028 0.231324 75.000000
2.515105 0.549849 0.232009 42.000000
2.550200 0.528538 0.234941 51.000000
2.609540 0.511299 0.240127 58.000000
2.580640 0.476532 0.237140 9.000000
2.619970 0.454343 0.240453 8.000000
2.688677 0.436191 0.246557 19.000000
2.742504 0.414333 0.251150 66.000000
2.776428 0.388557 0.254113 92.000000
2.810097 0.362137 0.256908 52.000000
2.883064 0.339644 0.263407 86.000000
2.921282 0.311943 0.266660 81.000000
2.939302 0.281498 0.268196 41.000000
2.942198 0.249466 0.268287 9.000000
3.024184 0.223301 0.275619 7.000000
3.081079 0.193750 0.280692 8.000000
3.132792 0.162749 0.285315 16.000000
3.184082 0.130664 0.289941 36.000000
3.215214 0.096896 0.292758 27.000000
3.280822 0.063048 0.298650 9.000000
3.345952 0.027891 0.304644 29.000000
3.405806 -0.008767 0.310084 82.000000
3.405597 -0.045818 0.310084 79.000000
3.379977 -0.082368 0.307817 95.000000
3.344004 -0.117920 0.304644 60.000000
3.317698 -0.153275 0.302377 51.000000
3.266153 -0.186566 0.297743 23.000000
3.234040 -0.220026 0.295024 8.000000
3.186783 -0.251761 0.290847 8.000000
3.149226 -0.283316 0.287579 10.000000
3.140978 -0.317116 0.287030 14.000000
3.117508 -0.349049 0.285123 28.000000
3.123451 -0.384199 0.285931 50.000000
3.074694 -0.412285 0.281765 34.000000
3.040469 -0.441360 0.278863 10.000000
3.025639 -0.472961 0.277865 9.000000
2.976091 -0.498404 0.273614 8.000000
2.936230 -0.524637 0.270270 10.000000
2.905920 -0.551981 0.267833 9.000000
2.889993 -0.581558 0.266750 9.000000
2.864006 -0.608851 0.264769 9.000000
2.866995 -0.642072 0.265489 10.000000
2.893723 -0.681299 0.268457 70.000000
2.866824 -0.707952 0.266387 49.000000
2.830115 -0.731600 0.263423 29.000000
2.855616 -0.771504 0.266383 92.000000
2.818337 -0.794306 0.263423 53.000000
2.809545 -0.824991 0.263154 81.000000
2.790957 -0.852497 0.261990 68.000000
2.767240 -0.878379 0.260382 26.000000
2.956200 -0.973988 0.278854 26.000000
3.002072 -1.025250 0.283820 9.000000
2.995395 -1.059569 0.283973 3.000000
3.446815 -1.261321 0.327588 2.000000
3.609871 -1.365852 0.344006 1.000000
3.599491 -1.406926 0.344094 1.000000
3.537794 -1.427484 0.339193 1.000000
3.329012 -1.385339 0.320042 1.000000
3.396153 -1.456918 0.327546 1.000000
3.585068 -1.584424 0.346930 1.000000
3.644720 -1.658643 0.353934 1.000000
3.550002 -1.661879 0.345850 1.000000
3.397005 -1.635723 0.332204 1.000000
3.361131 -1.663963 0.329874 1.000000
3.294029 -1.675659 0.324602 1.000000
3.337377 -1.743843 0.330150 1.000000
3.248227 -1.742053 0.322598 1.000000
3.320666 -1.827835 0.331172 1.000000
2.982624 -1.727783 0.299984 5.000000
3.010727 -1.788286 0.304216 6.000000
2.973971 -1.810749 0.301951 3.000000
2.945999 -1.837261 0.300449 1.000000
2.992955 -1.912292 0.306694 1.000000
2.917770 -1.909470 0.300461 1.000000
2.959677 -2.078764 0.309738 1.000000
3.058099 -2.198348 0.321844 1.000000
2.913483 -2.143127 0.308297 1.000000
2.838139 -2.135975 0.302124 1.000000
2.815292 -2.166220 0.301363 1.000000
2.689674 -2.116789 0.289639 1.000000
2.698969 -2.271378 0.296332 1.000000
2.708005 -2.330119 0.299334 1.000000
2.633770 -2.316875 0.293154 1.000000
2.560146 -2.302244 0.287003 1.000000
2.615545 -2.404373 0.295270 1.000000
2.603632 -2.446526 0.296161 1.000000
2.619955 -2.516283 0.300227 1.000000
2.489136 -2.443634 0.287537 2.000000
2.516181 -2.522618 0.292716 6.000000
2.331955 -2.389513 0.273476 7.000000
2.216305 -2.321155 0.262077 10.000000
2.105805 -2.254189 0.251148 10.000000
2.007186 -2.196208 0.241402 10.000000
1.893448 -2.117670 0.229788 10.000000
1.788281 -2.044415 0.219044 10.000000
1.688226 -1.972909 0.208683 9.000000
1.631415 -1.949231 0.203654 12.000000
1.547026 -1.889763 0.194995 12.000000
1.526390 -1.906586 0.194322 27.000000
1.474878 -1.883862 0.189697 33.000000
1.448237 -1.891913 0.188250 29.000000
1.427596 -1.907594 0.187594 33.000000
1.406809 -1.923057 0.186938 29.000000
1.400299 -1.958576 0.188156 15.000000
1.376071 -1.969598 0.187104 28.000000
1.357479 -1.988646 0.186829 27.000000
1.342453 -2.010867 0.186789 30.000000
1.328716 -2.037900 0.187200 26.000000
1.309203 -2.056477 0.186912 29.000000
1.294713 -2.083358 0.187308 27.000000
1.279797 -2.110110 0.187695 21.000000
1.282149 -2.166917 0.190716 9.000000
0.938025 1.610170 0.155282 8.000000
0.950378 1.591285 0.155076 18.000000
0.967634 1.580784 0.155757 30.000000
0.979481 1.561671 0.155540 26.000000
1.001748 1.559271 0.157062 30.000000
1.007710 1.531555 0.155991 26.000000
1.037338 1.541721 0.158794 27.000000
1.051188 1.526179 0.158992 33.000000
1.064836 1.510527 0.159244 25.000000
1.075368 1.490673 0.158949 22.000000
1.091527 1.478849 0.159568 29.000000
1.110576 1.470775 0.160622 28.000000
1.132586 1.466464 0.162114 33.000000
1.151567 1.457885 0.163119 30.000000
1.173592 1.452942 0.164566 31.000000
1.182984 1.432330 0.164314 30.000000
1.201735 1.423102 0.165326 27.000000
1.210635 1.402322 0.165009 30.000000
1.229142 1.392717 0.166022 35.000000
1.254232 1.390264 0.167931 33.000000
1.262570 1.369115 0.167551 34.000000
1.276837 1.355761 0.168179 33.000000
1.298467 1.348840 0.169652 33.000000
1.327066 1.348752 0.171979 35.000000
1.341736 1.334082 0.172501 31.000000
1.352663 1.315824 0.172567 32.000000
1.366947 1.300904 0.173088 43.000000
1.384701 1.289203 0.174066 39.000000
1.402414 1.277306 0.175047 45.000000
1.423685 1.268465 0.176434 49.000000
1.448737 1.262557 0.178346 59.000000
1.462460 1.246596 0.178817 55.000000
1.483240 1.237306 0.180336 40.000000
1.500537 1.224054 0.181275 29.000000
1.521616 1.213761 0.182685 37.000000
1.534801 1.196936 0.183102 48.000000
1.559683 1.189046 0.184988 60.000000
1.568618 1.168877 0.184998 32.000000
1.581271 1.151607 0.185418 47.000000
1.609965 1.145761 0.187729 47.000000
1.626227 1.131278 0.188749 33.000000
1.654962 1.124491 0.191075 33.000000
1.667169 1.106273 0.191505 42.000000
1.683307 1.090638 0.192411 39.000000
1.703526 1.077450 0.193737 78.000000
1.715206 1.058725 0.194170 36.000000
1.730716 1.042754 0.195083 50.000000
1.754863 1.031299 0.196961 62.000000
1.766034 1.012015 0.197335 34.000000
1.789990 0.999887 0.199160 36.000000
1.818286 0.989727 0.201475 64.000000
1.846344 0.979376 0.203860 36.000000
1.870182 0.965976 0.205639 62.000000
1.911760 0.961096 0.209436 47.000000
1.935537 0.946659 0.211294 49.000000
1.959193 0.931862 0.213090 74.000000
1.964589 0.908551 0.213000 32.000000
1.997040 0.897174 0.215784 34.000000
2.020390 0.881255 0.217593 48.000000
2.061859 0.872932 0.221443 35.000000
2.080472 0.854121 0.222772 37.000000
2.108137 0.838718 0.225022 36.000000
2.126329 0.819405 0.226428 37.000000
2.139796 0.797871 0.227203 37.000000
2.176353 0.784744 0.230528 31.000000
2.184725 0.760904 0.230811 36.000000
2.211748 0.743332 0.233083 77.000000
2.262287 0.733090 0.237921 63.000000
2.270092 0.708364 0.238139 47.000000
2.301428 0.690790 0.240925 43.000000
2.323138 0.669867 0.242792 42.000000
2.363821 0.653788 0.246515 57.000000
2.380435 0.630533 0.247817 31.000000
2.425661 0.614397 0.252053 36.000000
2.456362 0.593840 0.254868 56.000000
2.477261 0.570290 0.256529 43.000000
2.517283 0.550754 0.260280 75.000000
2.532873 0.525269 0.261523 67.000000
2.582362 0.506350 0.266292 37.000000
2.582798 0.477275 0.266030 9.000000
2.592694 0.449928 0.266696 7.000000
2.690749 0.436821 0.276525 26.000000
2.734696 0.413420 0.280732 82.000000
2.768581 0.387781 0.283933 72.000000
2.802212 0.361414 0.287137 72.000000
2.835579 0.334314 0.290346 58.000000
2.903382 0.310267 0.297101 59.000000
2.931274 0.280933 0.299722 58.000000
2.894514 0.245591 0.295850 7.000000
3.040867 0.224674 0.310634 8.000000
3.062970 0.192718 0.312755 8.000000
3.114622 0.161974 0.317920 8.000000
3.150942 0.129439 0.321566 9.000000
3.221807 0.097097 0.328766 17.000000
3.287248 0.063240 0.335361 10.000000
3.342466 0.027891 0.340942 34.000000
3.387335 -0.008729 0.345612 61.000000
3.382049 -0.045551 0.345105 94.000000
3.351591 -0.081761 0.342060 61.000000
3.325605 -0.117393 0.339522 59.000000
3.319206 -0.153403 0.338913 65.000000
3.252712 -0.185898 0.332317 24.000000
3.235626 -0.220364 0.330696 18.000000
3.173535 -0.250879 0.324512 24.000000
3.180514 -0.286341 0.325428 55.000000
3.162434 -0.319519 0.323810 83.000000
3.134012 -0.351169 0.321179 52.000000
3.115235 -0.383495 0.319563 62.000000
3.086252 -0.414079 0.316935 60.000000
3.037268 -0.441266 0.312191 10.000000
3.017534 -0.472005 0.310485 9.000000
2.958229 -0.495753 0.304739 9.000000
2.938019 -0.525421 0.303040 9.000000
2.888177 -0.549012 0.298314 9.000000
2.882045 -0.580395 0.298133 9.000000
2.860955 -0.608582 0.296351 9.000000
2.844518 -0.637540 0.295164 10.000000
2.861574 -0.674272 0.297412 34.000000
2.854089 -0.705384 0.297141 40.000000
2.841518 -0.735159 0.296368 37.000000
2.828523 -0.764650 0.295596 60.000000
2.805711 -0.791425 0.293823 63.000000
2.792175 -0.820514 0.293053 70.000000
2.768887 -0.846411 0.291195 67.000000
2.759473 -0.876606 0.290929 32.000000
2.858555 -0.942266 0.302057 20.000000
3.027014 -1.034612 0.320637 15.000000
2.935808 -1.039353 0.311873 3.000000
3.414962 -1.250829 0.363626 2.000000
3.517449 -1.332021 0.375601 1.000000
3.600217 -1.408147 0.385560 1.000000
3.598526 -1.452978 0.386453 1.000000
3.219620 -1.341116 0.346885 1.000000
3.278118 -1.407174 0.354255 1.000000
3.490098 -1.543573 0.378491 1.000000
3.370314 -1.578954 0.367860 1.000000
3.361816 -1.620026 0.368271 1.000000
3.437595 -1.703151 0.377994 1.000000
3.232646 -1.645745 0.356847 1.000000
3.289476 -1.720208 0.364599 1.000000
3.257654 -1.748549 0.362453 1.000000
3.268890 -1.800957 0.365181 1.000000
3.153674 -1.782787 0.353914 1.000000
2.940393 -1.704895 0.331412 3.000000
2.968582 -1.764969 0.336114 6.000000
2.958021 -1.801915 0.336339 4.000000
2.849510 -1.778961 0.325573 2.000000
2.980871 -1.906603 0.342286 1.000000
2.959932 -1.939150 0.341635 1.000000
3.041885 -2.040801 0.352861 1.000000
3.058157 -2.149201 0.358448 1.000000
2.731396 -1.964687 0.321929 1.000000
2.834106 -2.085961 0.335937 1.000000
2.743533 -2.066020 0.327122 1.000000
2.835144 -2.184120 0.340103 1.000000
2.676798 -2.254264 0.329209 1.000000
2.636822 -2.270555 0.326483 1.000000
2.604391 -2.292774 0.324698 1.000000
2.601388 -2.341152 0.326635 1.000000
2.616053 -2.406656 0.330874 1.000000
2.611340 -2.455664 0.332666 1.000000
2.473150 -2.377163 0.317502 1.000000
2.418560 -2.376268 0.312880 3.000000
2.431123 -2.441471 0.317089 7.000000
2.338392 -2.400109 0.307459 8.000000
2.246828 -2.357098 0.297881 12.000000
2.147234 -2.300566 0.286896 16.000000
2.028049 -2.221038 0.273264 13.000000
1.917465 -2.146509 0.260707 13.000000
1.812084 -2.073581 0.248671 11.000000
1.718199 -2.009967 0.237968 9.000000
1.648324 -1.971376 0.230458 16.000000
1.560546 -1.908291 0.220399 18.000000
1.521037 -1.901948 0.216982 25.000000
1.472681 -1.883130 0.212256 31.000000
1.437046 -1.879314 0.209320 35.000000
1.422499 -1.902876 0.209401 36.000000
1.398744 -1.914285 0.208235 34.000000
1.389477 -1.945679 0.209253 24.000000
1.379639 -1.977106 0.210184 34.000000
1.355268 -1.987909 0.209013 30.000000
1.337543 -2.005983 0.208560 31.000000
1.321045 -2.028807 0.208606 34.000000
1.288256 -2.026377 0.206080 28.000000
1.276699 -2.057209 0.206974 28.000000
1.264552 -2.088123 0.207855 29.000000
1.277303 -2.161857 0.212948 9.000000
0.941262 1.618149 0.172922 7.000000
0.948561 1.590604 0.171821 19.000000
0.958028 1.567417 0.171167 24.000000
0.972390 1.552556 0.171433 26.000000
0.993709 1.550775 0.173099 24.000000
1.013264 1.543984 0.174303 27.000000
1.035517 1.541038 0.175925 29.000000
1.049429 1.525497 0.176135 28.000000
1.065947 1.513918 0.176816 33.000000
1.073622 1.489997 0.176066 23.000000
1.092735 1.482179 0.177220 29.000000
1.108826 1.470097 0.177898 31.000000
1.124747 1.457902 0.178575 29.000000
1.143581 1.449389 0.179680 31.000000
1.165568 1.444510 0.181332 28.000000
1.178053 1.427809 0.181470 31.000000
1.193549 1.414810 0.182095 29.000000
1.199126 1.390338 0.181246 24.000000
1.223463 1.388870 0.183457 34.000000
1.245164 1.382755 0.185014 36.000000
1.263599 1.372662 0.186138 35.000000
1.275067 1.355077 0.186270 34.000000
1.300137 1.351737 0.188339 36.000000
1.314806 1.337413 0.188914 33.000000
1.332886 1.326368 0.189992 44.000000
1.343741 1.308190 0.190065 26.000000
1.361552 1.296780 0.191146 42.000000
1.378744 1.285637 0.192287 58.000000
1.400089 1.277073 0.193884 36.000000
1.421406 1.268232 0.195427 75.000000
1.446440 1.262322 0.197547 53.000000
1.456380 1.243131 0.197564 35.000000
1.473710 1.230222 0.198607 40.000000
1.494785 1.220256 0.200169 24.000000
1.508047 1.203738 0.200643 41.000000
1.524695 1.190576 0.201753 42.000000
1.549493 1.182771 0.203848 40.000000
1.566339 1.168638 0.204847 41.000000
1.575034 1.148378 0.204805 35.000000
1.599625 1.139687 0.206854 40.000000
1.620142 1.127709 0.208386 37.000000
1.636248 1.112998 0.209458 21.000000
1.652414 1.097713 0.210471 53.000000
1.672689 1.084920 0.211954 73.000000
1.692838 1.071760 0.213442 62.000000
1.708690 1.055741 0.214465 51.000000
1.728424 1.042382 0.216022 42.000000
1.743984 1.025884 0.216989 35.000000
1.759413 1.009167 0.217958 35.000000
1.805019 1.009214 0.222612 28.000000
1.807207 0.984589 0.221984 62.000000
1.844037 0.978992 0.225650 69.000000
1.863443 0.963241 0.227111 72.000000
1.909398 0.960637 0.231810 83.000000
1.928496 0.944341 0.233416 69.000000
1.943201 0.925252 0.234286 37.000000
1.971221 0.912261 0.236851 40.000000
1.985423 0.892896 0.237860 24.000000
2.017821 0.881052 0.240914 48.000000
2.054811 0.870581 0.244519 44.000000
2.082448 0.855803 0.247112 44.000000
2.091641 0.832924 0.247458 37.000000
2.119036 0.817336 0.250061 36.000000
2.141791 0.799329 0.252054 48.000000
2.150284 0.776025 0.252405 36.000000
2.158636 0.752441 0.252756 31.000000
2.194899 0.738435 0.256408 64.000000
2.250062 0.729732 0.262201 67.000000
2.267320 0.708145 0.263667 63.000000
2.289183 0.687782 0.265616 51.000000
2.315620 0.668192 0.268121 53.000000
2.337092 0.646934 0.270077 52.000000
2.372762 0.629108 0.273699 34.000000
2.413188 0.611725 0.277883 33.000000
2.434175 0.588933 0.279855 38.000000
2.474298 0.570134 0.283976 45.000000
2.494864 0.546345 0.285878 67.000000
2.520128 0.523090 0.288340 46.000000
2.559792 0.502361 0.292557 63.000000
2.540649 0.469885 0.289929 9.000000
2.574941 0.447296 0.293515 8.000000
2.687572 0.436654 0.306042 28.000000
2.721647 0.411848 0.309562 64.000000
2.755481 0.386230 0.313171 75.000000
2.789063 0.359968 0.316700 62.000000
2.822382 0.332974 0.320231 54.000000
2.885157 0.308592 0.327039 62.000000
2.917950 0.279893 0.330579 50.000000
2.915881 0.247604 0.330198 8.000000
3.027403 0.223848 0.342625 8.000000
3.044517 0.191781 0.344401 8.000000
3.096006 0.161104 0.350105 8.000000
3.167122 0.130158 0.358057 9.000000
3.208019 0.096797 0.362646 18.000000
3.268514 0.062953 0.369482 35.000000
3.323665 0.027766 0.375659 47.000000
3.373450 -0.008703 0.381274 86.000000
3.368171 -0.045417 0.380713 83.000000
3.337646 -0.081416 0.377344 63.000000
3.262143 -0.115188 0.368921 22.000000
3.270565 -0.151235 0.370044 16.000000
3.238994 -0.185231 0.366575 29.000000
3.251672 -0.221616 0.368159 56.000000
3.150013 -0.249214 0.356935 23.000000
3.166894 -0.285352 0.359082 75.000000
3.138956 -0.317326 0.356083 58.000000
3.120461 -0.349868 0.354304 63.000000
3.081989 -0.379658 0.350189 48.000000
3.048152 -0.409260 0.346733 62.000000
2.979605 -0.433214 0.339266 9.000000
2.994339 -0.468744 0.341319 9.000000
2.900833 -0.486619 0.331067 7.000000
2.900303 -0.519020 0.331445 9.000000
2.874988 -0.546975 0.329030 9.000000
2.854264 -0.575216 0.327086 9.000000
2.852686 -0.607368 0.327375 9.000000
2.831423 -0.635186 0.325435 10.000000
2.833966 -0.668299 0.326281 32.000000
2.855576 -0.706306 0.329351 52.000000
2.823666 -0.731152 0.326300 31.000000
2.825197 -0.764381 0.327052 71.000000
2.792838 -0.788368 0.324009 75.000000
2.764947 -0.813235 0.321436 69.000000
2.741754 -0.838876 0.319421 83.000000
2.732509 -0.868634 0.319069 36.000000
2.784261 -0.918724 0.325987 15.000000
2.905833 -0.994009 0.340986 10.000000
2.918221 -1.033992 0.343365 4.000000
3.387505 -1.241830 0.399579 1.000000
3.587533 -1.359858 0.424426 1.000000
3.447626 -1.349699 0.409013 1.000000
3.524888 -1.424570 0.419410 1.000000
3.206594 -1.336543 0.382692 1.000000
3.109577 -1.336209 0.372318 1.000000
3.408394 -1.509018 0.409470 1.000000
3.374977 -1.582832 0.408211 1.000000
3.276888 -1.580922 0.397744 1.000000
3.304219 -1.638296 0.402498 1.000000
3.294961 -1.678927 0.402902 1.000000
3.214803 -1.682645 0.394652 1.000000
3.187777 -1.712582 0.392793 1.000000
3.155834 -1.740150 0.390511 1.000000
3.132369 -1.772218 0.389309 1.000000
2.919339 -1.694288 0.364490 3.000000
2.904962 -1.728741 0.364404 7.000000
2.928731 -1.785750 0.368921 6.000000
2.938554 -1.836304 0.371919 2.000000
2.880559 -1.844297 0.366382 2.000000
2.880979 -1.889423 0.368304 2.000000
2.963328 -1.990342 0.380824 1.000000
3.066001 -2.157211 0.398192 1.000000
2.909150 -2.094922 0.379885 1.000000
2.906060 -2.141465 0.381633 1.000000
2.791147 -2.104516 0.368792 1.000000
2.775851 -2.141054 0.368980 1.000000
2.854353 -2.250689 0.381473 1.000000
2.798071 -2.359634 0.381274 1.000000
2.602532 -2.244147 0.357119 1.000000
2.574129 -2.269327 0.355655 2.000000
2.523315 -2.274131 0.351109 2.000000
2.450751 -2.257938 0.343506 2.000000
2.415962 -2.273577 0.340848 5.000000
2.416017 -2.324177 0.343500 6.000000
2.397605 -2.357480 0.343488 8.000000
2.375223 -2.387206 0.343066 10.000000
2.338575 -2.402441 0.340517 9.000000
2.264218 -2.377515 0.332437 10.000000
2.153357 -2.311196 0.318876 13.000000
2.040934 -2.239145 0.304890 12.000000
1.927005 -2.161098 0.290485 13.000000
1.812740 -2.076317 0.275495 10.000000
1.728611 -2.024128 0.265149 9.000000
1.652263 -1.978068 0.255933 10.000000
1.564500 -1.915091 0.244723 11.000000
1.518723 -1.901053 0.239963 22.000000
1.473474 -1.886172 0.235230 32.000000
1.434727 -1.878445 0.231499 33.000000
1.417265 -1.898015 0.231114 35.000000
1.399426 -1.917433 0.230799 32.000000
1.387134 -1.944800 0.231445 24.000000
1.371585 -1.968054 0.231527 31.000000
1.347381 -1.978796 0.230166 30.000000
1.331242 -2.001764 0.230239 31.000000
1.317560 -2.028733 0.230779 32.000000
1.291312 -2.033899 0.228869 30.000000
1.274326 -2.056393 0.228925 30.000000
1.259658 -2.082966 0.229443 24.000000
1.274843 -2.160934 0.235481 9.000000
0.949362 1.634552 0.191751 6.000000
0.934020 1.568497 0.185975 10.000000
0.965568 1.584180 0.189926 13.000000
0.967004 1.548169 0.187599 22.000000
0.991846 1.549985 0.189923 11.000000
1.014122 1.547351 0.191744 22.000000
1.025325 1.527853 0.191447 17.000000
1.053188 1.532900 0.194316 18.000000
1.058353 1.504988 0.192972 24.000000
1.083382 1.505352 0.195276 9.000000
1.084975 1.473381 0.193389 24.000000
1.109954 1.473278 0.195701 23.000000
1.128953 1.464988 0.196967 19.000000
1.141769 1.448596 0.197116 26.000000
1.153653 1.432666 0.197375 18.000000
1.188138 1.442932 0.201265 20.000000
1.194196 1.418386 0.200399 25.000000
1.212806 1.408949 0.201621 10.000000
1.208398 1.373149 0.199060 27.000000
1.239956 1.378260 0.202391 28.000000
1.261654 1.371861 0.204163 24.000000
1.273184 1.354278 0.204246 32.000000
1.287851 1.340182 0.204931 21.000000
1.308851 1.333579 0.206715 28.000000
1.337445 1.333096 0.209552 27.000000
1.334152 1.300964 0.207424 16.000000
1.359072 1.296491 0.209718 33.000000
1.373203 1.281437 0.210352 32.000000
1.390773 1.269560 0.211487 30.000000
1.415713 1.264104 0.213744 42.000000
1.432802 1.252160 0.215005 29.000000
1.450195 1.239551 0.216152 31.000000
1.467484 1.226682 0.217303 31.000000
1.480819 1.210410 0.217831 21.000000
1.501739 1.200222 0.219554 35.000000
1.522677 1.189745 0.221222 26.000000
1.535201 1.173363 0.221875 31.000000
1.559901 1.165245 0.224125 35.000000
1.572582 1.148019 0.224663 29.000000
1.593170 1.136381 0.226290 35.000000
1.609569 1.121606 0.227407 29.000000
1.621503 1.104187 0.228010 21.000000
1.645904 1.094536 0.230227 37.000000
1.670242 1.084491 0.232452 29.000000
1.686246 1.068671 0.233523 33.000000
1.702062 1.052636 0.234595 36.000000
1.717444 1.036816 0.235732 26.000000
1.737283 1.022868 0.237333 32.000000
1.761291 1.011142 0.239524 32.000000
1.798021 1.006598 0.243607 24.000000
1.808913 0.986778 0.244051 42.000000
1.823999 0.969160 0.245083 34.000000
1.869751 0.967353 0.250249 30.000000
1.902208 0.958206 0.253658 44.000000
1.921467 0.941629 0.255301 32.000000
1.935945 0.922852 0.256355 33.000000
1.959412 0.907821 0.258533 34.000000
1.964708 0.884211 0.258336 21.000000
2.005952 0.876805 0.262974 37.000000
2.038291 0.864424 0.266364 36.000000
2.065842 0.849792 0.269234 32.000000
2.084196 0.830740 0.270775 35.000000
2.111547 0.815200 0.273589 32.000000
2.129613 0.795504 0.275138 32.000000
2.142808 0.773988 0.276159 31.000000
2.169818 0.756995 0.278919 10.000000
2.196687 0.739664 0.281685 49.000000
2.232921 0.724916 0.285665 35.000000
2.245381 0.702003 0.286631 32.000000
2.281421 0.685913 0.290552 39.000000
2.312512 0.667896 0.293948 33.000000
2.333965 0.646636 0.296139 33.000000
2.364874 0.627534 0.299474 35.000000
2.357063 0.597995 0.297951 9.000000
2.426121 0.587458 0.306163 32.000000
2.471024 0.569978 0.311344 34.000000
2.481953 0.543984 0.312266 33.000000
2.511950 0.521844 0.315552 35.000000
2.571035 0.504990 0.322507 33.000000
2.586111 0.478760 0.324052 28.000000
2.596014 0.451305 0.324907 18.000000
2.639978 0.429318 0.329966 11.000000
2.703377 0.409450 0.337565 35.000000
2.742064 0.384681 0.342024 52.000000
2.770672 0.357888 0.345346 33.000000
2.838428 0.335215 0.353496 50.000000
2.861679 0.306302 0.356128 32.000000
2.864776 0.275061 0.356305 24.000000
2.912106 0.247514 0.361924 8.000000
3.003694 0.222290 0.373169 6.000000
3.020773 0.190439 0.375107 7.000000
3.072186 0.159976 0.381351 8.000000
3.158076 0.129954 0.391904 7.000000
3.179080 0.096048 0.394463 11.000000
3.259336 0.062857 0.404309 32.000000
3.289607 0.027517 0.408103 27.000000
3.364136 -0.008587 0.417336 75.000000
3.348942 -0.045216 0.415489 62.000000
3.318459 -0.081053 0.411796 49.000000
3.257932 -0.115188 0.404409 9.000000
3.226789 -0.149300 0.400617 9.000000
3.219948 -0.184280 0.400002 27.000000
3.217766 -0.219490 0.399902 33.000000
3.180562 -0.251859 0.395498 28.000000
3.152909 -0.284362 0.392325 63.000000
3.115139 -0.315230 0.387924 35.000000
3.101618 -0.348111 0.386503 40.000000
3.077984 -0.379467 0.383854 52.000000
3.054021 -0.410393 0.381208 34.000000
2.975721 -0.433029 0.371907 9.000000
2.965918 -0.464717 0.371109 8.000000
2.931294 -0.492098 0.367154 7.000000
2.886734 -0.517089 0.362070 9.000000
2.880963 -0.548562 0.361800 8.000000
2.850508 -0.574948 0.358471 9.000000
2.834364 -0.603997 0.356980 9.000000
2.793787 -0.627308 0.352437 9.000000
2.806151 -0.662242 0.354614 29.000000
2.813245 -0.696405 0.356089 34.000000
2.762257 -0.715855 0.350338 19.000000
2.783101 -0.753644 0.353639 91.000000
2.765216 -0.781265 0.352068 34.000000
2.751797 -0.809990 0.351107 48.000000
2.719074 -0.832798 0.347721 56.000000
2.700435 -0.859340 0.346158 26.000000
2.757005 -0.910492 0.354199 13.000000
2.864401 -0.980583 0.368871 9.000000
2.895612 -1.026881 0.373935 7.000000
3.331706 -1.222360 0.431274 1.000000
3.615190 -1.371476 0.469402 1.000000
3.632443 -1.423378 0.472900 1.000000
3.612131 -1.461334 0.471700 1.000000
3.289286 -1.544397 0.436725 1.000000
3.312804 -1.644466 0.443003 1.000000
3.241883 -1.653209 0.434973 1.000000
2.915195 -1.693459 0.399406 1.000000
2.917875 -1.738075 0.401616 5.000000
2.882135 -1.759143 0.398437 5.000000
2.984819 -1.867053 0.414672 2.000000
3.035228 -1.945387 0.423729 1.000000
2.943168 -1.932289 0.413050 1.000000
2.983672 -2.006201 0.420905 1.000000
2.913508 -2.149647 0.420029 1.000000
2.885851 -2.178579 0.418564 1.000000
2.897912 -2.236663 0.422502 1.000000
2.633951 -2.224345 0.394039 1.000000
2.444046 -2.110397 0.368164 2.000000
2.488590 -2.195442 0.377238 4.000000
2.442297 -2.202795 0.372840 7.000000
2.447275 -2.256506 0.376323 7.000000
2.422432 -2.283292 0.375301 9.000000
2.404541 -2.316665 0.375396 8.000000
2.403790 -2.367424 0.378166 8.000000
2.356773 -2.372588 0.373798 10.000000
2.335181 -2.401001 0.373119 8.000000
2.281448 -2.397706 0.367572 8.000000
2.167090 -2.328027 0.352148 10.000000
2.054599 -2.256124 0.336812 9.000000
1.927291 -2.163565 0.318739 9.000000
1.831793 -2.102123 0.305770 9.000000
1.731386 -2.031367 0.291705 8.000000
1.674169 -2.008216 0.284847 10.000000
1.576793 -1.934051 0.270931 9.000000
1.519362 -1.903819 0.263483 10.000000
1.477168 -1.892910 0.258761 22.000000
1.450428 -1.901145 0.256808 24.000000
1.414868 -1.896998 0.253267 32.000000
1.388238 -1.904361 0.251263 27.000000
1.376135 -1.931626 0.251980 12.000000
1.363550 -1.958862 0.252612 27.000000
1.342163 -1.973657 0.251660 21.000000
1.326132 -1.996517 0.251753 24.000000
1.304289 -2.011005 0.250796 23.000000
1.287619 -2.033603 0.250877 22.000000
1.268004 -2.051866 0.250433 26.000000
1.259767 -2.086179 0.251894 17.000000
1.259683 -2.138430 0.255454 9.000000
0.926367 1.599857 0.204402 8.000000
0.938663 1.580980 0.204150 19.000000
0.955882 1.570535 0.205054 25.000000
0.975562 1.564137 0.206400 24.000000
0.987251 1.544895 0.206132 29.000000
1.001252 1.529814 0.206416 26.000000
1.028937 1.535204 0.209511 29.000000
1.042815 1.519698 0.209740 31.000000
1.064999 1.516280 0.211668 26.000000
1.066951 1.484275 0.209673 25.000000
1.076342 1.465039 0.209371 28.000000
1.104196 1.468968 0.212450 29.000000
1.117146 1.452836 0.212664 32.000000
1.132911 1.440449 0.213452 26.000000
1.148564 1.427893 0.214184 29.000000
1.167203 1.419003 0.215555 29.000000
1.189008 1.413675 0.217458 26.000000
1.197859 1.392976 0.217023 29.000000
1.218922 1.387678 0.218990 34.000000
1.243973 1.385250 0.221500 34.000000
1.252307 1.364146 0.221059 42.000000
1.267162 1.350258 0.221742 30.000000
1.288719 1.343365 0.223618 36.000000
1.313737 1.339692 0.226099 35.000000
1.324815 1.321651 0.226191 32.000000
1.342749 1.310392 0.227483 35.000000
1.352888 1.292601 0.227629 33.000000
1.366982 1.277587 0.228319 34.000000
1.395554 1.275852 0.231381 43.000000
1.409449 1.260330 0.232021 34.000000
1.426904 1.247958 0.233271 39.000000
1.451387 1.242309 0.235808 42.000000
1.461094 1.223027 0.235840 34.000000
1.478293 1.209940 0.237041 32.000000
1.510821 1.209050 0.240775 35.000000
1.520065 1.189271 0.240751 36.000000
1.544828 1.181455 0.243206 35.000000
1.557329 1.164767 0.243864 32.000000
1.578020 1.153335 0.245649 42.000000
1.594622 1.138723 0.246875 42.000000
1.615114 1.126740 0.248670 32.000000
1.631207 1.112087 0.249965 35.000000
1.651550 1.099487 0.251709 35.000000
1.667672 1.083880 0.252889 58.000000
1.683608 1.068119 0.254072 42.000000
1.703389 1.055063 0.255952 36.000000
1.723344 1.041391 0.257715 37.000000
1.747436 1.029864 0.260118 38.000000
1.762720 1.013364 0.261317 32.000000
1.773668 0.993907 0.261818 37.000000
1.797485 0.981455 0.264175 33.000000
1.816702 0.966577 0.266024 35.000000
1.849164 0.957907 0.269678 68.000000
1.868272 0.942249 0.271541 41.000000
1.905154 0.934748 0.275859 42.000000
1.942126 0.926528 0.280124 61.000000
1.938500 0.899144 0.278714 30.000000
1.961728 0.883880 0.281051 32.000000
2.002992 0.876401 0.286122 33.000000
2.021539 0.858204 0.287826 32.000000
2.044416 0.841830 0.290251 35.000000
2.058140 0.821141 0.291311 32.000000
2.080742 0.804062 0.293678 33.000000
2.112540 0.790085 0.297427 42.000000
2.134995 0.771883 0.299738 26.000000
2.152600 0.751810 0.301468 32.000000
2.165299 0.729879 0.302545 36.000000
2.187248 0.710840 0.304868 33.000000
2.218475 0.694311 0.308583 37.000000
2.278052 0.685767 0.316187 42.000000
2.299659 0.664847 0.318457 35.000000
2.325838 0.645162 0.321466 63.000000
2.332675 0.619674 0.321838 26.000000
2.416144 0.613630 0.332719 35.000000
2.432300 0.589562 0.334350 35.000000
2.453028 0.566322 0.336724 39.000000
2.483200 0.544812 0.340273 56.000000
2.513252 0.522695 0.343905 60.000000
2.557684 0.502917 0.349538 56.000000
2.572727 0.476711 0.351108 49.000000
2.592368 0.451143 0.353346 21.000000
2.611822 0.425173 0.355587 10.000000
2.650517 0.401771 0.360496 18.000000
2.708705 0.380376 0.368079 34.000000
2.747063 0.355175 0.372917 52.000000
2.780256 0.328641 0.377178 55.000000
2.808339 0.300934 0.380690 39.000000
2.850929 0.274024 0.386209 35.000000
2.833915 0.241123 0.383624 6.000000
2.950019 0.218537 0.399178 8.000000
2.986821 0.188474 0.403951 8.000000
3.053084 0.159202 0.412739 8.000000
