x y z intensity
1.351730 1.274573 -0.522610 38.000000
1.379485 1.272368 -0.529514 30.000000
1.389599 1.253613 -0.529580 50.000000
1.410227 1.244248 -0.533735 35.000000
1.442340 1.243542 -0.541769 32.000000
1.452018 1.224189 -0.541847 30.000000
1.468866 1.210792 -0.544609 26.000000
1.481918 1.194175 -0.545938 34.000000
1.517437 1.195278 -0.555559 35.000000
1.537994 1.183964 -0.559618 29.000000
1.562270 1.175180 -0.565078 35.000000
1.578871 1.160325 -0.567773 31.000000
1.591384 1.142395 -0.569019 29.000000
1.611635 1.129852 -0.573059 34.000000
1.623897 1.111584 -0.574248 31.000000
1.655859 1.106460 -0.582391 35.000000
1.679947 1.095579 -0.587749 35.000000
1.695538 1.079467 -0.590561 29.000000
1.723601 1.070280 -0.597296 39.000000
1.735219 1.050723 -0.598394 33.000000
1.783806 1.052974 -0.612180 29.000000
1.799167 1.035458 -0.614853 34.000000
1.827124 1.024352 -0.621533 34.000000
1.842265 1.006245 -0.624158 34.000000
1.861688 0.989758 -0.627948 37.000000
1.889249 0.977754 -0.634808 34.000000
1.921349 0.966978 -0.642916 35.000000
1.948834 0.953888 -0.649681 36.000000
1.972039 0.938148 -0.655096 29.000000
2.003791 0.926066 -0.663264 29.000000
2.035621 0.913356 -0.671525 33.000000
2.062920 0.898103 -0.678221 32.000000
2.107880 0.889759 -0.690713 33.000000
2.135153 0.873301 -0.697376 32.000000
2.157915 0.854537 -0.702605 34.000000
2.193902 0.840460 -0.712196 34.000000
2.211790 0.819284 -0.716075 26.000000
2.247693 0.804053 -0.725551 31.000000
2.278828 0.786654 -0.733744 44.000000
2.328054 0.774792 -0.747708 35.000000
2.363756 0.757245 -0.757165 39.000000
2.385544 0.734939 -0.762259 39.000000
2.402439 0.711049 -0.766139 27.000000
2.428432 0.689326 -0.772712 33.000000
2.403472 0.653237 -0.763104 21.000000
2.419641 0.628772 -0.766752 16.000000
2.435623 0.603939 -0.770405 22.000000
2.395517 0.565717 -0.756359 17.000000
2.396826 0.537796 -0.755518 21.000000
2.388529 0.507912 -0.751576 16.000000
2.412648 0.484856 -0.757852 21.000000
2.403672 0.455234 -0.753984 21.000000
2.370806 0.421589 -0.742665 10.000000
2.422394 0.402896 -0.757792 17.000000
2.403024 0.372181 -0.750964 21.000000
2.397450 0.343952 -0.748401 20.000000
2.391537 0.315856 -0.745834 23.000000
2.390109 0.288468 -0.744587 23.000000
2.383611 0.260667 -0.741862 21.000000
2.386292 0.233934 -0.742092 23.000000
2.369634 0.205626 -0.736559 10.000000
2.386049 0.180184 -0.741073 19.000000
2.387884 0.153505 -0.741226 21.000000
2.389413 0.126748 -0.741378 25.000000
2.390636 0.100069 -0.741531 23.000000
2.391553 0.073312 -0.741608 26.000000
2.377917 0.046277 -0.737167 24.000000
2.378221 0.019605 -0.737243 23.000000
2.373521 -0.006977 -0.735763 21.000000
2.382920 -0.033654 -0.738571 24.000000
2.387161 -0.060425 -0.740051 29.000000
2.381625 -0.086953 -0.738419 27.000000
2.371018 -0.113148 -0.735232 53.000000
2.364885 -0.139334 -0.733601 37.000000
2.391808 -0.167829 -0.742245 36.000000
2.356492 -0.191849 -0.731820 81.000000
2.354377 -0.218134 -0.731442 75.000000
2.356636 -0.244988 -0.732542 86.000000
2.349014 -0.270779 -0.730838 76.000000
2.345993 -0.297063 -0.730536 75.000000
2.347327 -0.323926 -0.731633 86.000000
2.343694 -0.350188 -0.731179 37.000000
2.316247 -0.372505 -0.723359 10.000000
2.307343 -0.397617 -0.721437 10.000000
2.298231 -0.422547 -0.719442 9.000000
2.293530 -0.448215 -0.718920 9.000000
2.321291 -0.480667 -0.728757 20.000000
2.325256 -0.508669 -0.731164 74.000000
2.328873 -0.536804 -0.733490 78.000000
2.350797 -0.569574 -0.741674 62.000000
2.335276 -0.593470 -0.737974 21.000000
2.314877 -0.615853 -0.732816 39.000000
2.326424 -0.646892 -0.738051 38.000000
2.314666 -0.671605 -0.735897 27.000000
2.293625 -0.693141 -0.730523 19.000000
2.276855 -0.715957 -0.726845 19.000000
2.277954 -0.744513 -0.729071 20.000000
2.296957 -0.779191 -0.736874 18.000000
2.288447 -0.804720 -0.735868 10.000000
2.266062 -0.825568 -0.730745 17.000000
2.270499 -0.855779 -0.734011 17.000000
2.283281 -0.890000 -0.740312 22.000000
2.282318 -0.919123 -0.742263 18.000000
2.263359 -0.941094 -0.738359 16.000000
2.266170 -0.972069 -0.741586 18.000000
2.251181 -0.995514 -0.739048 16.000000
2.244560 -1.022676 -0.739307 9.000000
2.233401 -1.047744 -0.738128 17.000000
2.230556 -1.076820 -0.739732 10.000000
2.240261 -1.112324 -0.745612 22.000000
2.227915 -1.137653 -0.744497 15.000000
2.240954 -1.175867 -0.751685 15.000000
2.232122 -1.203439 -0.751897 21.000000
2.210656 -1.223577 -0.747527 10.000000
2.209654 -1.255693 -0.750488 9.000000
2.191924 -1.277782 -0.747539 10.000000
2.181915 -1.304944 -0.747577 10.000000
2.175618 -1.334627 -0.749018 13.000000
2.189358 -1.377026 -0.757393 13.000000
2.166486 -1.396007 -0.752780 10.000000
2.179121 -1.438940 -0.761099 13.000000
2.155313 -1.458130 -0.756646 10.000000
2.159004 -1.496037 -0.762041 9.000000
2.138644 -1.517546 -0.758981 10.000000
2.141498 -1.555741 -0.764166 10.000000
2.139853 -1.591255 -0.767935 13.000000
2.126232 -1.618217 -0.767452 10.000000
2.135046 -1.662730 -0.775225 10.000000
2.124440 -1.692690 -0.776082 12.000000
2.105991 -1.716484 -0.774099 10.000000
2.087283 -1.740106 -0.772116 9.000000
2.090280 -1.782110 -0.778224 10.000000
2.070241 -1.806244 -0.776395 10.000000
2.086550 -1.861370 -0.787776 16.000000
2.091233 -1.907393 -0.795024 13.000000
2.077640 -1.937288 -0.795477 14.000000
2.080245 -1.984504 -0.802820 18.000000
2.051940 -2.000916 -0.797770 16.000000
2.026920 -2.020394 -0.793982 24.000000
1.960396 -1.999049 -0.774566 31.000000
1.938942 -2.020769 -0.772084 32.000000
1.910622 -2.035282 -0.766952 39.000000
1.884568 -2.053727 -0.763423 29.000000
1.862607 -2.074630 -0.760865 32.000000
1.843654 -2.098804 -0.759619 35.000000
1.820153 -2.120096 -0.757322 28.000000
1.831686 -2.180811 -0.769099 29.000000
1.782783 -2.172110 -0.756273 26.000000
1.759783 -2.191736 -0.753520 23.000000
1.765088 -2.249990 -0.764028 31.000000
1.732416 -2.258001 -0.757370 23.000000
1.715857 -2.289556 -0.758608 26.000000
1.703169 -2.324033 -0.760915 29.000000
1.674436 -2.339653 -0.757005 23.000000
1.671923 -2.389789 -0.764147 29.000000
1.645240 -2.409111 -0.761479 21.000000
1.630590 -2.443245 -0.763474 23.000000
1.611284 -2.474216 -0.764455 26.000000
1.587914 -2.496079 -0.762538 20.000000
1.567697 -2.526791 -0.763378 26.000000
1.537083 -2.540729 -0.759235 22.000000
1.522840 -2.578426 -0.762221 19.000000
1.520672 -2.642268 -0.772717 23.000000
1.514393 -2.697014 -0.780366 6.000000
0.872777 1.570761 -0.439748 8.000000
0.883004 1.547833 -0.437862 21.000000
0.904989 1.545796 -0.441937 29.000000
0.918540 1.531611 -0.442593 32.000000
0.938040 1.524963 -0.445485 27.000000
0.951333 1.510442 -0.446074 34.000000
0.973328 1.507472 -0.450136 32.000000
0.992658 1.500111 -0.452937 32.000000
1.011057 1.493086 -0.455975 30.000000
1.005421 1.449479 -0.447724 19.000000
1.034659 1.458016 -0.455619 31.000000
1.053610 1.449885 -0.458379 28.000000
1.068797 1.438199 -0.460072 32.000000
1.093513 1.437282 -0.465339 36.000000
1.108596 1.425159 -0.467047 29.000000
1.127376 1.416025 -0.469783 31.000000
1.151433 1.414728 -0.475219 31.000000
1.154697 1.386456 -0.471600 26.000000
1.178729 1.384641 -0.477057 35.000000
1.187754 1.363637 -0.475889 32.000000
1.208621 1.357618 -0.480040 34.000000
1.236670 1.357913 -0.486539 51.000000
1.251050 1.344055 -0.488104 34.000000
1.265952 1.329559 -0.489438 48.000000
1.283468 1.318873 -0.492237 35.000000
1.287263 1.294242 -0.489861 25.000000
1.325729 1.302994 -0.500225 64.000000
1.339593 1.288131 -0.501694 38.000000
1.356913 1.276399 -0.504469 36.000000
1.371049 1.260673 -0.505706 56.000000
1.391711 1.251693 -0.509688 56.000000
1.419636 1.248806 -0.516378 71.000000
1.436690 1.235981 -0.519075 38.000000
1.450423 1.219310 -0.520214 24.000000
1.470943 1.209121 -0.524187 37.000000
1.491476 1.198584 -0.528174 34.000000
1.519536 1.193712 -0.534781 36.000000
1.540029 1.182447 -0.538739 42.000000
1.560464 1.170827 -0.542711 33.000000
1.577017 1.156062 -0.545228 35.000000
1.597361 1.143827 -0.549159 35.000000
1.609687 1.125835 -0.550342 23.000000
1.637790 1.118453 -0.556932 37.000000
1.657870 1.105310 -0.560772 36.000000
1.677939 1.091797 -0.564624 48.000000
1.697870 1.077975 -0.568423 51.000000
1.713696 1.061310 -0.570870 43.000000
1.733439 1.046847 -0.574622 49.000000
1.753098 1.032134 -0.578385 36.000000
1.797368 1.031793 -0.590573 24.000000
1.812744 1.013818 -0.592932 51.000000
1.840706 1.002449 -0.599354 60.000000
1.864089 0.988715 -0.604616 36.000000
1.900430 0.980839 -0.613831 45.000000
1.923770 0.966055 -0.619062 44.000000
1.947250 0.950571 -0.624034 46.000000
1.974726 0.937063 -0.630679 51.000000
2.002242 0.923029 -0.637204 21.000000
2.029652 0.908465 -0.643746 35.000000
2.061354 0.895281 -0.651627 36.000000
2.084270 0.877735 -0.656738 35.000000
2.138137 0.872517 -0.671562 38.000000
2.156387 0.852045 -0.675239 36.000000
2.179050 0.832939 -0.680249 34.000000
2.214961 0.818448 -0.689473 32.000000
2.223670 0.793749 -0.690374 24.000000
2.254913 0.776562 -0.698148 35.000000
2.290501 0.760456 -0.707420 39.000000
2.348984 0.750734 -0.723518 36.000000
2.379832 0.731586 -0.731348 35.000000
2.410675 0.711769 -0.739194 35.000000
2.441346 0.691277 -0.746893 29.000000
2.453239 0.665330 -0.749194 27.000000
2.441787 0.633020 -0.744102 10.000000
2.467068 0.610419 -0.750488 24.000000
2.464204 0.580642 -0.748301 25.000000
2.432898 0.544708 -0.737518 21.000000
2.438690 0.517493 -0.737994 19.000000
2.439544 0.489255 -0.737050 20.000000
2.435192 0.460232 -0.734762 20.000000
2.440083 0.433095 -0.735236 18.000000
2.435201 0.404230 -0.732784 10.000000
2.439445 0.376962 -0.733177 21.000000
2.429141 0.347734 -0.729297 25.000000
2.437564 0.321173 -0.730956 25.000000
2.417062 0.291145 -0.724219 24.000000
2.405793 0.262533 -0.720174 22.000000
2.413259 0.236184 -0.721909 24.000000
2.406182 0.208334 -0.719209 23.000000
2.417814 0.182214 -0.722217 10.000000
2.429232 0.155804 -0.725227 18.000000
2.425997 0.128421 -0.723877 26.000000
2.422447 0.101144 -0.722681 24.000000
2.409006 0.073682 -0.718473 24.000000
2.424069 0.047098 -0.722758 25.000000
2.424455 0.019997 -0.722835 28.000000
2.410157 -0.006984 -0.718473 25.000000
2.424300 -0.034127 -0.722681 32.000000
2.433417 -0.061392 -0.725460 61.000000
2.422988 -0.088250 -0.722526 67.000000
2.402761 -0.114362 -0.716585 95.000000
2.396599 -0.140891 -0.715004 95.000000
2.423676 -0.169655 -0.723335 57.000000
2.393006 -0.194327 -0.714622 29.000000
2.390789 -0.221083 -0.714393 95.000000
2.383499 -0.247192 -0.712662 81.000000
2.375839 -0.273271 -0.711008 36.000000
2.387058 -0.301571 -0.714823 26.000000
2.345626 -0.322997 -0.703130 10.000000
2.342007 -0.349153 -0.702678 9.000000
2.366486 -0.379791 -0.710907 9.000000
2.310244 -0.397253 -0.694819 8.000000
2.343565 -0.429991 -0.705656 9.000000
2.343494 -0.456996 -0.706544 9.000000
2.357185 -0.487017 -0.711682 16.000000
2.370485 -0.517381 -0.716813 34.000000
2.322711 -0.534190 -0.703532 15.000000
2.340103 -0.565684 -0.709921 10.000000
2.338548 -0.592907 -0.710644 9.000000
2.350491 -0.623925 -0.715676 26.000000
2.357474 -0.653920 -0.719055 62.000000
2.341020 -0.677556 -0.715538 34.000000
2.324391 -0.700830 -0.711949 21.000000
2.330405 -0.731004 -0.715315 21.000000
2.326813 -0.758665 -0.716098 20.000000
2.327578 -0.787578 -0.717969 22.000000
2.323357 -0.815261 -0.718588 16.000000
2.291953 -0.832895 -0.710577 10.000000
2.300703 -0.865234 -0.715312 20.000000
2.300122 -0.894496 -0.717166 20.000000
2.312518 -0.929094 -0.723192 21.000000
2.297866 -0.953071 -0.720771 21.000000
2.296185 -0.982538 -0.722443 20.000000
2.298659 -1.013903 -0.725573 20.000000
2.296314 -1.043495 -0.727146 18.000000
2.267450 -1.060905 -0.720414 10.000000
2.286233 -1.100698 -0.728804 19.000000
2.273987 -1.126479 -0.727756 22.000000
2.253173 -1.147334 -0.723715 16.000000
2.244671 -1.175007 -0.723966 16.000000
2.253142 -1.211238 -0.729373 16.000000
2.260716 -1.248187 -0.734999 21.000000
2.242766 -1.271299 -0.732322 14.000000
2.237343 -1.300834 -0.733495 10.000000
2.235373 -1.333431 -0.736264 17.000000
2.220679 -1.358526 -0.734861 15.000000
2.189429 -1.373227 -0.727952 16.000000
2.218808 -1.426442 -0.741442 19.000000
2.199067 -1.448712 -0.738503 16.000000
2.191108 -1.478805 -0.739696 11.000000
2.194748 -1.517042 -0.744742 12.000000
2.170232 -1.536075 -0.740453 10.000000
2.165089 -1.568898 -0.742783 16.000000
2.144028 -1.590248 -0.739670 14.000000
2.149646 -1.631738 -0.745886 11.000000
2.162328 -1.679403 -0.754722 18.000000
2.147815 -1.706583 -0.754140 14.000000
2.136719 -1.736629 -0.754874 10.000000
2.147484 -1.785079 -0.763418 13.000000
2.120080 -1.803477 -0.759021 9.000000
2.136850 -1.858738 -0.770115 14.000000
2.105879 -1.872942 -0.764040 19.000000
2.124935 -1.932098 -0.776162 19.000000
2.117376 -1.969582 -0.779460 21.000000
2.096080 -1.993072 -0.777175 18.000000
2.091918 -2.033210 -0.781266 24.000000
2.014341 -2.002677 -0.758597 28.000000
1.962306 -1.993935 -0.744600 28.000000
1.934221 -2.008706 -0.739739 40.000000
1.891891 -2.009774 -0.729956 63.000000
1.876921 -2.037710 -0.730064 37.000000
1.857424 -2.062812 -0.729236 36.000000
1.838551 -2.086937 -0.728050 37.000000
1.818369 -2.111660 -0.727031 43.000000
1.808429 -2.146502 -0.729602 36.000000
1.778292 -2.159739 -0.724793 23.000000
1.761435 -2.186859 -0.724646 29.000000
1.743087 -2.214648 -0.724747 31.000000
1.740325 -2.260607 -0.730768 31.000000
1.709337 -2.272816 -0.725868 30.000000
1.693945 -2.303247 -0.726787 29.000000
1.673943 -2.330566 -0.726721 32.000000
1.654945 -2.356839 -0.726367 26.000000
1.615041 -2.355784 -0.717646 18.000000
1.620026 -2.417725 -0.728119 30.000000
1.595672 -2.440462 -0.726673 27.000000
1.584187 -2.483350 -0.731242 28.000000
1.565861 -2.513029 -0.731784 29.000000
1.548023 -2.547590 -0.733772 29.000000
1.521415 -2.564454 -0.730680 29.000000
1.509859 -2.611410 -0.736073 26.000000
1.502229 -2.666945 -0.743761 9.000000
0.892093 1.597839 -0.430642 8.000000
0.880674 1.536736 -0.418509 21.000000
0.906467 1.543796 -0.424905 23.000000
0.918518 1.524851 -0.424215 28.000000
0.935328 1.514128 -0.425779 26.000000
0.953676 1.507905 -0.428678 28.000000
0.970308 1.496817 -0.430246 32.000000
0.996678 1.502262 -0.436690 28.000000
1.013264 1.490714 -0.438219 31.000000
1.018636 1.462994 -0.435006 27.000000
1.036685 1.455693 -0.437876 27.000000
1.052744 1.443677 -0.439336 29.000000
1.073709 1.439780 -0.443361 33.000000
1.095463 1.435074 -0.447233 31.000000
1.108313 1.418536 -0.447503 35.000000
1.126229 1.410099 -0.450298 32.000000
1.147920 1.404554 -0.454146 32.000000
1.159592 1.388107 -0.454525 29.000000
1.174959 1.374675 -0.455891 31.000000
1.173472 1.343389 -0.451296 62.000000
1.214186 1.358766 -0.462484 37.000000
1.231796 1.348804 -0.465210 42.000000
1.250060 1.338135 -0.467770 40.000000
1.270880 1.331241 -0.471753 36.000000
1.285028 1.317093 -0.473202 38.000000
1.303060 1.305676 -0.475727 25.000000
1.323809 1.297920 -0.479627 36.000000
1.341680 1.285957 -0.482109 52.000000
1.355391 1.270957 -0.483516 37.000000
1.372549 1.259110 -0.486126 39.000000
1.397335 1.252936 -0.491098 72.000000
1.421623 1.246873 -0.496267 35.000000
1.438597 1.234092 -0.498853 76.000000
1.455580 1.221049 -0.501444 24.000000
1.465394 1.201194 -0.501245 33.000000
1.504652 1.205901 -0.511474 63.000000
1.521423 1.192017 -0.514038 33.000000
1.541912 1.180801 -0.517835 54.000000
1.558476 1.166336 -0.520353 47.000000
1.579250 1.154079 -0.523924 35.000000
1.595602 1.139149 -0.526395 35.000000
1.607930 1.121184 -0.527572 24.000000
1.635971 1.113962 -0.533896 35.000000
1.656022 1.100913 -0.537632 65.000000
1.676000 1.087495 -0.541316 38.000000
1.695967 1.073769 -0.545010 52.000000
1.723938 1.064804 -0.551276 51.000000
1.739606 1.047875 -0.553616 36.000000
1.775670 1.043327 -0.562744 49.000000
1.807866 1.035242 -0.570322 30.000000
1.814861 1.012524 -0.569989 39.000000
1.842789 1.001278 -0.576208 52.000000
1.870519 0.989786 -0.582645 42.000000
1.902664 0.979719 -0.590162 43.000000
1.926023 0.965058 -0.595241 68.000000
1.945123 0.947520 -0.598726 35.000000
1.968327 0.932057 -0.603761 58.000000
1.995974 0.917831 -0.609869 24.000000
2.010183 0.897529 -0.612183 34.000000
2.050674 0.888550 -0.622480 37.000000
2.077921 0.873073 -0.628775 32.000000
2.118496 0.862576 -0.639050 36.000000
2.159130 0.851237 -0.649276 43.000000
2.177247 0.830472 -0.652856 32.000000
2.204251 0.812762 -0.658997 35.000000
2.212963 0.788041 -0.659741 28.000000
2.253241 0.774193 -0.669884 34.000000
2.284317 0.756760 -0.677490 36.000000
2.310667 0.737128 -0.683756 35.000000
2.378471 0.729556 -0.702024 36.000000
2.418511 0.712568 -0.712249 69.000000
2.426106 0.685543 -0.712968 34.000000
2.484465 0.672260 -0.728588 26.000000
2.482253 0.642258 -0.726596 16.000000
2.489084 0.614525 -0.727166 23.000000
2.490909 0.585690 -0.726451 23.000000
2.492384 0.556879 -0.725652 24.000000
2.479480 0.525102 -0.720749 18.000000
2.485028 0.497440 -0.721151 21.000000
2.499787 0.471399 -0.724292 22.000000
2.466832 0.436843 -0.713895 11.000000
2.476187 0.410202 -0.715663 16.000000
2.466232 0.380365 -0.711867 17.000000
2.470271 0.352805 -0.712184 21.000000
2.469147 0.324698 -0.711207 22.000000
2.472546 0.297192 -0.711444 22.000000
2.465991 0.268566 -0.709091 24.000000
2.473610 0.241555 -0.710623 23.000000
2.432952 0.210297 -0.698407 14.000000
2.468678 0.185691 -0.708345 13.000000
2.465766 0.157880 -0.707048 18.000000
2.476935 0.130858 -0.709878 22.000000
2.482998 0.103501 -0.711411 26.000000
2.464726 0.075225 -0.705986 20.000000
2.475043 0.048014 -0.708738 25.000000
2.456209 0.020273 -0.703311 34.000000
2.470707 -0.007137 -0.707440 61.000000
2.465666 -0.034599 -0.705986 67.000000
2.469923 -0.062195 -0.707283 92.000000
2.473943 -0.089899 -0.708502 95.000000
2.463239 -0.116947 -0.705594 79.000000
2.457031 -0.144063 -0.704062 73.000000
2.464904 -0.172154 -0.706656 68.000000
2.438984 -0.197585 -0.699471 39.000000
2.412719 -0.222561 -0.692369 26.000000
2.376706 -0.246013 -0.682601 10.000000
2.393006 -0.274596 -0.687713 9.000000
2.389948 -0.301276 -0.687331 9.000000
2.381744 -0.327148 -0.685577 9.000000
2.378082 -0.353699 -0.685272 9.000000
2.388360 -0.382454 -0.689000 9.000000
2.379322 -0.408197 -0.687171 9.000000
2.407917 -0.440762 -0.696209 26.000000
2.412388 -0.469394 -0.698555 35.000000
2.407164 -0.496294 -0.698087 50.000000
2.401628 -0.523039 -0.697463 40.000000
2.358350 -0.541176 -0.686007 10.000000
2.352363 -0.567349 -0.685316 9.000000
2.369390 -0.599498 -0.691586 9.000000
2.353499 -0.623235 -0.688091 9.000000
2.374375 -0.657187 -0.695547 36.000000
2.390305 -0.690269 -0.701629 49.000000
2.368827 -0.712617 -0.696774 29.000000
2.383871 -0.746316 -0.702918 21.000000
2.361982 -0.768300 -0.697989 21.000000
2.358118 -0.796058 -0.698395 23.000000
2.358371 -0.825509 -0.700305 11.000000
2.358317 -0.855163 -0.702208 13.000000
2.353365 -0.883089 -0.702680 17.000000
2.330178 -0.904148 -0.697691 11.000000
2.338082 -0.937212 -0.702111 21.000000
2.341140 -0.968753 -0.705095 21.000000
2.326115 -0.992947 -0.702713 18.000000
2.315300 -1.018742 -0.701672 21.000000
2.321720 -1.052414 -0.705807 10.000000
2.318750 -1.082564 -0.707503 12.000000
2.315609 -1.112423 -0.708948 19.000000
2.290283 -1.132040 -0.703906 15.000000
2.308077 -1.172639 -0.711892 21.000000
2.282309 -1.191836 -0.706774 18.000000
2.290684 -1.228409 -0.711994 17.000000
2.277031 -1.254070 -0.710760 18.000000
2.296806 -1.298641 -0.720057 10.000000
2.274104 -1.319506 -0.716094 10.000000
2.276554 -1.354405 -0.719758 16.000000
2.253403 -1.374845 -0.715717 15.000000
2.238296 -1.400051 -0.714298 14.000000
2.230983 -1.430302 -0.715486 13.000000
2.243564 -1.473736 -0.723082 16.000000
2.231365 -1.501544 -0.722852 19.000000
2.242798 -1.545630 -0.730301 10.000000
2.221898 -1.567888 -0.727374 10.000000
2.216551 -1.601116 -0.729609 13.000000
2.179080 -1.612053 -0.721709 12.000000
2.192268 -1.659699 -0.730177 19.000000
2.174209 -1.684096 -0.728441 13.000000
2.174834 -1.723331 -0.732915 14.000000
2.174872 -1.762727 -0.737444 13.000000
2.181137 -1.809164 -0.744661 10.000000
2.179908 -1.849039 -0.749030 10.000000
2.163543 -1.876377 -0.748220 13.000000
2.154169 -1.909945 -0.749924 16.000000
2.154250 -1.954149 -0.755560 21.000000
2.140256 -1.984574 -0.755866 16.000000
2.129359 -2.018212 -0.757408 20.000000
2.117226 -2.052550 -0.759113 22.000000
2.033276 -2.014609 -0.734421 16.000000
1.963099 -1.989512 -0.715087 25.000000
1.918236 -1.986772 -0.704150 34.000000
1.893599 -2.004298 -0.700658 54.000000
1.867997 -2.022356 -0.697346 55.000000
1.836664 -2.032107 -0.691422 35.000000
1.813990 -2.053056 -0.689266 50.000000
1.792178 -2.072971 -0.686938 71.000000
1.800385 -2.130455 -0.696903 32.000000
1.765381 -2.135151 -0.689616 26.000000
1.753796 -2.170376 -0.692165 29.000000
1.742937 -2.204822 -0.694507 28.000000
1.715408 -2.220858 -0.690926 33.000000
1.687788 -2.236474 -0.687441 29.000000
1.698803 -2.301860 -0.699042 32.000000
1.676120 -2.325124 -0.697798 32.000000
1.651633 -2.343399 -0.695097 25.000000
1.617349 -2.350203 -0.689055 21.000000
1.604749 -2.388921 -0.692395 28.000000
1.587732 -2.418549 -0.693089 28.000000
1.576598 -2.461279 -0.697511 26.000000
1.555990 -2.486676 -0.696887 26.000000
1.538525 -2.521047 -0.698824 27.000000
1.510553 -2.538645 -0.696138 25.000000
1.496382 -2.576085 -0.698884 18.000000
1.496492 -2.644116 -0.709731 9.000000
0.878054 1.565246 -0.405476 8.000000
0.889366 1.547190 -0.405004 17.000000
0.903923 1.532659 -0.405457 21.000000
0.925844 1.530473 -0.409246 17.000000
0.944314 1.524424 -0.412046 25.000000
0.955936 1.505249 -0.411314 16.000000
0.972467 1.494191 -0.412822 22.000000
0.996147 1.495684 -0.417839 31.000000
1.020820 1.496208 -0.422769 14.000000
1.019713 1.461018 -0.417569 24.000000
1.032967 1.445274 -0.417821 19.000000
1.060391 1.449064 -0.423864 18.000000
1.066793 1.425722 -0.421981 25.000000
1.097330 1.432688 -0.429161 21.000000
1.109334 1.416801 -0.429585 26.000000
1.124916 1.403986 -0.430940 26.000000
1.152714 1.406095 -0.436969 16.000000
1.142521 1.363564 -0.429130 29.000000
1.176577 1.372522 -0.437470 25.000000
1.194196 1.363178 -0.440126 29.000000
1.209222 1.349461 -0.441435 30.000000
1.233348 1.346775 -0.446477 22.000000
1.248208 1.332604 -0.447739 31.000000
1.265679 1.322284 -0.450311 29.000000
1.280290 1.307730 -0.451576 21.000000
1.304453 1.303815 -0.456561 29.000000
1.318832 1.288797 -0.457779 26.000000
1.343095 1.284186 -0.462737 28.000000
1.356712 1.269225 -0.464081 42.000000
1.370796 1.253621 -0.465250 25.000000
1.395021 1.248068 -0.470190 33.000000
1.412453 1.235180 -0.472530 29.000000
1.433048 1.225775 -0.476219 24.000000
1.427578 1.194258 -0.471328 31.000000
1.459106 1.193604 -0.478712 24.000000
1.487482 1.188967 -0.484654 26.000000
1.519282 1.187210 -0.492034 33.000000
1.535884 1.173207 -0.494488 26.000000
1.560130 1.164669 -0.499372 32.000000
1.569160 1.143905 -0.499108 25.000000
1.597233 1.137579 -0.505261 24.000000
1.597548 1.111364 -0.502623 30.000000
1.617517 1.098893 -0.506171 24.000000
1.649580 1.094145 -0.513497 29.000000
1.669499 1.080869 -0.517074 35.000000
1.689345 1.067349 -0.520661 26.000000
1.713232 1.055996 -0.525459 33.000000
1.741177 1.046667 -0.531473 33.000000
1.756693 1.029567 -0.533702 27.000000
1.772006 1.012244 -0.535935 32.000000
1.791402 0.997050 -0.539381 34.000000
1.831960 0.993057 -0.549207 32.000000
1.868132 0.986344 -0.557986 36.000000
1.883101 0.967482 -0.560132 27.000000
1.915210 0.957098 -0.567337 30.000000
1.942802 0.944323 -0.573483 34.000000
1.957402 0.924561 -0.575586 24.000000
1.984811 0.910883 -0.581691 28.000000
2.016738 0.898366 -0.588892 29.000000
2.044028 0.883579 -0.594961 26.000000
2.075796 0.870195 -0.602267 32.000000
2.093989 0.850721 -0.605709 28.000000
2.157056 0.848584 -0.622046 30.000000
2.179676 0.829640 -0.626744 32.000000
2.183989 0.803652 -0.626256 21.000000
2.228986 0.792242 -0.637323 30.000000
2.246642 0.770402 -0.640675 32.000000
2.277815 0.752902 -0.647793 32.000000
2.317972 0.737897 -0.657762 35.000000
2.367427 0.724616 -0.670134 30.000000
2.402957 0.706482 -0.678685 31.000000
2.433702 0.686343 -0.685863 34.000000
2.450295 0.661754 -0.689123 22.000000
2.494732 0.644033 -0.700256 20.000000
2.506261 0.617402 -0.702138 18.000000
2.494005 0.585157 -0.697456 13.000000
2.514288 0.560596 -0.702048 19.000000
2.510797 0.530652 -0.699906 18.000000
2.492748 0.498003 -0.693810 11.000000
2.512195 0.472856 -0.698164 15.000000
2.488712 0.439838 -0.690660 9.000000
2.488591 0.411387 -0.689741 13.000000
2.492901 0.383695 -0.690140 14.000000
2.482568 0.353961 -0.686578 12.000000
2.500642 0.328232 -0.690779 18.000000
2.489709 0.298657 -0.687134 16.000000
2.488010 0.270444 -0.686050 18.000000
2.490782 0.242806 -0.686367 19.000000
2.425982 0.209286 -0.668006 9.000000
2.490646 0.187010 -0.685360 15.000000
2.487652 0.159038 -0.684274 16.000000
2.503674 0.132111 -0.688324 18.000000
2.505023 0.104260 -0.688403 25.000000
2.505975 0.076410 -0.688483 29.000000
2.477766 0.047999 -0.680539 35.000000
2.482980 0.020432 -0.681941 45.000000
2.492701 -0.007179 -0.684511 36.000000
2.497285 -0.034936 -0.685756 71.000000
2.511192 -0.063042 -0.689648 79.000000
2.510397 -0.090946 -0.689568 67.000000
2.499651 -0.118394 -0.686842 88.000000
2.503039 -0.146472 -0.688007 59.000000
2.486863 -0.173317 -0.683801 33.000000
2.475200 -0.200150 -0.680920 64.000000
2.434507 -0.224118 -0.670110 18.000000
2.417563 -0.249631 -0.665837 9.000000
2.400345 -0.274902 -0.661568 9.000000
2.392426 -0.300903 -0.659943 8.000000
2.422438 -0.332115 -0.668950 10.000000
2.409261 -0.357544 -0.665848 15.000000
2.419465 -0.386643 -0.669339 20.000000
2.462745 -0.421602 -0.682041 52.000000
2.439022 -0.445483 -0.676382 33.000000
2.438738 -0.473540 -0.677305 43.000000
2.442923 -0.502595 -0.679383 40.000000
2.446750 -0.531782 -0.681457 48.000000
2.398563 -0.549174 -0.669017 21.000000
2.373728 -0.571196 -0.663152 8.000000
2.390790 -0.603506 -0.669081 7.000000
2.398081 -0.633794 -0.672460 8.000000
2.414361 -0.666806 -0.678289 21.000000
2.430184 -0.700255 -0.684104 35.000000
2.417886 -0.725813 -0.682000 28.000000
2.400610 -0.749907 -0.678756 15.000000
2.392421 -0.776460 -0.677882 16.000000
2.379260 -0.801550 -0.675867 13.000000
2.393166 -0.836014 -0.681564 10.000000
2.379412 -0.860967 -0.679387 13.000000
2.365375 -0.885739 -0.677212 9.000000
2.364647 -0.915482 -0.678921 10.000000
2.341099 -0.936296 -0.674085 10.000000
2.362161 -0.975166 -0.682156 10.000000
2.351506 -1.001319 -0.681107 16.000000
2.349377 -1.031276 -0.682548 10.000000
2.359967 -1.067485 -0.688075 9.000000
2.322066 -1.081334 -0.679160 10.000000
2.336167 -1.119911 -0.685867 10.000000
2.319726 -1.143455 -0.683363 13.000000
2.324322 -1.178158 -0.687403 10.000000
2.332685 -1.215317 -0.692617 10.000000
2.323834 -1.243248 -0.692477 13.000000
2.301718 -1.264536 -0.688775 10.000000
2.325634 -1.311691 -0.698928 9.000000
2.298669 -1.330363 -0.693873 10.000000
2.288170 -1.358467 -0.693794 9.000000
2.281498 -1.389012 -0.694969 10.000000
2.262147 -1.411887 -0.692281 10.000000
2.271142 -1.452759 -0.698375 10.000000
2.259212 -1.480655 -0.698181 13.000000
2.263133 -1.519351 -0.702891 10.000000
2.262428 -1.555495 -0.706327 9.000000
2.265272 -1.594611 -0.710898 10.000000
2.247903 -1.619747 -0.709239 10.000000
2.233560 -1.648197 -0.709081 10.000000
2.219503 -1.675948 -0.708566 10.000000
2.220460 -1.715372 -0.712972 10.000000
2.228438 -1.760969 -0.719803 10.000000
2.204908 -1.783314 -0.716968 9.000000
2.204218 -1.823134 -0.721115 9.000000
2.206717 -1.866320 -0.726539 10.000000
2.193865 -1.897037 -0.726969 10.000000
2.187137 -1.934895 -0.729995 13.000000
2.180679 -1.971978 -0.732719 10.000000
2.183513 -2.019918 -0.739311 10.000000
2.168866 -2.050626 -0.739565 10.000000
2.132850 -2.060969 -0.732517 10.000000
2.089104 -2.064732 -0.723386 11.000000
1.964455 -1.984108 -0.685322 16.000000
1.925455 -1.989033 -0.677449 24.000000
1.894211 -1.999502 -0.671721 34.000000
1.855382 -2.003223 -0.663825 30.000000
1.830766 -2.019946 -0.660418 29.000000
1.811562 -2.044385 -0.659623 31.000000
1.796235 -2.071454 -0.659647 27.000000
1.792035 -2.114104 -0.664577 28.000000
1.750968 -2.111213 -0.655258 20.000000
1.752064 -2.161321 -0.662370 24.000000
1.731083 -2.185035 -0.661430 27.000000
1.699059 -2.192294 -0.655444 22.000000
1.695272 -2.238763 -0.661293 23.000000
1.686162 -2.276723 -0.664448 27.000000
1.660941 -2.295905 -0.662139 24.000000
1.652314 -2.338595 -0.666632 21.000000
1.602905 -2.320470 -0.653778 12.000000
1.593450 -2.362905 -0.658143 21.000000
1.582132 -2.400476 -0.661067 25.000000
1.560847 -2.426680 -0.660869 17.000000
1.559839 -2.485767 -0.669460 23.000000
1.533843 -2.502577 -0.666705 20.000000
1.506102 -2.520122 -0.664041 17.000000
1.495458 -2.566710 -0.669160 17.000000
1.483260 -2.608326 -0.672750 8.000000
0.905836 1.609741 -0.400172 6.000000
0.899111 1.556936 -0.391101 10.000000
0.920145 1.555574 -0.394920 16.000000
0.929652 1.532377 -0.393174 21.000000
0.956824 1.538266 -0.398988 15.000000
0.967600 1.519501 -0.398414 21.000000
0.970930 1.487914 -0.394459 22.000000
0.998164 1.492978 -0.400254 16.000000
1.016417 1.486056 -0.402918 27.000000
1.021606 1.458363 -0.399943 10.000000
1.031960 1.438684 -0.399136 20.000000
1.044086 1.423453 -0.399528 26.000000
1.080210 1.438760 -0.408661 19.000000
1.081180 1.407045 -0.404457 30.000000
1.098910 1.398992 -0.407016 26.000000
1.129602 1.405397 -0.413947 25.000000
1.135003 1.381682 -0.412046 30.000000
1.178442 1.402197 -0.423470 10.000000
1.168474 1.359167 -0.415696 31.000000
1.179579 1.342650 -0.415966 29.000000
1.217144 1.354449 -0.425156 26.000000
1.221533 1.330281 -0.423161 30.000000
1.252855 1.334038 -0.430068 26.000000
1.270339 1.323722 -0.432593 30.000000
1.295175 1.319586 -0.437253 36.000000
1.312594 1.308699 -0.439741 13.000000
1.313080 1.280060 -0.436274 48.000000
1.340790 1.278934 -0.442182 33.000000
1.358474 1.266902 -0.444509 34.000000
1.379121 1.258418 -0.448066 42.000000
1.396635 1.245834 -0.450349 34.000000
1.417236 1.236716 -0.453929 32.000000
1.437856 1.227259 -0.457521 42.000000
1.455121 1.213930 -0.459709 21.000000
1.456801 1.188530 -0.457413 36.000000
1.496137 1.193495 -0.466829 32.000000
1.520795 1.185318 -0.471413 32.000000
1.533517 1.168356 -0.472564 52.000000
1.553845 1.157073 -0.476041 29.000000
1.570557 1.142151 -0.478149 32.000000
1.594696 1.133068 -0.482842 31.000000
1.610859 1.118065 -0.485150 23.000000
1.626897 1.102787 -0.487402 36.000000
1.663040 1.100687 -0.495688 36.000000
1.670817 1.079428 -0.495483 31.000000
1.698868 1.071071 -0.501328 53.000000
1.714877 1.054218 -0.503362 34.000000
1.730371 1.037524 -0.505527 33.000000
1.758353 1.027954 -0.511285 35.000000
1.781820 1.015869 -0.516099 20.000000
1.805508 1.002988 -0.520605 53.000000
1.850407 1.001161 -0.531308 49.000000
1.878422 0.989470 -0.537074 33.000000
1.910681 0.979472 -0.544084 52.000000
1.934236 0.964600 -0.548585 42.000000
1.948872 0.945278 -0.550838 35.000000
1.967869 0.927583 -0.554056 52.000000
1.990949 0.911849 -0.558724 24.000000
2.022944 0.899342 -0.565602 36.000000
2.059183 0.888472 -0.573946 35.000000
2.086664 0.872846 -0.579617 35.000000
2.109463 0.855145 -0.584201 35.000000
2.163647 0.849390 -0.597436 39.000000
2.186309 0.830451 -0.601981 32.000000
2.222497 0.816144 -0.610205 35.000000
2.222101 0.788209 -0.608378 20.000000
2.253398 0.771303 -0.615375 34.000000
2.289238 0.755252 -0.623488 70.000000
2.320434 0.737047 -0.630439 37.000000
2.369844 0.724141 -0.642422 38.000000
2.410163 0.707195 -0.651759 47.000000
2.436320 0.685751 -0.657501 42.000000
2.462271 0.663655 -0.663173 37.000000
2.483404 0.639937 -0.667514 16.000000
2.546580 0.626224 -0.683206 28.000000
2.562617 0.600064 -0.686226 28.000000
2.564286 0.570624 -0.685544 29.000000
2.556052 0.539209 -0.682333 25.000000
2.566481 0.511728 -0.684092 27.000000
2.562421 0.481461 -0.681974 23.000000
2.557993 0.451242 -0.679854 21.000000
2.548347 0.420528 -0.676463 9.000000
2.576732 0.395927 -0.683208 27.000000
2.556903 0.363898 -0.677196 26.000000
2.546347 0.333577 -0.673635 23.000000
2.559434 0.306449 -0.676497 25.000000
2.552990 0.277022 -0.674202 27.000000
2.546200 0.247727 -0.671824 22.000000
2.567974 0.221134 -0.677148 26.000000
2.555784 0.191504 -0.673499 13.000000
2.562551 0.163507 -0.674931 37.000000
2.564172 0.135067 -0.675093 80.000000
2.565468 0.106547 -0.675093 95.000000
2.561688 0.077960 -0.673903 95.000000
2.557501 0.049481 -0.672712 88.000000
2.548234 0.020988 -0.670169 84.000000
2.524136 -0.007248 -0.663810 81.000000
2.552907 -0.035610 -0.671360 70.000000
2.557258 -0.064091 -0.672551 90.000000
2.546706 -0.092074 -0.669847 75.000000
2.540749 -0.120151 -0.668496 78.000000
2.548960 -0.148887 -0.670876 87.000000
2.547187 -0.177085 -0.670635 85.000000
2.492149 -0.201085 -0.656427 18.000000
2.528309 -0.232235 -0.666344 95.000000
2.482368 -0.255811 -0.654763 22.000000
2.493870 -0.285016 -0.658253 29.000000
2.500221 -0.313859 -0.660472 43.000000
2.496644 -0.341604 -0.660154 76.000000
2.497612 -0.369978 -0.661023 68.000000
2.498248 -0.398459 -0.661890 65.000000
2.493778 -0.426071 -0.661411 18.000000
2.488990 -0.453763 -0.661012 81.000000
2.479213 -0.480454 -0.659270 69.000000
2.478616 -0.508907 -0.660055 95.000000
2.468221 -0.535254 -0.658235 85.000000
2.467044 -0.563652 -0.658857 73.000000
2.427804 -0.583114 -0.649488 10.000000
2.416656 -0.608859 -0.647679 9.000000
2.391258 -0.630719 -0.642025 6.000000
2.398238 -0.661009 -0.645167 10.000000
2.460799 -0.707583 -0.663268 43.000000
2.448252 -0.733557 -0.661370 38.000000
2.449438 -0.763509 -0.663066 27.000000
2.422605 -0.784714 -0.657339 18.000000
2.413937 -0.811602 -0.656617 19.000000
2.427808 -0.846378 -0.662048 16.000000
2.386608 -0.861766 -0.652521 9.000000
2.418003 -0.903488 -0.662834 22.000000
2.385491 -0.921519 -0.655730 13.000000
2.397833 -0.956840 -0.660964 20.000000
2.382944 -0.981508 -0.658749 17.000000
2.403195 -1.021399 -0.666512 12.000000
2.400968 -1.051770 -0.667912 20.000000
2.389328 -1.078599 -0.667004 11.000000
2.351238 -1.092678 -0.658464 9.000000
2.374134 -1.135614 -0.667316 19.000000
2.348740 -1.155295 -0.662393 16.000000
2.387878 -1.207668 -0.676018 21.000000
2.357363 -1.225341 -0.670032 15.000000
2.352455 -1.256165 -0.671303 13.000000
2.355616 -1.291675 -0.675002 14.000000
2.349782 -1.322638 -0.676166 10.000000
2.339815 -1.350769 -0.675937 9.000000
2.341723 -1.386664 -0.679421 18.000000
2.334780 -1.417723 -0.680555 12.000000
2.335362 -1.454443 -0.684179 15.000000
2.311262 -1.475090 -0.680386 10.000000
2.307240 -1.508750 -0.682526 10.000000
2.314971 -1.550525 -0.688246 19.000000
2.290060 -1.570696 -0.684277 10.000000
2.280813 -1.601675 -0.685093 9.000000
2.275213 -1.635403 -0.687089 20.000000
2.284280 -1.681352 -0.693999 11.000000
2.273683 -1.712505 -0.694677 12.000000
2.255173 -1.737541 -0.692888 11.000000
2.243311 -1.769222 -0.693728 10.000000
2.250588 -1.815251 -0.700171 13.000000
2.245976 -1.852498 -0.702959 10.000000
2.236373 -1.887313 -0.704826 9.000000
2.227023 -1.921458 -0.706400 16.000000
2.235426 -1.971747 -0.713683 13.000000
2.231499 -2.013290 -0.717712 22.000000
2.216962 -2.044403 -0.717953 16.000000
2.201240 -2.076244 -0.718371 13.000000
2.182439 -2.103728 -0.717340 19.000000
2.075789 -2.046449 -0.687877 11.000000
1.981936 -1.996576 -0.661645 10.000000
1.946149 -2.005094 -0.655227 35.000000
1.904572 -2.005109 -0.646211 32.000000
1.869042 -2.012417 -0.639767 67.000000
1.834509 -2.018396 -0.633093 37.000000
1.818593 -2.046357 -0.633468 36.000000
1.796812 -2.066166 -0.631238 68.000000
1.780228 -2.093915 -0.631505 28.000000
1.760107 -2.117802 -0.630642 24.000000
1.753070 -2.155765 -0.633874 35.000000
1.732185 -2.179412 -0.632896 29.000000
1.706277 -2.194382 -0.629439 39.000000
1.687826 -2.221370 -0.629553 28.000000
1.669028 -2.248318 -0.629564 31.000000
1.651201 -2.274258 -0.629297 34.000000
1.637268 -2.308813 -0.631366 25.000000
1.620028 -2.339437 -0.632408 20.000000
1.598301 -2.360915 -0.630908 30.000000
1.577575 -2.387152 -0.630744 27.000000
1.561696 -2.421452 -0.632619 32.000000
1.549419 -2.458951 -0.635347 26.000000
1.529857 -2.489051 -0.636087 27.000000
1.504812 -2.510579 -0.634683 27.000000
1.491107 -2.547756 -0.637216 21.000000
1.491969 -2.615669 -0.647244 9.000000
0.895204 1.586007 -0.377699 7.000000
0.888098 1.533319 -0.368982 18.000000
0.897445 1.510478 -0.367348 22.000000
0.916534 1.504358 -0.369745 23.000000
0.929546 1.490264 -0.370252 25.000000
0.964369 1.508376 -0.378867 24.000000
0.970235 1.480954 -0.376107 30.000000
0.993758 1.482590 -0.380728 28.000000
1.015556 1.479234 -0.384214 26.000000
1.006493 1.431596 -0.376103 21.000000
1.029965 1.432520 -0.380687 30.000000
1.042767 1.416797 -0.380951 28.000000
1.064192 1.412682 -0.384338 32.000000
1.084902 1.408823 -0.387905 29.000000
1.094352 1.388764 -0.387044 34.000000
1.118793 1.387630 -0.391477 32.000000
1.139539 1.382914 -0.395022 26.000000
1.142129 1.354991 -0.391935 26.000000
1.162736 1.349869 -0.395487 36.000000
1.184059 1.343938 -0.398830 33.000000
1.205376 1.337636 -0.402186 50.000000
1.226062 1.331583 -0.405725 33.000000
1.237323 1.314049 -0.405760 39.000000
1.254593 1.303957 -0.408159 35.000000
1.292915 1.313968 -0.417014 34.000000
1.286072 1.279091 -0.411643 26.000000
1.303645 1.267788 -0.413888 34.000000
1.327670 1.263469 -0.418422 64.000000
1.341611 1.248323 -0.419512 44.000000
1.376543 1.253204 -0.427430 35.000000
1.383078 1.230988 -0.426236 44.000000
1.410879 1.228477 -0.431895 34.000000
1.435542 1.221835 -0.436273 35.000000
1.441106 1.199718 -0.435193 28.000000
1.469434 1.195562 -0.440723 36.000000
1.478386 1.176267 -0.440715 45.000000
1.498682 1.165846 -0.444058 37.000000
1.534790 1.166380 -0.451857 35.000000
1.547298 1.149340 -0.452944 50.000000
1.575378 1.143616 -0.458557 38.000000
1.591921 1.128485 -0.460621 35.000000
1.600037 1.107971 -0.460510 34.000000
1.628058 1.101050 -0.466102 52.000000
1.643953 1.085607 -0.468244 39.000000
1.667897 1.075221 -0.472709 52.000000
1.692139 1.063999 -0.477000 36.000000
1.715987 1.052751 -0.481429 54.000000
1.735640 1.038667 -0.484707 38.000000
1.751074 1.021757 -0.486763 35.000000
1.795887 1.021450 -0.497009 36.000000
1.789841 0.991986 -0.493167 37.000000
1.843338 0.995096 -0.505802 71.000000
1.858359 0.976772 -0.507766 81.000000
1.899189 0.971499 -0.516865 43.000000
1.931186 0.961426 -0.523700 69.000000
1.945992 0.941999 -0.525694 41.000000
1.964969 0.924338 -0.528807 35.000000
1.997018 0.912470 -0.535481 33.000000
2.028872 0.900318 -0.542311 41.000000
2.056478 0.885267 -0.547761 42.000000
2.083830 0.870030 -0.553365 37.000000
2.102198 0.850399 -0.556387 35.000000
2.138446 0.837724 -0.564329 50.000000
2.170022 0.822657 -0.571097 50.000000
2.201639 0.806941 -0.577808 30.000000
2.228566 0.788952 -0.583262 35.000000
2.250743 0.768915 -0.587527 64.000000
2.272798 0.748497 -0.591802 54.000000
2.303904 0.730556 -0.598412 47.000000
2.344224 0.714857 -0.607439 57.000000
2.398346 0.702530 -0.620175 52.000000
2.429248 0.682452 -0.626672 52.000000
2.450525 0.659336 -0.630926 34.000000
2.509236 0.645418 -0.644767 34.000000
2.544351 0.624573 -0.652588 41.000000
2.579370 0.602936 -0.660339 36.000000
2.599993 0.577432 -0.664470 31.000000
2.587037 0.544701 -0.660210 25.000000
2.588018 0.515063 -0.659414 26.000000
2.607798 0.489108 -0.663551 28.000000
2.569981 0.452575 -0.652962 10.000000
2.622600 0.431971 -0.665433 25.000000
2.598351 0.398544 -0.658561 25.000000
2.612090 0.371045 -0.661323 24.000000
2.582330 0.337673 -0.653059 24.000000
2.581038 0.308501 -0.652170 25.000000
2.579406 0.279435 -0.651199 26.000000
2.601570 0.252656 -0.656232 34.000000
2.589707 0.222624 -0.652825 27.000000
2.606422 0.195003 -0.656643 83.000000
2.598717 0.165518 -0.654288 90.000000
2.595514 0.136503 -0.653234 95.000000
2.592059 0.107513 -0.652097 95.000000
2.588192 0.078630 -0.650959 95.000000
2.588925 0.050030 -0.650959 95.000000
2.589333 0.021348 -0.651041 95.000000
2.574867 -0.007292 -0.647383 48.000000
2.579473 -0.035880 -0.648440 79.000000
2.574057 -0.064333 -0.647221 71.000000
2.573246 -0.092854 -0.647059 71.000000
2.567268 -0.121146 -0.645760 70.000000
2.580336 -0.150378 -0.649171 91.000000
2.554358 -0.177246 -0.643000 30.000000
2.518426 -0.202800 -0.634237 22.000000
2.511292 -0.230261 -0.632782 10.000000
2.498945 -0.257040 -0.630111 10.000000
2.539388 -0.289651 -0.640737 52.000000
2.540984 -0.318318 -0.641631 67.000000
2.522942 -0.344547 -0.637665 51.000000
2.533411 -0.374553 -0.640986 61.000000
2.543592 -0.404878 -0.644142 45.000000
2.524709 -0.430547 -0.640181 66.000000
2.515103 -0.457635 -0.638566 74.000000
2.514800 -0.486379 -0.639294 95.000000
2.499897 -0.512227 -0.636391 74.000000
2.503681 -0.541890 -0.638166 82.000000
2.521291 -0.574998 -0.643722 65.000000
2.496073 -0.598370 -0.638407 30.000000
2.475337 -0.622426 -0.634144 9.000000
2.444970 -0.643618 -0.627480 9.000000
2.475329 -0.680865 -0.636469 9.000000
2.467741 -0.708390 -0.635904 26.000000
2.487894 -0.743935 -0.642300 46.000000
2.475013 -0.770004 -0.640448 33.000000
2.461839 -0.795970 -0.638517 21.000000
2.476150 -0.830938 -0.643768 20.000000
2.462370 -0.856679 -0.641834 12.000000
2.462082 -0.887258 -0.643402 21.000000
2.429628 -0.905916 -0.636537 17.000000
2.465000 -0.950190 -0.647544 21.000000
2.445600 -0.973741 -0.644171 19.000000
2.421289 -0.995492 -0.639865 18.000000
2.432793 -1.031621 -0.644722 21.000000
2.434691 -1.064520 -0.647442 22.000000
2.418743 -1.089234 -0.645092 10.000000
2.415478 -1.120233 -0.646536 16.000000
2.385561 -1.138701 -0.640820 17.000000
2.412287 -1.184458 -0.650410 20.000000
2.403885 -1.213058 -0.650318 18.000000
2.386129 -1.237533 -0.648047 15.000000
2.398285 -1.277743 -0.653884 19.000000
2.388562 -1.306604 -0.653943 18.000000
2.378446 -1.335474 -0.653912 12.000000
2.389003 -1.376404 -0.659608 17.000000
2.373949 -1.402879 -0.658310 18.000000
2.383595 -1.444303 -0.663965 21.000000
2.371902 -1.473275 -0.663723 18.000000
2.355348 -1.500076 -0.662584 16.000000
2.338969 -1.526089 -0.661183 17.000000
2.330420 -1.557334 -0.661992 15.000000
2.345588 -1.605073 -0.669672 10.000000
2.316163 -1.622537 -0.664724 13.000000
2.329631 -1.671482 -0.672529 17.000000
2.311476 -1.697096 -0.670911 16.000000
2.308625 -1.734319 -0.673748 21.000000
2.293031 -1.763347 -0.673434 15.000000
2.289219 -1.800588 -0.676236 16.000000
2.292557 -1.844091 -0.681177 17.000000
2.275674 -1.873085 -0.680736 11.000000
2.274097 -1.913789 -0.684500 13.000000
2.256382 -1.942658 -0.683944 20.000000
2.264768 -1.993124 -0.690916 19.000000
2.264309 -2.038288 -0.695896 20.000000
2.253138 -2.072891 -0.697128 19.000000
2.219391 -2.088356 -0.691986 18.000000
2.200495 -2.115959 -0.690992 19.000000
2.114307 -2.079238 -0.669268 16.000000
2.002667 -2.012347 -0.638605 16.000000
1.939458 -1.993034 -0.623698 31.000000
1.894678 -1.989348 -0.613977 49.000000
1.869189 -2.007167 -0.611086 77.000000
1.838057 -2.016583 -0.605777 66.000000
1.809128 -2.030021 -0.601824 74.000000
1.789813 -2.054100 -0.601032 55.000000
1.771270 -2.077229 -0.599976 48.000000
1.754495 -2.104692 -0.600154 28.000000
1.744676 -2.138751 -0.602278 38.000000
1.724013 -2.162228 -0.601358 36.000000
1.700090 -2.181660 -0.599285 34.000000
1.683043 -2.207743 -0.599149 35.000000
1.667450 -2.238397 -0.600223 34.000000
1.645582 -2.261170 -0.599179 36.000000
1.624677 -2.282872 -0.597866 31.000000
1.613366 -2.321225 -0.600878 25.000000
1.587789 -2.339394 -0.598673 33.000000
1.571473 -2.368646 -0.599387 33.000000
1.553210 -2.398699 -0.600165 32.000000
1.534498 -2.428666 -0.601009 34.000000
1.514381 -2.453388 -0.600450 31.000000
1.505005 -2.499824 -0.605222 30.000000
1.484887 -2.529499 -0.605892 27.000000
1.478809 -2.584575 -0.612490 10.000000
0.880618 1.553010 -0.353580 8.000000
0.889225 1.530736 -0.352153 15.000000
0.900951 1.512121 -0.351572 24.000000
0.917549 1.501822 -0.352887 23.000000
0.939241 1.499613 -0.356230 24.000000
0.954775 1.489422 -0.357662 27.000000
0.971080 1.478516 -0.358984 25.000000
0.992800 1.475518 -0.362302 29.000000
1.013641 1.472843 -0.365691 21.000000
1.007222 1.429231 -0.358983 18.000000
1.022910 1.417792 -0.360181 32.000000
1.050071 1.421834 -0.365484 28.000000
1.067838 1.414339 -0.367877 32.000000
1.080312 1.398313 -0.368073 29.000000
1.095680 1.386029 -0.369285 28.000000
1.119393 1.385495 -0.373687 34.000000
1.134556 1.372776 -0.374908 26.000000
1.137030 1.344891 -0.371942 20.000000
1.154290 1.336233 -0.374242 32.000000
1.185133 1.341393 -0.380598 31.000000
1.205815 1.335696 -0.383970 42.000000
1.210522 1.311217 -0.381898 33.000000
1.235015 1.308125 -0.386160 33.000000
1.252165 1.298110 -0.388448 37.000000
1.280195 1.297782 -0.393740 32.000000
1.304319 1.294049 -0.398169 21.000000
1.311534 1.272385 -0.397078 52.000000
1.321971 1.254128 -0.397041 35.000000
1.346029 1.249528 -0.401439 65.000000
1.363358 1.237549 -0.403485 57.000000
1.383833 1.228963 -0.406782 54.000000
1.397366 1.213233 -0.407765 74.000000
1.436309 1.219973 -0.416415 36.000000
1.427203 1.184949 -0.410928 25.000000
1.455000 1.181484 -0.416309 35.000000
1.475241 1.171441 -0.419596 37.000000
1.484344 1.151722 -0.419390 42.000000
1.512171 1.147068 -0.424756 36.000000
1.544413 1.144437 -0.431118 42.000000
1.568530 1.135887 -0.435430 56.000000
1.584627 1.121318 -0.437560 30.000000
1.609054 1.111659 -0.441653 31.000000
1.620986 1.093792 -0.442632 43.000000
1.640815 1.081168 -0.445824 40.000000
1.660638 1.068242 -0.448963 68.000000
1.688897 1.059820 -0.454146 61.000000
1.712790 1.048671 -0.458420 43.000000
1.736597 1.037120 -0.462645 51.000000
1.747742 1.017870 -0.463531 34.000000
1.779886 1.010458 -0.469949 31.000000
1.803572 0.997732 -0.474210 62.000000
1.831443 0.986903 -0.479476 42.000000
1.850691 0.971037 -0.482573 74.000000
1.900210 0.970356 -0.493499 62.000000
1.923723 0.955738 -0.497619 52.000000
1.942789 0.938509 -0.500687 58.000000
1.966154 0.923087 -0.504826 36.000000
1.989382 0.907235 -0.508907 31.000000
2.016851 0.893268 -0.514339 44.000000
2.048826 0.880414 -0.520715 35.000000
2.076166 0.865263 -0.526038 41.000000
2.108113 0.851255 -0.532373 36.000000
2.130763 0.833272 -0.536581 37.000000
2.162491 0.818146 -0.542870 53.000000
2.194043 0.802588 -0.549316 31.000000
2.198024 0.776723 -0.548903 31.000000
2.252343 0.768092 -0.561034 78.000000
2.269796 0.746135 -0.563928 42.000000
2.301008 0.728379 -0.570276 48.000000
2.332001 0.709882 -0.576636 43.000000
2.400356 0.701793 -0.592148 47.000000
2.426544 0.680381 -0.597230 52.000000
2.452530 0.658633 -0.602479 36.000000
2.511369 0.644860 -0.615744 34.000000
2.537099 0.621676 -0.620939 39.000000
2.572158 0.600286 -0.628374 40.000000
2.602197 0.577049 -0.634662 32.000000
2.627424 0.552202 -0.639716 28.000000
2.657088 0.527882 -0.646020 25.000000
2.657832 0.497665 -0.645284 23.000000
2.648723 0.465699 -0.642225 24.000000
2.634423 0.433179 -0.637914 16.000000
2.643837 0.404762 -0.639328 24.000000
2.648033 0.375557 -0.639664 24.000000
2.651978 0.346184 -0.639915 27.000000
2.641018 0.315166 -0.636759 35.000000
2.629853 0.284385 -0.633599 57.000000
2.627919 0.254863 -0.632600 73.000000
2.635415 0.226196 -0.633931 71.000000
2.637656 0.197061 -0.634097 69.000000
2.625092 0.166916 -0.630682 87.000000
2.626742 0.137941 -0.630765 82.000000
2.613572 0.108280 -0.627349 34.000000
2.585398 0.078498 -0.620434 24.000000
2.595851 0.050030 -0.622848 11.000000
2.615624 0.021508 -0.627513 37.000000
2.625430 -0.007416 -0.629846 66.000000
2.610681 -0.036217 -0.626265 70.000000
2.595525 -0.064778 -0.622685 49.000000
2.594711 -0.093460 -0.622522 46.000000
2.588713 -0.121913 -0.621275 22.000000
2.562978 -0.149048 -0.615286 10.000000
2.551504 -0.176735 -0.612794 9.000000
2.486409 -0.199843 -0.597415 8.000000
2.527641 -0.231306 -0.607736 9.000000
2.549198 -0.261747 -0.613316 9.000000
2.531729 -0.288242 -0.609585 10.000000
2.562227 -0.320451 -0.617323 55.000000
2.563481 -0.349385 -0.618161 49.000000
2.578748 -0.380555 -0.622482 81.000000
2.608117 -0.414359 -0.630280 58.000000
2.574709 -0.438295 -0.622906 35.000000
2.565007 -0.465859 -0.621337 72.000000
2.559773 -0.494158 -0.620846 58.000000
2.554293 -0.522374 -0.620355 49.000000
2.567505 -0.554782 -0.624490 95.000000
2.566068 -0.584207 -0.625152 88.000000
2.545435 -0.609125 -0.621110 49.000000
2.524548 -0.633647 -0.617075 10.000000
2.475176 -0.650357 -0.606053 8.000000
2.477417 -0.680142 -0.607712 9.000000
2.493232 -0.714234 -0.612898 10.000000
2.513321 -0.750155 -0.619139 35.000000
2.518957 -0.782284 -0.621924 63.000000
