x y z intensity
2.342757 -1.854313 1.013378 32.000000
2.325929 -1.884158 1.012670 29.000000
2.294157 -1.901800 1.005367 39.000000
2.273234 -1.928098 1.002872 29.000000
2.241282 -1.944788 0.995605 13.000000
2.255347 -2.001960 1.008889 76.000000
2.303547 -2.091541 1.037812 115.000000
2.235430 -2.075896 1.014499 95.000000
2.181793 -2.072089 0.997494 36.000000
2.142128 -2.080510 0.986844 29.000000
2.129490 -2.114928 0.988754 34.000000
2.106441 -2.139230 0.985861 27.000000
2.060127 -2.139282 0.971985 10.000000
2.056412 -2.183505 0.978331 33.000000
2.045708 -2.220891 0.981432 29.000000
2.021679 -2.244146 0.978332 31.000000
1.991068 -2.259969 0.972160 30.000000
1.968577 -2.287144 0.970890 26.000000
1.953106 -2.320419 0.972179 32.000000
1.919142 -2.331451 0.964311 26.000000
1.888111 -2.345795 0.957991 10.000000
1.885059 -2.398144 0.967090 29.000000
1.885522 -2.453556 0.977223 30.000000
1.847820 -2.459594 0.967756 22.000000
1.791848 -2.442971 0.949651 10.000000
1.729539 -2.412888 0.926793 21.000000
1.643555 -2.346405 0.890625 26.000000
1.541631 -2.255409 0.846182 25.000000
1.491097 -2.233130 0.828130 9.000000
1.287189 -1.973775 0.723672 10.000000
1.221232 -1.920458 0.696176 10.000000
1.160529 -1.869241 0.670108 18.000000
1.124609 -1.858507 0.658874 26.000000
1.097633 -1.858820 0.651836 25.000000
1.075562 -1.867126 0.647713 30.000000
1.061511 -1.892500 0.649542 23.000000
1.057559 -1.933957 0.656772 10.000000
0.915383 1.711697 0.594107 9.000000
0.934774 1.700360 0.596461 18.000000
0.945700 1.676973 0.594575 29.000000
0.957397 1.652954 0.592407 25.000000
0.979666 1.650055 0.597884 28.000000
0.997026 1.638707 0.600338 29.000000
1.010376 1.618469 0.599548 26.000000
1.030096 1.610767 0.603495 29.000000
1.042979 1.590253 0.602616 26.000000
1.059783 1.578198 0.604990 26.000000
1.081922 1.573749 0.610409 34.000000
1.091378 1.548979 0.607907 26.000000
1.107836 1.536347 0.610154 36.000000
1.121348 1.519705 0.610923 30.000000
1.143253 1.514332 0.616253 32.000000
1.157331 1.496751 0.616652 34.000000
1.170355 1.479603 0.617284 24.000000
1.183178 1.462401 0.617904 32.000000
1.204822 1.456001 0.623150 40.000000
1.214297 1.434787 0.622134 34.000000
1.233537 1.423751 0.625522 64.000000
1.242512 1.402414 0.624420 34.000000
1.267131 1.398551 0.631167 40.000000
1.288635 1.390808 0.636353 61.000000
1.300330 1.372415 0.636710 39.000000
1.311828 1.353914 0.637057 32.000000
1.326464 1.338732 0.638940 40.000000
1.347656 1.329956 0.644043 49.000000
1.365466 1.317617 0.647489 71.000000
1.379722 1.301708 0.649324 51.000000
1.397333 1.288883 0.652722 65.000000
1.418401 1.278959 0.657758 80.000000
1.435817 1.265625 0.661116 33.000000
1.438308 1.240117 0.658182 31.000000
1.455476 1.226415 0.661479 49.000000
1.479754 1.218446 0.668014 42.000000
1.504106 1.210100 0.674573 60.000000
1.524317 1.198896 0.679690 48.000000
1.537425 1.181086 0.681258 52.000000
1.550406 1.163150 0.682763 45.000000
1.570302 1.151101 0.687850 35.000000
1.575304 1.127277 0.685899 37.000000
1.591144 1.112040 0.689265 58.000000
1.615078 1.101394 0.695677 42.000000
1.630713 1.085576 0.698940 68.000000
1.650225 1.072043 0.703831 36.000000
1.658048 1.050263 0.703420 37.000000
1.685323 1.041130 0.711645 48.000000
1.696501 1.021793 0.713058 36.000000
1.711542 1.004710 0.716169 35.000000
1.730587 0.989739 0.720922 48.000000
1.732984 0.965302 0.718873 41.000000
1.764072 0.956541 0.728694 58.000000
1.778588 0.938470 0.731641 42.000000
1.805493 0.926543 0.739665 52.000000
1.832323 0.914166 0.747712 80.000000
1.833785 0.888913 0.745408 34.000000
1.860244 0.876120 0.753615 34.000000
1.882540 0.860521 0.759786 47.000000
1.895981 0.840957 0.762790 34.000000
1.926501 0.828644 0.772578 53.000000
1.948563 0.811752 0.778725 41.000000
1.961564 0.791259 0.781556 48.000000
1.978834 0.772234 0.786059 55.000000
2.013448 0.759560 0.797521 30.000000
2.043452 0.744753 0.807412 37.000000
2.051453 0.721318 0.808333 56.000000
2.072555 0.702324 0.814343 49.000000
2.088873 0.681644 0.818904 56.000000
2.118520 0.664899 0.828646 77.000000
2.130020 0.642094 0.831264 40.000000
2.145903 0.620342 0.835638 44.000000
2.175090 0.602132 0.845206 35.000000
2.213244 0.585657 0.858153 36.000000
2.232979 0.563950 0.864318 56.000000
2.252712 0.541633 0.870193 39.000000
2.272140 0.519079 0.876226 36.000000
2.291332 0.496214 0.882193 51.000000
2.314943 0.473823 0.889853 42.000000
2.338250 0.451091 0.897600 52.000000
2.375209 0.430289 0.910653 29.000000
2.393533 0.405627 0.916581 32.000000
2.425529 0.382679 0.927658 57.000000
2.475893 0.361804 0.945736 39.000000
2.488918 0.334888 0.949845 38.000000
2.524849 0.310615 0.962725 68.000000
2.546675 0.283884 0.970138 37.000000
2.563559 0.256347 0.975785 37.000000
2.584795 0.228822 0.983292 29.000000
2.652341 0.204467 1.008357 36.000000
2.677750 0.175784 1.017480 46.000000
2.707510 0.146823 1.028470 66.000000
2.741710 0.117425 1.040793 38.000000
2.780165 0.087431 1.055159 64.000000
2.813608 0.056493 1.067848 57.000000
2.837347 0.024730 1.076810 44.000000
2.856138 -0.007645 1.083906 32.000000
2.893345 -0.040614 1.098003 31.000000
2.925492 -0.074315 1.110229 35.000000
2.989844 -0.109961 1.134961 35.000000
3.035072 -0.146194 1.152794 34.000000
3.056720 -0.182100 1.161262 33.000000
3.124472 -0.221848 1.187651 32.000000
3.107938 -0.256171 1.182028 25.000000
3.160848 -0.296731 1.202879 33.000000
3.222425 -0.339542 1.227364 32.000000
3.260311 -0.381121 1.242875 33.000000
3.344152 -0.429392 1.275854 35.000000
3.371732 -0.471885 1.287574 32.000000
3.403281 -0.515928 1.301162 32.000000
3.397553 -0.554561 1.300488 33.000000
3.335972 -0.583522 1.278511 24.000000
3.320257 -0.619698 1.274098 31.000000
3.290480 -0.652713 1.264290 30.000000
3.273992 -0.688205 1.259891 30.000000
3.243513 -0.720335 1.250214 35.000000
3.217268 -0.752904 1.242093 29.000000
3.186033 -0.784047 1.232547 32.000000
3.181901 -0.821371 1.233127 34.000000
3.127495 -0.845360 1.214506 24.000000
3.122603 -0.882217 1.215203 30.000000
3.081431 -0.908477 1.201777 29.000000
3.071382 -0.943438 1.200521 29.000000
3.052095 -0.975443 1.195664 33.000000
3.014667 -1.001233 1.183727 28.000000
2.994634 -1.032526 1.178998 31.000000
2.983184 -1.066771 1.177760 29.000000
2.931967 -1.085748 1.160350 24.000000
2.941846 -1.127519 1.167612 31.000000
2.898923 -1.148854 1.153928 34.000000
2.882001 -1.180055 1.150571 33.000000
2.851346 -1.205878 1.142432 32.000000
2.833853 -1.236329 1.138991 31.000000
2.816099 -1.266481 1.135456 31.000000
2.801942 -1.298811 1.133950 34.000000
2.753990 -1.314262 1.118179 25.000000
2.743625 -1.347873 1.118310 34.000000
2.711859 -1.370886 1.109662 33.000000
2.680082 -1.393219 1.101035 29.000000
2.685399 -1.434902 1.107817 40.000000
2.644861 -1.451984 1.095699 33.000000
2.624798 -1.479848 1.091938 30.000000
2.612533 -1.512231 1.091682 35.000000
2.579803 -1.532306 1.082836 27.000000
2.555024 -1.556810 1.077209 32.000000
2.530060 -1.580840 1.071694 34.000000
2.516222 -1.612692 1.071543 32.000000
2.502620 -1.643860 1.070901 44.000000
2.476949 -1.666939 1.065115 37.000000
2.446743 -1.687648 1.058053 31.000000
2.455389 -1.734309 1.067260 33.000000
2.413107 -1.746158 1.055101 26.000000
2.379244 -1.762129 1.045740 23.000000
2.363357 -1.792481 1.045198 26.000000
2.347119 -1.822728 1.044553 30.000000
2.338785 -1.857873 1.046726 44.000000
2.307225 -1.875888 1.039265 36.000000
2.286461 -1.902516 1.036766 34.000000
2.269004 -1.932014 1.035908 33.000000
2.230679 -1.941826 1.024739 26.000000
2.230554 -1.986283 1.031860 47.000000
2.222642 -2.024765 1.035674 88.000000
2.186579 -2.037394 1.026363 37.000000
2.157358 -2.055940 1.020328 36.000000
2.128086 -2.074136 1.014214 33.000000
2.105375 -2.098572 1.011339 32.000000
2.089105 -2.129480 1.011580 32.000000
2.046262 -2.132908 0.998994 24.000000
2.052305 -2.187432 1.010312 36.000000
2.028447 -2.210902 1.007124 51.000000
1.998160 -2.227025 1.000861 32.000000
1.980347 -2.256975 1.000750 39.000000
1.960830 -2.287651 1.001102 35.000000
1.948318 -2.324585 1.003995 35.000000
1.911221 -2.332125 0.994416 32.000000
1.883155 -2.350219 0.989367 18.000000
1.872558 -2.390400 0.993757 35.000000
1.854116 -2.423958 0.995288 33.000000
1.839547 -2.460351 0.997941 26.000000
1.793580 -2.454362 0.983519 16.000000
1.714706 -2.401251 0.950775 20.000000
1.633118 -2.343567 0.916992 28.000000
1.522270 -2.236171 0.864792 29.000000
1.356058 -2.039185 0.779596 9.000000
1.294022 -1.995436 0.754180 18.000000
1.214114 -1.917480 0.716586 20.000000
1.157397 -1.875183 0.692972 23.000000
1.115358 -1.851579 0.676707 30.000000
1.093308 -1.860114 0.672455 31.000000
1.067459 -1.864998 0.666939 29.000000
1.052340 -1.885563 0.667075 34.000000
1.044575 -1.923452 0.673344 10.000000
0.924994 1.694133 0.612110 21.000000
0.946544 1.686793 0.616038 22.000000
0.962011 1.671577 0.617116 27.000000
0.966267 1.635123 0.610287 25.000000
0.988488 1.631999 0.615855 23.000000
1.008251 1.624537 0.619905 30.000000
1.021423 1.604126 0.619080 24.000000
1.051433 1.612127 0.629290 26.000000
1.050082 1.572238 0.620843 24.000000
1.070498 1.563282 0.624533 26.000000
1.089844 1.554688 0.628479 33.000000
1.100792 1.534343 0.627705 29.000000
1.119996 1.525291 0.631596 29.000000
1.136251 1.512262 0.633909 33.000000
1.150408 1.494686 0.634325 29.000000
1.172241 1.488770 0.639771 30.000000
1.173319 1.456659 0.633943 27.000000
1.194950 1.450283 0.639334 33.000000
1.213506 1.440029 0.643130 41.000000
1.225905 1.422297 0.643635 32.000000
1.244297 1.411547 0.647382 35.000000
1.263435 1.399995 0.650774 40.000000
1.278534 1.385261 0.652844 34.000000
1.290208 1.366971 0.653212 35.000000
1.298408 1.345116 0.651923 24.000000
1.322917 1.340025 0.658810 37.000000
1.340759 1.327942 0.662354 65.000000
1.354553 1.312805 0.664551 41.000000
1.368835 1.296936 0.666382 40.000000
1.389849 1.287350 0.671554 62.000000
1.403835 1.271094 0.673333 38.000000
1.421224 1.257776 0.676791 55.000000
1.427877 1.235013 0.675146 20.000000
1.447974 1.224877 0.680481 36.000000
1.454127 1.201911 0.678694 52.000000
1.492958 1.205522 0.692223 33.000000
1.516729 1.197266 0.699194 57.000000
1.533621 1.182388 0.702467 56.000000
1.546131 1.164848 0.704290 33.000000
1.562740 1.149463 0.707449 66.000000
1.571152 1.128826 0.707496 24.000000
1.579756 1.107711 0.707222 45.000000
1.603227 1.097540 0.714026 71.000000
1.627061 1.086531 0.720537 49.000000
1.638705 1.067824 0.722127 70.000000
1.658073 1.054021 0.727125 45.000000
1.681342 1.042379 0.733877 43.000000
1.688535 1.020573 0.733551 57.000000
1.699520 1.001044 0.734964 26.000000
1.714375 0.983782 0.738127 48.000000
1.741415 0.973152 0.746488 85.000000
1.756058 0.955238 0.749543 58.000000
1.770555 0.937164 0.752540 73.000000
1.784903 0.918799 0.755476 52.000000
1.815507 0.908979 0.765738 35.000000
1.842265 0.896104 0.773932 67.000000
1.860480 0.878778 0.778540 25.000000
1.865562 0.855546 0.778110 34.000000
1.891754 0.841846 0.786484 45.000000
1.909325 0.823850 0.791190 37.000000
1.935600 0.808921 0.799260 56.000000
1.948631 0.788475 0.802139 49.000000
1.996218 0.781412 0.819233 36.000000
1.995749 0.755414 0.816918 47.000000
2.008292 0.734075 0.819684 29.000000
2.047005 0.721809 0.833134 59.000000
2.059086 0.699967 0.835993 68.000000
2.084219 0.682237 0.844244 52.000000
2.104885 0.662630 0.850571 71.000000
2.125353 0.642574 0.856910 81.000000
2.145618 0.622139 0.863115 52.000000
2.165749 0.601250 0.869330 46.000000
2.212781 0.587228 0.886236 34.000000
2.219000 0.561980 0.887135 36.000000
2.238513 0.539936 0.893385 60.000000
2.262414 0.518471 0.901379 45.000000
2.286101 0.496516 0.909308 52.000000
2.300592 0.472269 0.913546 44.000000
2.319237 0.448700 0.919680 36.000000
2.369715 0.430570 0.938530 34.000000
2.392660 0.406634 0.946348 35.000000
2.419956 0.382926 0.955911 59.000000
2.447011 0.358613 0.965403 53.000000
2.487661 0.335641 0.980523 62.000000
2.505063 0.308977 0.986477 52.000000
2.526800 0.282431 0.994091 55.000000
2.557431 0.256476 1.005604 55.000000
2.578508 0.228895 1.013315 35.000000
2.641227 0.204207 1.037269 36.000000
2.657248 0.174910 1.042999 36.000000
2.691534 0.146393 1.055763 45.000000
2.716202 0.116647 1.065148 66.000000
2.773197 0.087487 1.087125 58.000000
2.787887 0.056120 1.092872 38.000000
2.834801 0.024718 1.111302 67.000000
2.872134 -0.007720 1.125901 31.000000
2.881255 -0.040520 1.129456 33.000000
2.913265 -0.074219 1.141942 36.000000
2.972692 -0.109692 1.165656 35.000000
3.008526 -0.145322 1.179954 35.000000
3.043927 -0.181900 1.194543 33.000000
3.101996 -0.220880 1.218048 30.000000
3.076249 -0.254331 1.208627 16.000000
3.152118 -0.296857 1.239203 34.000000
3.213626 -0.339503 1.264081 35.000000
3.246707 -0.380479 1.278224 35.000000
3.316214 -0.427057 1.306809 34.000000
3.371461 -0.473160 1.329689 57.000000
3.389018 -0.515142 1.338335 32.000000
3.396969 -0.556144 1.343114 32.000000
3.349360 -0.587578 1.325976 22.000000
3.297107 -0.617102 1.306934 29.000000
3.290185 -0.654675 1.305945 33.000000
3.255468 -0.686480 1.294190 34.000000
3.216000 -0.716429 1.280639 33.000000
3.212554 -0.754173 1.281478 36.000000
3.181500 -0.785211 1.271248 31.000000
3.159378 -0.817856 1.264648 29.000000
3.109690 -0.842979 1.247440 18.000000
3.104687 -0.879783 1.248189 29.000000
3.081555 -0.911293 1.241516 32.000000
3.062546 -0.943661 1.236655 34.000000
3.034293 -0.972871 1.228099 30.000000
3.005955 -1.001467 1.219456 35.000000
2.990562 -1.034132 1.216109 33.000000
2.974581 -1.066800 1.213075 27.000000
2.923315 -1.086152 1.195624 25.000000
2.907235 -1.117604 1.192002 31.000000
2.886240 -1.147332 1.186906 32.000000
2.864913 -1.176760 1.181717 36.000000
2.847360 -1.208017 1.178723 32.000000
2.834026 -1.240442 1.176905 35.000000
2.807708 -1.266898 1.169761 35.000000
2.776973 -1.290990 1.160762 26.000000
2.749829 -1.316913 1.153854 25.000000
2.735204 -1.348550 1.152262 37.000000
2.695544 -1.366796 1.139490 32.000000
2.692811 -1.404239 1.142999 50.000000
2.669013 -1.430713 1.137700 34.000000
2.653217 -1.461417 1.135725 37.000000
2.620723 -1.482601 1.126741 35.000000
2.604436 -1.512624 1.124681 29.000000
2.563707 -1.528057 1.112048 27.000000
2.558887 -1.564746 1.115137 35.000000
2.529882 -1.586474 1.107674 32.000000
2.512581 -1.615342 1.105341 37.000000
2.487154 -1.638853 1.099545 32.000000
2.460969 -1.662475 1.094054 35.000000
2.446766 -1.693156 1.093267 36.000000
2.439196 -1.729841 1.096302 29.000000
2.397734 -1.740892 1.083376 30.000000
2.389592 -1.777224 1.086302 24.000000
2.378013 -1.810003 1.087011 22.000000
2.346705 -1.828896 1.079469 35.000000
2.327098 -1.855458 1.076571 33.000000
2.306525 -1.882406 1.074157 42.000000
2.274733 -1.900113 1.066470 36.000000
2.233074 -1.907344 1.053362 26.000000
2.233301 -1.951831 1.060799 29.000000
2.211671 -1.977690 1.058107 34.000000
2.193422 -2.006441 1.056994 34.000000
2.174718 -2.034983 1.055873 43.000000
2.148939 -2.056893 1.051314 32.000000
2.117258 -2.070974 1.042961 34.000000
2.097978 -2.098650 1.041647 30.000000
2.088235 -2.136336 1.045277 23.000000
2.051813 -2.146735 1.035600 28.000000
2.034844 -2.177247 1.035716 32.000000
2.011158 -2.200643 1.032538 33.000000
1.989176 -2.228240 1.031378 38.000000
1.974298 -2.261781 1.032883 33.000000
1.956022 -2.291649 1.032831 33.000000
1.937300 -2.321367 1.032661 33.000000
1.909152 -2.339930 1.027541 26.000000
1.880985 -2.358132 1.022431 26.000000
1.852703 -2.375975 1.017332 29.000000
1.851462 -2.432036 1.028481 39.000000
1.822452 -2.449492 1.023250 30.000000
1.776691 -2.443473 1.008434 12.000000
1.709323 -2.405770 0.981081 20.000000
1.615843 -2.327932 0.938096 19.000000
1.509555 -2.229379 0.887927 14.000000
1.365145 -2.064412 0.812791 9.000000
1.281328 -1.984178 0.772316 10.000000
1.225878 -1.947270 0.749456 21.000000
1.145367 -1.864047 0.709485 20.000000
1.110892 -1.852688 0.697390 24.000000
1.082700 -1.853796 0.690167 29.000000
1.058236 -1.857907 0.684297 32.000000
1.048614 -1.891621 0.689285 26.000000
0.916484 1.687176 0.627428 9.000000
0.938986 1.684625 0.633198 18.000000
0.943909 1.648193 0.626221 18.000000
0.971040 1.653456 0.635134 17.000000
0.983654 1.633922 0.634566 25.000000
1.004548 1.625811 0.638481 23.000000
1.019231 1.610000 0.639473 18.000000
1.036406 1.598038 0.641988 26.000000
1.063879 1.601611 0.650916 10.000000
1.073974 1.576801 0.648320 23.000000
1.077228 1.544788 0.642705 26.000000
1.096434 1.536006 0.646695 18.000000
1.112872 1.523160 0.649069 31.000000
1.127270 1.505739 0.649568 21.000000
1.146236 1.496311 0.653513 24.000000
1.156422 1.475423 0.652540 27.000000
1.195855 1.491373 0.667976 13.000000
1.181938 1.440868 0.653712 34.000000
1.203491 1.434230 0.659264 29.000000
1.218938 1.420116 0.661384 26.000000
1.237313 1.409361 0.665236 34.000000
1.252556 1.394907 0.667362 25.000000
1.267617 1.380210 0.669427 28.000000
1.282556 1.365331 0.671491 32.000000
1.300573 1.353663 0.675188 19.000000
1.315246 1.338382 0.677197 37.000000
1.329797 1.322978 0.679145 30.000000
1.347534 1.310608 0.682739 32.000000
1.365221 1.298037 0.686343 39.000000
1.382182 1.285693 0.690201 28.000000
1.389282 1.263123 0.688599 33.000000
1.420676 1.262350 0.698998 35.000000
1.427374 1.239513 0.697330 22.000000
1.443984 1.226252 0.701094 37.000000
1.464638 1.215225 0.706238 32.000000
1.481660 1.200891 0.709654 31.000000
1.505344 1.192664 0.716762 37.000000
1.514778 1.172031 0.716636 28.000000
1.534728 1.160265 0.721959 33.000000
1.551287 1.144982 0.725225 31.000000
1.567278 1.129864 0.728749 26.000000
1.571666 1.106394 0.726976 35.000000
1.587812 1.090540 0.730128 34.000000
1.611152 1.079990 0.737091 35.000000
1.634471 1.069046 0.744014 35.000000
1.653827 1.055191 0.749176 32.000000
1.669135 1.038496 0.752437 34.000000
1.680377 1.019224 0.753979 33.000000
1.691362 0.999759 0.755392 28.000000
1.714348 0.987086 0.762134 36.000000
1.725023 0.967224 0.763492 35.000000
1.739597 0.949402 0.766655 32.000000
1.762326 0.935793 0.773307 35.000000
1.784609 0.922031 0.780240 35.000000
1.807163 0.907588 0.786863 37.000000
1.816832 0.886860 0.788254 34.000000
1.855960 0.879699 0.802045 24.000000
1.861151 0.856421 0.801569 32.000000
1.883034 0.840697 0.808318 33.000000
1.904837 0.824613 0.815017 35.000000
1.917975 0.804431 0.818004 33.000000
1.952498 0.792833 0.830090 31.000000
1.978385 0.777101 0.838466 34.000000
1.999795 0.759250 0.845023 32.000000
1.994773 0.731565 0.840697 17.000000
2.037710 0.720957 0.856336 38.000000
2.054170 0.700614 0.861088 35.000000
2.070482 0.679927 0.865849 36.000000
2.086570 0.658966 0.870476 33.000000
2.106948 0.639006 0.876961 30.000000
2.127198 0.618668 0.883312 32.000000
2.165135 0.602932 0.897087 33.000000
2.149054 0.572145 0.888770 10.000000
2.200112 0.559019 0.908220 33.000000
2.215179 0.535833 0.912459 29.000000
2.252383 0.517787 0.926455 31.000000
2.271532 0.494915 0.932724 33.000000
2.281352 0.469782 0.935122 28.000000
2.336430 0.453384 0.956396 29.000000
2.345690 0.427444 0.958887 25.000000
2.341094 0.398984 0.955703 9.000000
2.400281 0.380911 0.978582 32.000000
2.445492 0.359476 0.996122 29.000000
2.463019 0.333364 1.002219 29.000000
2.494063 0.308564 1.013934 34.000000
2.511111 0.281581 1.019879 31.000000
2.527861 0.254283 1.025995 26.000000
2.595185 0.231022 1.052378 31.000000
2.620610 0.203143 1.062087 14.000000
2.636476 0.174124 1.068141 29.000000
2.693846 0.146974 1.090717 29.000000
2.718332 0.117156 1.100267 28.000000
2.742661 0.086719 1.109729 30.000000
2.789725 0.056309 1.128750 34.000000
2.813266 0.024637 1.138310 27.000000
2.836533 -0.007657 1.147687 30.000000
2.868788 -0.040520 1.160720 30.000000
2.891389 -0.073887 1.169905 32.000000
2.950557 -0.109154 1.194181 32.000000
2.986235 -0.144676 1.208981 27.000000
3.021480 -0.181145 1.223877 31.000000
3.061002 -0.218593 1.240240 26.000000
3.090715 -0.256224 1.253048 17.000000
3.124576 -0.295134 1.267929 30.000000
3.162764 -0.335170 1.284261 25.000000
3.218753 -0.378426 1.308172 28.000000
3.297154 -0.425916 1.341312 31.000000
3.329075 -0.468723 1.355503 29.000000
3.374306 -0.514468 1.375283 29.000000
3.368467 -0.553101 1.374609 29.000000
3.330200 -0.585994 1.360757 20.000000
3.300842 -0.619757 1.350540 29.000000
3.253045 -0.649256 1.332770 22.000000
3.245735 -0.686568 1.332006 28.000000
3.228932 -0.721638 1.327410 29.000000
3.207546 -0.755220 1.320416 29.000000
3.167340 -0.784246 1.306647 28.000000
3.158759 -0.820395 1.305467 24.000000
3.095983 -0.841819 1.281813 12.000000
3.099894 -0.881161 1.286319 29.000000
3.045520 -0.903428 1.266636 24.000000
3.031063 -0.936916 1.263533 27.000000
3.016322 -0.970197 1.260330 29.000000
2.983568 -0.997277 1.249644 25.000000
2.972618 -1.031367 1.248095 29.000000
2.956675 -1.063986 1.245013 26.000000
2.910269 -1.084623 1.228547 10.000000
2.893800 -1.116382 1.225283 29.000000
2.868525 -1.144391 1.218252 26.000000
2.847259 -1.173773 1.213067 29.000000
2.825665 -1.202756 1.207690 29.000000
2.795427 -1.227598 1.198669 26.000000
2.790496 -1.263369 1.200416 29.000000
2.768201 -1.291360 1.194866 28.000000
2.707512 -1.301200 1.173255 9.000000
2.710141 -1.340266 1.178452 29.000000
2.686784 -1.367332 1.173142 29.000000
2.672074 -1.397838 1.170871 30.000000
2.644158 -1.422114 1.163673 31.000000
2.616191 -1.445810 1.156296 28.000000
2.612319 -1.482843 1.159644 30.000000
2.575852 -1.501166 1.148593 27.000000
2.539250 -1.518829 1.137477 10.000000
2.554442 -1.567579 1.149675 32.000000
2.505584 -1.576970 1.133027 25.000000
2.488365 -1.605702 1.130705 29.000000
2.462964 -1.629086 1.124728 30.000000
2.441351 -1.654623 1.120541 25.000000
2.438126 -1.693889 1.125513 30.000000
2.412096 -1.716274 1.119360 22.000000
2.374644 -1.730028 1.107931 10.000000
2.385194 -1.780210 1.119716 20.000000
2.354915 -1.798857 1.111633 10.000000
2.345890 -1.834944 1.114475 28.000000
2.311560 -1.849923 1.104573 30.000000
2.276423 -1.864950 1.095090 23.000000
2.259317 -1.894506 1.094243 28.000000
2.207028 -1.892563 1.075558 21.000000
2.200225 -1.930671 1.079831 10.000000
2.196259 -1.971959 1.085701 30.000000
2.167559 -1.991138 1.079474 26.000000
2.156781 -2.025178 1.081274 29.000000
2.117634 -2.033901 1.069832 29.000000
2.111984 -2.074974 1.075410 22.000000
2.085885 -2.096155 1.070632 29.000000
2.066130 -2.123712 1.069258 20.000000
2.029991 -2.134013 1.059317 10.000000
2.022616 -2.174743 1.064601 32.000000
1.998930 -2.198140 1.061327 24.000000
1.987476 -2.235329 1.064664 29.000000
1.963155 -2.258292 1.061369 27.000000
1.938641 -2.281062 1.057881 25.000000
1.916947 -2.307072 1.056053 28.000000
1.897859 -2.336523 1.055870 18.000000
1.878515 -2.365820 1.055566 16.000000
1.852930 -2.387500 1.051953 28.000000
1.835811 -2.420080 1.053156 28.000000
1.802617 -2.434560 1.046555 25.000000
1.770862 -2.447732 1.039584 10.000000
1.711774 -2.421856 1.016330 10.000000
1.623914 -2.352002 0.975362 11.000000
1.501990 -2.230277 0.914108 9.000000
1.358366 -2.065586 0.836892 8.000000
1.290146 -2.009432 0.804880 10.000000
1.208350 -1.927954 0.763550 9.000000
1.146902 -1.877778 0.735479 18.000000
1.117151 -1.874716 0.726190 24.000000
1.080451 -1.858906 0.712236 28.000000
1.059299 -1.872109 0.709540 29.000000
1.041617 -1.888503 0.708128 22.000000
0.906590 1.680786 0.642724 21.000000
0.918884 1.656921 0.640442 25.000000
0.943547 1.658279 0.647951 23.000000
0.956426 1.638914 0.647366 31.000000
0.970103 1.618868 0.646573 22.000000
0.982323 1.599364 0.645937 29.000000
1.004319 1.595732 0.651748 28.000000
1.021366 1.583799 0.654305 17.000000
1.036661 1.567198 0.654973 27.000000
1.045482 1.543270 0.652507 25.000000
1.067313 1.538666 0.658295 25.000000
1.083790 1.526066 0.660718 31.000000
1.097314 1.509472 0.661470 26.000000
1.116320 1.500320 0.665564 31.000000
1.136197 1.490314 0.669366 31.000000
1.149274 1.473182 0.669986 23.000000
1.162150 1.455996 0.670594 34.000000
1.174826 1.438637 0.671191 30.000000
1.196404 1.431989 0.676831 34.000000
1.208798 1.414303 0.677362 36.000000
1.224025 1.400043 0.679537 34.000000
1.236063 1.382102 0.679991 35.000000
1.260512 1.377903 0.687281 36.000000
1.275451 1.363084 0.689346 29.000000
1.296692 1.354797 0.694885 38.000000
1.304176 1.333327 0.693719 47.000000
1.318691 1.317901 0.695723 43.000000
1.343132 1.312171 0.702925 48.000000
1.357450 1.296262 0.704883 35.000000
1.371646 1.280231 0.706718 57.000000
1.385046 1.264506 0.708921 73.000000
1.402363 1.251220 0.712468 34.000000
1.409058 1.228516 0.710693 34.000000
1.429107 1.218403 0.716332 35.000000
1.446067 1.204462 0.719775 36.000000
1.466098 1.193692 0.725324 37.000000
1.497523 1.190849 0.735968 35.000000
1.521211 1.182170 0.743244 66.000000
1.534256 1.164146 0.744882 35.000000
1.546733 1.146375 0.746710 35.000000
1.540521 1.114380 0.739164 36.000000
1.563827 1.104638 0.746292 35.000000
1.568012 1.081164 0.744345 49.000000
1.595069 1.073399 0.753327 51.000000
1.622225 1.065088 0.762214 37.000000
1.637596 1.048763 0.765636 67.000000
1.652894 1.032156 0.769002 63.000000
1.675933 1.020164 0.776053 37.000000
1.679013 0.995911 0.773785 35.000000
1.701914 0.983338 0.780732 35.000000
1.720726 0.968014 0.785786 50.000000
1.747526 0.956897 0.794556 57.000000
1.757672 0.936866 0.796127 49.000000
1.780246 0.922720 0.802881 45.000000
1.794212 0.904374 0.806259 60.000000
1.812456 0.887444 0.811111 36.000000
1.838634 0.874503 0.819910 30.000000
1.860641 0.859167 0.826862 37.000000
1.874111 0.839548 0.830017 35.000000
1.895854 0.823456 0.836863 36.000000
1.913242 0.805068 0.841777 35.000000
1.934794 0.788163 0.848515 37.000000
1.951945 0.769193 0.853384 35.000000
1.964428 0.748446 0.856515 33.000000
1.981223 0.728851 0.861262 32.000000
2.002032 0.710674 0.868049 39.000000
2.031487 0.695193 0.878638 49.000000
2.056498 0.677549 0.887212 70.000000
2.085758 0.660826 0.897629 43.000000
2.101753 0.639412 0.902367 52.000000
2.126323 0.620385 0.910770 42.000000
2.141806 0.598461 0.915600 33.000000
2.157197 0.576039 0.920070 33.000000
2.176751 0.554700 0.926675 36.000000
2.218538 0.538353 0.942758 42.000000
2.242277 0.516952 0.951151 40.000000
2.252185 0.492254 0.953975 39.000000
2.289184 0.472831 0.967898 36.000000
2.325862 0.452758 0.982071 47.000000
2.307921 0.421835 0.973119 28.000000
2.371514 0.405441 0.998578 35.000000
2.380287 0.378979 1.001212 37.000000
2.411755 0.355620 1.013123 46.000000
2.433760 0.330389 1.021366 57.000000
2.464657 0.305876 1.033296 55.000000
2.513646 0.282713 1.053171 57.000000
2.521164 0.254328 1.055260 44.000000
2.528358 0.225754 1.057602 28.000000
2.604329 0.202525 1.088628 35.000000
2.624647 0.173863 1.096843 38.000000
2.658729 0.145447 1.110313 41.000000
2.673968 0.115582 1.116351 35.000000
2.698091 0.085604 1.126064 36.000000
2.758779 0.055844 1.151362 39.000000
2.791441 0.024464 1.165024 46.000000
2.828446 -0.007670 1.180429 48.000000
2.846715 -0.040295 1.188038 37.000000
2.878440 -0.073792 1.201230 46.000000
2.932824 -0.108885 1.224331 45.000000
2.968339 -0.144255 1.239535 46.000000
3.003323 -0.180569 1.254833 38.000000
3.047265 -0.218289 1.273574 33.000000
3.076935 -0.255918 1.286837 30.000000
3.106138 -0.294285 1.299786 35.000000
3.162297 -0.336215 1.324571 34.000000
3.218107 -0.379514 1.348813 35.000000
3.277915 -0.424666 1.375167 46.000000
3.327965 -0.469996 1.397548 35.000000
3.377289 -0.516586 1.420132 36.000000
3.348749 -0.551564 1.409415 35.000000
3.310747 -0.584302 1.395326 28.000000
3.295115 -0.620583 1.390606 33.000000
3.283607 -0.657452 1.387695 35.000000
3.244563 -0.688463 1.373530 32.000000
3.214462 -0.720550 1.362768 36.000000
3.197417 -0.755307 1.357861 33.000000
3.162044 -0.785294 1.345326 34.000000
3.162276 -0.823877 1.347956 33.000000
3.099482 -0.845737 1.324123 26.000000
3.094702 -0.882426 1.324541 32.000000
3.062664 -0.911408 1.313866 32.000000
3.034767 -0.941145 1.305107 31.000000
2.997975 -0.967424 1.292358 32.000000
2.987272 -1.001819 1.290903 33.000000
2.932554 -1.020896 1.270309 32.000000
2.960474 -1.068622 1.285791 31.000000
2.913852 -1.089785 1.269331 29.000000
2.897640 -1.121337 1.265599 32.000000
2.868051 -1.147933 1.256528 33.000000
2.838104 -1.173826 1.247374 32.000000
2.825155 -1.206503 1.245654 34.000000
2.803319 -1.235240 1.240182 32.000000
2.777142 -1.261762 1.232646 31.000000
2.746489 -1.285726 1.223256 28.000000
2.711528 -1.307091 1.211923 26.000000
2.701027 -1.340645 1.212105 31.000000
2.686447 -1.371490 1.209923 35.000000
2.654735 -1.394101 1.200703 32.000000
2.647826 -1.428772 1.202146 35.000000
2.627845 -1.457172 1.198316 42.000000
2.587435 -1.473783 1.185150 31.000000
2.575210 -1.506059 1.184941 32.000000
2.546601 -1.528662 1.177259 25.000000
2.533691 -1.560547 1.176855 30.000000
2.512572 -1.587262 1.172677 36.000000
2.479597 -1.606200 1.163010 31.000000
2.473593 -1.642410 1.165974 33.000000
2.440284 -1.660458 1.156148 34.000000
2.418374 -1.685849 1.151814 29.000000
2.400022 -1.713570 1.149206 28.000000
2.376943 -1.739022 1.145076 26.000000
2.361870 -1.769012 1.144183 20.000000
2.323473 -1.782636 1.132750 21.000000
2.315316 -1.817822 1.135272 25.000000
2.298638 -1.847898 1.134564 30.000000
2.285983 -1.880059 1.135059 35.000000
2.250796 -1.894729 1.125302 29.000000
2.237594 -1.926493 1.125692 26.000000
2.191639 -1.931000 1.110554 23.000000
2.177126 -1.962915 1.111237 26.000000
2.170122 -2.000278 1.115053 33.000000
2.144572 -2.022487 1.110306 29.000000
2.125639 -2.050731 1.109083 29.000000
2.099679 -2.072282 1.104249 31.000000
2.070303 -2.090139 1.097678 27.000000
2.058145 -2.123521 1.099359 24.000000
2.028491 -2.140688 1.092611 20.000000
2.008163 -2.167740 1.091080 23.000000
1.990815 -2.198055 1.091265 29.000000
1.960579 -2.214171 1.084447 26.000000
1.942598 -2.244055 1.084418 28.000000
1.942480 -2.295312 1.094629 28.000000
1.911488 -2.310725 1.087606 25.000000
1.898199 -2.347548 1.090801 22.000000
1.846572 -2.336274 1.071838 11.000000
1.832775 -2.372712 1.074918 21.000000
1.811326 -2.402393 1.074978 24.000000
1.796566 -2.438624 1.077881 21.000000
1.762012 -2.447949 1.068945 10.000000
1.700389 -2.418317 1.043501 12.000000
1.631639 -2.375811 1.013050 20.000000
1.558779 -2.324188 0.979496 21.000000
1.509011 -2.307627 0.961333 10.000000
1.291084 -2.022512 0.833050 9.000000
1.229475 -1.973375 0.803659 11.000000
1.147049 -1.886641 0.759759 13.000000
1.106248 -1.868049 0.744012 17.000000
1.079117 -1.868643 0.736157 20.000000
1.056825 -1.877111 0.731557 20.000000
1.033027 -1.886009 0.727179 18.000000
0.918151 1.666950 0.662094 26.000000
0.926694 1.639446 0.658201 31.000000
0.947693 1.631836 0.662354 31.000000
0.965088 1.620544 0.665039 29.000000
0.979844 1.604986 0.666055 34.000000
0.994453 1.589364 0.667058 30.000000
1.015034 1.580877 0.671109 32.000000
1.029312 1.564890 0.672038 30.000000
1.038189 1.540919 0.669504 31.000000
1.060044 1.536303 0.675377 37.000000
1.079172 1.527541 0.679629 37.000000
1.090063 1.507115 0.678691 34.000000
1.114638 1.505443 0.686268 40.000000
1.127999 1.488492 0.686978 33.000000
1.141157 1.471364 0.687614 34.000000
1.149127 1.446238 0.684522 29.000000
1.167714 1.436227 0.688550 36.000000
1.189195 1.429626 0.694338 69.000000
1.203794 1.416057 0.696882 36.000000
1.216049 1.398230 0.697363 39.000000
1.234325 1.387283 0.701304 58.000000
1.249409 1.372623 0.703485 36.000000
1.267495 1.361263 0.707383 52.000000
1.291979 1.356349 0.714856 32.000000
1.300269 1.334302 0.713361 70.000000
1.324706 1.328754 0.720749 70.000000
1.338507 1.313542 0.723080 56.000000
1.352922 1.297655 0.725043 75.000000
1.370493 1.284771 0.728753 79.000000
1.380587 1.265819 0.729153 56.000000
1.394511 1.249380 0.730993 76.000000
1.422264 1.245023 0.740125 26.000000
1.428326 1.222554 0.738575 48.000000
1.427490 1.193604 0.732971 49.000000
1.472590 1.203547 0.751460 41.000000
1.467718 1.171511 0.743938 50.000000
1.509481 1.177358 0.760618 36.000000
1.518360 1.157004 0.760716 35.000000
1.538667 1.144484 0.765994 50.000000
1.543382 1.121131 0.764103 23.000000
1.559208 1.105817 0.767722 36.000000
1.563463 1.082368 0.765684 71.000000
1.602055 1.082332 0.780475 39.000000
1.617569 1.066175 0.784005 60.000000
1.629113 1.047232 0.785600 43.000000
1.648315 1.033145 0.790897 40.000000
1.663482 1.016269 0.794321 41.000000
1.674467 0.996804 0.795799 24.000000
1.693330 0.981789 0.800999 44.000000
1.708072 0.964248 0.804252 51.000000
1.734505 0.953491 0.813472 47.000000
1.749031 0.935295 0.816682 55.000000
1.767116 0.919400 0.822001 75.000000
1.789614 0.904873 0.828915 33.000000
1.811720 0.890323 0.836112 41.000000
1.829524 0.873298 0.841345 20.000000
1.843091 0.854071 0.844604 32.000000
1.860708 0.836439 0.849725 39.000000
1.878206 0.818544 0.854789 31.000000
1.904014 0.803838 0.863652 35.000000
1.921234 0.785179 0.868607 35.000000
1.929543 0.763138 0.869980 29.000000
1.963689 0.750491 0.882554 34.000000
1.967297 0.726281 0.881799 21.000000
1.992366 0.709763 0.890741 34.000000
2.017430 0.692706 0.899563 51.000000
2.037968 0.673658 0.906459 42.000000
2.080259 0.661283 0.922960 42.000000
2.096227 0.639814 0.927726 64.000000
2.111964 0.618141 0.932427 35.000000
2.122887 0.595022 0.935401 36.000000
2.160288 0.578875 0.950034 24.000000
2.179816 0.557378 0.956794 31.000000
2.203665 0.536586 0.965448 37.000000
2.222827 0.514194 0.972004 36.000000
2.241678 0.491569 0.978797 32.000000
2.269446 0.470270 0.989143 45.000000
2.292496 0.447647 0.997769 32.000000
2.301746 0.422044 1.000354 30.000000
2.351402 0.403331 1.020878 30.000000
2.373834 0.379066 1.029145 35.000000
2.391383 0.353791 1.035691 36.000000
2.417842 0.329363 1.046103 38.000000
2.466926 0.307169 1.066216 35.000000
2.488409 0.280749 1.074432 44.000000
2.514091 0.254456 1.084793 36.000000
2.525845 0.226322 1.089159 32.000000
2.587658 0.201823 1.115068 29.000000
2.617141 0.173907 1.127345 35.000000
2.632731 0.144516 1.133356 36.000000
2.670845 0.115803 1.149418 35.000000
2.694865 0.085718 1.159382 36.000000
2.746095 0.055752 1.181382 36.000000
2.769424 0.024383 1.191352 34.000000
2.787887 -0.007595 1.199347 31.000000
2.829036 -0.040229 1.216942 36.000000
2.856022 -0.073460 1.228606 35.000000
2.910058 -0.108350 1.252212 35.000000
2.940818 -0.143486 1.265842 35.000000
2.994079 -0.180647 1.289539 35.000000
3.024060 -0.217328 1.302859 29.000000
3.039753 -0.253701 1.310452 22.000000
3.096271 -0.294307 1.335695 31.000000
3.156926 -0.336664 1.362684 34.000000
3.194092 -0.377899 1.380112 34.000000
3.253507 -0.422935 1.407169 33.000000
3.307863 -0.468796 1.432124 34.000000
3.348078 -0.513817 1.450924 35.000000
3.360257 -0.555388 1.458233 35.000000
3.295417 -0.583524 1.431539 27.000000
3.284235 -0.620550 1.428685 30.000000
3.232277 -0.649212 1.408049 32.000000
3.238330 -0.689392 1.413171 34.000000
3.190365 -0.717553 1.394313 32.000000
3.164433 -0.750087 1.385498 35.000000
3.133699 -0.780881 1.374629 30.000000
3.133926 -0.819307 1.377363 30.000000
3.111586 -0.851648 1.370103 24.000000
3.071302 -0.878513 1.355045 27.000000
3.048219 -0.910037 1.348028 32.000000
3.024802 -0.941150 1.340915 33.000000
2.996779 -0.970329 1.331763 30.000000
2.972932 -1.000468 1.324467 33.000000
2.948869 -1.030097 1.317080 33.000000
2.928927 -1.060892 1.311545 28.000000
2.891379 -1.084804 1.298166 21.000000
2.866321 -1.113329 1.290928 29.000000
2.845651 -1.142664 1.285129 29.000000
2.837227 -1.177410 1.285538 36.000000
2.790295 -1.195697 1.268389 29.000000
2.785483 -1.231659 1.270432 32.000000
2.755088 -1.256125 1.260930 30.000000
2.741274 -1.287856 1.258928 26.000000
2.685588 -1.299275 1.237766 21.000000
2.687935 -1.338463 1.243347 32.000000
2.672859 -1.369804 1.241562 33.000000
2.662170 -1.402606 1.241187 42.000000
2.630116 -1.424790 1.231685 34.000000
2.606730 -1.450404 1.225516 35.000000
2.598623 -1.485308 1.227243 40.000000
2.558190 -1.501463 1.213710 27.000000
2.517773 -1.516865 1.200217 20.000000
2.508887 -1.550996 1.201762 32.000000
2.495692 -1.582539 1.201312 31.000000
2.474382 -1.608927 1.196999 36.000000
2.452835 -1.635029 1.192597 33.000000
2.431053 -1.660848 1.188203 34.000000
2.416734 -1.691607 1.187454 35.000000
2.383212 -1.708645 1.177382 24.000000
2.342246 -1.719647 1.163434 20.000000
2.337698 -1.758513 1.168561 27.000000
2.329706 -1.793835 1.171228 20.000000
2.313941 -1.823563 1.170079 29.000000
2.282676 -1.842086 1.162039 30.000000
2.270014 -1.874100 1.162631 34.000000
2.245502 -1.897851 1.158094 35.000000
2.214687 -1.914469 1.149430 28.000000
2.182823 -1.931224 1.141178 22.000000
2.171689 -1.966297 1.143767 34.000000
2.147443 -1.987894 1.138595 28.000000
2.135556 -2.022712 1.140953 34.000000
2.103076 -2.038106 1.132558 28.000000
2.088240 -2.068533 1.132608 34.000000
2.068736 -2.096369 1.131228 33.000000
2.042386 -2.117271 1.126167 26.000000
2.019122 -2.141208 1.122899 24.000000
2.014576 -2.185473 1.130196 31.000000
1.984346 -2.202109 1.123256 30.000000
1.960257 -2.225424 1.119774 33.000000
1.929772 -2.241258 1.112770 30.000000
1.927745 -2.288021 1.121000 33.000000
1.890970 -2.296081 1.110397 31.000000
1.877725 -2.332775 1.113687 25.000000
1.830636 -2.329786 1.098208 16.000000
1.825366 -2.377237 1.106569 26.000000
1.808074 -2.409851 1.107944 28.000000
1.793119 -2.446157 1.110904 30.000000
1.752930 -2.447959 1.098393 12.000000
1.688813 -2.414585 1.070481 14.000000
1.615054 -2.364410 1.035846 21.000000
1.542610 -2.312832 1.001533 23.000000
1.468927 -2.255933 0.965669 10.000000
1.279182 -2.015514 0.852917 10.000000
1.227832 -1.982462 0.829481 14.000000
1.138284 -1.883862 0.779497 18.000000
1.098964 -1.864687 0.763062 22.000000
1.079950 -1.882367 0.761917 24.000000
1.048216 -1.874473 0.750581 28.000000
0.905885 1.656169 0.675451 31.000000
0.924853 1.644604 0.678021 28.000000
0.940125 1.629395 0.679077 26.000000
0.955126 1.613997 0.680119 31.000000
0.974792 1.606506 0.684570 24.000000
0.996903 1.602823 0.690753 32.000000
1.002495 1.570469 0.684585 29.000000
1.027039 1.570190 0.692383 21.000000
1.036055 1.546238 0.689795 34.000000
1.049941 1.529956 0.690655 28.000000
1.066437 1.517388 0.693193 33.000000
1.085486 1.508438 0.697488 33.000000
1.098946 1.491647 0.698209 29.000000
1.117835 1.482268 0.702455 36.000000
1.130971 1.465181 0.703103 29.000000
1.152594 1.458977 0.709083 27.000000
1.165388 1.441621 0.709664 45.000000
1.175067 1.420496 0.708440 32.000000
1.193450 1.410013 0.712529 56.000000
1.208798 1.395753 0.714765 34.000000
1.223904 1.381311 0.717001 35.000000
1.245208 1.373591 0.722869 65.000000
1.256254 1.355843 0.723476 30.000000
1.274236 1.344258 0.727484 22.000000
1.288933 1.329015 0.729549 57.000000
1.306783 1.316890 0.733452 44.000000
1.333781 1.314842 0.743142 79.000000
1.348171 1.298915 0.745171 71.000000
1.359056 1.279559 0.745285 46.000000
1.369137 1.260712 0.745695 84.000000
1.386414 1.247417 0.749395 37.000000
1.417010 1.246599 0.760951 27.000000
1.406189 1.208496 0.749634 36.000000
1.440291 1.210021 0.762985 32.000000
1.446512 1.186923 0.760952 40.000000
1.462761 1.172928 0.764813 37.000000
1.490376 1.166788 0.773989 35.000000
1.491834 1.141008 0.770233 62.000000
1.526266 1.140142 0.783502 33.000000
1.531056 1.116840 0.781575 30.000000
1.546832 1.101565 0.785237 39.000000
1.570062 1.091349 0.792738 48.000000
1.581875 1.072966 0.794443 68.000000
1.608894 1.064581 0.803777 36.000000
1.620439 1.045638 0.805436 42.000000
1.639600 1.031543 0.810892 68.000000
1.654745 1.014663 0.814300 32.000000
1.669751 0.997562 0.817715 29.000000
1.684229 0.980563 0.821460 41.000000
1.699015 0.963019 0.824761 36.000000
1.721656 0.949635 0.831899 47.000000
1.735746 0.931874 0.835480 46.000000
1.753895 0.916020 0.840894 48.000000
1.780343 0.903615 0.849974 80.000000
1.785887 0.880919 0.849403 32.000000
1.811920 0.868052 0.858650 26.000000
1.837926 0.854734 0.867855 33.000000
1.851334 0.835157 0.871105 33.000000
1.872998 0.819097 0.878239 35.000000
1.894580 0.802607 0.885322 48.000000
1.911484 0.784218 0.890717 33.000000
1.928600 0.765219 0.895710 37.000000
1.958093 0.751160 0.906943 26.000000
1.961810 0.726833 0.906141 29.000000
1.982491 0.708713 0.913293 52.000000
2.003133 0.690152 0.920320 35.000000
2.036645 0.675549 0.933343 62.000000
2.065766 0.658877 0.944253 50.000000
2.085986 0.638870 0.951114 47.000000
2.101534 0.617339 0.956204 44.000000
2.108025 0.592978 0.957225 30.000000
2.149906 0.577911 0.973913 27.000000
2.156061 0.552994 0.974729 46.000000
2.188460 0.534672 0.987889 34.000000
2.216540 0.514473 0.998611 36.000000
2.230865 0.490883 1.003543 49.000000
2.258602 0.469578 1.014137 34.000000
2.276997 0.446070 1.020870 34.000000
2.299562 0.423156 1.029860 30.000000
2.340157 0.402697 1.046537 30.000000
2.358064 0.377784 1.052985 37.000000
2.380066 0.353230 1.061695 36.000000
2.410949 0.329415 1.074374 36.000000
2.445962 0.305540 1.089251 53.000000
2.481061 0.280848 1.103647 40.000000
2.502090 0.254036 1.112236 37.000000
2.495584 0.224348 1.108610 29.000000
2.566299 0.200851 1.139212 27.000000
2.591171 0.172646 1.149503 35.000000
2.629336 0.144756 1.166045 57.000000
2.649011 0.115228 1.174319 34.000000
2.673008 0.085336 1.184532 37.000000
2.705625 0.055103 1.199067 36.000000
2.728932 0.024049 1.209286 34.000000
2.765501 -0.007570 1.225583 37.000000
2.820165 -0.040201 1.249704 34.000000
2.837880 -0.073247 1.257616 37.000000
2.882616 -0.107741 1.277771 41.000000
2.926929 -0.143290 1.297825 34.000000
2.961676 -0.179243 1.313627 39.000000
3.018779 -0.217683 1.339839 34.000000
3.034377 -0.254059 1.347630 22.000000
3.086050 -0.294328 1.371497 37.000000
3.137301 -0.335756 1.395245 36.000000
3.187900 -0.378550 1.419082 35.000000
3.229075 -0.421099 1.438428 35.000000
3.292222 -0.468020 1.468066 33.000000
3.327588 -0.512222 1.485342 35.000000
3.326261 -0.551490 1.486798 32.000000
3.270412 -0.581146 1.463942 21.000000
3.268594 -0.619663 1.464627 35.000000
3.243659 -0.653763 1.455686 31.000000
3.213777 -0.686491 1.444852 32.000000
3.161563 -0.713445 1.423541 35.000000
3.149114 -0.749008 1.420559 33.000000
3.140916 -0.785148 1.419049 35.000000
3.123317 -0.819179 1.413851 33.000000
3.056538 -0.839658 1.386935 19.000000
3.069369 -0.881247 1.395468 32.000000
3.020183 -0.904722 1.375874 32.000000
2.992604 -0.934217 1.366727 29.000000
2.977703 -0.967556 1.363374 34.000000
2.949593 -0.996079 1.353939 30.000000
2.934282 -1.028752 1.350393 32.000000
2.909969 -1.057880 1.342770 32.000000
2.898434 -1.091457 1.341019 22.000000
2.856552 -1.113163 1.325277 32.000000
2.844015 -1.146392 1.323748 34.000000
2.814725 -1.171949 1.313795 31.000000
2.805875 -1.206489 1.314049 40.000000
2.771484 -1.229746 1.302457 32.000000
2.762067 -1.263783 1.302514 37.000000
2.739833 -1.291835 1.296662 34.000000
2.700839 -1.311560 1.282764 24.000000
2.678163 -1.338635 1.276749 33.000000
2.667255 -1.372129 1.276920 35.000000
2.623757 -1.387809 1.260947 31.000000
2.620832 -1.424619 1.264439 36.000000
2.584814 -1.444042 1.252720 34.000000
2.572718 -1.476652 1.252604 33.000000
2.576649 -1.517826 1.259755 36.000000
2.488818 -1.504999 1.222601 24.000000
2.491653 -1.546135 1.230057 34.000000
2.486246 -1.582679 1.233421 34.000000
2.457202 -1.604072 1.225204 34.000000
2.439540 -1.632700 1.222778 33.000000
2.410260 -1.653203 1.214403 31.000000
2.403439 -1.689181 1.217538 33.000000
2.403750 -1.730630 1.224371 34.000000
2.332785 -1.720098 1.194855 22.000000
2.339868 -1.766582 1.205293 30.000000
2.309732 -1.785182 1.196701 19.000000
2.285980 -1.809654 1.192305 22.000000
2.288051 -1.853577 1.200555 35.000000
2.249362 -1.865964 1.188421 31.000000
2.236402 -1.897860 1.189000 32.000000
2.201154 -1.912165 1.178703 33.000000
2.163376 -1.922102 1.166096 20.000000
2.162549 -1.966347 1.174329 32.000000
2.138193 -1.987988 1.169009 30.000000
2.129575 -2.026129 1.173449 32.000000
2.103741 -2.048002 1.168413 36.000000
2.068962 -2.058900 1.157472 28.000000
2.049414 -2.086653 1.156052 29.000000
2.048930 -2.134330 1.165618 32.000000
1.999968 -2.131344 1.147602 17.000000
1.999684 -2.178162 1.156519 32.000000
1.963306 -2.187838 1.145767 29.000000
1.948552 -2.221457 1.147732 30.000000
1.933278 -2.255005 1.149469 35.000000
1.899601 -2.267022 1.140476 28.000000
1.880847 -2.296591 1.140386 28.000000
1.858727 -2.322363 1.138389 32.000000
1.824723 -2.333193 1.129254 15.000000
1.822083 -2.384381 1.139585 29.000000
1.793325 -2.402087 1.133898 27.000000
1.783851 -2.445896 1.140464 30.000000
1.738281 -2.440234 1.124121 17.000000
1.674466 -2.406818 1.095519 10.000000
1.608984 -2.368352 1.065353 19.000000
1.513467 -2.281874 1.014443 16.000000
1.351121 -2.087053 0.917165 9.000000
1.279683 -2.028296 0.881244 13.000000
1.218466 -1.979365 0.850328 13.000000
1.141613 -1.901079 0.807649 16.000000
1.090279 -1.861816 0.782253 23.000000
1.063253 -1.862450 0.774009 23.000000
1.037184 -1.867513 0.767774 24.000000
0.930866 1.666603 0.704996 21.000000
0.927772 1.618636 0.692261 26.000000
0.952265 1.619456 0.700294 22.000000
0.967163 1.603882 0.701355 29.000000
0.984375 1.592224 0.704102 24.000000
0.998900 1.576311 0.705081 17.000000
1.016922 1.563708 0.707516 20.000000
1.028544 1.543633 0.706635 22.000000
1.050407 1.538929 0.712874 27.000000
1.056331 1.510964 0.708319 31.000000
1.083405 1.513419 0.718049 24.000000
1.102478 1.504150 0.722412 31.000000
1.104790 1.472209 0.715913 25.000000
1.137725 1.481049 0.729297 23.000000
1.145125 1.456426 0.726270 30.000000
1.155081 1.435391 0.725037 22.000000
1.167654 1.417904 0.725557 29.000000
1.188226 1.411514 0.731896 33.000000
1.203612 1.397278 0.734198 27.000000
1.215747 1.379317 0.734645 35.000000
1.237009 1.371587 0.740602 34.000000
1.252009 1.356708 0.742849 27.000000
1.275642 1.352310 0.750896 31.000000
1.284013 1.330284 0.749343 28.000000
1.301880 1.318115 0.753296 35.000000
1.315613 1.302979 0.755676 33.000000
1.333342 1.290388 0.759646 32.000000
1.357619 1.283891 0.767302 45.000000
1.367725 1.264909 0.767678 30.000000
1.378256 1.245331 0.767736 31.000000
1.408751 1.244550 0.779458 29.000000
1.422537 1.227533 0.781321 29.000000
1.424998 1.201964 0.777658 39.000000
1.452056 1.196993 0.787474 32.000000
1.468970 1.182390 0.791089 32.000000
1.485199 1.168015 0.795026 34.000000
1.497774 1.150560 0.797028 31.000000
1.513781 1.135744 0.800853 28.000000
1.529724 1.120653 0.804688 27.000000
1.541794 1.102610 0.806511 29.000000
1.565052 1.092339 0.814156 36.000000
1.580693 1.076499 0.817832 34.000000
1.596201 1.060380 0.821516 33.000000
1.615429 1.046477 0.827118 35.000000
1.638457 1.034781 0.834650 33.000000
1.649725 1.015399 0.836196 31.000000
1.668348 1.000996 0.841970 29.000000
1.675322 0.978885 0.841404 29.000000
1.697669 0.966261 0.849127 34.000000
1.704254 0.943890 0.848431 33.000000
1.726407 0.930568 0.856052 33.000000
1.744841 0.914314 0.861299 35.000000
1.754617 0.893974 0.862808 29.000000
1.780608 0.881629 0.872291 31.000000
1.806576 0.868702 0.881734 23.000000
1.820146 0.849451 0.885087 26.000000
1.845991 0.835695 0.894436 33.000000
1.871526 0.821687 0.904081 31.000000
1.884600 0.801514 0.907266 27.000000
1.901802 0.782845 0.912415 29.000000
1.918600 0.764185 0.917780 27.000000
1.943789 0.748403 0.927224 25.000000
1.960351 0.728973 0.932549 29.000000
1.981000 0.710746 0.939783 26.000000
2.010237 0.695132 0.951042 29.000000
2.030692 0.675991 0.958167 29.000000
2.051028 0.656404 0.965304 30.000000
2.071022 0.636658 0.972599 31.000000
2.086657 0.615028 0.977495 28.000000
2.101984 0.593268 0.982617 22.000000
2.147882 0.579470 1.001973 26.000000
2.154063 0.554525 1.002866 24.000000
2.182000 0.535006 1.014195 29.000000
2.196593 0.511647 1.018989 29.000000
2.210852 0.488157 1.024016 25.000000
2.233844 0.466171 1.033098 25.000000
2.265625 0.445528 1.046167 25.000000
2.274822 0.419974 1.048851 11.000000
2.337647 0.403613 1.076168 28.000000
2.350851 0.377949 1.081098 26.000000
2.381775 0.354760 1.094065 29.000000
2.399017 0.328928 1.100838 30.000000
2.429603 0.304480 1.113664 27.000000
2.459770 0.279404 1.126665 25.000000
2.476257 0.252316 1.133379 24.000000
2.474229 0.223195 1.131724 9.000000
2.549135 0.200151 1.165145 23.000000
2.573977 0.172083 1.175598 22.000000
2.598334 0.143576 1.186313 21.000000
2.622455 0.114456 1.196947 26.000000
2.678073 0.085740 1.221931 25.000000
2.710629 0.055384 1.236725 25.000000
2.738284 0.024250 1.249359 28.000000
2.774766 -0.007632 1.265962 31.000000
2.797323 -0.040070 1.276245 32.000000
2.842236 -0.073624 1.296711 32.000000
2.882099 -0.108059 1.315287 31.000000
2.921639 -0.143541 1.333762 35.000000
2.947218 -0.178946 1.345910 28.000000
2.990417 -0.216395 1.366548 26.000000
3.024074 -0.254135 1.382832 27.000000
3.066417 -0.293481 1.403151 25.000000
3.130979 -0.336307 1.433607 31.000000
3.154292 -0.375754 1.445291 26.000000
3.231155 -0.422918 1.482125 30.000000
