x y z intensity
2.633090 0.788632 0.186564 62.000000
2.655795 0.764269 0.187834 57.000000
2.692761 0.743237 0.190039 62.000000
2.705531 0.715203 0.190635 35.000000
2.756676 0.696844 0.193867 35.000000
2.783465 0.671430 0.195491 45.000000
2.795422 0.642330 0.196007 37.000000
2.826544 0.617206 0.197888 47.000000
2.837978 0.587507 0.198407 46.000000
2.878451 0.563273 0.200977 49.000000
2.903994 0.535579 0.202524 50.000000
2.919515 0.505665 0.203390 32.000000
2.939635 0.476244 0.204599 59.000000
2.974147 0.448735 0.206748 88.000000
2.993660 0.418419 0.207961 75.000000
3.037677 0.390964 0.210800 68.000000
3.011982 0.354395 0.208926 24.000000
3.015693 0.321645 0.209019 9.000000
3.048733 0.291654 0.211175 9.000000
3.061671 0.259236 0.211957 8.000000
3.133946 0.231097 0.216870 8.000000
3.161144 0.198534 0.218688 9.000000
3.193067 0.165688 0.220852 9.000000
3.259422 0.133522 0.225331 26.000000
3.315563 0.099746 0.229223 60.000000
3.336323 0.064005 0.230602 43.000000
3.371748 0.028057 0.233118 46.000000
3.411755 -0.008767 0.235876 42.000000
3.426404 -0.046124 0.236911 29.000000
3.485614 -0.084901 0.241049 28.000000
3.534290 -0.124521 0.244498 41.000000
3.582603 -0.165334 0.247946 73.000000
3.630317 -0.207122 0.251395 95.000000
3.647776 -0.247965 0.252662 95.000000
3.624977 -0.286100 0.251283 33.000000
3.492473 -0.313870 0.242214 9.000000
3.459156 -0.348840 0.240147 10.000000
3.425372 -0.383163 0.237974 35.000000
3.356688 -0.412473 0.233394 25.000000
3.317424 -0.444255 0.230881 18.000000
3.297598 -0.478148 0.229747 10.000000
3.282338 -0.512487 0.228958 9.000000
3.207670 -0.536635 0.224045 8.000000
3.216432 -0.574084 0.224976 36.000000
3.200134 -0.607106 0.224090 60.000000
3.168907 -0.636965 0.222275 68.000000
3.147249 -0.668266 0.221049 71.000000
3.081355 -0.689446 0.216840 73.000000
3.049445 -0.717060 0.214936 66.000000
3.041492 -0.750215 0.214744 62.000000
2.931728 -0.756990 0.207378 8.000000
2.923299 -0.788852 0.207193 9.000000
2.919394 -0.821880 0.207349 25.000000
2.919876 -0.856230 0.207751 73.000000
2.862762 -0.873413 0.204163 75.000000
2.843548 -0.901526 0.203300 76.000000
2.843079 -0.935486 0.203796 37.000000
2.884760 -0.983869 0.207253 30.000000
2.906871 -1.026825 0.209344 19.000000
2.975109 -1.087530 0.214909 31.000000
3.023855 -1.142820 0.219012 31.000000
3.076255 -1.201047 0.223441 22.000000
3.165024 -1.275090 0.230554 4.000000
3.284526 -1.365053 0.240002 2.000000
3.319953 -1.422238 0.243373 2.000000
3.276883 -1.446277 0.241028 2.000000
3.279164 -1.490139 0.242040 1.000000
3.140735 -1.468667 0.232565 3.000000
3.142599 -1.511464 0.233583 5.000000
3.085922 -1.525273 0.230154 7.000000
3.024701 -1.536267 0.226404 8.000000
2.981249 -1.555210 0.224098 9.000000
2.977370 -1.594673 0.224682 10.000000
2.955437 -1.624706 0.224041 9.000000
2.920210 -1.646982 0.222305 8.000000
2.897742 -1.676271 0.221564 10.000000
2.879313 -1.707806 0.221155 10.000000
2.843421 -1.728769 0.219429 9.000000
2.794849 -1.741241 0.216724 10.000000
2.800948 -1.787761 0.218186 8.000000
2.744050 -1.793076 0.214736 9.000000
2.716107 -1.817401 0.213683 9.000000
2.700234 -1.849705 0.213608 9.000000
2.679914 -1.879133 0.213108 10.000000
2.642980 -1.896626 0.211311 10.000000
2.622187 -1.925477 0.210913 10.000000
2.597007 -1.951033 0.210093 13.000000
2.543900 -1.954922 0.207021 10.000000
2.530259 -1.988757 0.207172 10.000000
2.508410 -2.016314 0.206680 9.000000
2.474702 -2.034169 0.205229 9.000000
2.467646 -2.073950 0.206015 10.000000
2.425952 -2.084502 0.203834 10.000000
2.388070 -2.097738 0.202076 10.000000
2.365034 -2.123690 0.201492 10.000000
2.345382 -2.152822 0.201322 10.000000
2.318184 -2.174913 0.200423 10.000000
2.298751 -2.202665 0.200154 9.000000
2.246086 -2.199655 0.197067 9.000000
2.236162 -2.238193 0.197738 10.000000
2.176802 -2.226789 0.194048 10.000000
2.128281 -2.225158 0.191306 18.000000
2.100487 -2.244580 0.190432 31.000000
2.079325 -2.271007 0.190082 44.000000
1.426000 -1.663331 0.133972 19.000000
1.388605 -1.655794 0.131745 28.000000
1.357906 -1.655358 0.130069 30.000000
1.349209 -1.681699 0.130518 33.000000
1.337045 -1.704120 0.130658 26.000000
1.300209 -1.694863 0.128460 30.000000
1.299762 -1.732861 0.129797 29.000000
1.269083 -1.730800 0.128142 26.000000
1.261816 -1.760675 0.128870 22.000000
1.239814 -1.770228 0.128045 27.000000
1.231796 -1.800051 0.128761 28.000000
1.195549 -1.788489 0.126533 25.000000
1.186997 -1.818098 0.127242 28.000000
1.172584 -1.839326 0.127294 27.000000
1.152579 -1.851995 0.126827 23.000000
1.137558 -1.872931 0.126872 24.000000
1.084046 -1.829429 0.122660 8.000000
1.316438 2.253011 0.170141 8.000000
1.330603 2.221367 0.169552 17.000000
1.342822 2.190573 0.169032 27.000000
1.369208 2.180024 0.170147 19.000000
1.384731 2.152321 0.169862 27.000000
1.408057 2.137135 0.170567 26.000000
1.422858 2.109228 0.170270 24.000000
1.445659 2.093587 0.170892 30.000000
1.476942 2.089933 0.172602 18.000000
1.476179 2.041391 0.170604 24.000000
1.495250 2.021122 0.170958 26.000000
1.511147 1.996786 0.170893 24.000000
1.520535 1.964386 0.170215 34.000000
1.563407 1.975122 0.173224 27.000000
1.575414 1.946307 0.172808 26.000000
1.583758 1.913625 0.172039 33.000000
1.598059 1.888608 0.172029 21.000000
1.615230 1.867278 0.172286 28.000000
1.632094 1.845791 0.172466 29.000000
1.662177 1.839027 0.174120 28.000000
1.685431 1.824414 0.175078 37.000000
1.691567 1.791368 0.174275 28.000000
1.710939 1.772750 0.174803 32.000000
1.733663 1.757531 0.175761 33.000000
1.745615 1.731473 0.175577 24.000000
1.778738 1.726183 0.177532 42.000000
1.793171 1.703789 0.177781 32.000000
1.800756 1.673925 0.177232 29.000000
1.837332 1.670841 0.179561 72.000000
1.836864 1.634055 0.178285 29.000000
1.873351 1.630263 0.180625 59.000000
1.891057 1.609594 0.181157 45.000000
1.904701 1.585583 0.181248 29.000000
1.933517 1.574097 0.182877 35.000000
1.954508 1.555993 0.183701 30.000000
1.967392 1.531372 0.183792 32.000000
1.972120 1.500722 0.183220 48.000000
2.004428 1.490937 0.185153 32.000000
2.020558 1.468920 0.185612 35.000000
2.012070 1.429349 0.183767 35.000000
2.047653 1.422043 0.186157 25.000000
2.071317 1.405134 0.187361 32.000000
2.107342 1.396153 0.189614 32.000000
2.109869 1.364821 0.188954 34.000000
2.116204 1.336348 0.188587 52.000000
2.147659 1.323602 0.190553 32.000000
2.140579 1.287207 0.189052 35.000000
2.184595 1.281395 0.192081 34.000000
2.181083 1.247542 0.190953 29.000000
2.220433 1.238658 0.193694 32.000000
2.251338 1.223824 0.195605 34.000000
2.264514 1.199197 0.195919 33.000000
2.304040 1.188123 0.198602 64.000000
2.307983 1.158418 0.198155 35.000000
2.329352 1.137500 0.199316 34.000000
2.350657 1.116307 0.200402 46.000000
2.353473 1.086719 0.200031 27.000000
2.392427 1.073253 0.202660 33.000000
2.394844 1.043107 0.202209 29.000000
2.433588 1.028606 0.204848 35.000000
2.449198 1.003889 0.205558 36.000000
2.464526 0.979235 0.206351 32.000000
2.484303 0.955864 0.207372 33.000000
2.508584 0.933949 0.208864 35.000000
2.509200 0.903204 0.208413 19.000000
2.556498 0.889119 0.211861 35.000000
2.575394 0.864369 0.212891 35.000000
2.575223 0.833192 0.212358 32.000000
2.617317 0.815651 0.215431 53.000000
2.630820 0.788548 0.216075 34.000000
2.658387 0.765310 0.217813 42.000000
2.676126 0.739171 0.218938 36.000000
2.659936 0.703561 0.217141 10.000000
2.734999 0.691782 0.222907 33.000000
2.752030 0.664238 0.223955 29.000000
2.773710 0.637688 0.225399 28.000000
2.819374 0.615965 0.228734 35.000000
2.860076 0.592384 0.231678 31.000000
2.866335 0.561267 0.231946 30.000000
2.906547 0.536393 0.234898 36.000000
2.853226 0.494510 0.230322 9.000000
2.932255 0.475356 0.236450 36.000000
2.956970 0.446411 0.238220 36.000000
2.986320 0.417636 0.240298 32.000000
3.020318 0.388961 0.242867 41.000000
2.979871 0.350805 0.239474 10.000000
2.988409 0.318908 0.239963 8.000000
3.036374 0.290610 0.243638 9.000000
3.069160 0.260078 0.246121 5.000000
3.146358 0.232101 0.252192 8.000000
3.153651 0.198222 0.252687 8.000000
3.165540 0.164299 0.253581 8.000000
3.256827 0.133522 0.260858 27.000000
3.287915 0.098996 0.263251 29.000000
3.313736 0.063622 0.265346 31.000000
3.359098 0.027974 0.268938 42.000000
3.389105 -0.008716 0.271436 30.000000
3.428662 -0.046191 0.274629 74.000000
3.462804 -0.084309 0.277423 17.000000
3.511553 -0.123818 0.281415 10.000000
3.564704 -0.164535 0.285696 35.000000
3.592593 -0.205023 0.288090 44.000000
3.620005 -0.246162 0.290485 94.000000
3.532651 -0.278928 0.283593 32.000000
3.464864 -0.311531 0.278301 18.000000
3.446367 -0.347733 0.277105 36.000000
3.402818 -0.380840 0.273810 8.000000
3.353894 -0.412370 0.270120 8.000000
3.324539 -0.445476 0.268025 8.000000
3.324440 -0.482339 0.268218 8.000000
3.240200 -0.506231 0.261750 8.000000
3.209999 -0.537258 0.259662 8.000000
3.189201 -0.569603 0.258270 29.000000
3.187750 -0.605147 0.258568 71.000000
3.141905 -0.631854 0.255195 35.000000
3.125090 -0.663926 0.254205 42.000000
3.069116 -0.686979 0.250047 69.000000
3.037154 -0.714585 0.247874 36.000000
3.014709 -0.744052 0.246496 48.000000
2.948623 -0.761792 0.241469 9.000000
2.925703 -0.789966 0.240098 8.000000
2.902589 -0.817548 0.238636 21.000000
2.907891 -0.853330 0.239634 51.000000
2.860291 -0.873322 0.236298 34.000000
2.841175 -0.901161 0.235145 79.000000
2.840698 -0.935211 0.235748 29.000000
2.849222 -0.972505 0.237043 23.000000
2.895020 -1.023220 0.241377 25.000000
2.949280 -1.078679 0.246574 21.000000
3.002634 -1.135372 0.251759 27.000000
3.031842 -1.184419 0.254978 10.000000
3.143713 -1.267322 0.265106 3.000000
3.254081 -1.353242 0.275309 3.000000
3.252939 -1.394519 0.276044 3.000000
3.246675 -1.433865 0.276495 6.000000
3.212770 -1.461028 0.274510 7.000000
3.129159 -1.463806 0.268271 7.000000
3.090520 -1.487048 0.265916 9.000000
3.060738 -1.514011 0.264338 9.000000
3.017455 -1.533801 0.261608 9.000000
3.004987 -1.568951 0.261578 9.000000
2.970084 -1.592214 0.259627 8.000000
2.948284 -1.622097 0.258728 8.000000
2.908963 -1.641467 0.256300 8.000000
2.873710 -1.663171 0.254262 8.000000
2.863993 -1.699559 0.254618 9.000000
2.823941 -1.717795 0.252206 9.000000
2.800792 -1.745912 0.251321 9.000000
2.819416 -1.800569 0.254328 7.000000
2.724553 -1.782159 0.247007 8.000000
2.721493 -1.822950 0.247919 8.000000
2.693220 -1.846985 0.246664 9.000000
2.677412 -1.878533 0.246440 9.000000
2.656792 -1.907661 0.245940 9.000000
2.611763 -1.918877 0.243095 8.000000
2.586652 -1.944346 0.242226 9.000000
2.565261 -1.972569 0.241632 9.000000
2.516139 -1.978919 0.238438 8.000000
2.509933 -2.018849 0.239332 8.000000
2.460797 -2.023981 0.236154 9.000000
2.461464 -2.070149 0.237781 8.000000
2.408481 -2.070911 0.234248 9.000000
2.389482 -2.100447 0.234032 9.000000
2.358992 -2.119773 0.232716 9.000000
2.328356 -2.138744 0.231307 9.000000
2.272129 -2.133369 0.227451 9.000000
2.267523 -2.174469 0.228502 9.000000
2.204602 -2.160776 0.223851 17.000000
2.163278 -2.167026 0.221387 20.000000
2.146544 -2.197677 0.221544 52.000000
2.115591 -2.213777 0.220169 36.000000
2.108356 -2.254945 0.221206 36.000000
2.080337 -2.274122 0.220189 35.000000
1.421081 -1.659142 0.154586 17.000000
1.386953 -1.655464 0.152293 19.000000
1.375172 -1.678178 0.152531 26.000000
1.347495 -1.681370 0.150952 23.000000
1.338400 -1.707715 0.151469 24.000000
1.310713 -1.710307 0.149897 29.000000
1.295049 -1.728538 0.149716 22.000000
1.279100 -1.746569 0.149532 18.000000
1.251384 -1.748175 0.147972 18.000000
1.243815 -1.778073 0.148748 18.000000
1.215989 -1.779126 0.147195 20.000000
1.196609 -1.792309 0.146667 20.000000
1.190654 -1.826123 0.147765 18.000000
1.160067 -1.822160 0.145884 20.000000
1.145446 -1.843188 0.145960 15.000000
1.131708 -1.863398 0.145965 13.000000
1.131784 -1.909936 0.148093 7.000000
1.299048 2.226612 0.191461 7.000000
1.328306 2.220813 0.192994 23.000000
1.344564 2.193409 0.192665 18.000000
1.362960 2.170163 0.192781 28.000000
1.389186 2.159376 0.193942 25.000000
1.398889 2.123236 0.192838 23.000000
1.417815 2.104549 0.193314 29.000000
1.440650 2.088938 0.194090 21.000000
1.454626 2.060875 0.193719 25.000000
1.476940 2.044893 0.194491 26.000000
1.484286 2.008556 0.193333 28.000000
1.502991 1.988297 0.193634 32.000000
1.521456 1.967797 0.194008 28.000000
1.536593 1.943226 0.193913 29.000000
1.570135 1.941895 0.196238 31.000000
1.575278 1.905410 0.194961 27.000000
1.602375 1.895692 0.196431 31.000000
1.626151 1.881834 0.197511 30.000000
1.636658 1.852734 0.197004 35.000000
1.660054 1.838421 0.198084 36.000000
1.673238 1.812820 0.197891 32.000000
1.689532 1.790765 0.198170 35.000000
1.712363 1.775809 0.199251 36.000000
1.735122 1.760476 0.200259 32.000000
1.760584 1.749110 0.201750 37.000000
1.790301 1.740152 0.203654 31.000000
1.787517 1.699825 0.201819 51.000000
1.809670 1.683506 0.202832 65.000000
1.835281 1.670309 0.204182 38.000000
1.853442 1.650096 0.204790 60.000000
1.871300 1.629655 0.205398 55.000000
1.885212 1.605755 0.205516 44.000000
1.898826 1.581863 0.205708 45.000000
1.919869 1.564045 0.206654 28.000000
1.925165 1.533649 0.205934 38.000000
1.945754 1.515530 0.206879 64.000000
1.965654 1.497627 0.207903 42.000000
1.969939 1.467054 0.207172 69.000000
1.985887 1.445389 0.207699 41.000000
2.009653 1.429273 0.208994 44.000000
2.025137 1.407218 0.209523 71.000000
2.069249 1.404521 0.212946 29.000000
2.080339 1.379019 0.212980 44.000000
2.103611 1.361575 0.214291 81.000000
2.130981 1.346456 0.216109 45.000000
2.132546 1.315601 0.215289 52.000000
2.155281 1.297330 0.216607 71.000000
2.182192 1.281240 0.218359 48.000000
2.204713 1.262238 0.219685 60.000000
2.231381 1.245318 0.221369 27.000000
2.240469 1.218437 0.221406 37.000000
2.279845 1.208292 0.224475 84.000000
2.297234 1.185521 0.225304 57.000000
2.310063 1.160338 0.225700 52.000000
2.336001 1.141636 0.227403 63.000000
2.352766 1.118206 0.228238 53.000000
2.369178 1.094838 0.229074 60.000000
2.403650 1.079051 0.231664 28.000000
2.415274 1.052737 0.232067 37.000000
2.440336 1.032162 0.233708 63.000000
2.465118 1.011370 0.235434 40.000000
2.485231 0.988111 0.236642 39.000000
2.509827 0.966275 0.238293 62.000000
2.510875 0.935360 0.237739 35.000000
2.534864 0.913251 0.239478 37.000000
2.521087 0.877330 0.237592 32.000000
2.572900 0.864203 0.241914 73.000000
2.586868 0.837629 0.242607 81.000000
2.610129 0.813833 0.244275 87.000000
2.633068 0.789811 0.245947 65.000000
2.655846 0.765140 0.247538 71.000000
2.663976 0.736263 0.247877 49.000000
2.700737 0.714775 0.250728 55.000000
2.732408 0.691522 0.253308 32.000000
2.754271 0.665321 0.254911 40.000000
2.780802 0.639659 0.256878 77.000000
2.792399 0.610471 0.257589 46.000000
2.823261 0.585131 0.260098 49.000000
2.858766 0.560131 0.263061 61.000000
2.864658 0.528978 0.263239 55.000000
2.909442 0.504542 0.267020 51.000000
2.939358 0.476860 0.269545 52.000000
2.949300 0.445576 0.270087 81.000000
2.998345 0.419614 0.274424 98.000000
3.012582 0.388231 0.275420 62.000000
3.006694 0.354209 0.274702 16.000000
3.045065 0.325161 0.277959 9.000000
3.028522 0.290042 0.276337 9.000000
3.086083 0.261666 0.281407 9.000000
3.148330 0.232468 0.286933 8.000000
3.165560 0.199062 0.288388 9.000000
3.222301 0.167399 0.293467 10.000000
3.268659 0.134135 0.297643 35.000000
3.319734 0.100046 0.302275 92.000000
3.350520 0.064388 0.304994 95.000000
3.370848 0.028098 0.306910 71.000000
3.400826 -0.008754 0.309630 81.000000
3.450407 -0.046421 0.314164 60.000000
3.429756 -0.083581 0.312350 27.000000
3.468409 -0.122307 0.315977 9.000000
3.536556 -0.163386 0.322324 28.000000
3.609174 -0.206159 0.329013 90.000000
3.616561 -0.246051 0.329919 79.000000
3.573962 -0.282349 0.326184 49.000000
3.481507 -0.313209 0.317922 68.000000
3.453094 -0.348628 0.315552 37.000000
3.364929 -0.376752 0.307751 9.000000
3.335964 -0.410339 0.305386 9.000000
3.281976 -0.440079 0.300760 8.000000
3.232654 -0.469258 0.296489 9.000000
3.222429 -0.503723 0.295937 8.000000
3.182355 -0.532947 0.292577 8.000000
3.196030 -0.571057 0.294184 69.000000
3.160310 -0.600302 0.291280 64.000000
3.104789 -0.624781 0.286577 75.000000
3.078319 -0.654412 0.284581 69.000000
3.056509 -0.684514 0.283038 80.000000
3.034289 -0.714394 0.281497 91.000000
3.002189 -0.741379 0.278965 62.000000
2.902434 -0.750295 0.270154 9.000000
2.894075 -0.781895 0.269970 9.000000
2.871061 -0.809165 0.268351 18.000000
2.871660 -0.843230 0.268972 67.000000
2.843347 -0.868499 0.266908 47.000000
2.805212 -0.890432 0.263955 57.000000
2.809572 -0.925678 0.265023 58.000000
2.837123 -0.968917 0.268225 28.000000
2.868631 -1.014728 0.271955 16.000000
2.955749 -1.081621 0.280917 35.000000
2.976397 -1.126167 0.283638 26.000000
3.042869 -1.189360 0.290884 30.000000
3.191404 -1.287717 0.305982 8.000000
3.250845 -1.352811 0.312527 8.000000
3.199341 -1.372487 0.308564 9.000000
3.202417 -1.415311 0.309901 8.000000
3.177797 -1.446155 0.308591 7.000000
3.125987 -1.463383 0.304541 8.000000
3.078396 -1.482307 0.301046 9.000000
3.039748 -1.504859 0.298332 10.000000
3.009908 -1.531128 0.296604 9.000000
2.984215 -1.559310 0.295214 9.000000
2.971689 -1.593743 0.295134 10.000000
2.941037 -1.618871 0.293312 9.000000
2.905896 -1.641160 0.291060 8.000000
2.896421 -1.677847 0.291313 10.000000
2.869398 -1.704341 0.289935 9.000000
2.816550 -1.714901 0.285968 10.000000
2.781158 -1.734459 0.283638 10.000000
2.766279 -1.767462 0.283466 8.000000
2.746872 -1.797629 0.282862 8.000000
2.714648 -1.819375 0.281074 9.000000
2.674090 -1.834911 0.278336 8.000000
2.658002 -1.866879 0.278167 10.000000
2.657634 -1.910469 0.279698 10.000000
2.592438 -1.906970 0.274325 10.000000
2.563481 -1.929268 0.272886 10.000000
2.530999 -1.947472 0.270930 10.000000
2.509579 -1.975054 0.270246 10.000000
2.503390 -2.014936 0.271243 9.000000
2.446624 -2.013702 0.266876 8.000000
2.432122 -2.046806 0.267034 12.000000
2.379419 -2.047385 0.263013 12.000000
2.345701 -2.063467 0.261091 23.000000
2.308207 -2.075684 0.258759 30.000000
2.278055 -2.094131 0.257171 35.000000
2.244135 -2.108721 0.255268 71.000000
2.228220 -2.140048 0.255338 34.000000
2.204663 -2.164361 0.254675 26.000000
2.174825 -2.180389 0.253005 52.000000
2.182292 -2.236156 0.255924 36.000000
2.171566 -2.274300 0.256787 37.000000
2.163638 -2.316097 0.258045 34.000000
2.148396 -2.350716 0.258385 30.000000
2.142586 -2.396310 0.260024 18.000000
1.403074 -1.639673 0.173435 10.000000
1.388302 -1.658757 0.173306 35.000000
1.367066 -1.669933 0.172312 30.000000
1.348830 -1.684799 0.171717 33.000000
1.327390 -1.695476 0.170728 33.000000
1.314927 -1.717762 0.170922 30.000000
1.296185 -1.732000 0.170326 33.000000
1.274369 -1.742016 0.169339 26.000000
1.258240 -1.759880 0.169068 17.000000
1.236180 -1.769369 0.168083 28.000000
1.205711 -1.766313 0.165942 24.000000
1.192984 -1.786977 0.165992 29.000000
1.178963 -1.808219 0.166101 26.000000
1.153919 -1.812560 0.164742 26.000000
1.139453 -1.833524 0.164846 26.000000
1.127256 -1.858602 0.165323 23.000000
1.134893 -1.918043 0.168812 9.000000
1.299189 2.230128 0.215069 8.000000
1.320821 2.211545 0.215522 20.000000
1.342201 2.192701 0.216050 30.000000
1.360685 2.169457 0.216075 30.000000
1.384136 2.154477 0.217016 29.000000
1.385601 2.105888 0.214488 32.000000
1.407220 2.091450 0.215414 30.000000
1.432668 2.080034 0.216691 32.000000
1.443700 2.047966 0.215903 29.000000
1.454224 2.015842 0.214947 26.000000
1.484951 2.011876 0.217082 34.000000
1.494775 1.979584 0.216188 33.000000
1.516204 1.963170 0.217024 35.000000
1.537481 1.946452 0.217784 34.000000
1.561659 1.933381 0.218983 33.000000
1.579427 1.912333 0.219380 33.000000
1.593745 1.887322 0.219255 30.000000
1.614180 1.869763 0.220012 33.000000
1.641053 1.859445 0.221659 57.000000
1.654519 1.833965 0.221526 33.000000
1.671048 1.812064 0.221759 38.000000
1.693345 1.798015 0.223040 51.000000
1.712871 1.779321 0.223796 35.000000
1.739155 1.767575 0.225383 47.000000
1.754849 1.744839 0.225613 34.000000
1.770239 1.722029 0.225840 39.000000
1.788933 1.702502 0.226521 76.000000
1.803756 1.679356 0.226744 55.000000
1.825715 1.662844 0.227883 64.000000
1.828859 1.629465 0.226646 80.000000
1.846577 1.609270 0.227322 63.000000
1.864069 1.588925 0.227922 94.000000
1.899924 1.584900 0.230997 51.000000
1.913281 1.560747 0.231138 34.000000
1.926343 1.536603 0.231276 57.000000
1.939110 1.512242 0.231336 62.000000
1.959501 1.493852 0.232409 69.000000
1.967757 1.466302 0.232072 41.000000
1.983630 1.444637 0.232598 58.000000
2.007387 1.428593 0.234071 81.000000
2.018483 1.404149 0.234276 34.000000
2.066644 1.404215 0.238606 35.000000
2.081887 1.381465 0.239142 76.000000
2.092647 1.355856 0.239201 57.000000
2.103119 1.330185 0.239182 75.000000
2.117538 1.307068 0.239716 48.000000
2.139950 1.289316 0.241211 62.000000
2.171053 1.275887 0.243673 81.000000
2.167602 1.242131 0.242206 32.000000
2.207075 1.232870 0.245566 58.000000
2.211665 1.203850 0.245063 81.000000
2.250781 1.193906 0.248516 57.000000
2.294621 1.185204 0.252309 80.000000
2.311896 1.162256 0.253271 81.000000
2.319962 1.134679 0.253260 49.000000
2.345639 1.115670 0.255122 91.000000
2.348474 1.086084 0.254620 32.000000
2.369215 1.064375 0.255998 36.000000
2.403489 1.048355 0.258852 62.000000
2.437576 1.032000 0.261795 49.000000
2.462505 1.010962 0.263680 53.000000
2.482609 0.987701 0.264993 55.000000
2.488454 0.958954 0.264990 37.000000
2.517407 0.938672 0.267297 53.000000
2.518017 0.907941 0.266718 32.000000
2.546497 0.886903 0.269032 41.000000
2.570155 0.863787 0.270853 93.000000
2.588852 0.838912 0.272265 70.000000
2.597783 0.810618 0.272515 61.000000
2.615909 0.785183 0.273847 53.000000
2.648187 0.763593 0.276763 60.000000
2.665892 0.737335 0.278017 63.000000
2.697826 0.714604 0.280860 30.000000
2.719827 0.688907 0.282620 37.000000
2.741648 0.662809 0.284469 47.000000
2.768134 0.637252 0.286650 51.000000
2.799140 0.612422 0.289424 66.000000
2.810515 0.582846 0.290190 53.000000
2.836205 0.556124 0.292468 47.000000
2.871406 0.530607 0.295757 67.000000
2.881860 0.500109 0.296440 24.000000
2.931345 0.475880 0.301251 80.000000
2.946192 0.445393 0.302443 77.000000
2.980411 0.417451 0.305657 74.000000
3.024218 0.390047 0.309886 80.000000
2.968960 0.350039 0.304003 11.000000
3.041874 0.325067 0.311272 9.000000
3.045158 0.291847 0.311366 9.000000
3.043205 0.258207 0.311047 6.000000
3.110317 0.229806 0.317729 9.000000
3.167220 0.199278 0.323400 9.000000
3.199069 0.166365 0.326540 9.000000
3.285130 0.134951 0.335261 52.000000
3.281470 0.098895 0.334854 73.000000
3.322060 0.063909 0.338913 60.000000
3.362361 0.028057 0.342972 79.000000
3.382361 -0.008716 0.345105 36.000000
3.401944 -0.045818 0.347135 70.000000
3.426181 -0.083581 0.349673 18.000000
3.469764 -0.122482 0.354240 9.000000
3.537837 -0.163507 0.361237 33.000000
3.595364 -0.205481 0.367325 78.000000
3.617747 -0.246389 0.369750 93.000000
3.495847 -0.276359 0.357470 28.000000
3.467850 -0.312210 0.354828 39.000000
3.429682 -0.346521 0.351174 45.000000
3.366345 -0.377202 0.344989 9.000000
3.312714 -0.407805 0.339821 8.000000
3.278526 -0.439877 0.336681 9.000000
3.253864 -0.472734 0.334454 8.000000
3.233774 -0.505829 0.332735 8.000000
3.139746 -0.526172 0.323437 9.000000
3.173060 -0.567455 0.327283 45.000000
3.127636 -0.594531 0.323047 80.000000
3.120996 -0.628516 0.322852 49.000000
3.070175 -0.653087 0.318023 63.000000
3.043537 -0.682146 0.315815 79.000000
3.011673 -0.709640 0.313012 61.000000
2.994138 -0.739996 0.311722 52.000000
2.908943 -0.752604 0.303401 9.000000
2.886150 -0.780229 0.301619 9.000000
2.858378 -0.806282 0.299338 21.000000
2.878088 -0.845760 0.302070 43.000000
2.825978 -0.863863 0.297199 53.000000
2.816370 -0.894680 0.296927 70.000000
2.801856 -0.923576 0.296066 37.000000
2.834000 -0.968642 0.300192 29.000000
2.860771 -1.012788 0.303902 26.000000
2.905754 -1.064317 0.309406 31.000000
2.982387 -1.129399 0.318466 33.000000
3.011765 -1.177986 0.322540 24.000000
3.215606 -1.298367 0.345331 9.000000
3.219620 -1.341116 0.346885 9.000000
3.209538 -1.377735 0.346844 8.000000
3.171575 -1.402700 0.343948 8.000000
3.133513 -1.426954 0.340953 8.000000
3.122497 -1.462854 0.340811 9.000000
3.065976 -1.477463 0.335863 9.000000
3.036319 -1.504339 0.333870 9.000000
3.006494 -1.530611 0.331882 10.000000
2.971993 -1.554182 0.329410 9.000000
2.941973 -1.579107 0.327330 9.000000
2.937643 -1.618460 0.328176 9.000000
2.876428 -1.626058 0.322800 8.000000
2.875817 -1.667452 0.324133 10.000000
2.874477 -1.709018 0.325459 12.000000
2.809270 -1.711302 0.319425 10.000000
2.790409 -1.742064 0.318820 12.000000
2.775438 -1.775206 0.318697 9.000000
2.735127 -1.791873 0.315688 8.000000
2.715378 -1.821747 0.314986 9.000000
2.654204 -1.823241 0.309600 9.000000
2.659090 -1.868746 0.311674 12.000000
2.622302 -1.886216 0.309071 14.000000
2.585570 -1.903033 0.306477 13.000000
2.552679 -1.922297 0.304366 13.000000
2.519690 -1.941103 0.302261 19.000000
2.455233 -1.934806 0.296387 21.000000
2.449463 -1.974132 0.297504 26.000000
2.397034 -1.975518 0.293071 26.000000
2.368376 -1.994527 0.291278 56.000000
2.346357 -2.020437 0.290518 81.000000
2.312938 -2.036194 0.288362 57.000000
2.294254 -2.064743 0.288071 70.000000
2.278971 -2.096555 0.288241 37.000000
2.284923 -2.148706 0.291083 36.000000
2.275729 -2.187404 0.292157 35.000000
2.262295 -2.222735 0.292665 27.000000
2.244924 -2.254480 0.292803 36.000000
2.216781 -2.275289 0.291469 33.000000
2.188424 -2.295828 0.290137 36.000000
2.164222 -2.318767 0.289165 37.000000
2.145568 -2.349741 0.289098 35.000000
2.153001 -2.410181 0.292731 23.000000
1.414035 -1.654153 0.195842 18.000000
1.383187 -1.654275 0.193389 33.000000
1.346168 -1.646142 0.190122 38.000000
1.343738 -1.680249 0.191689 35.000000
1.310072 -1.675201 0.188819 35.000000
1.297879 -1.697318 0.189049 34.000000
1.288301 -1.723359 0.189646 34.000000
1.266510 -1.733312 0.188549 33.000000
1.244740 -1.743004 0.187456 26.000000
1.228563 -1.760605 0.187168 30.000000
1.212165 -1.778005 0.186943 32.000000
1.191077 -1.786319 0.185721 30.000000
1.174263 -1.803384 0.185427 33.000000
1.143928 -1.799355 0.182992 28.000000
1.134844 -1.828630 0.183977 32.000000
1.120032 -1.849480 0.184100 30.000000
1.137915 -1.925940 0.189710 9.000000
1.299242 2.233563 0.238688 8.000000
1.318296 2.210598 0.238794 24.000000
1.339682 2.191835 0.239355 28.000000
1.352891 2.160078 0.238516 28.000000
1.380450 2.154320 0.240467 28.000000
1.398359 2.130781 0.240547 30.000000
1.404749 2.090524 0.238654 30.000000
1.424628 2.070904 0.239108 29.000000
1.441320 2.047045 0.239082 30.000000
1.448954 2.010891 0.237617 27.000000
1.479623 2.006951 0.239966 31.000000
1.492419 1.978672 0.239441 34.000000
1.516888 1.966198 0.240835 33.000000
1.528884 1.937727 0.240220 32.000000
1.562424 1.936340 0.243073 33.000000
1.577071 1.911422 0.242936 32.000000
1.594607 1.890217 0.243282 32.000000
1.608584 1.865087 0.243134 36.000000
1.627995 1.848093 0.244116 34.000000
1.654670 1.837511 0.245861 47.000000
1.667951 1.811913 0.245702 41.000000
1.687589 1.793484 0.246533 37.000000
1.710525 1.778413 0.247788 49.000000
1.722849 1.752473 0.247543 35.000000
1.752498 1.743929 0.249804 51.000000
1.760764 1.714181 0.249050 36.000000
1.782985 1.698164 0.250310 62.000000
1.800735 1.679130 0.251141 93.000000
1.826363 1.665893 0.252914 62.000000
1.844488 1.645721 0.253596 76.000000
1.866132 1.628591 0.254866 72.000000
1.880055 1.604769 0.255037 62.000000
1.889861 1.577616 0.254691 55.000000
1.914712 1.563059 0.256402 34.000000
1.920039 1.532594 0.255457 42.000000
1.936245 1.511940 0.256211 68.000000
1.948725 1.487516 0.256370 54.000000
1.968884 1.468975 0.257493 69.000000
1.984864 1.447190 0.258096 72.000000
1.996493 1.422445 0.258175 47.000000
2.015996 1.403245 0.259302 59.000000
2.063810 1.403832 0.264190 34.000000
2.066552 1.372829 0.263221 63.000000
2.089819 1.355473 0.264811 95.000000
2.100296 1.329727 0.264816 73.000000
2.118945 1.309223 0.265957 66.000000
2.132858 1.286289 0.266569 77.000000
2.151057 1.265341 0.267637 48.000000
2.169080 1.244145 0.268708 46.000000
2.217223 1.239683 0.273449 44.000000
2.226269 1.212900 0.273459 71.000000
2.252359 1.195768 0.275615 90.000000
2.256444 1.166389 0.275009 83.000000
2.313480 1.163934 0.280867 95.000000
2.325802 1.138893 0.281503 93.000000
2.338124 1.113294 0.281901 61.000000
2.354639 1.089704 0.282920 40.000000
2.384320 1.072290 0.285650 32.000000
2.386768 1.042147 0.284963 56.000000
2.411771 1.021818 0.286997 62.000000
2.454806 1.008828 0.291298 58.000000
2.465643 0.981857 0.291705 54.000000
2.499257 0.963992 0.294930 71.000000
2.509620 0.936605 0.295341 61.000000
2.514897 0.907612 0.295204 35.000000
2.524666 0.880029 0.295614 59.000000
2.552865 0.858867 0.298226 73.000000
2.566772 0.832446 0.299107 74.000000
2.599354 0.811849 0.302280 78.000000
2.612810 0.785016 0.303166 68.000000
2.635510 0.760499 0.305160 79.000000
2.657964 0.735754 0.307157 62.000000
2.699377 0.715706 0.311374 37.000000
2.716642 0.688649 0.312827 38.000000
2.733617 0.661381 0.314281 52.000000
2.764823 0.637078 0.317319 62.000000
2.781239 0.609057 0.318693 76.000000
2.807170 0.582670 0.321182 44.000000
2.832836 0.555946 0.323763 62.000000
2.858231 0.528621 0.326170 69.000000
2.898032 0.503420 0.330344 57.000000
2.927883 0.475698 0.333408 70.000000
2.927981 0.443071 0.333031 25.000000
2.932619 0.411060 0.333304 11.000000
2.981242 0.384772 0.338522 23.000000
3.004949 0.354513 0.340946 27.000000
3.023487 0.323388 0.342719 10.000000
3.051484 0.292702 0.345707 9.000000
3.064398 0.260215 0.347016 8.000000
3.116590 0.230443 0.352718 9.000000
3.133769 0.197404 0.354497 9.000000
3.190275 0.166009 0.360765 9.000000
3.236620 0.133015 0.365914 75.000000
3.267610 0.098596 0.369382 79.000000
3.328122 0.064101 0.376221 85.000000
3.353474 0.028015 0.379028 87.000000
3.358545 -0.008665 0.379590 51.000000
3.407913 -0.045952 0.385205 52.000000
3.397247 -0.082870 0.384082 16.000000
3.440890 -0.121499 0.389136 9.000000
3.538563 -0.163628 0.400366 47.000000
3.576286 -0.204519 0.404748 82.000000
3.588736 -0.244589 0.406322 82.000000
3.541288 -0.280170 0.401271 32.000000
3.443998 -0.310320 0.390502 47.000000
3.396004 -0.343311 0.385242 32.000000
3.322896 -0.372565 0.377289 9.000000
3.289099 -0.405171 0.373722 8.000000
3.274670 -0.439674 0.372500 9.000000
3.230363 -0.469672 0.367818 9.000000
3.200507 -0.501018 0.364820 8.000000
3.091935 -0.518676 0.352877 8.000000
3.159521 -0.565408 0.361068 46.000000
3.104401 -0.590621 0.355285 72.000000
3.088060 -0.622333 0.353878 67.000000
3.061656 -0.651860 0.351356 71.000000
3.030205 -0.679779 0.348282 72.000000
2.993559 -0.705934 0.344655 61.000000
2.985814 -0.738519 0.344372 48.000000
2.866959 -0.742363 0.331303 8.000000
2.887553 -0.781252 0.334271 9.000000
2.855007 -0.805917 0.331221 20.000000
2.850756 -0.838474 0.331411 68.000000
2.822533 -0.863591 0.328832 64.000000
2.803545 -0.891216 0.327363 91.000000
2.784261 -0.918724 0.325987 37.000000
2.825899 -0.966666 0.331606 31.000000
2.829222 -1.002458 0.332893 17.000000
2.902243 -1.063937 0.342339 33.000000
2.960180 -1.122059 0.350206 32.000000
2.998740 -1.173966 0.355759 28.000000
3.183918 -1.286768 0.378840 9.000000
3.188245 -1.328895 0.380502 9.000000
3.173504 -1.363679 0.379972 9.000000
3.153900 -1.396345 0.378896 9.000000
3.120666 -1.422198 0.376080 7.000000
3.086979 -1.447764 0.373377 9.000000
3.053057 -1.472935 0.370575 9.000000
3.023672 -1.499196 0.368324 10.000000
2.993809 -1.525477 0.366077 10.000000
2.972591 -1.555870 0.364918 10.000000
2.933806 -1.576140 0.361499 10.000000
2.929485 -1.615340 0.362502 9.000000
2.881434 -1.630245 0.358121 8.000000
2.854847 -1.656859 0.356438 10.000000
2.828066 -1.682981 0.354758 10.000000
2.809884 -1.713285 0.353950 12.000000
2.748834 -1.717748 0.347907 10.000000
2.759140 -1.766558 0.350938 9.000000
2.731318 -1.791271 0.349172 8.000000
2.686805 -1.804614 0.345287 9.000000
2.634655 -1.810792 0.340259 9.000000
2.602441 -1.831055 0.337988 21.000000
2.562150 -1.845042 0.334573 26.000000
2.517785 -1.855347 0.330643 34.000000
2.469549 -1.862033 0.326299 57.000000
2.445112 -1.885950 0.325017 77.000000
2.432643 -1.918166 0.325113 87.000000
2.411539 -1.944784 0.324352 47.000000
2.405496 -1.983867 0.325670 33.000000
2.398890 -2.023001 0.326881 37.000000
2.376552 -2.049286 0.326110 36.000000
2.361483 -2.081861 0.326275 37.000000
2.345981 -2.114309 0.326434 34.000000
2.330042 -2.146726 0.326587 33.000000
2.310920 -2.174726 0.326029 33.000000
2.283387 -2.196589 0.324643 28.000000
2.255735 -2.217984 0.323163 26.000000
2.234885 -2.246160 0.322796 32.000000
2.210196 -2.270557 0.321824 34.000000
2.175022 -2.283855 0.319341 35.000000
2.160139 -2.318475 0.319880 32.000000
2.144824 -2.353125 0.320410 35.000000
2.138909 -2.398744 0.322428 25.000000
1.408737 -1.649570 0.216084 12.000000
1.384328 -1.657300 0.214431 31.000000
1.363036 -1.668480 0.213210 33.000000
1.316848 -1.648357 0.208066 36.000000
1.295799 -1.658734 0.206866 37.000000
1.277662 -1.672804 0.206156 33.000000
1.268393 -1.698644 0.206838 34.000000
1.264471 -1.732523 0.208542 29.000000
1.245530 -1.746268 0.207819 25.000000
1.223613 -1.755733 0.206549 31.000000
1.201718 -1.764873 0.205283 30.000000
1.185164 -1.782109 0.204974 30.000000
1.168453 -1.799144 0.204662 32.000000
1.147240 -1.806976 0.203334 30.000000
1.130112 -1.823674 0.203018 29.000000
1.117979 -1.848685 0.203636 25.000000
1.118017 -1.895105 0.206513 9.000000
1.331605 2.292674 0.268956 5.000000
1.303047 2.188203 0.259453 13.000000
1.335745 2.191520 0.262740 16.000000
1.349062 2.159844 0.261719 26.000000
1.364458 2.132276 0.261273 16.000000
1.393055 2.125528 0.263391 21.000000
1.396659 2.081184 0.260782 23.000000
1.433349 2.086220 0.264457 20.000000
1.433067 2.037835 0.261294 25.000000
1.469682 2.042113 0.264906 10.000000
1.482996 2.013888 0.264333 24.000000
1.492903 1.981579 0.263221 28.000000
1.514375 1.965132 0.264210 19.000000
1.532617 1.944477 0.264593 28.000000
1.546519 1.920547 0.264590 26.000000
1.573651 1.911118 0.266569 19.000000
1.581590 1.878506 0.265407 27.000000
1.614913 1.876087 0.268468 10.000000
1.618860 1.839572 0.266676 28.000000
1.642194 1.825364 0.268046 33.000000
1.662019 1.807198 0.268950 26.000000
1.681692 1.788805 0.269779 35.000000
1.697621 1.766603 0.270136 29.000000
1.716127 1.748549 0.271039 28.000000
1.745718 1.740041 0.273520 33.000000
1.750408 1.706865 0.272141 13.000000
1.768951 1.687496 0.272966 33.000000
1.794609 1.674682 0.274905 39.000000
1.805436 1.648083 0.274543 32.000000
1.838203 1.641350 0.277532 55.000000
1.851794 1.618327 0.277879 35.000000
1.869392 1.597858 0.278634 33.000000
1.890576 1.580349 0.279954 38.000000
1.896217 1.549953 0.278937 20.000000
1.913068 1.528965 0.279690 34.000000
1.933683 1.510885 0.280935 34.000000
1.941694 1.484048 0.280624 34.000000
1.965794 1.468447 0.282443 44.000000
1.977762 1.443809 0.282548 35.000000
1.985397 1.416150 0.282001 33.000000
2.012981 1.402717 0.284403 36.000000
2.040221 1.389319 0.286888 18.000000
2.063583 1.372296 0.288652 45.000000
2.078431 1.349529 0.289261 33.000000
2.093126 1.326535 0.289870 35.000000
2.111740 1.306000 0.291061 38.000000
2.142554 1.293453 0.294082 32.000000
2.143790 1.262209 0.292867 34.000000
2.157474 1.238587 0.293402 37.000000
2.187953 1.224896 0.296438 20.000000
2.223001 1.212666 0.299918 53.000000
2.249306 1.195142 0.302230 42.000000
2.266632 1.172688 0.303368 34.000000
2.292405 1.154762 0.305691 52.000000
2.309327 1.131702 0.306835 37.000000
2.339267 1.115112 0.309762 38.000000
2.355798 1.091472 0.310834 50.000000
2.322340 1.045162 0.305361 13.000000
2.392587 1.045804 0.313661 42.000000
2.422185 1.027231 0.316531 42.000000
2.451465 1.008420 0.319491 37.000000
2.476136 0.986964 0.321695 52.000000
2.491255 0.961793 0.322787 35.000000
2.496948 0.932720 0.322597 33.000000
2.520950 0.910574 0.324893 34.000000
2.488495 0.868174 0.319883 14.000000
2.544770 0.856869 0.326320 42.000000
2.577537 0.836796 0.329753 49.000000
2.576977 0.805674 0.328960 35.000000
2.599869 0.781655 0.331108 50.000000
2.636741 0.761539 0.335162 36.000000
2.654407 0.735416 0.336797 37.000000
2.681470 0.711544 0.339566 43.000000
2.679355 0.679762 0.338691 14.000000
2.725166 0.659868 0.343900 34.000000
2.756328 0.635788 0.347292 37.000000
2.763112 0.605608 0.347639 32.000000
2.798613 0.581396 0.351562 35.000000
2.848590 0.559506 0.357323 33.000000
2.869120 0.531152 0.359515 34.000000
2.889349 0.502299 0.361620 52.000000
2.904466 0.472330 0.363024 22.000000
2.889817 0.437688 0.360845 12.000000
2.943542 0.412946 0.367154 9.000000
2.962601 0.382680 0.369269 9.000000
3.020757 0.356748 0.376203 56.000000
3.039300 0.325314 0.378232 45.000000
3.057408 0.293557 0.380263 29.000000
3.085151 0.262222 0.383430 19.000000
3.107611 0.229980 0.386080 7.000000
3.134671 0.197619 0.389250 8.000000
3.186154 0.165911 0.395498 9.000000
3.237400 0.133219 0.401748 30.000000
3.248514 0.098146 0.403078 45.000000
3.299023 0.063622 0.409232 35.000000
3.334263 0.027891 0.413643 32.000000
3.364136 -0.008587 0.417336 45.000000
3.398556 -0.045885 0.421645 32.000000
3.392864 -0.082870 0.421029 10.000000
3.456284 -0.122200 0.429031 9.000000
3.519232 -0.162831 0.436925 32.000000
3.561758 -0.203842 0.442463 68.000000
3.554394 -0.242452 0.441738 57.000000
3.531759 -0.279669 0.439168 37.000000
3.429654 -0.309322 0.426761 41.000000
3.381727 -0.342207 0.421122 22.000000
3.323514 -0.373016 0.414154 8.000000
3.284824 -0.404967 0.409649 8.000000
3.235983 -0.434845 0.403921 7.000000
3.206511 -0.466614 0.400752 8.000000
3.181621 -0.498515 0.398099 7.000000
3.136827 -0.526603 0.392898 7.000000
3.130959 -0.560836 0.392702 60.000000
3.085701 -0.587546 0.387512 34.000000
3.074269 -0.620081 0.386610 46.000000
3.043059 -0.648469 0.383264 54.000000
3.001990 -0.674057 0.378702 34.000000
2.980026 -0.703276 0.376587 54.000000
2.957761 -0.732179 0.374381 34.000000
2.858335 -0.740754 0.362524 8.000000
2.859744 -0.774398 0.363378 9.000000
2.827302 -0.798806 0.359973 10.000000
2.837493 -0.835215 0.362042 42.000000
2.799745 -0.857506 0.358037 38.000000
2.780833 -0.884925 0.356464 34.000000
2.766431 -0.913605 0.355410 36.000000
2.798661 -0.958078 0.360405 24.000000
2.820766 -1.000338 0.364270 10.000000
2.893692 -1.061658 0.374575 34.000000
2.942272 -1.116194 0.382029 25.000000
2.980822 -1.168039 0.388067 25.000000
3.156588 -1.277038 0.412211 8.000000
3.229708 -1.347478 0.422983 8.000000
3.173716 -1.365110 0.417052 8.000000
3.167925 -1.403541 0.417611 8.000000
3.116244 -1.421672 0.412193 7.000000
3.091570 -1.451565 0.410474 8.000000
3.039953 -1.467682 0.404974 8.000000
3.014874 -1.496574 0.403163 9.000000
2.976517 -1.517885 0.399368 9.000000
2.964176 -1.552742 0.399344 9.000000
2.938257 -1.580537 0.397544 9.000000
2.899093 -1.600735 0.393874 8.000000
2.890330 -1.636874 0.394238 7.000000
2.876555 -1.671013 0.394112 9.000000
2.815494 -1.677090 0.387524 8.000000
2.771936 -1.691882 0.383203 9.000000
2.723805 -1.703785 0.378410 10.000000
2.692407 -1.725660 0.375870 10.000000
2.623529 -1.722435 0.368191 18.000000
2.604531 -1.751269 0.367419 27.000000
2.561178 -1.762249 0.363072 10.000000
2.549813 -1.796052 0.363465 68.000000
2.517891 -1.815319 0.360870 35.000000
2.489871 -1.837078 0.358955 35.000000
2.493407 -1.882316 0.361644 34.000000
2.457523 -1.896763 0.358295 24.000000
2.459933 -1.942220 0.360965 27.000000
2.442423 -1.972300 0.360669 21.000000
2.428385 -2.005435 0.360940 10.000000
2.436594 -2.057680 0.364514 32.000000
2.387645 -2.061696 0.359668 22.000000
2.354474 -2.077125 0.356908 24.000000
2.342686 -2.112952 0.357633 30.000000
2.323085 -2.141997 0.357226 19.000000
2.295887 -2.164015 0.355695 27.000000
2.279305 -2.196005 0.355844 21.000000
2.240941 -2.207039 0.352547 10.000000
2.216698 -2.231572 0.351581 29.000000
2.196595 -2.258509 0.350975 25.000000
2.188957 -2.300501 0.352671 29.000000
2.150159 -2.309839 0.349397 28.000000
2.128217 -2.336962 0.348880 26.000000
2.128946 -2.389942 0.352089 25.000000
2.053828 -2.356926 0.342833 14.000000
1.418640 -1.664435 0.239014 9.000000
1.378166 -1.653151 0.234484 25.000000
1.353780 -1.660510 0.232612 24.000000
1.336418 -1.674584 0.231757 25.000000
1.284494 -1.646008 0.225009 29.000000
1.290609 -1.691663 0.228511 24.000000
1.275165 -1.709690 0.228260 29.000000
1.253514 -1.719549 0.226879 24.000000
1.243426 -1.745347 0.227680 15.000000
1.221513 -1.754814 0.226299 27.000000
1.205151 -1.772180 0.225970 21.000000
1.185816 -1.785267 0.225115 26.000000
1.163577 -1.794050 0.223740 22.000000
1.151940 -1.819319 0.224442 23.000000
1.126824 -1.823411 0.222550 26.000000
1.108081 -1.834986 0.221564 18.000000
1.123364 -1.907017 0.227810 9.000000
1.297412 2.240659 0.286273 9.000000
1.306517 2.200553 0.284155 21.000000
1.325318 2.177526 0.284304 26.000000
1.348958 2.162810 0.285400 26.000000
1.369844 2.143594 0.286016 32.000000
1.387605 2.120123 0.286066 29.000000
1.405108 2.096461 0.286107 26.000000
1.425086 2.076784 0.286626 31.000000
1.441888 2.052872 0.286575 23.000000
1.449661 2.016678 0.284882 27.000000
1.464532 1.993413 0.284882 32.000000
1.492157 1.985092 0.287094 27.000000
1.516776 1.972550 0.288739 35.000000
1.528970 1.944021 0.288073 31.000000
1.546982 1.923205 0.288481 31.000000
1.564683 1.902231 0.288960 33.000000
1.585344 1.884900 0.289944 25.000000
1.599304 1.859812 0.289755 33.000000
1.612123 1.835316 0.289633 35.000000
1.642044 1.828530 0.292381 33.000000
1.661909 1.810327 0.293362 56.000000
1.678225 1.788278 0.293674 37.000000
1.690800 1.762495 0.293386 36.000000
1.723845 1.757903 0.296680 52.000000
1.728937 1.724808 0.295188 32.000000
1.754810 1.712522 0.297292 44.000000
1.776338 1.697182 0.298876 51.000000
1.791217 1.674079 0.299177 39.000000
1.798470 1.644209 0.298184 67.000000
1.820076 1.627513 0.299617 47.000000
1.841528 1.610585 0.301054 60.000000
1.862299 1.594027 0.302569 64.000000
1.879636 1.573374 0.303398 31.000000
1.900662 1.555637 0.304768 36.000000
1.905959 1.525263 0.303746 37.000000
1.926458 1.507225 0.305116 47.000000
1.942858 1.485861 0.305868 48.000000
1.962553 1.467844 0.307318 36.000000
1.982538 1.448987 0.308620 52.000000
2.002361 1.429890 0.310000 62.000000
2.013808 1.404877 0.310055 35.000000
2.041058 1.391506 0.312770 42.000000
2.060309 1.371610 0.314007 47.000000
2.071074 1.346065 0.314062 49.000000
2.098228 1.331163 0.316642 67.000000
2.108154 1.305771 0.316772 44.000000
2.135079 1.290196 0.319287 39.000000
2.144775 1.264039 0.319265 47.000000
2.153957 1.238281 0.319317 31.000000
2.175987 1.219354 0.321206 47.000000
2.202246 1.202460 0.323662 51.000000
2.236950 1.190171 0.327562 51.000000
2.254219 1.167734 0.328750 78.000000
2.266719 1.143203 0.329453 60.000000
2.279063 1.118203 0.330000 37.000000
2.300122 1.097317 0.331760 58.000000
2.320803 1.076470 0.333680 29.000000
2.354978 1.061064 0.337391 35.000000
2.375430 1.039360 0.339324 44.000000
2.382039 1.011248 0.339153 35.000000
2.406544 0.990944 0.341663 47.000000
2.426487 0.968102 0.343447 40.000000
2.446028 0.945219 0.345235 43.000000
2.456118 0.918582 0.345800 52.000000
2.479950 0.896597 0.348167 27.000000
2.498888 0.872753 0.349965 35.000000
2.536359 0.854956 0.354391 70.000000
2.554933 0.830334 0.356118 47.000000
2.568512 0.803861 0.357272 43.000000
2.596030 0.781488 0.360321 62.000000
2.613899 0.755696 0.361973 41.000000
2.641044 0.732597 0.365033 79.000000
2.648807 0.703654 0.365455 26.000000
2.713959 0.689266 0.373730 35.000000
2.735736 0.663112 0.376061 48.000000
2.747585 0.634325 0.377157 41.000000
2.778473 0.609595 0.380734 49.000000
2.799510 0.582230 0.383076 67.000000
2.820261 0.554547 0.385422 37.000000
2.850465 0.528175 0.389012 48.000000
2.855999 0.497021 0.389280 20.000000
2.895503 0.471353 0.394209 67.000000
2.880784 0.436675 0.391815 26.000000
2.885359 0.405183 0.392084 10.000000
2.923976 0.378049 0.396933 16.000000
2.982009 0.352489 0.404549 90.000000
3.030050 0.324692 0.410744 68.000000
3.067955 0.294884 0.415609 91.000000
3.061023 0.260446 0.414368 17.000000
3.103203 0.229885 0.419906 54.000000
3.145063 0.198459 0.425352 42.000000
3.147101 0.164105 0.425449 27.000000
3.203112 0.131896 0.432906 35.000000
3.234112 0.097747 0.437021 66.000000
3.254724 0.062857 0.439798 63.000000
3.279999 0.027476 0.443246 69.000000
3.329648 -0.008511 0.449941 44.000000
3.383839 -0.045647 0.457307 86.000000
3.407981 -0.083250 0.460654 13.000000
3.431585 -0.121393 0.463896 10.000000
3.519198 -0.163060 0.475946 83.000000
3.561658 -0.204016 0.481860 95.000000
3.564184 -0.243245 0.482420 95.000000
3.442777 -0.272797 0.466255 47.000000
3.415018 -0.308220 0.462805 65.000000
3.386779 -0.342997 0.459356 36.000000
3.299088 -0.370598 0.447784 8.000000
3.275225 -0.404157 0.444908 8.000000
3.251008 -0.437286 0.442034 9.000000
3.172507 -0.462030 0.431820 8.000000
3.191752 -0.500521 0.434958 9.000000
3.093332 -0.519837 0.421994 9.000000
3.111924 -0.557919 0.425132 42.000000
3.090993 -0.589111 0.422842 71.000000
3.060214 -0.617926 0.419128 48.000000
3.024214 -0.645081 0.414851 57.000000
3.007403 -0.675947 0.413237 40.000000
2.956498 -0.698436 0.406883 25.000000
2.919872 -0.723554 0.402530 20.000000
2.907017 -0.754171 0.401590 35.000000
2.889036 -0.783294 0.399896 76.000000
2.861389 -0.809235 0.396698 75.000000
2.838155 -0.836343 0.394441 49.000000
2.819386 -0.864410 0.392666 78.000000
2.795686 -0.890584 0.390234 85.000000
2.776518 -0.917914 0.388466 35.000000
2.785100 -0.954500 0.390646 29.000000
2.812046 -0.998036 0.395448 28.000000
2.884680 -1.059665 0.406799 32.000000
2.928651 -1.112095 0.414094 33.000000
2.967262 -1.163828 0.420713 25.000000
3.133499 -1.268864 0.445710 9.000000
3.192847 -1.333459 0.455421 9.000000
3.173596 -1.366539 0.454237 8.000000
3.140473 -1.392852 0.450890 8.000000
3.093469 -1.412907 0.445707 8.000000
3.069108 -1.442186 0.443573 8.000000
3.048675 -1.473636 0.442299 10.000000
3.023538 -1.502676 0.440381 9.000000
2.976312 -1.519626 0.435031 10.000000
2.941882 -1.543016 0.431734 10.000000
2.881458 -1.551306 0.424484 9.000000
2.864337 -1.582928 0.423779 10.000000
2.816620 -1.597227 0.418587 11.000000
2.786522 -1.620140 0.415771 26.000000
2.738755 -1.633010 0.410607 35.000000
2.716470 -1.660446 0.409185 37.000000
2.690137 -1.684473 0.406934 69.000000
2.663136 -1.708609 0.404883 66.000000
2.619382 -1.721567 0.400304 34.000000
2.633301 -1.772558 0.404590 36.000000
2.606088 -1.795154 0.402352 29.000000
2.614604 -1.843785 0.405881 33.000000
2.602275 -1.878330 0.406251 35.000000
2.581543 -1.906960 0.405362 30.000000
2.561107 -1.934603 0.404276 35.000000
2.516132 -1.944537 0.399647 33.000000
2.483036 -1.962890 0.396803 28.000000
2.484474 -2.008962 0.399650 27.000000
2.431776 -2.010985 0.393715 24.000000
2.413341 -2.040877 0.393362 25.000000
2.387814 -2.063293 0.391580 28.000000
2.357668 -2.082924 0.389285 28.000000
2.330961 -2.105525 0.387705 27.000000
2.307780 -2.131121 0.386642 30.000000
2.269875 -2.142800 0.383143 26.000000
2.279378 -2.197895 0.387360 24.000000
2.230395 -2.198429 0.382051 24.000000
2.206228 -2.222885 0.380992 24.000000
2.192145 -2.257735 0.381642 33.000000
2.150286 -2.263828 0.377481 26.000000
2.132186 -2.294616 0.377525 27.000000
2.116977 -2.328936 0.378159 28.000000
2.084840 -2.344734 0.375809 19.000000
2.086328 -2.396582 0.379199 10.000000
1.454916 -1.708656 0.266982 10.000000
1.366321 -1.640648 0.253134 20.000000
1.329529 -1.632441 0.248761 26.000000
1.311672 -1.646998 0.247920 26.000000
1.308877 -1.680887 0.249993 27.000000
1.281458 -1.683303 0.247399 29.000000
1.263062 -1.697279 0.246489 28.000000
1.254218 -1.722454 0.247243 21.000000
1.238245 -1.740182 0.246901 20.000000
1.227723 -1.765934 0.247699 23.000000
1.197267 -1.762909 0.244559 23.000000
1.183514 -1.784215 0.244713 22.000000
1.166748 -1.801274 0.244358 22.000000
1.144383 -1.809863 0.242872 23.000000
1.127197 -1.826587 0.242446 18.000000
1.114913 -1.851617 0.243201 17.000000
1.104734 -1.880902 0.244432 8.000000
1.292145 2.234851 0.308893 8.000000
1.298703 2.190598 0.306065 32.000000
1.327656 2.184601 0.308516 32.000000
1.340969 2.152896 0.307367 32.000000
1.353681 2.121268 0.306199 35.000000
1.378133 2.111189 0.308121 30.000000
1.381771 2.066961 0.305098 35.000000
1.409852 2.059786 0.307544 35.000000
1.432264 2.044051 0.308695 30.000000
1.442879 2.012035 0.307383 32.000000
1.461796 1.991970 0.307907 32.000000
1.489410 1.983719 0.310287 35.000000
1.507903 1.963229 0.310809 41.000000
1.520105 1.934775 0.310076 34.000000
1.549400 1.930259 0.313169 47.000000
1.564121 1.905384 0.313052 35.000000
1.578447 1.880420 0.312849 32.000000
