x y z intensity
0.586483 0.569162 -0.667134 33.000000
0.592375 0.560952 -0.668905 55.000000
0.595880 0.549802 -0.667177 75.000000
0.601616 0.541470 -0.668843 62.000000
0.610212 0.535581 -0.673670 47.000000
0.583771 0.499542 -0.640045 21.000000
0.574354 0.479079 -0.625472 78.000000
0.570557 0.463799 -0.617197 95.000000
0.587557 0.465297 -0.631401 82.000000
0.589558 0.454710 -0.629489 95.000000
0.594527 0.446468 -0.630739 75.000000
0.605585 0.442631 -0.638410 77.000000
0.601158 0.427513 -0.629843 95.000000
0.599297 0.414961 -0.624697 32.000000
0.603926 0.406553 -0.625752 95.000000
0.611341 0.400336 -0.630248 98.000000
0.612334 0.389883 -0.628213 98.000000
0.613575 0.379313 -0.625815 98.000000
0.620830 0.372803 -0.630205 98.000000
0.621560 0.362380 -0.627972 98.000000
0.628740 0.355664 -0.632285 100.000000
0.635902 0.348799 -0.636550 81.000000
0.606277 0.322545 -0.604657 95.000000
0.613184 0.315913 -0.608776 95.000000
0.609990 0.304092 -0.602936 98.000000
0.609759 0.294164 -0.600562 98.000000
0.609439 0.284299 -0.598151 95.000000
0.612680 0.275867 -0.598727 103.000000
0.619039 0.269003 -0.602855 98.000000
0.621911 0.260580 -0.603600 95.000000
0.617825 0.249288 -0.597614 98.000000
0.637610 0.247688 -0.615205 98.000000
0.643842 0.240283 -0.619170 103.000000
0.643029 0.230225 -0.616356 100.000000
0.641879 0.220317 -0.613732 105.000000
0.644169 0.211633 -0.614403 105.000000
0.646375 0.202921 -0.615017 103.000000
0.638141 0.190887 -0.605264 103.000000
0.636398 0.181305 -0.602612 95.000000
0.634799 0.171682 -0.599707 100.000000
0.640277 0.163989 -0.603459 105.000000
0.641916 0.155358 -0.604032 103.000000
0.643691 0.146645 -0.604278 103.000000
0.645193 0.137959 -0.604742 103.000000
0.643001 0.128524 -0.601771 103.000000
0.633499 0.117813 -0.591949 100.000000
0.634781 0.109268 -0.592216 83.000000
0.643251 0.101847 -0.599228 103.000000
0.651475 0.094231 -0.606381 105.000000
0.648949 0.084958 -0.603102 108.000000
0.657065 0.077069 -0.610181 108.000000
0.650525 0.067467 -0.603618 108.000000
0.654889 0.059024 -0.607173 110.000000
0.655518 0.050202 -0.607282 105.000000
0.641430 0.040428 -0.593765 95.000000
0.652915 0.032348 -0.603944 103.000000
0.656801 0.023708 -0.607501 103.000000
0.638614 0.014443 -0.590638 103.000000
0.642365 0.005875 -0.594086 106.000000
0.653404 -0.002825 -0.604270 110.000000
0.657047 -0.011663 -0.607610 110.000000
0.656938 -0.020512 -0.607474 110.000000
0.653105 -0.029198 -0.603890 110.000000
0.652670 -0.037971 -0.603890 105.000000
0.648490 -0.046508 -0.600416 103.000000
0.655244 -0.055856 -0.607091 108.000000
0.650959 -0.064316 -0.603509 108.000000
0.650253 -0.073062 -0.603265 108.000000
0.653141 -0.082267 -0.606354 108.000000
0.648433 -0.090581 -0.602858 108.000000
0.643899 -0.098741 -0.599039 108.000000
0.646369 -0.108018 -0.602179 105.000000
0.652368 -0.118048 -0.608670 98.000000
0.651077 -0.126837 -0.608285 105.000000
0.649677 -0.135626 -0.607873 105.000000
0.644647 -0.143558 -0.604032 105.000000
0.668040 -0.158254 -0.627370 100.000000
0.730915 -0.183406 -0.687398 103.000000
0.746661 -0.198042 -0.703800 103.000000
0.747958 -0.209148 -0.706622 98.000000
0.749460 -0.220221 -0.709118 82.000000
0.767990 -0.236979 -0.728885 89.000000
0.768968 -0.248483 -0.731479 100.000000
0.752246 -0.254112 -0.717241 98.000000
0.763612 -0.269174 -0.729782 98.000000
0.756997 -0.278303 -0.725773 100.000000
0.757325 -0.289930 -0.728385 95.000000
0.754365 -0.300109 -0.727288 95.000000
0.757928 -0.313202 -0.733121 74.000000
0.716779 -0.307300 -0.695572 30.000000
1.102826 -0.542980 -1.085609 27.000000
1.133397 -0.576811 -1.120568 25.000000
1.143500 -0.601118 -1.135574 24.000000
1.140665 -0.618343 -1.136769 20.000000
1.127248 -0.630250 -1.128400 16.000000
1.153003 -0.664514 -1.159412 11.000000
1.152277 -0.684151 -1.164031 23.000000
1.138406 -0.695971 -1.155373 18.000000
1.139932 -0.717856 -1.163508 18.000000
1.129147 -0.731332 -1.157964 21.000000
1.127718 -0.750977 -1.162146 10.000000
1.128626 -0.773053 -1.169879 15.000000
1.117438 -0.786244 -1.164110 10.000000
1.102497 -0.797334 -1.155500 9.000000
1.115061 -0.828575 -1.175824 16.000000
1.099820 -0.839434 -1.167043 10.000000
1.096621 -0.859401 -1.171047 10.000000
1.099182 -0.884231 -1.181333 11.000000
1.089580 -0.899504 -1.178694 10.000000
1.091603 -0.924551 -1.188781 12.000000
1.087542 -0.944759 -1.192319 10.000000
1.080379 -0.962448 -1.192589 9.000000
1.078756 -0.985202 -1.199073 14.000000
1.067509 -1.000544 -1.196477 10.000000
1.057069 -1.015367 -1.193247 10.000000
1.051123 -1.035873 -1.196777 10.000000
1.043134 -1.053192 -1.196555 10.000000
1.044867 -1.082091 -1.209254 10.000000
1.030176 -1.094151 -1.203066 10.000000
1.039169 -1.131878 -1.224827 9.000000
1.032945 -1.152164 -1.227323 10.000000
1.022931 -1.169885 -1.226986 10.000000
1.017774 -1.193481 -1.232811 10.000000
1.004806 -1.208032 -1.229280 10.000000
0.994202 -1.225525 -1.228699 10.000000
0.981018 -1.239746 -1.224976 10.000000
0.984647 -1.275787 -1.242624 9.000000
0.986484 -1.312638 -1.260459 9.000000
0.970174 -1.323647 -1.253381 10.000000
0.960688 -1.344178 -1.255398 9.000000
0.958775 -1.378194 -1.269758 10.000000
0.512115 0.754473 -0.675811 37.000000
0.520012 0.747026 -0.678063 62.000000
0.521548 0.729395 -0.671084 75.000000
0.531567 0.725063 -0.676243 54.000000
0.536826 0.714185 -0.675391 83.000000
0.532195 0.690657 -0.662387 37.000000
0.537649 0.679620 -0.661158 37.000000
0.552399 0.681149 -0.672247 52.000000
0.549520 0.661006 -0.662033 91.000000
0.561769 0.659145 -0.670039 95.000000
0.571451 0.654065 -0.675012 78.000000
0.575904 0.642938 -0.673782 95.000000
0.566919 0.617296 -0.657077 95.000000
0.581759 0.617783 -0.668079 63.000000
0.577100 0.598417 -0.657615 48.000000
0.580945 0.587385 -0.656123 53.000000
0.581881 0.573621 -0.651467 82.000000
0.587749 0.565553 -0.653253 95.000000
0.588378 0.551834 -0.648454 62.000000
0.594095 0.543685 -0.650128 95.000000
0.594424 0.530048 -0.645223 95.000000
0.605814 0.526913 -0.653097 95.000000
0.587775 0.498441 -0.629345 84.000000
0.584088 0.482912 -0.621293 59.000000
0.592269 0.477230 -0.625845 95.000000
0.600411 0.471404 -0.630382 98.000000
0.602429 0.460727 -0.628521 98.000000
0.604335 0.450044 -0.626586 98.000000
0.615487 0.446177 -0.634189 95.000000
0.614115 0.433206 -0.628949 95.000000
0.612230 0.420527 -0.623893 51.000000
0.607367 0.405659 -0.615265 86.000000
0.614766 0.399463 -0.619746 98.000000
0.619277 0.390908 -0.620713 98.000000
0.616885 0.378487 -0.615378 100.000000
0.617618 0.368131 -0.613235 100.000000
0.621541 0.359681 -0.614273 98.000000
0.635332 0.356777 -0.625019 100.000000
0.635870 0.346263 -0.622726 58.000000
0.619537 0.326974 -0.604039 88.000000
0.616413 0.315062 -0.598319 95.000000
0.623010 0.308417 -0.602599 95.000000
0.626464 0.299882 -0.603329 95.000000
0.629580 0.291431 -0.604227 95.000000
0.626014 0.279737 -0.598298 95.000000
0.632413 0.272758 -0.602368 95.000000
0.635317 0.264213 -0.603121 60.000000
0.645140 0.258406 -0.610447 98.000000
0.647963 0.249683 -0.611096 98.000000
0.646931 0.239686 -0.608635 98.000000
0.653129 0.232182 -0.612479 100.000000
0.655500 0.223402 -0.613213 103.000000
0.658041 0.214510 -0.613665 100.000000
0.660271 0.205675 -0.614286 103.000000
0.648121 0.192528 -0.601557 98.000000
0.650193 0.183801 -0.602054 81.000000
0.655784 0.176013 -0.605852 98.000000
0.654114 0.166263 -0.602910 98.000000
0.655744 0.157535 -0.603490 98.000000
0.653934 0.147876 -0.600430 98.000000
0.655417 0.139114 -0.600870 98.000000
0.664171 0.131773 -0.607963 98.000000
0.669217 0.123562 -0.611638 95.000000
0.648544 0.110814 -0.591882 100.000000
0.646089 0.101541 -0.588752 98.000000
0.650705 0.093448 -0.592503 100.000000
0.648130 0.084246 -0.589263 98.000000
0.652623 0.076001 -0.592908 100.000000
0.653379 0.067277 -0.593124 98.000000
0.654054 0.058526 -0.593286 100.000000
0.643606 0.048932 -0.583336 95.000000
0.670050 0.041952 -0.606859 83.000000
0.644641 0.031728 -0.583390 91.000000
0.652266 0.023364 -0.590256 95.000000
0.656134 0.014746 -0.593718 95.000000
0.663630 0.006036 -0.600481 100.000000
0.663657 -0.002813 -0.600481 100.000000
0.652507 -0.011494 -0.590337 100.000000
0.648693 -0.020107 -0.586876 103.000000
0.644827 -0.028595 -0.583336 105.000000
0.636995 -0.036769 -0.576631 95.000000
0.647598 -0.046089 -0.586609 103.000000
0.647038 -0.054741 -0.586475 103.000000
0.646423 -0.063393 -0.586315 100.000000
0.645729 -0.072018 -0.586075 103.000000
0.644981 -0.080643 -0.585781 103.000000
0.647620 -0.089778 -0.588994 103.000000
0.643059 -0.097866 -0.585247 108.000000
0.638242 -0.105856 -0.581664 98.000000
0.622403 -0.111775 -0.568007 103.000000
0.624812 -0.120808 -0.571009 100.000000
0.634446 -0.131424 -0.580628 98.000000
0.734907 -0.162405 -0.673539 100.000000
0.765622 -0.179976 -0.703194 98.000000
0.767407 -0.191083 -0.705815 100.000000
0.765207 -0.201370 -0.705362 100.000000
0.762910 -0.211657 -0.704812 95.000000
0.746230 -0.217693 -0.690911 95.000000
0.733121 -0.224406 -0.680289 98.000000
0.762793 -0.244512 -0.709437 95.000000
0.738582 -0.247686 -0.689038 98.000000
0.757209 -0.264986 -0.708032 98.000000
0.754172 -0.275206 -0.707379 98.000000
0.758386 -0.287930 -0.712969 95.000000
0.755156 -0.298180 -0.712211 95.000000
0.710090 -0.291202 -0.671834 15.000000
1.166727 -0.533118 -1.115573 23.000000
1.174784 -0.555242 -1.126965 22.000000
1.171777 -0.572912 -1.128873 22.000000
1.179398 -0.595424 -1.139991 20.000000
1.169328 -0.609701 -1.135131 20.000000
1.172553 -0.630971 -1.143257 18.000000
1.155628 -0.641402 -1.131733 10.000000
1.158521 -0.662731 -1.139615 21.000000
1.167745 -0.688142 -1.153839 21.000000
1.157043 -0.701972 -1.148539 19.000000
1.149568 -0.717627 -1.146372 22.000000
1.147765 -0.737631 -1.151033 21.000000
1.140029 -0.753156 -1.148636 20.000000
1.128307 -0.766691 -1.143463 15.000000
1.129818 -0.788490 -1.150579 10.000000
1.133544 -0.813006 -1.161183 12.000000
1.124516 -0.828625 -1.158912 10.000000
1.118505 -0.846404 -1.159772 13.000000
1.118371 -0.868892 -1.166867 16.000000
1.105886 -0.881883 -1.161118 10.000000
1.102327 -0.901975 -1.164880 12.000000
1.107515 -0.929597 -1.177919 13.000000
1.097611 -0.944794 -1.175130 10.000000
1.096341 -0.967596 -1.181655 14.000000
1.088155 -0.985644 -1.182209 12.000000
1.086435 -1.008505 -1.188544 10.000000
1.077841 -1.026507 -1.188939 13.000000
1.070062 -1.044065 -1.188737 10.000000
1.063887 -1.064648 -1.192090 15.000000
1.063010 -1.090895 -1.201488 10.000000
1.049168 -1.102669 -1.194848 9.000000
1.053081 -1.134756 -1.210195 14.000000
1.038020 -1.146703 -1.203826 10.000000
1.038539 -1.176231 -1.215849 16.000000
1.041260 -1.208889 -1.230719 16.000000
1.025610 -1.220611 -1.224108 10.000000
1.017521 -1.241294 -1.226561 10.000000
1.009177 -1.261935 -1.228854 10.000000
0.987207 -1.267308 -1.216453 9.000000
0.988238 -1.300405 -1.230632 11.000000
0.976765 -1.317723 -1.229700 10.000000
0.976968 -1.351099 -1.243633 12.000000
0.965974 -1.372136 -1.245912 10.000000
0.962942 -1.402556 -1.256556 10.000000
0.531302 0.794505 -0.692018 57.000000
0.523545 0.763496 -0.673764 91.000000
0.532211 0.755669 -0.675825 72.000000
0.537715 0.744750 -0.675101 88.000000
0.539017 0.727089 -0.668140 82.000000
0.541745 0.713004 -0.664345 83.000000
0.556620 0.714768 -0.675386 71.000000
0.542301 0.678423 -0.650245 26.000000
0.559615 0.683105 -0.664254 98.000000
0.559204 0.665982 -0.657167 95.000000
0.574116 0.667087 -0.668132 95.000000
0.581265 0.658926 -0.670021 98.000000
0.591042 0.653643 -0.674916 98.000000
0.584618 0.630742 -0.661503 95.000000
0.583328 0.613859 -0.654056 95.000000
0.581750 0.597140 -0.646529 59.000000
0.587803 0.589155 -0.648396 90.000000
0.583009 0.569837 -0.637652 75.000000
0.592173 0.564338 -0.642224 95.000000
0.600824 0.558887 -0.647066 95.000000
0.612884 0.555672 -0.654674 95.000000
0.615715 0.544675 -0.653238 95.000000
0.621835 0.535991 -0.654584 98.000000
0.606559 0.509885 -0.634282 69.000000
0.596876 0.489199 -0.620109 95.000000
0.599032 0.478582 -0.618360 95.000000
0.601075 0.467958 -0.616537 95.000000
0.621562 0.471400 -0.633615 98.000000
0.617300 0.455935 -0.625397 98.000000
0.625397 0.449736 -0.629800 100.000000
0.627149 0.438896 -0.627814 98.000000
0.622407 0.423766 -0.619402 95.000000
0.617109 0.408984 -0.611162 95.000000
0.618413 0.398402 -0.608970 98.000000
0.622551 0.390038 -0.610165 103.000000
0.623669 0.379472 -0.607869 98.000000
0.634277 0.374941 -0.615381 100.000000
0.638262 0.366357 -0.616436 103.000000
0.642187 0.357715 -0.617432 98.000000
0.642661 0.347196 -0.615178 100.000000
0.622758 0.326077 -0.593502 44.000000
0.622919 0.315927 -0.591086 95.000000
0.629552 0.309259 -0.595327 98.000000
0.632977 0.300724 -0.596057 98.000000
0.639551 0.293833 -0.600200 100.000000
0.639407 0.283597 -0.597601 98.000000
0.638892 0.273539 -0.595163 98.000000
0.645303 0.266415 -0.599145 95.000000
0.637599 0.253537 -0.590095 36.000000
0.650946 0.249036 -0.600521 103.000000
0.660803 0.242888 -0.607645 105.000000
0.659650 0.232859 -0.605168 100.000000
0.658695 0.222756 -0.602402 103.000000
0.664561 0.215131 -0.606354 100.000000
0.670424 0.207383 -0.610284 100.000000
0.654750 0.193025 -0.594182 98.000000
0.649536 0.182261 -0.588136 66.000000
0.654922 0.174600 -0.592108 98.000000
0.660494 0.166788 -0.595784 95.000000
0.658685 0.157077 -0.592822 98.000000
0.660251 0.148315 -0.593344 98.000000
0.661981 0.139499 -0.593564 95.000000
0.667095 0.131408 -0.597276 98.000000
0.675862 0.123897 -0.604210 95.000000
0.651299 0.110510 -0.581394 70.000000
0.656215 0.102415 -0.584913 103.000000
0.653447 0.093188 -0.582012 100.000000
0.650803 0.084007 -0.578812 103.000000
0.651604 0.075356 -0.579105 103.000000
0.652351 0.066704 -0.579319 103.000000
0.649287 0.057720 -0.576168 108.000000
0.649898 0.049091 -0.576274 100.000000
0.646717 0.040230 -0.573015 68.000000
0.658415 0.032173 -0.582952 95.000000
0.654915 0.023312 -0.579800 100.000000
0.670021 0.014968 -0.593161 103.000000
0.670130 0.006064 -0.593216 103.000000
0.658926 -0.002766 -0.583274 108.000000
0.655155 -0.011456 -0.579906 105.000000
0.662535 -0.020364 -0.586399 108.000000
0.654888 -0.028812 -0.579586 105.000000
0.650721 -0.037303 -0.576274 100.000000
0.642743 -0.045404 -0.569571 100.000000
0.653393 -0.054874 -0.579399 105.000000
0.649048 -0.063190 -0.575902 105.000000
0.652084 -0.072205 -0.578972 108.000000
0.651337 -0.080830 -0.578678 105.000000
0.642863 -0.088485 -0.571933 108.000000
0.645730 -0.097546 -0.574840 108.000000
0.640884 -0.105512 -0.571299 103.000000
0.624879 -0.111401 -0.557806 98.000000
0.686375 -0.131718 -0.613548 103.000000
0.762289 -0.156728 -0.682314 103.000000
0.775088 -0.170124 -0.695241 100.000000
0.773317 -0.180394 -0.694597 98.000000
0.774847 -0.191633 -0.697469 103.000000
0.776292 -0.202905 -0.700304 100.000000
0.770674 -0.212175 -0.696175 100.000000
0.775561 -0.224528 -0.702122 78.000000
0.751182 -0.228325 -0.682056 98.000000
0.745138 -0.237177 -0.678050 98.000000
0.746199 -0.248257 -0.680564 98.000000
0.768359 -0.266978 -0.702844 98.000000
0.762042 -0.275859 -0.698661 95.000000
0.769546 -0.290057 -0.707727 103.000000
0.773397 -0.303123 -0.713448 35.000000
1.099211 -0.464225 -1.020395 18.000000
1.188318 -0.520065 -1.106575 24.000000
1.189216 -0.539235 -1.111861 22.000000
1.180061 -0.553475 -1.106897 22.000000
1.187474 -0.576051 -1.118471 24.000000
1.188338 -0.595258 -1.122971 24.000000
1.178305 -0.609537 -1.118156 20.000000
1.188462 -0.634434 -1.132603 23.000000
1.191549 -0.655983 -1.140468 10.000000
1.174390 -0.666338 -1.128950 23.000000
1.167192 -0.682129 -1.126963 24.000000
1.173068 -0.705688 -1.137705 22.000000
1.164920 -0.721713 -1.135967 24.000000
1.170319 -0.745642 -1.146478 23.000000
1.161914 -0.761627 -1.144556 23.000000
1.147538 -0.772855 -1.135739 17.000000
1.154814 -0.799546 -1.149496 12.000000
1.145951 -0.815277 -1.147336 17.000000
1.143243 -0.835474 -1.151374 15.000000
1.137160 -0.853401 -1.152183 18.000000
1.118644 -0.861804 -1.140302 13.000000
1.127619 -0.891532 -1.156616 18.000000
1.118047 -0.906847 -1.153970 16.000000
1.117374 -0.929603 -1.160627 14.000000
1.107497 -0.944758 -1.157789 10.000000
1.111453 -0.973104 -1.170934 12.000000
1.098292 -0.985612 -1.164788 12.000000
1.101619 -1.014240 -1.177661 18.000000
1.091096 -1.029181 -1.174463 13.000000
1.088086 -1.052637 -1.180898 12.000000
1.081973 -1.073374 -1.184163 16.000000
1.068243 -1.085221 -1.177688 10.000000
1.067233 -1.111573 -1.186837 11.000000
1.071339 -1.143846 -1.201949 16.000000
1.061483 -1.161727 -1.201668 16.000000
1.056800 -1.185505 -1.207423 17.000000
1.049186 -1.206316 -1.209988 10.000000
1.046551 -1.233181 -1.218535 16.000000
1.030713 -1.244746 -1.211889 13.000000
1.022496 -1.265405 -1.214171 10.000000
1.012841 -1.286580 -1.216791 10.000000
1.006554 -1.310338 -1.221850 10.000000
0.997588 -1.330957 -1.223825 15.000000
0.989473 -1.355288 -1.229097 15.000000
0.982287 -1.379127 -1.233805 12.000000
0.978093 -1.410141 -1.244775 14.000000
0.965614 -1.427345 -1.243366 10.000000
0.527868 0.801035 -0.678436 62.000000
0.536151 0.793505 -0.680803 45.000000
0.545080 0.785580 -0.682919 35.000000
0.535045 0.751078 -0.661679 91.000000
0.542838 0.743493 -0.663861 37.000000
0.552988 0.739080 -0.668978 91.000000
0.561337 0.731008 -0.670891 59.000000
0.559009 0.710391 -0.661206 34.000000
0.558873 0.693120 -0.654408 91.000000
0.559104 0.675695 -0.647221 75.000000
0.579243 0.683162 -0.664039 93.000000
0.581265 0.668976 -0.660006 93.000000
0.588414 0.660815 -0.661860 95.000000
0.598224 0.655540 -0.666718 98.000000
0.605270 0.647139 -0.668513 91.000000
0.595734 0.621409 -0.652192 95.000000
0.591333 0.601717 -0.641732 63.000000
0.589407 0.585070 -0.634246 71.000000
0.595849 0.576842 -0.635808 98.000000
0.604596 0.571463 -0.640613 83.000000
0.613818 0.565717 -0.645144 98.000000
0.622582 0.560019 -0.649916 95.000000
0.622893 0.546117 -0.645163 92.000000
0.628564 0.537657 -0.646765 95.000000
0.598357 0.498656 -0.611046 37.000000
0.597516 0.485574 -0.606279 95.000000
0.611885 0.484747 -0.616956 98.000000
0.623218 0.481215 -0.624537 98.000000
0.625244 0.470367 -0.622742 100.000000
0.627159 0.459544 -0.620903 98.000000
0.628962 0.448715 -0.618992 98.000000
0.637057 0.442388 -0.623302 100.000000
0.619307 0.418447 -0.602461 75.000000
0.620686 0.407845 -0.600343 95.000000
0.628154 0.401631 -0.604746 100.000000
0.629313 0.391029 -0.602529 100.000000
0.633422 0.382606 -0.603666 100.000000
0.650764 0.381931 -0.617438 100.000000
0.658497 0.374977 -0.621442 103.000000
0.662475 0.366124 -0.622459 105.000000
0.652793 0.349951 -0.610723 98.000000
0.636054 0.330501 -0.592517 95.000000
0.639375 0.322072 -0.593596 98.000000
0.639466 0.311787 -0.591167 98.000000
0.646385 0.304816 -0.595100 100.000000
0.649536 0.296245 -0.596037 98.000000
0.649374 0.285929 -0.593453 95.000000
0.655893 0.278790 -0.597484 98.000000
0.651732 0.267145 -0.591818 98.000000
0.658153 0.259874 -0.595740 98.000000
0.668094 0.253809 -0.602865 98.000000
0.663686 0.242287 -0.597010 100.000000
0.666368 0.233424 -0.597575 100.000000
0.668739 0.224616 -0.598309 100.000000
0.674880 0.216862 -0.601997 100.000000
0.669841 0.205686 -0.596141 98.000000
0.657394 0.192535 -0.583731 98.000000
0.663118 0.184822 -0.587499 95.000000
0.676102 0.178958 -0.597686 98.000000
0.667012 0.167202 -0.588355 98.000000
0.672586 0.159239 -0.591939 98.000000
0.670437 0.149526 -0.589211 95.000000
0.668243 0.139911 -0.586395 103.000000
0.677335 0.132495 -0.593105 98.000000
0.678723 0.123553 -0.593438 100.000000
0.657610 0.110806 -0.574170 95.000000
0.662373 0.102739 -0.577891 98.000000
0.663507 0.093961 -0.578053 100.000000
0.660833 0.084702 -0.574895 103.000000
0.665397 0.076433 -0.578459 100.000000
0.666154 0.067655 -0.578675 100.000000
0.659294 0.058212 -0.572323 103.000000
0.659908 0.049507 -0.572430 100.000000
0.656695 0.040569 -0.569212 95.000000
0.664727 0.032280 -0.575754 98.000000
0.664941 0.023525 -0.575916 98.000000
0.661324 0.014687 -0.572750 100.000000
0.684108 0.006187 -0.592442 105.000000
0.684136 -0.002845 -0.592442 108.000000
0.661404 -0.011456 -0.572723 105.000000
0.665103 -0.020276 -0.575889 105.000000
0.661137 -0.028866 -0.572430 105.000000
0.656934 -0.037383 -0.569159 103.000000
0.648910 -0.045509 -0.562538 100.000000
0.655898 -0.054694 -0.568946 108.000000
0.659054 -0.063686 -0.572029 108.000000
0.654597 -0.071951 -0.568521 108.000000
0.657612 -0.081043 -0.571495 105.000000
0.656597 -0.089722 -0.571362 108.000000
0.655502 -0.098373 -0.571175 105.000000
0.677010 -0.110667 -0.590288 98.000000
0.746704 -0.132141 -0.651917 64.000000
0.775049 -0.147678 -0.677581 100.000000
0.780643 -0.159448 -0.683871 98.000000
0.782686 -0.170542 -0.686548 98.000000
0.788317 -0.182559 -0.692438 100.000000
0.786172 -0.192992 -0.692016 100.000000
0.783994 -0.203393 -0.691528 103.000000
0.789059 -0.215768 -0.697464 100.000000
0.783038 -0.225148 -0.693600 73.000000
0.787884 -0.237667 -0.699390 95.000000
0.770803 -0.243488 -0.685726 100.000000
0.782446 -0.258530 -0.698104 98.000000
0.776134 -0.267569 -0.693986 98.000000
0.769487 -0.276610 -0.690106 95.000000
0.798616 -0.298894 -0.718380 35.000000
0.952239 -0.370580 -0.859145 62.000000
1.170339 -0.490621 -1.062406 12.000000
1.217885 -0.529063 -1.108968 19.000000
1.222214 -0.550105 -1.117411 29.000000
1.212977 -0.564619 -1.112404 25.000000
1.203084 -0.579198 -1.107831 22.000000
1.203522 -0.598725 -1.112725 23.000000
1.197398 -0.614595 -1.110701 23.000000
1.190581 -0.630571 -1.108997 18.000000
1.204062 -0.657608 -1.126276 12.000000
1.196912 -0.673642 -1.124380 18.000000
1.189111 -0.689893 -1.122863 21.000000
1.185073 -0.707698 -1.123907 22.000000
1.180885 -0.725538 -1.124940 24.000000
1.182513 -0.747729 -1.132526 25.000000
1.168132 -0.759199 -1.123885 18.000000
1.175862 -0.785809 -1.137588 22.000000
1.167110 -0.801706 -1.135483 10.000000
1.161439 -0.819744 -1.136445 14.000000
1.161939 -0.842348 -1.143515 22.000000
1.162178 -0.865042 -1.150491 18.000000
1.155865 -0.883118 -1.151110 22.000000
1.146355 -0.898742 -1.148562 18.000000
1.136731 -0.914197 -1.145958 15.000000
1.130032 -0.931987 -1.146323 14.000000
1.137472 -0.962880 -1.162389 10.000000
1.127321 -0.978223 -1.159505 10.000000
1.131012 -1.006883 -1.172271 16.000000
1.114699 -1.016798 -1.163069 16.000000
1.109096 -1.037564 -1.166427 18.000000
1.104196 -1.057963 -1.169228 15.000000
1.098122 -1.078812 -1.172409 13.000000
1.097480 -1.105236 -1.181544 17.000000
1.088145 -1.123315 -1.181455 10.000000
1.086861 -1.149944 -1.190308 10.000000
1.077006 -1.167932 -1.190043 17.000000
1.075069 -1.194752 -1.198668 10.000000
1.067517 -1.215653 -1.201203 16.000000
1.059652 -1.236580 -1.203641 14.000000
1.051657 -1.257405 -1.205921 12.000000
1.039673 -1.275622 -1.205647 11.000000
1.031193 -1.296327 -1.207741 9.000000
1.025001 -1.320244 -1.212734 10.000000
1.017275 -1.344687 -1.217988 16.000000
1.010418 -1.368642 -1.222680 13.000000
1.007983 -1.399208 -1.233130 12.000000
0.989793 -1.410430 -1.226478 10.000000
0.985361 -1.441666 -1.237057 10.000000
0.974940 -1.462312 -1.238507 10.000000
0.537208 0.806821 -0.672933 21.000000
0.550840 0.805741 -0.680778 32.000000
0.556771 0.794617 -0.680268 22.000000
0.563280 0.783198 -0.679451 26.000000
0.557487 0.755354 -0.664177 37.000000
0.577603 0.763815 -0.680875 24.000000
0.576196 0.742601 -0.671189 32.000000
0.561199 0.705979 -0.647105 18.000000
0.571179 0.701299 -0.652027 33.000000
0.576510 0.689990 -0.650865 52.000000
0.578568 0.675818 -0.646915 26.000000
0.591042 0.673866 -0.654727 37.000000
0.595529 0.662670 -0.653632 42.000000
0.594431 0.645524 -0.646555 31.000000
0.617900 0.654814 -0.666162 57.000000
0.599865 0.620303 -0.641103 15.000000
0.600915 0.606310 -0.636796 32.000000
0.596104 0.586760 -0.626400 36.000000
0.599600 0.575732 -0.624958 32.000000
0.614655 0.575633 -0.635486 53.000000
0.620514 0.567391 -0.637192 25.000000
0.632734 0.564091 -0.644694 37.000000
0.633006 0.550134 -0.640025 71.000000
0.620543 0.526232 -0.623389 26.000000
0.610779 0.505219 -0.609680 45.000000
0.604126 0.486860 -0.598653 35.000000
0.624813 0.490937 -0.615336 41.000000
0.636265 0.487304 -0.622821 62.000000
0.628829 0.469291 -0.611855 52.000000
0.633839 0.460789 -0.613130 81.000000
0.635608 0.449953 -0.611257 94.000000
0.640473 0.441373 -0.612436 50.000000
0.632270 0.423990 -0.601158 69.000000
0.630352 0.411152 -0.595986 66.000000
0.634893 0.402627 -0.596982 78.000000
0.639023 0.394189 -0.598184 95.000000
0.650150 0.389563 -0.605332 95.000000
0.657578 0.382883 -0.609583 95.000000
0.661624 0.374135 -0.610654 95.000000
0.665581 0.365327 -0.611666 95.000000
0.655746 0.349149 -0.600081 42.000000
0.656053 0.338623 -0.597838 48.000000
0.645846 0.322923 -0.586075 71.000000
0.645902 0.312605 -0.583714 72.000000
0.670406 0.313826 -0.603403 60.000000
0.663032 0.300204 -0.594844 92.000000
0.669961 0.292890 -0.598671 89.000000
0.655214 0.276550 -0.583619 95.000000
0.675989 0.275154 -0.600286 43.000000
0.664561 0.260580 -0.588287 98.000000
0.674571 0.254523 -0.595303 100.000000
0.666472 0.241652 -0.586371 98.000000
0.676384 0.235338 -0.593312 98.000000
0.678995 0.226370 -0.593795 100.000000
0.681294 0.217458 -0.594504 100.000000
0.683536 0.208518 -0.595128 105.000000
0.667509 0.194075 -0.579462 95.000000
0.669553 0.185292 -0.579987 95.000000
0.675252 0.177457 -0.583635 98.000000
0.680693 0.169552 -0.587484 100.000000
0.686294 0.161466 -0.591060 95.000000
0.688091 0.152397 -0.591340 100.000000
0.689635 0.143385 -0.591818 100.000000
0.691095 0.134344 -0.592211 100.000000
0.692695 0.125220 -0.592351 92.000000
0.674965 0.113022 -0.576774 98.000000
0.668638 0.103009 -0.570545 100.000000
0.673557 0.094763 -0.573959 103.000000
0.674643 0.085909 -0.574067 105.000000
0.671690 0.076649 -0.571139 100.000000
0.672420 0.067844 -0.571355 103.000000
0.676925 0.059373 -0.574774 105.000000
0.669937 0.049951 -0.568423 98.000000
0.674283 0.041403 -0.571707 95.000000
0.697643 0.033676 -0.591086 98.000000
0.671172 0.023606 -0.568638 103.000000
0.690405 0.015245 -0.584903 105.000000
0.690515 0.006214 -0.584958 110.000000
0.690543 -0.002845 -0.584958 108.000000
0.679043 -0.011679 -0.575181 110.000000
0.675147 -0.020445 -0.571842 110.000000
0.678772 -0.029442 -0.574882 108.000000
0.674526 -0.038108 -0.571653 100.000000
0.658808 -0.045879 -0.558655 103.000000
0.669668 -0.055430 -0.568208 108.000000
0.665249 -0.063847 -0.564793 105.000000
0.664555 -0.072525 -0.564552 110.000000
0.667600 -0.081694 -0.567483 105.000000
0.662792 -0.089935 -0.564125 105.000000
0.695756 -0.103685 -0.592941 103.000000
0.758719 -0.123233 -0.647447 100.000000
0.787704 -0.138406 -0.672578 95.000000
0.793472 -0.150227 -0.678854 100.000000
0.795615 -0.161355 -0.681586 100.000000
0.797677 -0.172581 -0.684248 98.000000
0.803101 -0.184766 -0.690312 100.000000
0.804694 -0.196238 -0.693094 100.000000
0.795283 -0.204837 -0.685893 100.000000
0.793030 -0.215254 -0.685338 98.000000
0.801730 -0.228834 -0.694317 62.000000
0.806346 -0.241637 -0.700315 98.000000
0.803773 -0.252196 -0.699546 98.000000
0.804791 -0.263922 -0.701901 98.000000
0.794481 -0.272034 -0.694888 95.000000
0.809573 -0.288992 -0.710146 29.000000
1.154633 -0.463327 -1.021874 26.000000
1.224648 -0.509716 -1.087053 10.000000
1.236925 -0.533502 -1.101359 18.000000
1.237892 -0.553070 -1.106461 19.000000
1.232071 -0.569305 -1.104698 18.000000
1.225662 -0.585701 -1.103256 18.000000
1.215663 -0.600217 -1.098613 16.000000
1.226328 -0.625183 -1.112732 19.000000
1.212524 -0.637817 -1.104780 11.000000
1.209021 -0.655735 -1.106087 10.000000
1.215585 -0.679398 -1.116769 15.000000
1.204901 -0.693520 -1.111631 17.000000
1.197513 -0.709382 -1.109567 15.000000
1.192814 -0.727553 -1.110940 17.000000
1.195148 -0.749487 -1.118024 13.000000
1.199874 -0.774033 -1.128502 16.000000
1.197810 -0.794482 -1.132692 11.000000
1.172743 -0.799437 -1.115125 9.000000
1.173658 -0.821966 -1.122226 10.000000
1.167860 -0.839986 -1.123025 10.000000
1.165075 -0.860324 -1.126827 10.000000
1.162077 -0.880665 -1.130547 10.000000
1.155742 -0.898634 -1.131070 10.000000
1.158535 -0.923929 -1.140616 10.000000
1.147977 -0.939794 -1.138333 10.000000
1.141148 -0.957642 -1.138573 9.000000
1.146158 -0.985834 -1.150854 10.000000
1.138070 -1.004125 -1.151325 9.000000
1.129807 -1.022382 -1.151724 10.000000
1.122187 -1.040136 -1.151583 10.000000
1.113574 -1.058203 -1.151777 10.000000
1.113392 -1.084619 -1.160874 10.000000
1.098594 -1.097000 -1.154930 10.000000
1.097898 -1.123552 -1.163824 9.000000
1.105043 -1.158971 -1.181441 10.000000
1.098022 -1.179993 -1.184143 9.000000
1.090692 -1.200982 -1.186690 10.000000
1.072449 -1.209839 -1.177368 10.000000
1.070104 -1.236794 -1.185628 10.000000
1.067377 -1.263856 -1.193756 10.000000
1.050353 -1.275849 -1.187601 9.000000
1.041909 -1.296598 -1.189692 9.000000
1.053446 -1.342941 -1.214880 9.000000
1.040707 -1.361142 -1.214255 9.000000
1.028924 -1.378708 -1.213099 10.000000
1.015850 -1.396664 -1.212245 9.000000
1.009553 -1.424593 -1.219966 10.000000
0.999468 -1.445323 -1.221448 10.000000
0.992461 -1.473266 -1.228909 9.000000
0.565432 0.861599 -0.698527 30.000000
0.554187 0.822546 -0.675476 32.000000
0.557885 0.808065 -0.672208 29.000000
0.550218 0.776474 -0.654481 74.000000
0.553980 0.761924 -0.650806 39.000000
0.559354 0.750978 -0.650156 47.000000
0.575209 0.752752 -0.660685 81.000000
0.575427 0.735183 -0.654227 35.000000
0.586267 0.730161 -0.658948 36.000000
0.583477 0.709476 -0.649464 32.000000
0.590927 0.701443 -0.651455 66.000000
0.598892 0.693031 -0.653172 98.000000
0.595428 0.672651 -0.643448 74.000000
0.608030 0.670470 -0.651143 95.000000
0.606866 0.653226 -0.644196 87.000000
0.613849 0.644901 -0.645941 62.000000
0.609972 0.624672 -0.635680 98.000000
0.605275 0.604919 -0.625525 29.000000
0.611357 0.596865 -0.627369 84.000000
0.620741 0.591262 -0.631889 91.000000
0.624264 0.580043 -0.630443 88.000000
0.630604 0.571503 -0.631931 98.000000
0.633908 0.560211 -0.630366 83.000000
0.636607 0.549129 -0.629013 95.000000
0.636606 0.535298 -0.624324 85.000000
0.635986 0.521727 -0.619861 34.000000
0.629370 0.503058 -0.609027 95.000000
0.622073 0.484879 -0.598326 95.000000
0.620844 0.471757 -0.593629 95.000000
0.619482 0.458713 -0.588844 95.000000
0.630803 0.455068 -0.596141 95.000000
0.629192 0.442077 -0.591242 98.000000
0.633987 0.433640 -0.592367 98.000000
0.625525 0.416379 -0.581255 78.000000
0.630077 0.408000 -0.582269 98.000000
0.631202 0.397432 -0.580185 98.000000
0.642020 0.393244 -0.587520 100.000000
0.646391 0.384646 -0.588423 100.000000
0.660629 0.382014 -0.598761 95.000000
0.671776 0.376981 -0.605771 100.000000
0.665411 0.362493 -0.597530 98.000000
0.669268 0.353688 -0.598472 100.000000
0.634706 0.325198 -0.565223 81.000000
0.652260 0.323746 -0.578497 98.000000
0.645202 0.310036 -0.569920 100.000000
0.648581 0.301491 -0.570646 98.000000
0.655242 0.294603 -0.574691 95.000000
0.658527 0.285900 -0.575309 100.000000
0.654312 0.274266 -0.569861 98.000000
0.653590 0.264225 -0.567475 98.000000
0.670885 0.261285 -0.580750 95.000000
0.670262 0.251001 -0.578032 100.000000
0.676418 0.243614 -0.582021 103.000000
0.675400 0.233453 -0.579436 103.000000
0.677955 0.224553 -0.579941 105.000000
0.680258 0.215737 -0.580615 108.000000
0.675252 0.204533 -0.574693 103.000000
0.688556 0.198928 -0.584759 105.000000
0.671979 0.184790 -0.569449 75.000000
0.681445 0.177957 -0.576248 98.000000
0.679606 0.168113 -0.573469 100.000000
0.673927 0.157461 -0.567487 100.000000
0.679257 0.149524 -0.571179 103.000000
0.680960 0.140625 -0.571399 100.000000
0.678597 0.131022 -0.568634 103.000000
0.691359 0.124247 -0.578525 100.000000
0.681247 0.113323 -0.569290 74.000000
0.678663 0.103862 -0.566327 105.000000
0.679804 0.095008 -0.566517 105.000000
0.676876 0.085697 -0.563685 103.000000
0.685535 0.077733 -0.570109 105.000000
0.678631 0.068033 -0.563955 103.000000
0.683145 0.059536 -0.567332 103.000000
0.687611 0.050939 -0.570628 100.000000
0.692001 0.042215 -0.573898 55.000000
0.696343 0.033391 -0.577087 95.000000
0.704261 0.024629 -0.583631 98.000000
0.696757 0.015301 -0.577363 95.000000
0.708390 0.006345 -0.586960 98.000000
0.677617 -0.002739 -0.561440 98.000000
0.700690 -0.011942 -0.580525 95.000000
0.689031 -0.020703 -0.570819 98.000000
0.696536 -0.029994 -0.577031 98.000000
0.696094 -0.039052 -0.577004 98.000000
0.676382 -0.046782 -0.560984 95.000000
0.672005 -0.055248 -0.557663 100.000000
0.663691 -0.063249 -0.551105 103.000000
0.663031 -0.071881 -0.550867 103.000000
0.677389 -0.082375 -0.563523 98.000000
0.783608 -0.105603 -0.652261 98.000000
0.812855 -0.120320 -0.677488 98.000000
0.811490 -0.130882 -0.677195 98.000000
0.806225 -0.140781 -0.673660 83.000000
0.800877 -0.150549 -0.670032 98.000000
0.795479 -0.160217 -0.666376 100.000000
0.789777 -0.169787 -0.662915 100.000000
0.788023 -0.180024 -0.662278 100.000000
0.782190 -0.189414 -0.658696 100.000000
0.783814 -0.200562 -0.661385 100.000000
0.781581 -0.210799 -0.660843 100.000000
0.783014 -0.222029 -0.663396 95.000000
0.769491 -0.228902 -0.653255 95.000000
0.763101 -0.237854 -0.649628 98.000000
0.764279 -0.248958 -0.651992 85.000000
1.226829 -0.452505 -1.054768 26.000000
1.235986 -0.474338 -1.066495 19.000000
1.248951 -0.497685 -1.080810 25.000000
1.258000 -0.519964 -1.091850 15.000000
1.248873 -0.534829 -1.087181 22.000000
1.253480 -0.556043 -1.095268 22.000000
1.251196 -0.574009 -1.096670 26.000000
1.255360 -0.595531 -1.104554 22.000000
1.248751 -0.612052 -1.103037 24.000000
1.241980 -0.628465 -1.101412 19.000000
1.242113 -0.648457 -1.105874 20.000000
1.231572 -0.662937 -1.100984 11.000000
1.234775 -0.684793 -1.108345 18.000000
1.220051 -0.697375 -1.100645 21.000000
1.229627 -0.723326 -1.113961 23.000000
1.221452 -0.739731 -1.112193 23.000000
1.217071 -0.757782 -1.112995 22.000000
1.215311 -0.778220 -1.117177 19.000000
1.203317 -0.792251 -1.112117 18.000000
1.197879 -0.810412 -1.113056 11.000000
1.192225 -0.828604 -1.113928 13.000000
1.176768 -0.839850 -1.105619 14.000000
1.177283 -0.862508 -1.112379 14.000000
1.183900 -0.890096 -1.125037 15.000000
1.177577 -0.908197 -1.125500 21.000000
1.177295 -0.931222 -1.131913 18.000000
1.166738 -0.947172 -1.129675 10.000000
1.159832 -0.965108 -1.129861 10.000000
1.155055 -0.986073 -1.133368 10.000000
1.150918 -1.006566 -1.136384 17.000000
1.142631 -1.024830 -1.136744 14.000000
1.137246 -1.045723 -1.140000 16.000000
1.143292 -1.077713 -1.154956 18.000000
1.134351 -1.095988 -1.155054 14.000000
1.126127 -1.113805 -1.154539 12.000000
1.122510 -1.137638 -1.160300 10.000000
1.112118 -1.156229 -1.160519 10.000000
1.107941 -1.180148 -1.166084 14.000000
1.103513 -1.204172 -1.171539 14.000000
1.093344 -1.222172 -1.171010 13.000000
1.088350 -1.246200 -1.176258 18.000000
1.079392 -1.267591 -1.178877 13.000000
1.071170 -1.288570 -1.181027 10.000000
1.067975 -1.315797 -1.188759 9.000000
1.070873 -1.353269 -1.205390 10.000000
1.056740 -1.367852 -1.201471 16.000000
1.051281 -1.395828 -1.209190 20.000000
1.044138 -1.420114 -1.213611 16.000000
1.040281 -1.451570 -1.223957 19.000000
1.024028 -1.466304 -1.220125 12.000000
1.011227 -1.483729 -1.218572 13.000000
0.999322 -1.505004 -1.220196 9.000000
0.560929 0.868583 -0.684482 35.000000
0.552100 0.832764 -0.664600 16.000000
0.565932 0.831727 -0.672317 27.000000
0.567997 0.813466 -0.666097 53.000000
0.569006 0.795549 -0.660041 47.000000
0.563138 0.767462 -0.645261 81.000000
0.586543 0.779308 -0.664110 44.000000
0.579422 0.751704 -0.649402 63.000000
0.585254 0.740260 -0.648430 80.000000
0.577372 0.713106 -0.633483 35.000000
0.593278 0.714457 -0.643763 65.000000
0.600726 0.706388 -0.645764 76.000000
0.603306 0.691763 -0.641758 95.000000
0.607860 0.680542 -0.640764 98.000000
0.612282 0.669259 -0.639754 76.000000
0.627766 0.669857 -0.650219 98.000000
0.629740 0.655226 -0.645970 95.000000
0.631038 0.640885 -0.641931 92.000000
0.606166 0.600847 -0.611581 60.000000
0.624308 0.603932 -0.624831 40.000000
0.630839 0.595442 -0.626398 78.000000
0.636847 0.587148 -0.628161 93.000000
0.637236 0.573088 -0.623746 78.000000
0.640476 0.561789 -0.622253 98.000000
0.643593 0.550507 -0.620650 95.000000
0.655448 0.547145 -0.628178 90.000000
0.639687 0.520508 -0.608688 83.000000
0.645098 0.512031 -0.610158 87.000000
0.628599 0.486118 -0.590441 98.000000
0.627304 0.472953 -0.585793 98.000000
0.635555 0.467009 -0.590074 100.000000
0.634012 0.453937 -0.585303 103.000000
0.632309 0.440947 -0.580478 100.000000
0.646953 0.439277 -0.590668 103.000000
0.625108 0.413086 -0.567620 54.000000
0.649676 0.417715 -0.586772 100.000000
0.650892 0.406962 -0.584749 100.000000
0.662160 0.402431 -0.591790 103.000000
0.666296 0.393773 -0.592950 103.000000
0.670699 0.384906 -0.593843 100.000000
0.671256 0.374200 -0.591834 105.000000
0.675193 0.365408 -0.592870 103.000000
0.668861 0.350897 -0.584401 95.000000
0.644420 0.327795 -0.560789 95.000000
0.651479 0.321079 -0.564696 100.000000
0.665640 0.317611 -0.574673 100.000000
0.661710 0.305661 -0.569515 100.000000
0.657880 0.293756 -0.564028 103.000000
0.661147 0.285072 -0.564643 100.000000
0.664079 0.276499 -0.565453 103.000000
0.663338 0.266379 -0.563112 95.000000
0.670026 0.259047 -0.566709 105.000000
0.680144 0.253043 -0.573580 103.000000
0.679191 0.242859 -0.571069 103.000000
0.681605 0.234071 -0.571855 105.000000
0.680442 0.223947 -0.569250 103.000000
0.679195 0.213892 -0.566612 105.000000
0.685133 0.206216 -0.570339 103.000000
0.691235 0.198330 -0.573821 100.000000
0.674473 0.184228 -0.558719 100.000000
0.683997 0.177421 -0.565432 98.000000
0.685903 0.168528 -0.565818 103.000000
0.687533 0.159690 -0.566398 103.000000
0.685492 0.149908 -0.563571 100.000000
0.687195 0.140982 -0.563818 103.000000
0.692449 0.132845 -0.567365 103.000000
0.693830 0.123869 -0.567696 100.000000
0.687447 0.113623 -0.561724 100.000000
0.684801 0.104134 -0.558830 103.000000
0.685942 0.095252 -0.559020 105.000000
0.690697 0.086883 -0.562489 105.000000
0.683979 0.077054 -0.556285 105.000000
0.688604 0.068608 -0.559645 108.000000
0.685410 0.059364 -0.556690 103.000000
0.682156 0.050220 -0.553652 105.000000
0.702088 0.042588 -0.569436 98.000000
0.694821 0.033131 -0.563172 100.000000
0.675652 0.023497 -0.547600 100.000000
0.702999 0.015356 -0.569740 103.000000
0.679775 0.006062 -0.550880 100.000000
0.679802 -0.002724 -0.550880 100.000000
0.683660 -0.011575 -0.553975 100.000000
0.706855 -0.021106 -0.572721 103.000000
0.706661 -0.030215 -0.572555 103.000000
0.702364 -0.039135 -0.569381 95.000000
0.682478 -0.046863 -0.553572 100.000000
0.666416 -0.054432 -0.540859 105.000000
0.681296 -0.064480 -0.553250 100.000000
0.715401 -0.077036 -0.581287 100.000000
0.795509 -0.096091 -0.647176 98.000000
0.813819 -0.108919 -0.662466 103.000000
0.816382 -0.120013 -0.665379 98.000000
0.822713 -0.131823 -0.671330 98.000000
0.813568 -0.141105 -0.664700 73.000000
0.808185 -0.150903 -0.661114 95.000000
0.806575 -0.161334 -0.660631 100.000000
0.804644 -0.171798 -0.660341 98.000000
0.798843 -0.181366 -0.656827 103.000000
0.793222 -0.190739 -0.653029 105.000000
0.794870 -0.202002 -0.655673 103.000000
0.788853 -0.211277 -0.652009 100.000000
0.767739 -0.216183 -0.635819 67.000000
0.776439 -0.229502 -0.644727 95.000000
0.774007 -0.239546 -0.644001 91.000000
1.213434 -0.427117 -1.017242 33.000000
1.241844 -0.455034 -1.044023 24.000000
1.255207 -0.478119 -1.058261 26.000000
1.260585 -0.498949 -1.066596 23.000000
1.266130 -0.519749 -1.074384 17.000000
1.264284 -0.537697 -1.075927 21.000000
1.265370 -0.557435 -1.080861 25.000000
1.259050 -0.573985 -1.079522 23.000000
1.263869 -0.595258 -1.086858 24.000000
1.264382 -0.615243 -1.091478 21.000000
1.261125 -0.633531 -1.092909 23.000000
1.250748 -0.648162 -1.088110 18.000000
1.250181 -0.668464 -1.092857 13.000000
1.239553 -0.682830 -1.087898 25.000000
1.228802 -0.696996 -1.082895 26.000000
1.231214 -0.719249 -1.090377 25.000000
1.233880 -0.741388 -1.097279 23.000000
1.235751 -0.763963 -1.104535 24.000000
1.223868 -0.778143 -1.099565 21.000000
1.218597 -0.796432 -1.100581 20.000000
1.213168 -0.814754 -1.101529 10.000000
1.200998 -0.828457 -1.096348 12.000000
1.205038 -0.853526 -1.106054 21.000000
1.195860 -0.869404 -1.103689 16.000000
1.192945 -0.889911 -1.107237 19.000000
1.189871 -0.910417 -1.110645 18.000000
1.179512 -0.926410 -1.108482 18.000000
1.194869 -0.962092 -1.129524 15.000000
1.174675 -0.970436 -1.118265 10.000000
1.170743 -0.990994 -1.121283 14.000000
1.178037 -1.022603 -1.136455 20.000000
1.175797 -1.046458 -1.142616 18.000000
1.167215 -1.064978 -1.142816 21.000000
1.153360 -1.077443 -1.136621 17.000000
1.144542 -1.095685 -1.136687 16.000000
1.129736 -1.108189 -1.130804 13.000000
1.140672 -1.146427 -1.150970 10.000000
1.139683 -1.173458 -1.159446 16.000000
1.123352 -1.186218 -1.153748 17.000000
1.118987 -1.210304 -1.159080 15.000000
1.122541 -1.243488 -1.172904 24.000000
1.106660 -1.255514 -1.166550 17.000000
1.097696 -1.277058 -1.169078 18.000000
1.086890 -1.294911 -1.168292 18.000000
1.074824 -1.313212 -1.167866 9.000000
1.084299 -1.356674 -1.189523 13.000000
1.063931 -1.365190 -1.180356 19.000000
1.069846 -1.405850 -1.198853 17.000000
1.061615 -1.430687 -1.203601 21.000000
1.048103 -1.448943 -1.202586 18.000000
1.045226 -1.479989 -1.212279 18.000000
1.031154 -1.498053 -1.211125 19.000000
1.021515 -1.522974 -1.215411 9.000000
1.011513 -1.547823 -1.219575 10.000000
0.565378 0.889507 -0.681273 27.000000
0.572815 0.877953 -0.680847 26.000000
0.580098 0.866348 -0.680365 27.000000
0.563550 0.820231 -0.652452 22.000000
0.577331 0.819141 -0.660059 37.000000
0.583897 0.807631 -0.659387 35.000000
0.579716 0.783023 -0.647842 35.000000
0.585842 0.771571 -0.647064 68.000000
0.591824 0.760117 -0.646199 49.000000
0.594478 0.745633 -0.642734 63.000000
0.608037 0.743762 -0.650164 41.000000
0.591833 0.707015 -0.626915 25.000000
0.607830 0.708181 -0.637108 98.000000
0.607077 0.690716 -0.630556 91.000000
0.617593 0.685337 -0.635024 89.000000
0.635962 0.689121 -0.648243 98.000000
0.634769 0.671642 -0.641533 95.000000
0.642426 0.662853 -0.643078 98.000000
0.643691 0.648386 -0.639097 76.000000
0.630176 0.619662 -0.620684 52.000000
0.636833 0.611191 -0.622299 94.000000
0.634489 0.594285 -0.615183 95.000000
0.643933 0.588520 -0.619606 98.000000
0.644223 0.574447 -0.615271 95.000000
0.650078 0.566036 -0.616921 95.000000
0.656257 0.557302 -0.618312 98.000000
0.662403 0.548471 -0.619670 75.000000
0.655459 0.529617 -0.609470 73.000000
0.651792 0.513313 -0.601900 98.000000
0.647524 0.497356 -0.594478 95.000000
0.633704 0.474149 -0.577927 103.000000
0.635440 0.463428 -0.576228 98.000000
0.646917 0.459765 -0.583371 100.000000
0.648508 0.448937 -0.581606 103.000000
0.653323 0.440414 -0.582742 100.000000
0.651334 0.427394 -0.577891 98.000000
0.659363 0.420969 -0.581941 95.000000
0.670755 0.416509 -0.588932 103.000000
0.678752 0.409710 -0.592888 103.000000
0.676352 0.396719 -0.587826 103.000000
0.673535 0.383968 -0.582953 100.000000
0.674304 0.373154 -0.580773 103.000000
0.681735 0.366266 -0.584789 100.000000
0.682079 0.355543 -0.582717 98.000000
0.685849 0.346679 -0.583629 75.000000
0.668122 0.327227 -0.566342 103.000000
0.671660 0.318496 -0.567141 100.000000
0.693193 0.318018 -0.583066 98.000000
0.663995 0.294482 -0.556405 100.000000
0.670908 0.287360 -0.560092 98.000000
0.673884 0.278712 -0.560906 100.000000
0.669420 0.267074 -0.555559 95.000000
0.683531 0.262556 -0.565196 95.000000
0.686326 0.253720 -0.565874 103.000000
0.685311 0.243505 -0.563433 105.000000
0.691689 0.235880 -0.567059 103.000000
0.686529 0.224561 -0.561655 105.000000
0.692779 0.216804 -0.565201 103.000000
0.695194 0.207820 -0.565594 105.000000
0.693566 0.197783 -0.563107 98.000000
0.688030 0.186783 -0.557450 91.000000
0.689991 0.177918 -0.557919 103.000000
0.695719 0.169931 -0.561418 100.000000
0.693747 0.160076 -0.558693 100.000000
0.691644 0.150265 -0.555908 103.000000
0.700857 0.142965 -0.562557 100.000000
0.698635 0.133148 -0.559659 105.000000
0.699989 0.124172 -0.559991 95.000000
0.689663 0.113260 -0.551008 98.000000
0.690885 0.104378 -0.551252 108.000000
0.692026 0.095497 -0.551443 103.000000
0.704601 0.088075 -0.561096 103.000000
0.690002 0.077270 -0.548750 103.000000
0.694661 0.068798 -0.552094 103.000000
0.699246 0.060198 -0.555360 108.000000
0.688145 0.050354 -0.546187 98.000000
0.708246 0.042698 -0.561758 98.000000
0.704828 0.033426 -0.558655 100.000000
0.705075 0.024362 -0.558820 100.000000
0.709158 0.015411 -0.562035 103.000000
0.709268 0.006297 -0.562090 100.000000
0.713215 -0.002833 -0.565168 100.000000
0.717078 -0.012035 -0.568217 103.000000
0.716966 -0.021250 -0.568105 100.000000
0.712854 -0.030270 -0.564807 103.000000
0.708523 -0.039218 -0.561676 98.000000
0.696290 -0.047504 -0.552312 103.000000
0.699628 -0.056757 -0.555278 100.000000
0.745861 -0.070150 -0.592299 100.000000
0.815322 -0.087222 -0.647831 98.000000
0.829789 -0.099584 -0.660100 103.000000
0.832672 -0.110729 -0.662774 98.000000
0.831399 -0.121440 -0.662546 100.000000
0.822237 -0.130883 -0.656030 98.000000
0.820782 -0.141428 -0.655674 53.000000
0.823126 -0.152691 -0.658345 103.000000
0.817418 -0.162520 -0.654995 103.000000
0.808008 -0.171368 -0.648271 100.000000
0.809891 -0.182648 -0.650972 100.000000
0.811627 -0.193995 -0.653636 100.000000
0.805642 -0.203479 -0.650038 100.000000
0.803420 -0.213846 -0.649491 100.000000
0.808695 -0.226273 -0.655030 73.000000
0.813828 -0.238896 -0.660491 75.000000
1.097673 -0.353014 -0.895569 77.000000
1.191481 -0.399732 -0.974050 33.000000
1.257939 -0.439916 -1.031168 26.000000
1.275416 -0.464287 -1.048375 26.000000
1.277747 -0.483524 -1.053172 23.000000
1.294237 -0.508858 -1.070578 21.000000
1.292446 -0.527012 -1.072124 10.000000
1.286914 -0.543608 -1.070513 24.000000
1.284376 -0.561958 -1.072315 22.000000
1.288936 -0.583519 -1.080070 24.000000
1.278869 -0.598618 -1.075574 20.000000
1.272260 -0.615194 -1.074057 19.000000
1.276183 -0.636999 -1.081495 24.000000
1.276392 -0.657202 -1.085779 19.000000
1.258728 -0.668068 -1.074933 10.000000
1.262109 -0.690106 -1.082043 25.000000
1.268190 -0.714548 -1.092511 23.000000
1.267563 -0.734893 -1.096392 24.000000
1.255913 -0.749482 -1.091614 24.000000
1.254395 -0.770109 -1.095747 24.000000
1.245826 -0.786517 -1.093843 27.000000
1.233831 -0.800625 -1.088852 21.000000
1.221716 -0.814533 -1.083761 10.000000
1.239444 -0.848721 -1.105295 26.000000
1.230281 -0.864885 -1.103018 22.000000
1.217730 -0.878573 -1.097677 24.000000
1.208308 -0.894467 -1.095236 20.000000
1.204589 -0.915426 -1.099013 19.000000
1.214114 -0.946057 -1.114035 28.000000
1.209779 -0.967299 -1.117567 18.000000
1.202836 -0.985552 -1.117687 10.000000
1.198073 -1.006795 -1.121056 20.000000
1.189994 -1.025371 -1.121377 20.000000
1.191673 -1.051588 -1.129903 24.000000
1.183154 -1.070095 -1.130115 20.000000
1.177393 -1.091400 -1.133077 22.000000
1.162614 -1.104235 -1.127263 23.000000
1.159396 -1.128236 -1.132937 18.000000
1.161743 -1.158081 -1.144226 10.000000
1.157912 -1.182324 -1.149610 17.000000
1.152840 -1.207047 -1.155380 18.000000
1.145632 -1.228370 -1.157710 22.000000
1.124231 -1.234417 -1.145798 14.000000
1.126650 -1.268383 -1.159763 18.000000
1.113292 -1.283309 -1.156188 18.000000
1.101479 -1.301771 -1.155795 12.000000
1.109024 -1.341980 -1.174457 12.000000
1.106922 -1.373390 -1.185001 16.000000
1.100433 -1.397909 -1.189448 19.000000
1.089894 -1.419664 -1.191397 25.000000
1.076579 -1.438026 -1.190485 15.000000
1.074233 -1.469145 -1.200038 20.000000
1.048227 -1.470432 -1.185271 18.000000
1.043956 -1.502121 -1.195055 12.000000
1.046228 -1.544354 -1.212926 10.000000
1.024492 -1.551947 -1.203419 9.000000
1.023376 -1.590958 -1.218246 10.000000
0.581859 0.906056 -0.682713 21.000000
0.582421 0.883801 -0.674302 16.000000
0.577882 0.854711 -0.660389 10.000000
0.584832 0.843181 -0.659853 26.000000
0.581855 0.817916 -0.648410 19.000000
0.598206 0.820022 -0.658654 29.000000
0.604670 0.808359 -0.657991 25.000000
0.605895 0.790016 -0.651798 16.000000
0.619116 0.788489 -0.659473 31.000000
0.622636 0.773420 -0.655902 23.000000
0.622641 0.755495 -0.649750 26.000000
0.606865 0.718285 -0.626624 31.000000
0.612144 0.706799 -0.625534 27.000000
0.627751 0.707977 -0.635823 60.000000
0.626804 0.690388 -0.629345 33.000000
0.640204 0.687831 -0.636567 33.000000
0.647443 0.679310 -0.638403 58.000000
0.643078 0.658901 -0.628889 30.000000
0.656399 0.655918 -0.636040 37.000000
0.627989 0.612648 -0.603710 23.000000
