x y z intensity
0.693233 0.442722 -0.559839 66.000000
0.697970 0.433885 -0.560902 103.000000
0.699085 0.422823 -0.559111 103.000000
0.700093 0.411789 -0.557249 98.000000
0.700966 0.400757 -0.555347 103.000000
0.712529 0.395782 -0.561890 100.000000
0.706018 0.380800 -0.554210 98.000000
0.710213 0.371725 -0.555013 103.000000
0.706758 0.359048 -0.550263 82.000000
0.714209 0.351909 -0.554032 77.000000
0.707040 0.337433 -0.546106 98.000000
0.725507 0.335365 -0.558376 95.000000
0.710413 0.317778 -0.544812 100.000000
0.713834 0.308762 -0.545537 98.000000
0.717168 0.299687 -0.546204 100.000000
0.716652 0.289054 -0.543934 98.000000
0.750082 0.291881 -0.567800 89.000000
0.730385 0.273752 -0.551031 100.000000
0.729402 0.263158 -0.548842 98.000000
0.736010 0.255304 -0.552372 100.000000
0.731014 0.243431 -0.547164 100.000000
0.741372 0.236652 -0.553508 100.000000
0.743937 0.227296 -0.554004 103.000000
0.742506 0.216742 -0.551538 108.000000
0.729230 0.202983 -0.540296 100.000000
0.739166 0.195900 -0.546650 95.000000
0.737260 0.185613 -0.544228 95.000000
0.735276 0.175397 -0.541743 98.000000
0.733186 0.165251 -0.539226 103.000000
0.738937 0.156835 -0.542453 100.000000
0.744622 0.148319 -0.545654 98.000000
0.746134 0.138989 -0.546082 98.000000
0.759698 0.131651 -0.555017 98.000000
0.732994 0.117614 -0.534876 98.000000
0.734223 0.108399 -0.535128 100.000000
0.739414 0.099727 -0.538248 100.000000
0.740481 0.090433 -0.538417 100.000000
0.741351 0.081140 -0.538697 103.000000
0.738244 0.071429 -0.535798 100.000000
0.743008 0.062526 -0.538922 103.000000
0.731501 0.052337 -0.530273 98.000000
0.744187 0.043883 -0.539119 91.000000
0.740478 0.034374 -0.536412 98.000000
0.720626 0.024390 -0.521729 95.000000
0.724866 0.015432 -0.524742 100.000000
0.749248 0.006549 -0.542387 108.000000
0.720925 -0.002716 -0.521865 98.000000
0.737098 -0.012025 -0.533509 98.000000
0.830091 -0.023961 -0.600805 105.000000
0.858047 -0.035551 -0.621352 103.000000
0.861770 -0.046509 -0.624023 103.000000
0.865261 -0.057569 -0.626855 95.000000
0.872655 -0.069049 -0.632516 98.000000
0.871897 -0.079991 -0.632285 100.000000
0.874907 -0.091355 -0.635146 98.000000
0.873947 -0.102315 -0.634782 100.000000
0.880765 -0.114319 -0.640465 103.000000
0.883478 -0.125952 -0.643121 103.000000
0.874049 -0.135784 -0.636942 98.000000
0.872585 -0.146728 -0.636543 75.000000
0.858806 -0.155535 -0.627586 93.000000
0.861152 -0.167069 -0.629978 100.000000
0.855263 -0.177089 -0.626733 100.000000
0.861199 -0.189564 -0.632166 98.000000
0.898669 -0.209626 -0.660813 43.000000
1.054295 -0.259846 -0.776604 94.000000
1.303866 -0.355881 -0.963791 34.000000
1.338912 -0.383560 -0.992090 13.000000
1.385310 -0.415636 -1.028989 17.000000
1.365095 -0.428253 -1.016430 21.000000
1.387512 -0.454328 -1.035663 21.000000
1.378625 -0.470436 -1.031626 22.000000
1.381254 -0.490492 -1.036146 22.000000
1.375995 -0.507802 -1.034831 22.000000
1.374005 -0.526739 -1.036670 18.000000
1.353252 -0.537889 -1.023630 10.000000
1.362360 -0.561237 -1.033923 16.000000
1.363631 -0.581699 -1.038397 24.000000
1.364722 -0.602242 -1.042690 24.000000
1.346975 -0.614354 -1.032664 18.000000
1.351448 -0.636567 -1.039635 24.000000
1.344116 -0.653840 -1.038413 21.000000
1.337118 -0.670725 -1.036636 19.000000
1.337316 -0.691332 -1.040489 10.000000
1.336819 -0.712236 -1.044658 15.000000
1.343289 -0.737177 -1.054367 26.000000
1.335115 -0.754319 -1.052721 24.000000
1.319638 -0.767145 -1.045254 23.000000
1.318314 -0.788150 -1.049031 24.000000
1.313263 -0.807059 -1.049916 21.000000
1.304498 -0.823735 -1.047867 19.000000
1.309514 -0.849251 -1.056976 10.000000
1.307323 -0.870412 -1.060386 16.000000
1.297434 -0.887298 -1.058477 18.000000
1.291406 -0.906049 -1.058893 16.000000
1.284631 -0.925176 -1.059645 16.000000
1.281615 -0.946279 -1.062694 22.000000
1.287689 -0.975328 -1.074318 17.000000
1.290078 -1.002131 -1.083060 22.000000
1.269224 -1.010963 -1.072397 10.000000
1.258184 -1.027286 -1.069964 11.000000
1.259728 -1.054161 -1.078447 21.000000
1.248334 -1.070352 -1.075809 14.000000
1.258728 -1.105713 -1.092224 18.000000
1.246826 -1.121887 -1.089478 19.000000
1.234802 -1.137817 -1.086609 15.000000
1.231826 -1.162339 -1.091807 20.000000
1.233724 -1.193133 -1.102676 9.000000
1.221086 -1.208946 -1.099563 10.000000
1.225209 -1.243086 -1.112953 20.000000
1.206277 -1.252609 -1.104308 13.000000
1.197982 -1.274735 -1.106763 16.000000
1.190439 -1.296255 -1.108618 14.000000
1.184447 -1.321395 -1.113544 10.000000
1.172598 -1.340250 -1.113061 16.000000
1.172550 -1.371315 -1.122616 9.000000
1.184674 -1.419445 -1.145645 10.000000
1.163635 -1.428512 -1.136942 13.000000
1.153278 -1.450575 -1.138676 12.000000
1.150421 -1.482690 -1.148138 17.000000
1.131663 -1.494527 -1.141845 10.000000
1.125548 -1.523286 -1.148531 13.000000
1.116565 -1.548641 -1.152430 14.000000
1.114620 -1.584442 -1.164002 9.000000
1.099874 -1.602808 -1.162568 9.000000
1.092153 -1.631744 -1.168719 10.000000
1.081705 -1.657126 -1.172180 10.000000
1.075369 -1.689754 -1.180735 11.000000
1.068573 -1.722482 -1.189056 10.000000
0.596512 0.965030 -0.654960 21.000000
0.605227 0.952983 -0.654611 18.000000
0.598878 0.919518 -0.639341 26.000000
0.603891 0.904279 -0.636537 19.000000
0.628111 0.917542 -0.653936 20.000000
0.608243 0.866871 -0.625698 21.000000
0.612495 0.851744 -0.622696 20.000000
0.621653 0.843590 -0.624744 32.000000
0.628153 0.831864 -0.624185 25.000000
0.642407 0.830262 -0.631342 24.000000
0.646062 0.815030 -0.628153 35.000000
0.652192 0.803109 -0.627488 27.000000
0.660943 0.794432 -0.629371 29.000000
0.636382 0.746721 -0.599918 10.000000
0.644559 0.738263 -0.601637 24.000000
0.655503 0.732908 -0.605945 35.000000
0.657271 0.718246 -0.602586 32.000000
0.662263 0.706447 -0.601589 46.000000
0.660759 0.688774 -0.595459 52.000000
0.674357 0.686064 -0.602276 34.000000
0.675968 0.671196 -0.598446 62.000000
0.670830 0.650766 -0.589493 16.000000
0.668477 0.633416 -0.583088 28.000000
0.666298 0.616006 -0.576376 32.000000
0.679052 0.613094 -0.583260 35.000000
0.682416 0.601600 -0.582056 63.000000
0.695188 0.598322 -0.588909 34.000000
0.698389 0.586671 -0.587631 47.000000
0.701829 0.574772 -0.586044 69.000000
0.697801 0.558111 -0.579464 31.000000
0.693933 0.541374 -0.572552 38.000000
0.699829 0.532434 -0.573770 38.000000
0.712382 0.528415 -0.580431 46.000000
0.701234 0.506982 -0.567848 95.000000
0.716716 0.505357 -0.577423 76.000000
0.718884 0.493734 -0.575726 65.000000
0.706729 0.473051 -0.563166 72.000000
0.715479 0.466205 -0.566866 39.000000
0.706365 0.448214 -0.556940 88.000000
0.704043 0.434887 -0.552461 60.000000
0.715811 0.430210 -0.559025 91.000000
0.713274 0.416942 -0.554465 98.000000
0.721375 0.409912 -0.558167 95.000000
0.722201 0.398753 -0.556287 98.000000
0.733845 0.393468 -0.562736 98.000000
0.734497 0.382202 -0.560730 95.000000
0.720003 0.363661 -0.547694 52.000000
0.731445 0.358103 -0.554002 55.000000
0.735233 0.348904 -0.554904 86.000000
0.720176 0.331025 -0.541641 79.000000
0.735207 0.326855 -0.550669 79.000000
0.738718 0.317601 -0.551383 95.000000
0.745946 0.309839 -0.554929 70.000000
0.726184 0.291338 -0.538753 82.000000
0.740890 0.286632 -0.547848 46.000000
0.736330 0.274364 -0.542725 95.000000
0.743057 0.266543 -0.546240 98.000000
0.741984 0.255887 -0.544066 98.000000
0.752669 0.249084 -0.550145 98.000000
0.751436 0.238389 -0.547852 100.000000
0.753984 0.228955 -0.548350 103.000000
0.760238 0.220694 -0.551853 100.000000
0.742895 0.205654 -0.537958 58.000000
0.745018 0.196388 -0.538503 91.000000
0.751201 0.188002 -0.541656 98.000000
0.749177 0.177656 -0.539221 83.000000
0.751071 0.168275 -0.539594 95.000000
0.752878 0.158866 -0.539938 98.000000
0.754599 0.149457 -0.540225 98.000000
0.760112 0.140793 -0.543531 100.000000
0.761699 0.131247 -0.543704 71.000000
0.750942 0.119826 -0.535386 95.000000
0.756235 0.111026 -0.538521 100.000000
0.781707 0.104840 -0.556035 100.000000
0.750377 0.091122 -0.533128 105.000000
0.755313 0.082221 -0.536322 103.000000
0.752183 0.072407 -0.533467 103.000000
0.752889 0.063007 -0.533665 103.000000
0.753538 0.053635 -0.533778 94.000000
0.762256 0.044713 -0.539634 98.000000
0.758520 0.035023 -0.536975 100.000000
0.754837 0.025406 -0.534032 101.000000
0.750925 0.015919 -0.531257 103.000000
0.763283 0.006648 -0.539976 103.000000
0.791884 -0.002960 -0.560160 103.000000
0.840804 -0.013642 -0.594746 103.000000
0.861083 -0.024694 -0.609053 105.000000
0.868855 -0.035784 -0.614858 103.000000
0.864452 -0.046356 -0.611680 100.000000
0.888319 -0.058778 -0.628892 92.000000
0.887654 -0.069821 -0.628726 103.000000
0.886889 -0.080898 -0.628493 98.000000
0.893985 -0.092819 -0.634192 103.000000
0.888952 -0.103458 -0.630942 103.000000
0.883662 -0.114030 -0.627861 100.000000
0.886413 -0.125614 -0.630474 103.000000
0.885009 -0.136675 -0.630140 100.000000
0.875470 -0.146353 -0.623988 85.000000
0.877741 -0.158038 -0.626664 98.000000
0.876078 -0.168949 -0.626131 100.000000
0.874149 -0.179893 -0.625799 100.000000
0.900124 -0.196964 -0.645481 31.000000
1.309859 -0.338278 -0.944641 42.000000
1.337899 -0.363138 -0.966562 28.000000
1.392965 -0.396813 -1.008702 10.000000
1.396686 -0.416449 -1.013171 17.000000
1.399870 -0.436390 -1.017899 19.000000
1.402892 -0.456419 -1.022561 19.000000
1.393685 -0.472792 -1.018947 19.000000
1.384671 -0.488849 -1.014848 14.000000
1.391034 -0.510370 -1.022058 20.000000
1.385266 -0.527893 -1.021014 16.000000
1.367839 -0.540762 -1.011362 10.000000
1.381252 -0.565570 -1.023925 18.000000
1.371212 -0.581304 -1.019774 14.000000
1.379945 -0.605122 -1.029681 18.000000
1.376688 -0.624371 -1.031385 18.000000
1.369931 -0.641628 -1.029822 18.000000
1.363062 -0.658773 -1.028146 18.000000
1.355578 -0.676030 -1.026806 16.000000
1.344746 -0.691058 -1.022163 9.000000
1.362645 -0.721681 -1.040233 13.000000
1.343661 -0.732978 -1.030211 12.000000
1.353707 -0.760087 -1.042459 20.000000
1.334527 -0.770973 -1.032342 13.000000
1.326092 -0.787786 -1.030474 12.000000
1.321095 -0.806711 -1.031321 14.000000
1.315938 -0.825556 -1.032045 10.000000
1.303555 -0.839804 -1.027178 9.000000
1.328805 -0.879575 -1.052983 11.000000
1.312512 -0.891553 -1.045209 10.000000
1.312822 -0.915539 -1.051473 10.000000
1.303180 -0.931961 -1.049019 10.000000
1.302962 -0.956047 -1.055115 10.000000
1.302404 -0.980276 -1.061060 12.000000
1.291602 -0.996896 -1.058805 10.000000
1.274095 -1.008186 -1.050999 9.000000
1.276764 -1.034596 -1.058998 10.000000
1.268066 -1.053990 -1.059613 10.000000
1.259848 -1.072870 -1.059737 10.000000
1.273684 -1.111047 -1.078556 10.000000
1.255459 -1.121640 -1.070437 10.000000
1.255931 -1.148995 -1.078278 10.000000
1.245979 -1.168306 -1.078426 10.000000
1.239695 -1.189949 -1.080792 9.000000
1.242294 -1.220533 -1.090966 10.000000
1.228560 -1.236775 -1.088207 10.000000
1.223567 -1.261975 -1.093307 10.000000
1.219135 -1.286709 -1.097857 9.000000
1.213486 -1.312051 -1.102744 10.000000
1.208470 -1.336849 -1.107135 10.000000
1.185223 -1.343069 -1.096143 9.000000
1.187140 -1.377987 -1.108552 9.000000
1.177496 -1.399999 -1.110425 9.000000
1.175726 -1.432013 -1.120028 9.000000
1.168104 -1.457436 -1.124262 10.000000
1.160132 -1.482871 -1.128448 10.000000
1.151739 -1.508314 -1.132517 10.000000
1.150830 -1.544102 -1.144131 10.000000
1.136682 -1.562689 -1.142848 9.000000
1.137286 -1.602220 -1.156699 9.000000
1.120031 -1.617180 -1.152733 8.000000
1.114796 -1.649825 -1.161223 9.000000
1.104209 -1.675359 -1.164673 9.000000
1.093320 -1.700870 -1.167928 9.000000
1.082849 -1.730675 -1.174050 9.000000
0.604922 0.993754 -0.654748 24.000000
0.601603 0.963537 -0.642424 27.000000
0.600078 0.937187 -0.632422 31.000000
0.607656 0.925550 -0.632208 21.000000
0.620625 0.920742 -0.636719 34.000000
0.623003 0.901845 -0.631458 29.000000
0.645079 0.911283 -0.646142 26.000000
0.631961 0.871249 -0.625730 34.000000
0.633581 0.852494 -0.620218 30.000000
0.650578 0.854418 -0.629833 56.000000
0.641188 0.822089 -0.614084 35.000000
0.655460 0.820358 -0.621132 42.000000
0.642540 0.785106 -0.602604 87.000000
0.664831 0.793098 -0.617246 32.000000
0.659465 0.768073 -0.606205 73.000000
0.659366 0.749777 -0.600241 32.000000
0.670408 0.744318 -0.604531 53.000000
0.672749 0.729213 -0.601028 84.000000
0.674390 0.714468 -0.597672 53.000000
0.685217 0.708692 -0.601856 95.000000
0.687042 0.693646 -0.598183 76.000000
0.691208 0.681920 -0.597310 53.000000
0.695693 0.669923 -0.596145 95.000000
0.687246 0.646529 -0.584640 25.000000
0.684642 0.629137 -0.578310 69.000000
0.682218 0.611686 -0.571641 76.000000
0.695055 0.608568 -0.578430 79.000000
0.704759 0.602471 -0.582554 90.000000
0.705078 0.587830 -0.578393 83.000000
0.711369 0.578823 -0.579750 82.000000
0.710980 0.564500 -0.575752 95.000000
0.707044 0.547662 -0.568980 31.000000
0.702907 0.531015 -0.562108 95.000000
0.718495 0.529709 -0.571600 95.000000
0.720869 0.518067 -0.570031 91.000000
0.723093 0.506415 -0.568451 98.000000
0.714506 0.487873 -0.558881 98.000000
0.698914 0.464783 -0.543549 100.000000
0.700277 0.453714 -0.541985 98.000000
0.701804 0.442521 -0.540137 84.000000
0.699351 0.429288 -0.535728 98.000000
0.703926 0.420496 -0.536715 100.000000
0.708412 0.411613 -0.537702 100.000000
0.705565 0.398562 -0.533103 105.000000
0.724524 0.397656 -0.545002 98.000000
0.736206 0.392426 -0.551361 103.000000
0.736776 0.381202 -0.549394 103.000000
0.744690 0.373749 -0.552948 100.000000
0.703680 0.342574 -0.520632 100.000000
0.733809 0.346076 -0.540701 91.000000
0.737469 0.336912 -0.541505 98.000000
0.729639 0.322646 -0.533965 98.000000
0.736914 0.315139 -0.537453 95.000000
0.717286 0.296382 -0.521429 100.000000
0.720482 0.287365 -0.522028 98.000000
0.731360 0.281297 -0.528188 100.000000
0.742218 0.275005 -0.534331 100.000000
0.748975 0.267158 -0.537832 103.000000
0.747872 0.256470 -0.535672 105.000000
0.746797 0.245763 -0.533273 103.000000
0.749406 0.236456 -0.533795 103.000000
0.751958 0.227092 -0.534288 103.000000
0.754393 0.217699 -0.534752 103.000000
0.760608 0.209460 -0.538178 100.000000
0.738944 0.193649 -0.521611 95.000000
0.744954 0.185472 -0.524913 100.000000
0.746884 0.176220 -0.525339 103.000000
0.748899 0.166854 -0.525537 100.000000
0.754580 0.158420 -0.528876 103.000000
0.752248 0.148236 -0.526360 105.000000
0.753865 0.138870 -0.526588 98.000000
0.755284 0.129504 -0.526956 103.000000
0.756732 0.120081 -0.527070 98.000000
0.741680 0.108307 -0.515985 105.000000
0.742846 0.099087 -0.516207 103.000000
0.768282 0.092858 -0.533569 105.000000
0.769315 0.083306 -0.533684 103.000000
0.745540 0.071427 -0.516902 100.000000
0.746373 0.062151 -0.516874 103.000000
0.751089 0.053167 -0.519853 103.000000
0.735218 0.042909 -0.508572 100.000000
0.723218 0.033220 -0.500237 103.000000
0.727705 0.024388 -0.503052 105.000000
0.752568 0.015889 -0.520216 103.000000
0.851392 0.007423 -0.588473 100.000000
0.904895 -0.003357 -0.625430 98.000000
0.896602 -0.014437 -0.619678 95.000000
0.888212 -0.025312 -0.613861 86.000000
0.883706 -0.036153 -0.611019 95.000000
0.883378 -0.047110 -0.610757 95.000000
0.882820 -0.058067 -0.610658 81.000000
0.898543 -0.070275 -0.621852 98.000000
0.897607 -0.081470 -0.621819 98.000000
0.892644 -0.092142 -0.618680 95.000000
0.891546 -0.103219 -0.618547 95.000000
0.890482 -0.114262 -0.618115 98.000000
0.889184 -0.125306 -0.617849 98.000000
0.891860 -0.136942 -0.620349 98.000000
0.886124 -0.147393 -0.617350 88.000000
0.864272 -0.154706 -0.602768 95.000000
0.862485 -0.165464 -0.602475 95.000000
0.925246 -0.189424 -0.647347 32.000000
1.399413 -0.322745 -0.982361 29.000000
1.423987 -0.346951 -1.001254 26.000000
1.420249 -0.364555 -1.000279 25.000000
1.404111 -0.379038 -0.991182 24.000000
1.423948 -0.403198 -1.006930 19.000000
1.403609 -0.416194 -0.994761 19.000000
1.410819 -0.437316 -1.002265 22.000000
1.406025 -0.454857 -1.001175 24.000000
1.400741 -0.472506 -1.000413 19.000000
1.395675 -0.489884 -0.999160 20.000000
1.390446 -0.507152 -0.997852 18.000000
1.404120 -0.531931 -1.010778 17.000000
1.398154 -0.549496 -1.009619 11.000000
1.384332 -0.563818 -1.002832 17.000000
1.389609 -0.585965 -1.009860 23.000000
1.390861 -0.606570 -1.014031 24.000000
1.388025 -0.625600 -1.015301 19.000000
1.388816 -0.646426 -1.019277 22.000000
1.366500 -0.656673 -1.006921 21.000000
1.366971 -0.677370 -1.010722 16.000000
1.366804 -0.698367 -1.014785 12.000000
1.381157 -0.727216 -1.029790 18.000000
1.373110 -0.744565 -1.028135 22.000000
1.364949 -0.761799 -1.026423 26.000000
1.356560 -0.778919 -1.024654 20.000000
1.358928 -0.802310 -1.030974 26.000000
1.343079 -0.814934 -1.023560 18.000000
1.344941 -0.838411 -1.029729 19.000000
1.342548 -0.860068 -1.033438 16.000000
1.350872 -0.888362 -1.044804 13.000000
1.337461 -0.903164 -1.040156 15.000000
1.327910 -0.919805 -1.037812 14.000000
1.317715 -0.936680 -1.035762 13.000000
1.317498 -0.960827 -1.041728 14.000000
1.317654 -0.984700 -1.047185 16.000000
1.313585 -1.006558 -1.050282 10.000000
1.302579 -1.023186 -1.047889 10.000000
1.281570 -1.031679 -1.037436 10.000000
1.283415 -1.058658 -1.045585 18.000000
1.290710 -1.091746 -1.059357 16.000000
1.291782 -1.119110 -1.067271 10.000000
1.292555 -1.146675 -1.075070 18.000000
1.276370 -1.160584 -1.070012 13.000000
1.260928 -1.173793 -1.064410 10.000000
1.254672 -1.195488 -1.066686 10.000000
1.250407 -1.220691 -1.071858 10.000000
1.252738 -1.251472 -1.081764 15.000000
1.238744 -1.267683 -1.078977 13.000000
1.242392 -1.302327 -1.091622 10.000000
1.246416 -1.336655 -1.103726 17.000000
1.234510 -1.355982 -1.103176 11.000000
1.228103 -1.381599 -1.107752 12.000000
1.207283 -1.391029 -1.099339 9.000000
1.197588 -1.413232 -1.101176 10.000000
1.201399 -1.451958 -1.115652 21.000000
1.185559 -1.467530 -1.112176 13.000000
1.174927 -1.489740 -1.113696 16.000000
1.171914 -1.522082 -1.122753 19.000000
1.173658 -1.561475 -1.136621 12.000000
1.154270 -1.573297 -1.130321 10.000000
1.144906 -1.598865 -1.133961 9.000000
1.142700 -1.635086 -1.144946 9.000000
1.122777 -1.646379 -1.138395 10.000000
1.108747 -1.668818 -1.139698 9.000000
1.114543 -1.719823 -1.160180 10.000000
1.107853 -1.752897 -1.168210 10.000000
1.096052 -1.778562 -1.171115 10.000000
0.607805 1.015508 -0.649457 16.000000
0.611603 0.996280 -0.644644 32.000000
0.619825 0.984471 -0.644625 26.000000
0.616714 0.953934 -0.632147 31.000000
0.614738 0.927612 -0.622247 34.000000
0.626992 0.923164 -0.626914 31.000000
0.639951 0.918182 -0.631363 34.000000
0.626925 0.877930 -0.611372 19.000000
0.636272 0.869718 -0.613416 27.000000
0.650749 0.868378 -0.620422 60.000000
0.654739 0.852992 -0.617502 31.000000
0.655865 0.834187 -0.611977 68.000000
0.656697 0.815554 -0.606403 39.000000
0.662735 0.803652 -0.605773 48.000000
0.651912 0.771919 -0.589963 66.000000
0.674376 0.779733 -0.604356 30.000000
0.671408 0.758041 -0.595963 62.000000
0.670979 0.739727 -0.590054 73.000000
0.681942 0.734169 -0.594232 81.000000
0.687015 0.722203 -0.593311 95.000000
0.697443 0.716606 -0.597681 91.000000
0.696254 0.698430 -0.591530 95.000000
0.700879 0.686378 -0.590426 95.000000
0.704916 0.674614 -0.589552 55.000000
0.684275 0.639196 -0.567617 64.000000
0.700457 0.639178 -0.576985 81.000000
0.701196 0.624423 -0.573062 95.000000
0.704559 0.612729 -0.571961 86.000000
0.707795 0.601083 -0.570780 94.000000
0.710939 0.589419 -0.569552 98.000000
0.714287 0.577507 -0.568048 64.000000
0.720450 0.568444 -0.569366 95.000000
0.713126 0.548956 -0.560084 53.000000
0.719045 0.539931 -0.561313 87.000000
0.721481 0.528273 -0.559825 98.000000
0.723445 0.516861 -0.558517 98.000000
0.722141 0.502830 -0.554277 95.000000
0.706673 0.479417 -0.539306 100.000000
0.704895 0.465759 -0.534943 98.000000
0.713327 0.459255 -0.538752 95.000000
0.707695 0.443458 -0.531587 75.000000
0.705182 0.430215 -0.527264 98.000000
0.713380 0.423573 -0.530946 103.000000
0.721533 0.416720 -0.534608 103.000000
0.737004 0.413863 -0.543659 103.000000
0.745140 0.406614 -0.547258 108.000000
0.745837 0.395308 -0.545408 100.000000
0.746399 0.384003 -0.543518 103.000000
0.739351 0.369014 -0.536117 34.000000
0.739606 0.357870 -0.534113 100.000000
0.743374 0.348688 -0.534980 100.000000
0.739400 0.336013 -0.530350 98.000000
0.743159 0.326688 -0.530913 100.000000
0.750471 0.319059 -0.534393 98.000000
0.734563 0.301775 -0.521358 100.000000
0.733927 0.291073 -0.519248 103.000000
0.752699 0.287898 -0.530827 94.000000
0.751758 0.277148 -0.528809 103.000000
0.754805 0.267744 -0.529336 105.000000
0.757588 0.258398 -0.529980 103.000000
0.756498 0.247639 -0.527628 103.000000
0.763096 0.239502 -0.530947 105.000000
0.761686 0.228812 -0.528677 105.000000
0.760133 0.218221 -0.526344 103.000000
0.774550 0.212066 -0.535097 100.000000
0.748558 0.195179 -0.516200 100.000000
0.750715 0.185841 -0.516512 100.000000
0.752645 0.176560 -0.516938 105.000000
0.754490 0.167251 -0.517335 103.000000
0.752212 0.157065 -0.514893 103.000000
0.753905 0.147749 -0.515175 103.000000
0.759598 0.139154 -0.518187 103.000000
0.765109 0.130486 -0.521372 95.000000
0.766421 0.121041 -0.521686 103.000000
0.771782 0.112164 -0.524734 108.000000
0.764735 0.101548 -0.519379 105.000000
0.769960 0.092564 -0.522314 105.000000
0.770958 0.083062 -0.522428 103.000000
0.755249 0.071987 -0.511504 105.000000
0.751955 0.062290 -0.508709 103.000000
0.756701 0.053306 -0.511644 100.000000
0.736570 0.042778 -0.497719 103.000000
0.736895 0.033679 -0.497936 103.000000
0.782838 0.026099 -0.528679 105.000000
0.857615 0.018035 -0.579124 103.000000
0.911609 0.007922 -0.615561 100.000000
0.919930 -0.003354 -0.621157 98.000000
0.919862 -0.014702 -0.621055 100.000000
0.886551 -0.025111 -0.598544 100.000000
0.890300 -0.036218 -0.601374 95.000000
0.894111 -0.047428 -0.603907 98.000000
0.889414 -0.058166 -0.600980 35.000000
0.909393 -0.070731 -0.614789 95.000000
0.904357 -0.081604 -0.611994 100.000000
0.903489 -0.092765 -0.611660 100.000000
0.902352 -0.103893 -0.611526 98.000000
0.901149 -0.115054 -0.611326 98.000000
0.895737 -0.125605 -0.608268 95.000000
0.898443 -0.137276 -0.610725 98.000000
0.901035 -0.149014 -0.613110 60.000000
0.874926 -0.155726 -0.595932 93.000000
0.930251 -0.177464 -0.634605 42.000000
1.422349 -0.326117 -0.974976 27.000000
1.434983 -0.347601 -0.985220 26.000000
1.430975 -0.365368 -0.984624 23.000000
1.427074 -0.382973 -0.983595 21.000000
1.422741 -0.400686 -0.982783 10.000000
1.418299 -0.418291 -0.981916 18.000000
1.421605 -0.438297 -0.986467 22.000000
1.420780 -0.457114 -0.988138 26.000000
1.419490 -0.476140 -0.990131 24.000000
1.418280 -0.495044 -0.991626 26.000000
1.420525 -0.515525 -0.996196 21.000000
1.407294 -0.530090 -0.989264 20.000000
1.397468 -0.546038 -0.985366 11.000000
1.403070 -0.568111 -0.992385 18.000000
1.412263 -0.591980 -1.002010 29.000000
1.409682 -0.611125 -1.003292 27.000000
1.406448 -0.630535 -1.004958 24.000000
1.392102 -0.644365 -0.997877 20.000000
1.400372 -0.668796 -1.007089 25.000000
1.392863 -0.686298 -1.005734 24.000000
1.385185 -0.703686 -1.004266 13.000000
1.392285 -0.728814 -1.013582 22.000000
1.391641 -0.750153 -1.017396 27.000000
1.379700 -0.765495 -1.012974 21.000000
1.375002 -0.784749 -1.013839 22.000000
1.373780 -0.806111 -1.017386 23.000000
1.354237 -0.816650 -1.007366 17.000000
1.367010 -0.846809 -1.021391 20.000000
1.353854 -0.861807 -1.017029 10.000000
1.365925 -0.892437 -1.030849 13.000000
1.359484 -0.912051 -1.031630 21.000000
1.352814 -0.931576 -1.032283 18.000000
1.338993 -0.946241 -1.027614 17.000000
1.336060 -0.967692 -1.030373 21.000000
1.325375 -0.984490 -1.028177 15.000000
1.328150 -1.011464 -1.036470 17.000000
1.313765 -1.025519 -1.031500 9.000000
1.315931 -1.052660 -1.039548 14.000000
1.307200 -1.072280 -1.040053 22.000000
1.308683 -1.099605 -1.047962 14.000000
1.313107 -1.129918 -1.058303 22.000000
1.310640 -1.154806 -1.063315 17.000000
1.291313 -1.165927 -1.055693 16.000000
1.294667 -1.196595 -1.065708 21.000000
1.271884 -1.204421 -1.055389 9.000000
1.265436 -1.226177 -1.057477 12.000000
1.263947 -1.254575 -1.065046 17.000000
1.259051 -1.279972 -1.069875 17.000000
1.254662 -1.304961 -1.074213 19.000000
1.252056 -1.333572 -1.081436 16.000000
1.249046 -1.362358 -1.088538 16.000000
1.248439 -1.394461 -1.098046 18.000000
1.221841 -1.397552 -1.084711 9.000000
1.231807 -1.442813 -1.104132 16.000000
1.218835 -1.461945 -1.103223 20.000000
1.211193 -1.487730 -1.107297 19.000000
1.203198 -1.513457 -1.111189 21.000000
1.200102 -1.546115 -1.119999 18.000000
1.193944 -1.575379 -1.126183 23.000000
1.174487 -1.587227 -1.119967 13.000000
1.167643 -1.616516 -1.125921 9.000000
1.165452 -1.652915 -1.136706 10.000000
1.151561 -1.675683 -1.137980 10.000000
1.138579 -1.697871 -1.138722 11.000000
1.134878 -1.734538 -1.149126 15.000000
1.122190 -1.760874 -1.152541 10.000000
1.117365 -1.797837 -1.162617 16.000000
1.100550 -1.816108 -1.160593 14.000000
0.612244 1.014209 -0.636749 24.000000
0.625191 1.009946 -0.641547 18.000000
0.631887 0.994000 -0.638962 29.000000
0.632769 0.971027 -0.631761 24.000000
0.631534 0.944218 -0.621812 29.000000
0.633984 0.925156 -0.616836 30.000000
0.646265 0.920535 -0.621402 25.000000
0.651585 0.904694 -0.618473 22.000000
0.645601 0.875163 -0.606010 26.000000
0.660170 0.873766 -0.612908 32.000000
0.661512 0.854884 -0.607588 50.000000
0.662520 0.836094 -0.602182 33.000000
0.674195 0.830911 -0.606554 52.000000
0.677575 0.815518 -0.603485 37.000000
0.686324 0.806768 -0.605346 34.000000
0.697885 0.801177 -0.609621 39.000000
0.671951 0.753368 -0.581469 34.000000
0.680128 0.744693 -0.583140 95.000000
0.688199 0.735911 -0.584775 68.000000
0.699222 0.730179 -0.588892 90.000000
0.704162 0.718099 -0.587975 87.000000
0.711557 0.709282 -0.589717 86.000000
0.716256 0.697104 -0.588708 98.000000
0.720818 0.684935 -0.587616 68.000000
0.696425 0.646652 -0.563763 34.000000
0.703608 0.637682 -0.565078 95.000000
0.707071 0.626001 -0.564032 69.000000
0.714053 0.616904 -0.565308 95.000000
0.714015 0.602414 -0.561566 95.000000
0.720402 0.593433 -0.562963 94.000000
0.723720 0.581472 -0.561506 98.000000
0.726581 0.569729 -0.560237 58.000000
0.739462 0.565790 -0.566721 55.000000
0.735290 0.548818 -0.560136 95.000000
0.730853 0.532038 -0.553485 95.000000
0.733168 0.520352 -0.552001 98.000000
0.731800 0.506268 -0.547853 98.000000
0.737062 0.497242 -0.549129 91.000000
0.721199 0.473923 -0.534325 98.000000
0.722824 0.462495 -0.532617 98.000000
0.709652 0.442330 -0.520516 89.000000
0.721837 0.437742 -0.526650 98.000000
0.726452 0.428784 -0.527652 100.000000
0.745700 0.428172 -0.539250 103.000000
0.750285 0.418911 -0.540210 105.000000
0.754776 0.409556 -0.541108 108.000000
0.755435 0.398168 -0.539306 103.000000
0.759750 0.388737 -0.540138 100.000000
0.752657 0.373611 -0.532875 100.000000
0.760529 0.366028 -0.536285 79.000000
0.749056 0.349526 -0.526427 103.000000
0.764439 0.345341 -0.535122 98.000000
0.764223 0.334210 -0.533219 98.000000
0.764090 0.322993 -0.531067 103.000000
0.771443 0.315146 -0.534488 100.000000
0.774827 0.305568 -0.535122 100.000000
0.762401 0.289982 -0.524933 95.000000
0.753526 0.276288 -0.517544 98.000000
0.764479 0.269728 -0.523464 103.000000
0.767276 0.260333 -0.524142 103.000000
0.770192 0.250762 -0.524524 103.000000
0.764834 0.238779 -0.519672 103.000000
0.771387 0.230537 -0.522891 103.000000
0.773848 0.221016 -0.523359 105.000000
0.780293 0.212566 -0.526497 100.000000
0.758261 0.196599 -0.510472 100.000000
0.760287 0.187297 -0.510957 98.000000
0.766332 0.178889 -0.514149 103.000000
0.760166 0.167592 -0.508878 100.000000
0.761926 0.158254 -0.509218 103.000000
0.759382 0.148116 -0.506960 100.000000
0.769218 0.140244 -0.512669 100.000000
0.762515 0.129372 -0.507384 95.000000
0.776229 0.121946 -0.515927 103.000000
0.748542 0.108237 -0.496993 105.000000
0.774525 0.102323 -0.513696 103.000000
0.754871 0.090311 -0.500100 105.000000
0.755843 0.081008 -0.500211 105.000000
0.760778 0.072127 -0.503211 108.000000
0.786587 0.064830 -0.519710 105.000000
0.783056 0.054877 -0.517103 98.000000
0.779462 0.045027 -0.514438 103.000000
0.804824 0.036606 -0.531151 105.000000
0.871992 0.028957 -0.575152 103.000000
0.918121 0.019202 -0.605557 100.000000
0.930777 0.008064 -0.613849 100.000000
0.930811 -0.003369 -0.613849 100.000000
0.930743 -0.014802 -0.613781 95.000000
0.901362 -0.025378 -0.594382 95.000000
0.909309 -0.036790 -0.599886 98.000000
0.900637 -0.047494 -0.594119 95.000000
0.904244 -0.058806 -0.596770 37.000000
0.916040 -0.070865 -0.604819 100.000000
0.915134 -0.082144 -0.604819 98.000000
0.918417 -0.093781 -0.607231 98.000000
0.909002 -0.104093 -0.601602 95.000000
0.920201 -0.116833 -0.609640 100.000000
0.906463 -0.126416 -0.601134 98.000000
0.909225 -0.138171 -0.603510 98.000000
0.911841 -0.149995 -0.605848 42.000000
0.934795 -0.165567 -0.622054 18.000000
1.337109 -0.270655 -0.892053 28.000000
1.428250 -0.307377 -0.954297 29.000000
1.444985 -0.329660 -0.967537 25.000000
1.441420 -0.347378 -0.966726 21.000000
1.462060 -0.371228 -0.982123 26.000000
1.445737 -0.386002 -0.973230 21.000000
1.449454 -0.406077 -0.977861 9.000000
1.453012 -0.426242 -0.982427 21.000000
1.436239 -0.440453 -0.973280 21.000000
1.435485 -0.459377 -0.974903 24.000000
1.438139 -0.479784 -0.979563 25.000000
1.436986 -0.498788 -0.981006 20.000000
1.431352 -0.516575 -0.980012 21.000000
1.433816 -0.537036 -0.983982 20.000000
1.412128 -0.548657 -0.972015 10.000000
1.433426 -0.577077 -0.989684 29.000000
1.427154 -0.594717 -0.988340 20.000000
1.420322 -0.612525 -0.987276 21.000000
1.413714 -0.629997 -0.985820 20.000000
1.410434 -0.649346 -0.987270 18.000000
1.414913 -0.672075 -0.993621 22.000000
1.407440 -0.689681 -0.992262 19.000000
1.399741 -0.707173 -0.990790 9.000000
1.410689 -0.734260 -1.002594 24.000000
1.395138 -0.747760 -0.995606 18.000000
1.398103 -0.771189 -1.001866 22.000000
1.400763 -0.794778 -1.008041 25.000000
1.384854 -0.807783 -1.000890 20.000000
1.379785 -0.827038 -1.001572 19.000000
1.377707 -0.848844 -1.005229 18.000000
1.383006 -0.874909 -1.013609 9.000000
1.383955 -0.899192 -1.019672 22.000000
1.373890 -0.916539 -1.017778 15.000000
1.374848 -0.940569 -1.023261 18.000000
1.378425 -0.967610 -1.031680 22.000000
1.353907 -0.974875 -1.019084 16.000000
1.360464 -1.004441 -1.029880 22.000000
1.349467 -1.021421 -1.027645 16.000000
1.348549 -1.046145 -1.032995 10.000000
1.350630 -1.073605 -1.040891 21.000000
1.348357 -1.098943 -1.046533 19.000000
1.333294 -1.112984 -1.041298 21.000000
1.327892 -1.135123 -1.043770 18.000000
1.324793 -1.160507 -1.049086 17.000000
1.325336 -1.188443 -1.056415 21.000000
1.308837 -1.202462 -1.051406 15.000000
1.299309 -1.221608 -1.050919 12.000000
1.295044 -1.247131 -1.055862 17.000000
1.284245 -1.266641 -1.055652 11.000000
1.277188 -1.288660 -1.057498 18.000000
1.287017 -1.329794 -1.074702 18.000000
1.275361 -1.349266 -1.074202 14.000000
1.263505 -1.368748 -1.073688 16.000000
1.251449 -1.388044 -1.073028 10.000000
1.259271 -1.430019 -1.089730 14.000000
1.246497 -1.449390 -1.088922 15.000000
1.239178 -1.475224 -1.092899 21.000000
1.225986 -1.494340 -1.091911 21.000000
1.228868 -1.533796 -1.105616 17.000000
1.223173 -1.563229 -1.111742 19.000000
1.203721 -1.575311 -1.105627 18.000000
1.194660 -1.601201 -1.109168 13.000000
1.187883 -1.630551 -1.115007 15.000000
1.187067 -1.671306 -1.128439 10.000000
1.166787 -1.682913 -1.121966 11.000000
1.163807 -1.719547 -1.132267 15.000000
1.153924 -1.749738 -1.138057 11.000000
1.142578 -1.775610 -1.140967 13.000000
1.134055 -1.809573 -1.148930 12.000000
1.121858 -1.835510 -1.151569 10.000000
0.605961 1.020744 -0.621705 9.000000
0.632698 1.039307 -0.640377 14.000000
0.628002 1.004509 -0.626244 19.000000
0.643277 1.003807 -0.633266 18.000000
0.652100 0.991470 -0.633055 22.000000
0.652634 0.968437 -0.625906 15.000000
0.655280 0.949198 -0.621059 19.000000
0.660870 0.933224 -0.618262 18.000000
0.665550 0.917621 -0.615671 10.000000
0.656952 0.884413 -0.600997 26.000000
0.664291 0.872192 -0.600395 24.000000
0.670867 0.860193 -0.599969 24.000000
0.680023 0.851606 -0.601945 28.000000
0.691872 0.846291 -0.606270 25.000000
0.692502 0.827391 -0.600879 32.000000
0.701396 0.818534 -0.602726 20.000000
0.701552 0.799731 -0.597192 21.000000
0.683958 0.761555 -0.576886 33.000000
0.683369 0.743196 -0.571150 26.000000
0.697365 0.740819 -0.577716 40.000000
0.711464 0.738148 -0.584238 34.000000
0.713397 0.722859 -0.580858 35.000000
0.715088 0.707654 -0.577416 48.000000
0.719725 0.695510 -0.576407 28.000000
0.730062 0.689564 -0.580602 37.000000
0.724920 0.668491 -0.571983 26.000000
0.709442 0.639233 -0.555940 34.000000
0.716490 0.630162 -0.557221 66.000000
0.716589 0.615637 -0.553649 31.000000
0.720136 0.603711 -0.552318 36.000000
0.726489 0.594730 -0.553682 66.000000
0.733175 0.585416 -0.554813 37.000000
0.742787 0.578945 -0.558661 38.000000
0.731870 0.556649 -0.547147 18.000000
0.748156 0.555182 -0.556076 64.000000
0.740248 0.535750 -0.546996 87.000000
0.749536 0.528959 -0.550706 73.000000
0.744694 0.512303 -0.544049 95.000000
0.750264 0.502967 -0.545111 89.000000
0.755738 0.493565 -0.546109 57.000000
0.750071 0.477375 -0.539519 83.000000
0.744414 0.461231 -0.532645 34.000000
0.738297 0.445420 -0.525898 98.000000
0.750619 0.440460 -0.531945 86.000000
0.762661 0.435411 -0.538166 95.000000
0.759864 0.421846 -0.533875 95.000000
0.760630 0.410423 -0.532156 95.000000
0.757492 0.397056 -0.527803 98.000000
0.761786 0.387671 -0.528600 95.000000
0.765987 0.378194 -0.529367 89.000000
0.766266 0.366852 -0.527466 89.000000
0.781849 0.362690 -0.536090 84.000000
0.793368 0.356567 -0.542216 95.000000
0.785641 0.341639 -0.534898 94.000000
0.793186 0.333635 -0.538320 85.000000
0.788867 0.320657 -0.533722 98.000000
0.796244 0.312512 -0.537056 95.000000
0.799604 0.302679 -0.537672 95.000000
0.767100 0.279770 -0.514276 100.000000
0.762181 0.267486 -0.509442 98.000000
0.784975 0.264918 -0.523466 98.000000
0.775846 0.251322 -0.515866 105.000000
0.774463 0.240557 -0.513750 100.000000
0.772965 0.229861 -0.511599 103.000000
0.775413 0.220360 -0.512065 98.000000
0.789990 0.214141 -0.520522 98.000000
0.763739 0.197055 -0.502083 98.000000
0.765765 0.187725 -0.502597 100.000000
0.763742 0.177327 -0.500165 100.000000
0.765587 0.167989 -0.500533 103.000000
0.771472 0.159476 -0.503595 98.000000
0.773184 0.150031 -0.503881 103.000000
0.774810 0.140530 -0.504138 100.000000
0.776209 0.131085 -0.504508 98.000000
0.781823 0.122205 -0.507350 100.000000
0.762258 0.109656 -0.494136 103.000000
0.788432 0.103619 -0.510539 105.000000
0.764464 0.091003 -0.494499 103.000000
0.790538 0.084326 -0.510827 103.000000
0.795532 0.075060 -0.513791 105.000000
0.775331 0.063628 -0.500439 105.000000
0.805430 0.056191 -0.519346 103.000000
0.843767 0.048520 -0.543782 100.000000
0.915563 0.041447 -0.590006 100.000000
0.928634 0.030687 -0.598092 100.000000
0.937276 0.019532 -0.603641 100.000000
0.937379 0.008098 -0.603675 100.000000
0.945854 -0.003399 -0.609089 98.000000
0.941582 -0.014868 -0.606313 100.000000
0.941411 -0.026387 -0.606177 95.000000
0.932599 -0.037533 -0.600764 100.000000
0.928061 -0.048694 -0.597789 98.000000
0.927454 -0.060025 -0.597687 94.000000
0.935031 -0.072001 -0.603130 95.000000
0.925869 -0.082652 -0.597451 100.000000
0.929178 -0.094374 -0.599850 98.000000
0.928026 -0.105722 -0.599714 98.000000
0.926807 -0.117070 -0.599477 98.000000
0.929688 -0.128963 -0.601905 98.000000
0.924097 -0.139665 -0.598867 98.000000
1.433355 -0.288725 -0.934003 27.000000
1.442543 -0.308899 -0.941383 20.000000
1.451460 -0.329322 -0.948644 23.000000
1.459993 -0.350101 -0.956218 24.000000
1.472607 -0.371997 -0.965973 20.000000
1.456141 -0.386819 -0.957215 20.000000
1.480305 -0.412566 -0.975151 14.000000
1.455479 -0.424757 -0.960825 16.000000
1.458906 -0.445025 -0.965186 19.000000
1.458086 -0.464155 -0.966810 19.000000
1.444757 -0.479443 -0.960644 16.000000
1.455644 -0.502544 -0.970041 17.000000
1.449979 -0.520484 -0.969041 21.000000
1.448170 -0.539736 -0.970645 16.000000
1.454009 -0.562141 -0.977444 13.000000
1.440019 -0.576789 -0.970903 10.000000
1.433708 -0.594437 -0.969563 17.000000
1.431186 -0.613645 -0.970756 14.000000
1.424242 -0.631397 -0.969636 11.000000
1.432915 -0.655828 -0.978619 20.000000
1.429398 -0.675363 -0.979951 13.000000
1.418083 -0.691153 -0.975902 13.000000
1.433251 -0.720106 -0.990189 10.000000
1.410190 -0.729939 -0.978146 10.000000
1.424720 -0.759319 -0.992261 19.000000
1.412713 -0.774849 -0.987913 17.000000
1.411780 -0.796344 -0.991342 15.000000
1.414276 -0.820105 -0.997298 16.000000
1.386642 -0.826817 -0.982664 11.000000
1.396042 -0.854994 -0.993675 13.000000
1.382838 -0.870074 -0.989332 10.000000
1.377283 -0.889299 -0.989760 9.000000
1.399539 -0.927722 -1.011104 14.000000
1.378618 -0.937895 -1.001407 10.000000
1.389395 -0.969780 -1.014743 10.000000
1.371806 -0.982020 -1.007506 14.000000
1.357609 -0.996509 -1.002729 10.000000
1.353654 -1.018487 -1.005561 10.000000
1.352875 -1.043082 -1.010916 10.000000
1.358566 -1.073149 -1.021194 9.000000
1.363105 -1.103948 -1.031722 13.000000
1.341345 -1.112517 -1.021528 10.000000
1.332120 -1.132326 -1.021831 10.000000
1.333107 -1.160048 -1.029178 10.000000
1.323354 -1.179776 -1.029254 10.000000
1.330088 -1.213608 -1.041396 11.000000
1.307073 -1.221556 -1.031366 10.000000
1.297477 -1.240560 -1.030767 9.000000
1.311677 -1.284245 -1.050465 10.000000
1.297542 -1.300833 -1.047689 10.000000
1.304448 -1.339026 -1.062074 10.000000
1.289751 -1.355495 -1.059122 10.000000
1.280852 -1.378147 -1.061016 10.000000
1.280473 -1.410501 -1.070162 10.000000
1.268032 -1.429903 -1.069403 10.000000
1.255386 -1.449244 -1.068562 9.000000
1.251007 -1.478402 -1.074919 13.000000
1.246206 -1.507711 -1.081214 10.000000
1.241048 -1.537031 -1.087380 10.000000
1.224532 -1.552721 -1.083801 10.000000
1.218661 -1.582114 -1.089734 10.000000
1.211164 -1.612131 -1.096022 13.000000
1.199137 -1.634561 -1.096999 10.000000
1.194651 -1.667577 -1.104987 8.000000
1.195921 -1.712261 -1.120340 10.000000
1.182809 -1.734666 -1.120927 10.000000
1.176738 -1.768007 -1.128518 9.000000
1.154370 -1.779785 -1.122363 9.000000
1.156988 -1.828154 -1.139080 10.000000
1.140892 -1.851065 -1.139768 9.000000
1.128340 -1.876998 -1.142285 9.000000
0.623931 1.042162 -0.622723 17.000000
0.627827 1.022758 -0.618228 13.000000
0.639239 1.014354 -0.620412 33.000000
0.635387 0.983796 -0.608881 27.000000
0.636591 0.960559 -0.601678 25.000000
0.644101 0.948802 -0.601577 38.000000
0.642093 0.922076 -0.591902 26.000000
0.659480 0.924692 -0.601010 35.000000
0.651627 0.890999 -0.586472 25.000000
0.661011 0.882721 -0.588493 20.000000
0.667675 0.870831 -0.588115 51.000000
0.672036 0.855093 -0.585125 32.000000
0.678362 0.843148 -0.584633 44.000000
0.681745 0.827730 -0.581741 54.000000
0.693399 0.822449 -0.585995 40.000000
0.684988 0.793737 -0.573394 71.000000
0.693485 0.785057 -0.575145 36.000000
0.675478 0.747037 -0.555136 24.000000
0.698373 0.754491 -0.568854 62.000000
0.706549 0.745634 -0.570467 70.000000
0.708500 0.730436 -0.567177 95.000000
0.710278 0.715248 -0.563824 81.000000
0.711851 0.700110 -0.560445 94.000000
0.716327 0.688077 -0.559424 98.000000
0.727051 0.681975 -0.563310 36.000000
0.721287 0.661274 -0.555050 36.000000
0.725293 0.649209 -0.553916 51.000000
0.725931 0.634300 -0.550224 63.000000
0.729270 0.622540 -0.549229 95.000000
0.729488 0.607717 -0.545428 52.000000
0.732543 0.595961 -0.544301 94.000000
0.745609 0.592297 -0.550671 95.000000
0.741997 0.574883 -0.544222 34.000000
0.744642 0.563071 -0.542966 59.000000
0.736772 0.543586 -0.534108 37.000000
0.749601 0.539474 -0.540323 95.000000
0.730703 0.512825 -0.523722 98.000000
0.739819 0.506162 -0.527332 95.000000
0.738112 0.492180 -0.523267 100.000000
0.747096 0.485314 -0.526818 95.000000
0.741498 0.469098 -0.520117 95.000000
0.757362 0.466805 -0.528871 79.000000
0.766162 0.459570 -0.532314 91.000000
0.771018 0.450176 -0.533362 98.000000
0.764809 0.434205 -0.526451 98.000000
0.765654 0.422717 -0.524817 84.000000
0.762617 0.409265 -0.520566 100.000000
0.763196 0.397884 -0.518847 98.000000
0.771309 0.390432 -0.522261 98.000000
0.771661 0.379022 -0.520442 71.000000
0.775802 0.369514 -0.521178 87.000000
0.791459 0.365286 -0.529673 98.000000
0.783776 0.350284 -0.522528 95.000000
0.763921 0.330544 -0.507703 84.000000
0.767580 0.321082 -0.508239 98.000000
0.763094 0.308513 -0.503733 86.000000
0.762393 0.297627 -0.501768 98.000000
0.781536 0.294287 -0.512819 52.000000
0.780702 0.283234 -0.510768 100.000000
0.775728 0.270847 -0.506060 100.000000
0.766425 0.257359 -0.498831 100.000000
0.777363 0.250547 -0.504492 100.000000
0.771875 0.238573 -0.499788 103.000000
0.774397 0.229150 -0.500310 100.000000
0.793187 0.224324 -0.511316 103.000000
0.791484 0.213509 -0.509093 64.000000
0.802006 0.205932 -0.514755 95.000000
0.808392 0.197119 -0.517724 100.000000
0.806291 0.186353 -0.515559 95.000000
0.804199 0.175570 -0.513122 103.000000
0.806064 0.165771 -0.513507 98.000000
0.799482 0.154336 -0.508506 95.000000
0.809379 0.146145 -0.514247 100.000000
0.806768 0.135556 -0.511802 44.000000
0.766391 0.119206 -0.485424 100.000000
0.776009 0.111080 -0.491011 98.000000
0.764563 0.100003 -0.483271 98.000000
0.774032 0.091697 -0.488750 98.000000
0.770803 0.081816 -0.486205 98.000000
0.767368 0.072066 -0.483799 98.000000
0.772283 0.063079 -0.486624 95.000000
0.959561 0.054935 -0.603696 50.000000
0.930408 0.041962 -0.585315 79.000000
0.930844 0.030649 -0.585281 82.000000
0.931079 0.019336 -0.585416 87.000000
0.935446 0.008060 -0.588110 98.000000
0.935480 -0.003338 -0.588110 98.000000
0.918482 -0.014437 -0.577400 100.000000
0.918316 -0.025595 -0.577267 103.000000
0.926413 -0.037093 -0.582588 98.000000
0.926045 -0.048321 -0.582320 100.000000
0.912799 -0.058766 -0.574244 60.000000
0.907753 -0.069550 -0.571619 95.000000
0.919654 -0.081697 -0.579362 98.000000
0.914575 -0.092414 -0.576406 98.000000
0.905063 -0.102586 -0.570930 103.000000
0.908086 -0.114104 -0.573354 98.000000
0.902602 -0.124566 -0.570438 100.000000
1.478475 -0.259277 -0.937936 17.000000
1.479943 -0.277940 -0.939773 22.000000
1.485176 -0.297591 -0.944414 24.000000
1.481853 -0.315622 -0.943760 24.000000
1.474062 -0.332827 -0.940627 21.000000
1.470477 -0.350698 -0.939758 19.000000
1.470577 -0.369660 -0.941744 21.000000
1.486975 -0.393010 -0.954216 25.000000
1.474420 -0.408856 -0.948120 10.000000
1.490331 -0.432747 -0.960397 21.000000
1.485541 -0.450903 -0.959395 21.000000
1.476639 -0.467608 -0.955655 18.000000
1.467265 -0.484380 -0.952199 20.000000
1.466142 -0.503544 -0.953545 21.000000
1.460532 -0.521484 -0.952545 19.000000
1.466745 -0.543758 -0.959332 19.000000
1.460754 -0.561622 -0.958156 10.000000
1.470447 -0.585745 -0.967297 20.000000
1.472000 -0.606888 -0.971146 23.000000
1.453329 -0.620016 -0.962262 16.000000
1.450577 -0.639411 -0.963391 19.000000
1.443388 -0.657243 -0.962145 20.000000
1.443827 -0.678601 -0.966023 19.000000
1.451659 -0.703769 -0.974944 18.000000
1.420914 -0.710117 -0.957956 10.000000
1.436012 -0.739262 -0.971896 18.000000
1.431746 -0.758872 -0.972859 16.000000
1.434796 -0.782510 -0.978836 21.000000
1.430052 -0.802109 -0.979598 22.000000
1.413577 -0.815594 -0.972961 13.000000
1.427003 -0.845965 -0.986380 22.000000
1.424865 -0.868110 -0.989833 18.000000
1.386499 -0.867142 -0.967337 9.000000
1.398614 -0.898268 -0.980785 10.000000
1.399453 -0.922640 -0.986508 10.000000
1.396446 -0.944746 -0.989611 10.000000
1.403789 -0.974289 -1.000212 13.000000
1.389636 -0.989127 -0.995576 10.000000
1.392871 -1.016434 -1.003466 16.000000
1.381852 -1.033543 -1.001153 10.000000
1.356969 -1.039997 -0.988826 9.000000
1.372399 -1.078463 -1.006824 14.000000
1.374407 -1.106183 -1.014271 10.000000
1.369304 -1.128532 -1.016634 11.000000
1.369840 -1.156962 -1.024308 13.000000
1.347752 -1.165137 -1.014114 10.000000
1.337995 -1.184974 -1.014205 11.000000
1.337719 -1.213477 -1.021606 16.000000
1.337826 -1.241605 -1.028448 9.000000
1.320920 -1.255416 -1.023378 11.000000
1.316524 -1.281064 -1.028025 10.000000
1.302392 -1.297574 -1.025262 10.000000
1.294314 -1.320132 -1.027293 10.000000
1.304127 -1.361606 -1.043762 10.000000
1.316187 -1.406757 -1.062469 17.000000
1.283140 -1.403798 -1.044935 10.000000
1.279661 -1.432977 -1.051358 8.000000
1.281473 -1.468867 -1.062508 16.000000
1.274171 -1.494888 -1.066345 10.000000
1.260957 -1.514228 -1.065313 14.000000
1.255801 -1.543680 -1.071376 13.000000
1.250284 -1.573136 -1.077239 10.000000
1.254023 -1.617302 -1.092881 19.000000
1.231417 -1.625981 -1.084434 12.000000
1.245754 -1.683982 -1.108768 9.000000
1.224072 -1.696668 -1.102892 10.000000
1.213751 -1.722827 -1.105892 10.000000
1.214431 -1.767882 -1.120786 16.000000
1.193423 -1.779412 -1.114343 10.000000
1.187953 -1.817335 -1.124381 10.000000
1.178488 -1.847245 -1.129215 13.000000
1.176512 -1.892969 -1.143487 10.000000
1.163562 -1.919301 -1.145874 9.000000
0.648362 1.102873 -0.638892 29.000000
0.625976 1.036843 -0.607575 18.000000
0.636728 1.028862 -0.609932 31.000000
0.648182 1.020385 -0.612041 26.000000
0.652252 1.000624 -0.607351 42.000000
0.647764 0.970187 -0.595992 35.000000
0.653571 0.954291 -0.593387 32.000000
0.653320 0.931484 -0.586367 66.000000
0.663711 0.922930 -0.588242 32.000000
0.673398 0.914531 -0.590312 33.000000
0.669668 0.888358 -0.580813 34.000000
0.676956 0.876083 -0.580254 35.000000
0.677953 0.857166 -0.575175 95.000000
0.692600 0.855482 -0.581732 58.000000
0.699430 0.843077 -0.581061 64.000000
0.702648 0.827532 -0.578214 55.000000
0.711469 0.818711 -0.580016 50.000000
0.693866 0.780115 -0.560495 88.000000
0.699257 0.768145 -0.559787 34.000000
0.713499 0.765794 -0.566165 83.000000
0.712609 0.747284 -0.560642 95.000000
0.720677 0.738319 -0.562220 82.000000
0.725573 0.726144 -0.561363 95.000000
0.727159 0.710875 -0.558052 98.000000
0.728577 0.695692 -0.554680 91.000000
0.736157 0.686533 -0.556084 83.000000
0.727467 0.662544 -0.545368 32.000000
0.727840 0.647808 -0.542018 91.000000
0.734917 0.638655 -0.543311 83.000000
0.735307 0.623754 -0.539652 92.000000
0.745205 0.617532 -0.543517 95.000000
0.755436 0.610889 -0.547122 89.000000
0.761867 0.601599 -0.548483 91.000000
0.761340 0.586930 -0.544879 81.000000
0.747067 0.561645 -0.531103 35.000000
0.753038 0.552427 -0.532317 95.000000
0.755413 0.540616 -0.530984 83.000000
0.761226 0.531277 -0.532126 98.000000
0.741853 0.504834 -0.515763 98.000000
0.754538 0.500431 -0.521766 92.000000
0.763596 0.493469 -0.525256 98.000000
0.768979 0.483984 -0.526218 95.000000
0.766892 0.469949 -0.522126 64.000000
0.768069 0.458403 -0.520690 98.000000
0.765653 0.444559 -0.516473 98.000000
0.766556 0.433083 -0.514949 98.000000
0.767600 0.421481 -0.513168 98.000000
0.768257 0.410097 -0.511534 100.000000
0.768809 0.398712 -0.509861 103.000000
0.773103 0.389296 -0.510658 98.000000
0.765673 0.374150 -0.503822 98.000000
0.785271 0.372123 -0.514740 73.000000
0.789309 0.362476 -0.515418 95.000000
0.769722 0.342318 -0.500737 98.000000
0.773281 0.332987 -0.501544 98.000000
0.772996 0.321796 -0.499521 98.000000
0.776388 0.312424 -0.500235 98.000000
0.779869 0.302843 -0.500681 95.000000
0.787128 0.294855 -0.503877 95.000000
0.774170 0.279434 -0.494150 98.000000
0.777012 0.270088 -0.494853 103.000000
0.788095 0.263310 -0.500482 100.000000
0.786890 0.252352 -0.498314 100.000000
0.789540 0.242840 -0.498874 103.000000
0.800281 0.235657 -0.504579 100.000000
0.802929 0.225867 -0.504877 100.000000
0.792949 0.212783 -0.497549 100.000000
0.811682 0.207437 -0.508483 88.000000
0.818078 0.198575 -0.511408 90.000000
0.816078 0.187668 -0.509081 100.000000
0.818022 0.177769 -0.509499 100.000000
0.819907 0.167869 -0.509888 100.000000
0.817479 0.157104 -0.507584 100.000000
0.819145 0.147196 -0.507852 98.000000
0.816543 0.136554 -0.505485 85.000000
0.775773 0.120138 -0.479738 95.000000
0.772869 0.110103 -0.477242 98.000000
0.774014 0.100748 -0.477465 103.000000
0.766604 0.090395 -0.472413 103.000000
0.775941 0.082012 -0.477912 103.000000
0.815039 0.076201 -0.501504 113.000000
0.949935 0.031135 -0.582986 75.000000
0.937390 0.019370 -0.575244 96.000000
0.941786 0.008093 -0.577893 98.000000
0.941820 -0.003305 -0.577893 100.000000
0.937491 -0.014636 -0.575211 98.000000
0.933062 -0.025865 -0.572462 103.000000
0.945472 -0.037635 -0.580304 103.000000
0.940707 -0.048863 -0.577657 98.000000
0.944523 -0.060500 -0.579932 93.000000
0.930957 -0.070944 -0.572128 100.000000
0.917413 -0.081079 -0.564027 100.000000
0.924943 -0.093040 -0.569150 100.000000
0.919707 -0.103705 -0.566208 100.000000
