x y z intensity
2.077230 0.877364 0.150837 37.000000
2.105076 0.862306 0.152450 42.000000
2.142079 0.850600 0.154738 36.000000
2.188423 0.841519 0.157632 35.000000
2.225512 0.828076 0.159863 47.000000
2.257843 0.812260 0.161762 32.000000
2.238232 0.777847 0.159962 10.000000
2.293789 0.769505 0.163625 9.000000
2.339975 0.756772 0.166550 10.000000
2.414779 0.751959 0.171434 31.000000
2.465834 0.738538 0.174714 48.000000
2.511979 0.722883 0.177662 48.000000
2.514847 0.694131 0.177483 46.000000
2.560850 0.676957 0.180441 9.000000
2.655114 0.671171 0.186725 8.000000
2.705878 0.652714 0.190041 8.000000
2.790560 0.641213 0.195666 8.000000
2.865531 0.625719 0.200618 8.000000
2.896594 0.599642 0.202505 17.000000
2.981253 0.583390 0.208154 35.000000
3.060967 0.564529 0.213472 37.000000
3.106285 0.538014 0.216401 35.000000
3.097203 0.501772 0.215566 62.000000
3.087589 0.465851 0.214633 69.000000
3.028240 0.423252 0.210363 10.000000
3.017888 0.388417 0.209427 9.000000
3.002074 0.353229 0.208239 16.000000
3.000813 0.320058 0.207987 59.000000
2.989148 0.285954 0.207048 90.000000
2.977177 0.252082 0.206107 34.000000
3.029481 0.223394 0.209641 38.000000
2.971973 0.186654 0.205601 62.000000
2.953961 0.153281 0.204314 76.000000
2.950425 0.120864 0.203970 74.000000
2.931656 0.088196 0.202681 61.000000
2.887490 0.055394 0.199579 12.000000
2.862993 0.023823 0.197943 10.000000
2.833153 -0.007280 0.195874 9.000000
2.827906 -0.038068 0.195529 9.000000
2.832373 -0.068989 0.195874 9.000000
2.811480 -0.099055 0.194495 9.000000
2.825224 -0.130382 0.195529 10.000000
2.798680 -0.159675 0.193805 10.000000
2.801770 -0.190456 0.194064 9.000000
2.764729 -0.218206 0.191651 24.000000
2.801927 -0.251810 0.194323 94.000000
2.784199 -0.280774 0.193289 90.000000
2.771031 -0.309968 0.192514 72.000000
2.767534 -0.340078 0.192429 91.000000
2.763696 -0.370102 0.192344 95.000000
2.744707 -0.397979 0.191227 85.000000
2.754996 -0.430151 0.192173 66.000000
2.774733 -0.464205 0.193806 8.000000
3.469671 -0.658240 0.242964 2.000000
3.628594 -0.729365 0.254519 2.000000
3.552243 -0.754260 0.249495 1.000000
3.524330 -0.788561 0.248013 2.000000
3.467044 -0.815256 0.244370 2.000000
3.428943 -0.845784 0.242100 2.000000
3.656207 -0.944055 0.258625 1.000000
3.573456 -0.964297 0.253274 1.000000
3.558012 -1.001666 0.252706 1.000000
3.628305 -1.063971 0.258157 1.000000
3.530740 -1.077209 0.251801 1.000000
3.552057 -1.126154 0.253954 1.000000
3.577540 -1.177153 0.256444 2.000000
3.564638 -1.215746 0.256098 2.000000
3.537334 -1.293048 0.255522 1.000000
3.201180 -1.209837 0.231856 5.000000
3.197075 -1.248218 0.232217 6.000000
3.174278 -1.278818 0.231228 3.000000
3.279919 -1.363138 0.239666 2.000000
3.209900 -1.375092 0.235306 1.000000
3.464003 -1.528863 0.254791 1.000000
3.276306 -1.532063 0.242603 1.000000
3.223524 -1.550386 0.239598 1.000000
3.345319 -1.653484 0.249501 1.000000
3.251554 -1.651487 0.243384 1.000000
3.193563 -1.665967 0.240057 1.000000
3.210458 -1.719514 0.242271 1.000000
3.313937 -1.821786 0.251217 1.000000
3.057528 -1.768704 0.233782 1.000000
3.119613 -1.850336 0.239612 1.000000
3.129042 -1.902424 0.241471 1.000000
3.061630 -1.907451 0.237411 1.000000
3.099547 -1.978348 0.241446 1.000000
3.065650 -2.003223 0.239903 1.000000
3.110046 -2.080994 0.244675 1.000000
2.976021 -2.038623 0.235425 2.000000
2.969966 -2.082515 0.236173 7.000000
2.857823 -2.050799 0.228488 8.000000
2.706644 -1.987494 0.217706 9.000000
2.632910 -1.978006 0.212997 22.000000
2.516206 -1.933639 0.204767 18.000000
2.416495 -1.899340 0.197858 18.000000
2.341182 -1.881893 0.192902 16.000000
2.247276 -1.847228 0.186369 12.000000
2.184974 -1.836377 0.182416 24.000000
2.104258 -1.808086 0.176804 25.000000
2.013176 -1.768422 0.170353 21.000000
1.964055 -1.763629 0.167330 24.000000
1.889540 -1.734405 0.162194 24.000000
1.834167 -1.720811 0.158577 24.000000
1.805132 -1.729679 0.157174 33.000000
1.764782 -1.728300 0.154839 31.000000
1.760007 -1.761606 0.155633 52.000000
1.723301 -1.762875 0.153621 43.000000
1.704005 -1.781569 0.153169 34.000000
1.687891 -1.803680 0.153026 43.000000
1.685028 -1.840363 0.154037 35.000000
1.671623 -1.866031 0.154194 36.000000
1.667694 -1.902874 0.155266 36.000000
1.643635 -1.917188 0.154419 25.000000
1.645160 -1.961715 0.156086 31.000000
1.617460 -1.971766 0.154931 29.000000
1.608432 -2.004803 0.155594 29.000000
1.611232 -2.053583 0.157452 28.000000
1.588807 -2.071059 0.156973 28.000000
1.578282 -2.104188 0.157611 26.000000
1.564218 -2.133311 0.157942 24.000000
1.549649 -2.162303 0.158267 17.000000
1.537598 -2.195410 0.158799 28.000000
1.536222 -2.244915 0.160583 27.000000
1.506225 -2.253248 0.159413 27.000000
1.498072 -2.294564 0.160589 27.000000
1.486525 -2.331777 0.161375 26.000000
1.479627 -2.377504 0.162815 23.000000
1.461464 -2.406225 0.162997 23.000000
1.412313 -2.383410 0.159803 8.000000
0.800435 1.369900 0.103451 7.000000
0.794772 1.326828 0.101274 15.000000
0.803086 1.310090 0.101091 14.000000
0.827893 1.318154 0.102880 18.000000
0.836777 1.300622 0.102646 23.000000
0.856362 1.299778 0.103737 14.000000
0.873244 1.294487 0.104499 26.000000
0.890072 1.288993 0.105216 22.000000
0.918410 1.299588 0.107330 16.000000
0.914938 1.265258 0.105741 23.000000
0.919698 1.243150 0.105153 13.000000
0.939199 1.241030 0.106212 24.000000
0.958731 1.238588 0.107324 26.000000
0.981386 1.239829 0.108737 17.000000
0.991695 1.225165 0.108779 26.000000
1.024036 1.237324 0.111238 23.000000
1.040672 1.229880 0.112027 23.000000
1.037663 1.199584 0.110681 18.000000
1.053923 1.191918 0.111370 17.000000
1.080248 1.195183 0.113160 27.000000
1.099930 1.190632 0.114258 28.000000
1.133418 1.200289 0.116771 22.000000
1.149862 1.191403 0.117479 30.000000
1.166282 1.182339 0.118239 22.000000
1.186169 1.176559 0.119307 27.000000
1.206106 1.170470 0.120379 26.000000
1.221959 1.161050 0.121149 21.000000
1.241901 1.154431 0.122229 30.000000
1.269161 1.154155 0.124034 31.000000
1.281706 1.140193 0.124402 25.000000
1.309089 1.139220 0.126220 42.000000
1.329056 1.131241 0.127319 28.000000
1.345171 1.119798 0.128004 29.000000
1.365063 1.111312 0.129111 24.000000
1.396635 1.111867 0.131267 23.000000
1.408653 1.096462 0.131595 29.000000
1.436433 1.093081 0.133452 27.000000
1.448309 1.077284 0.133784 26.000000
1.472063 1.070171 0.135226 31.000000
1.491777 1.059739 0.136247 27.000000
1.511168 1.049468 0.137384 24.000000
1.543172 1.046853 0.139588 23.000000
1.571155 1.040919 0.141369 22.000000
1.586588 1.026323 0.142090 32.000000
1.614554 1.019565 0.143882 32.000000
1.642577 1.012320 0.145739 24.000000
1.653501 0.994309 0.146034 34.000000
1.698652 0.996360 0.149355 26.000000
1.731018 0.990112 0.151550 29.000000
1.745870 0.973925 0.152296 27.000000
1.773914 0.964297 0.154124 28.000000
1.797513 0.951892 0.155515 29.000000
1.829940 0.943644 0.157736 32.000000
1.880249 0.943730 0.161431 28.000000
1.917236 0.936250 0.164053 29.000000
1.945371 0.923840 0.165850 30.000000
1.959719 0.904902 0.166564 24.000000
2.005818 0.899819 0.169910 29.000000
2.020078 0.879872 0.170566 23.000000
2.070845 0.875285 0.174314 31.000000
2.103266 0.862097 0.176525 32.000000
2.144879 0.852229 0.179588 27.000000
2.181906 0.839514 0.182130 33.000000
2.214281 0.824379 0.184361 30.000000
2.232485 0.803599 0.185429 20.000000
2.245763 0.781050 0.186110 9.000000
2.296590 0.770795 0.189844 8.000000
2.328609 0.753402 0.192022 8.000000
2.384138 0.742984 0.196238 8.000000
2.420736 0.725579 0.198820 16.000000
2.490741 0.717047 0.204077 32.000000
2.551208 0.704667 0.208718 29.000000
2.534650 0.670422 0.206913 7.000000
2.648020 0.669782 0.215818 7.000000
2.722959 0.657222 0.221589 7.000000
2.807713 0.645505 0.228163 7.000000
2.833982 0.619156 0.229919 8.000000
2.904002 0.601482 0.235236 10.000000
2.944597 0.576592 0.238279 23.000000
3.033984 0.559911 0.245197 31.000000
3.093860 0.536215 0.249747 28.000000
3.089692 0.500878 0.249145 42.000000
3.070321 0.463524 0.247352 36.000000
3.015936 0.421778 0.242681 9.000000
2.990659 0.385141 0.240482 9.000000
2.974921 0.350223 0.239076 10.000000
2.983453 0.318380 0.239565 36.000000
2.981798 0.285387 0.239259 62.000000
2.925138 0.247873 0.234572 9.000000
2.997242 0.221101 0.240239 35.000000
2.954682 0.185716 0.236744 35.000000
2.931609 0.152157 0.234841 32.000000
2.933136 0.120252 0.234931 58.000000
2.914288 0.087746 0.233336 33.000000
2.835363 0.054438 0.227041 10.000000
2.850748 0.023740 0.228238 9.000000
2.840868 -0.007306 0.227527 8.000000
2.810705 -0.037866 0.225132 9.000000
2.790173 -0.067932 0.223535 9.000000
2.784338 -0.098176 0.223136 8.000000
2.797994 -0.129146 0.224248 9.000000
2.761619 -0.157601 0.221455 8.000000
2.769701 -0.188341 0.222253 9.000000
2.772460 -0.218905 0.222567 32.000000
2.774870 -0.249493 0.222880 35.000000
2.767011 -0.279187 0.222481 76.000000
2.758908 -0.308774 0.221998 70.000000
2.750391 -0.338168 0.221514 54.000000
2.721874 -0.364721 0.219438 94.000000
2.742416 -0.397894 0.221260 78.000000
2.723147 -0.425449 0.219982 52.000000
2.723337 -0.455806 0.220295 9.000000
2.840842 -0.507385 0.230059 5.000000
3.417895 -0.648837 0.277236 2.000000
3.674514 -0.738965 0.298455 1.000000
3.656502 -0.776825 0.297432 1.000000
3.584688 -0.802383 0.292052 1.000000
3.648467 -0.858416 0.297766 1.000000
3.518079 -0.908914 0.288103 1.000000
3.705249 -1.000450 0.304071 1.000000
3.603049 -1.014840 0.296224 1.000000
3.634863 -1.066663 0.299542 1.000000
3.580130 -1.093107 0.295766 1.000000
3.501582 -1.110628 0.289802 1.000000
3.318882 -1.092638 0.275433 1.000000
3.570962 -1.218851 0.297089 1.000000
3.552979 -1.255770 0.296235 1.000000
3.534454 -1.292702 0.295498 1.000000
3.212445 -1.214707 0.269351 3.000000
3.161845 -1.235206 0.265912 5.000000
3.102105 -1.250548 0.261597 4.000000
3.272492 -1.360898 0.276866 1.000000
3.353734 -1.437729 0.284597 1.000000
3.424512 -1.512405 0.291640 1.000000
3.171377 -1.525954 0.272873 1.000000
3.266277 -1.615682 0.282089 1.000000
3.014052 -1.788608 0.267959 1.000000
3.079502 -1.873251 0.275030 1.000000
3.109641 -1.938437 0.279034 1.000000
3.172369 -2.025975 0.286166 1.000000
3.141789 -2.055078 0.284834 1.000000
3.148151 -2.108740 0.286786 1.000000
2.948150 -2.021814 0.270013 3.000000
2.959030 -2.076122 0.272362 5.000000
2.863341 -2.055970 0.265060 7.000000
2.736324 -2.010392 0.254689 8.000000
2.634479 -1.980297 0.246705 10.000000
2.525735 -1.942175 0.237909 12.000000
2.410320 -1.895693 0.228410 10.000000
2.362290 -1.900093 0.225254 9.000000
2.252843 -1.852940 0.216197 11.000000
2.182879 -1.835853 0.210869 10.000000
2.098441 -1.804326 0.204094 13.000000
2.018700 -1.774515 0.197717 16.000000
1.958408 -1.759812 0.193198 12.000000
1.891330 -1.737308 0.187891 20.000000
1.824974 -1.713522 0.182689 14.000000
1.792423 -1.718866 0.180625 13.000000
1.762969 -1.727923 0.179008 30.000000
1.733441 -1.736444 0.177398 26.000000
1.714448 -1.755288 0.176948 37.000000
1.695229 -1.773906 0.176422 34.000000
1.686003 -1.803227 0.176894 26.000000
1.679754 -1.836225 0.177790 34.000000
1.666305 -1.861932 0.177968 24.000000
1.682109 -1.921250 0.181250 23.000000
1.641705 -1.916725 0.178586 24.000000
1.623984 -1.938384 0.178320 21.000000
1.609110 -1.963661 0.178479 26.000000
1.590793 -1.984950 0.178207 22.000000
1.596850 -2.037481 0.180719 23.000000
1.577710 -2.058703 0.180432 25.000000
1.567219 -2.091810 0.181180 19.000000
1.567929 -2.140956 0.183297 21.000000
1.541728 -2.153785 0.182304 16.000000
1.535468 -2.195001 0.183627 18.000000
1.517171 -2.219789 0.183653 21.000000
1.501301 -2.248685 0.184013 18.000000
1.493086 -2.289967 0.185298 20.000000
1.470847 -2.310313 0.184966 20.000000
1.479864 -2.381314 0.188574 18.000000
1.458013 -2.400671 0.188050 15.000000
1.459874 -2.463603 0.191024 6.000000
0.786464 1.348026 0.115914 6.000000
0.788282 1.317939 0.114532 10.000000
0.812992 1.326247 0.116495 15.000000
0.822018 1.308853 0.116269 25.000000
0.844301 1.312397 0.117872 16.000000
0.861277 1.307247 0.118727 23.000000
0.871859 1.294153 0.118875 19.000000
0.894391 1.296865 0.120496 18.000000
0.911298 1.291102 0.121361 23.000000
0.907763 1.256841 0.119539 10.000000
0.939159 1.270883 0.122329 26.000000
0.955902 1.264557 0.123151 24.000000
0.972635 1.257970 0.124025 24.000000
0.986264 1.247262 0.124463 25.000000
1.009149 1.248084 0.126125 19.000000
1.019485 1.233138 0.126174 24.000000
1.032856 1.221922 0.126615 24.000000
1.065634 1.233186 0.129431 10.000000
1.059208 1.199048 0.127497 33.000000
1.082208 1.198488 0.129133 28.000000
1.098591 1.190235 0.129929 27.000000
1.118374 1.185385 0.131177 34.000000
1.131198 1.173110 0.131626 28.000000
1.157914 1.174834 0.133640 28.000000
1.194934 1.187147 0.136931 30.000000
1.214975 1.180942 0.138208 13.000000
1.206122 1.146953 0.136177 38.000000
1.225906 1.140439 0.137402 33.000000
1.267744 1.153788 0.141041 32.000000
1.291455 1.149766 0.142695 42.000000
1.307655 1.138795 0.143531 32.000000
1.331407 1.134045 0.145143 42.000000
1.347554 1.122612 0.145986 34.000000
1.363609 1.110881 0.146778 18.000000
1.399057 1.114535 0.149656 47.000000
1.407232 1.096080 0.149622 34.000000
1.438574 1.096045 0.152155 32.000000
1.450482 1.080204 0.152542 46.000000
1.466253 1.067184 0.153351 28.000000
1.489985 1.059683 0.154951 34.000000
1.509648 1.049017 0.156190 38.000000
1.533387 1.040801 0.157800 18.000000
1.557140 1.032200 0.159416 35.000000
1.593391 1.031332 0.162316 35.000000
1.596130 1.008512 0.161868 32.000000
1.628027 1.004355 0.164355 35.000000
1.664474 1.001898 0.167281 34.000000
1.696783 0.996239 0.169787 42.000000
1.720541 0.985040 0.171441 34.000000
1.726819 0.963726 0.171313 17.000000
1.772246 0.963803 0.175136 34.000000
1.817714 0.963368 0.178973 54.000000
1.841328 0.950244 0.180591 35.000000
1.873866 0.941237 0.183083 42.000000
1.924292 0.940428 0.187325 41.000000
1.938895 0.921504 0.188089 32.000000
1.971301 0.910972 0.190604 38.000000
1.971993 0.885271 0.190060 18.000000
2.050015 0.893533 0.196972 35.000000
2.087129 0.882770 0.199882 50.000000
2.110325 0.865808 0.201549 34.000000
2.138132 0.850106 0.203591 45.000000
2.170535 0.835649 0.206080 50.000000
2.221517 0.827567 0.210342 35.000000
2.249048 0.810278 0.212476 36.000000
2.196545 0.764390 0.207006 8.000000
2.299086 0.772233 0.216169 8.000000
2.321548 0.751718 0.217725 8.000000
2.367658 0.738231 0.221583 8.000000
2.404105 0.721132 0.224561 8.000000
2.474005 0.712753 0.230589 10.000000
2.539177 0.701771 0.236264 25.000000
2.575569 0.681648 0.239108 8.000000
2.645511 0.669531 0.245252 7.000000
2.701025 0.652459 0.249983 8.000000
2.761390 0.635193 0.255085 8.000000
2.816723 0.615788 0.259833 8.000000
2.867146 0.594227 0.264141 18.000000
2.951615 0.578323 0.271605 37.000000
3.031151 0.559722 0.278539 36.000000
3.081163 0.534321 0.282780 63.000000
3.091732 0.501580 0.283518 71.000000
3.062545 0.462685 0.280458 74.000000
3.037796 0.425135 0.278035 16.000000
2.997766 0.386322 0.274065 9.000000
2.981968 0.351296 0.272443 18.000000
3.015357 0.321989 0.275247 95.000000
2.978956 0.285295 0.271815 81.000000
2.981890 0.252832 0.271906 95.000000
2.989424 0.220735 0.272451 43.000000
2.951873 0.185625 0.268921 91.000000
2.938858 0.152674 0.267653 95.000000
2.925375 0.120048 0.266384 95.000000
2.916587 0.087896 0.265567 95.000000
2.867607 0.055107 0.261035 21.000000
2.853022 0.023782 0.259763 10.000000
2.818254 -0.007255 0.256590 10.000000
2.808124 -0.037780 0.255683 9.000000
2.792588 -0.068053 0.254323 10.000000
2.766765 -0.097565 0.252056 10.000000
2.765577 -0.127767 0.252056 9.000000
2.759079 -0.157601 0.251518 10.000000
2.737260 -0.186228 0.249705 9.000000
2.730110 -0.215683 0.249168 10.000000
2.757433 -0.248069 0.251802 95.000000
2.749594 -0.277602 0.251264 85.000000
2.741428 -0.306942 0.250727 95.000000
2.728077 -0.335566 0.249738 95.000000
2.714417 -0.363976 0.248749 70.000000
2.710304 -0.393433 0.248581 95.000000
2.705856 -0.422974 0.248497 87.000000
2.656873 -0.444945 0.244266 10.000000
2.843094 -0.507996 0.261697 9.000000
3.348876 -0.673900 0.309106 1.000000
3.443626 -0.732071 0.318353 1.000000
3.391801 -0.759603 0.314087 1.000000
3.383281 -0.796561 0.313874 1.000000
3.277752 -0.809429 0.304570 1.000000
3.596704 -0.929768 0.334776 1.000000
3.543079 -0.957236 0.330512 1.000000
3.613991 -1.018549 0.337791 1.000000
3.459371 -1.015805 0.324019 1.000000
3.391061 -1.035798 0.318323 1.000000
3.498209 -1.110403 0.329162 1.000000
3.381892 -1.114242 0.319009 1.000000
3.539335 -1.208732 0.334613 1.000000
3.362633 -1.230515 0.319587 1.000000
3.134765 -1.186089 0.298730 2.000000
3.140278 -1.227434 0.300196 7.000000
3.122126 -1.259764 0.299340 5.000000
3.126697 -1.301147 0.300592 2.000000
3.066607 -1.315546 0.295763 2.000000
3.234305 -1.429404 0.312987 1.000000
3.338668 -1.607633 0.326499 1.000000
3.195976 -1.582201 0.313665 1.000000
3.080938 -1.567261 0.303604 1.000000
3.103408 -1.621590 0.307005 1.000000
3.033142 -1.626701 0.301237 1.000000
3.117794 -1.851881 0.315034 1.000000
3.097355 -1.885873 0.314479 1.000000
3.013626 -1.879436 0.307346 1.000000
3.018141 -1.928385 0.309274 1.000000
3.017808 -1.974937 0.310762 1.000000
3.132605 -2.099492 0.324349 1.000000
2.932873 -2.012483 0.305272 1.000000
2.955601 -2.075901 0.309311 3.000000
2.904385 -2.087849 0.305667 8.000000
2.785065 -2.048664 0.294709 8.000000
2.639111 -1.986187 0.280937 10.000000
2.538896 -1.953548 0.271776 15.000000
2.458683 -1.934998 0.264765 20.000000
2.363666 -1.902474 0.256104 15.000000
2.246586 -1.849060 0.245056 9.000000
2.214832 -1.863941 0.243177 26.000000
2.115039 -1.819897 0.233789 19.000000
2.072597 -1.823223 0.230692 23.000000
1.985873 -1.785821 0.222624 24.000000
1.922223 -1.767029 0.217001 21.000000
1.859219 -1.747031 0.211484 26.000000
1.811327 -1.739652 0.207565 27.000000
1.777954 -1.745453 0.205383 27.000000
1.731414 -1.735844 0.201422 62.000000
1.708940 -1.751120 0.200413 64.000000
1.689760 -1.769701 0.199813 57.000000
1.677160 -1.795340 0.200025 58.000000
1.674337 -1.832013 0.201370 36.000000
1.654276 -1.850175 0.200762 45.000000
1.643906 -1.879362 0.201360 30.000000
1.626659 -1.900960 0.201073 18.000000
1.615420 -1.930121 0.201658 35.000000
1.600698 -1.955326 0.201760 31.000000
1.616727 -2.019424 0.205823 31.000000
1.591639 -2.033001 0.204715 30.000000
1.584578 -2.070022 0.205973 28.000000
1.573940 -2.103143 0.206824 30.000000
1.551022 -2.120191 0.206101 23.000000
1.539459 -2.153217 0.206855 14.000000
1.521672 -2.178000 0.206902 26.000000
1.506437 -2.206861 0.207330 26.000000
1.497458 -2.243050 0.208356 31.000000
1.481191 -2.271758 0.208682 24.000000
1.467164 -2.304600 0.209464 27.000000
1.463131 -2.354363 0.211673 26.000000
1.434924 -2.365880 0.210445 19.000000
1.454795 -2.458699 0.216396 9.000000
0.772491 1.326022 0.127879 7.000000
0.791981 1.326071 0.129230 12.000000
0.803760 1.313071 0.129379 25.000000
0.820647 1.308427 0.130318 26.000000
0.837483 1.303584 0.131308 29.000000
0.848886 1.290169 0.131406 23.000000
0.873255 1.297856 0.133676 23.000000
0.887293 1.288226 0.134203 29.000000
0.904106 1.282523 0.135207 24.000000
0.909254 1.260406 0.134396 17.000000
0.931792 1.262432 0.136217 26.000000
0.948492 1.256121 0.137180 27.000000
0.968178 1.253590 0.138582 29.000000
0.981765 1.242915 0.139067 24.000000
1.010854 1.251467 0.141746 29.000000
1.021236 1.236489 0.141848 28.000000
1.031436 1.221432 0.141897 26.000000
1.038152 1.202529 0.141500 24.000000
1.061083 1.202292 0.143322 31.000000
1.080775 1.197993 0.144706 31.000000
1.100529 1.193400 0.146047 33.000000
1.116378 1.185385 0.147044 32.000000
1.132705 1.176648 0.147994 33.000000
1.159437 1.178383 0.150255 35.000000
1.172253 1.165566 0.150711 27.000000
1.195625 1.163064 0.152533 21.000000
1.204644 1.146443 0.152536 34.000000
1.224368 1.139927 0.153911 41.000000
1.244137 1.133148 0.155291 47.000000
1.286149 1.145924 0.159389 39.000000
1.306115 1.138264 0.160789 46.000000
1.326065 1.130333 0.162140 46.000000
1.345620 1.122505 0.163604 36.000000
1.361670 1.110774 0.164499 25.000000
1.389302 1.108217 0.166799 35.000000
1.401340 1.092855 0.167180 42.000000
1.425092 1.086438 0.169025 36.000000
1.448876 1.079650 0.170876 29.000000
1.460563 1.063698 0.171264 36.000000
1.492361 1.062065 0.174016 35.000000
1.507733 1.048848 0.174996 32.000000
1.543808 1.048965 0.178242 28.000000
1.563489 1.037475 0.179595 34.000000
1.574707 1.020275 0.179998 35.000000
1.602577 1.013601 0.182256 62.000000
1.638975 1.011670 0.185540 34.000000
1.666773 1.004228 0.187875 52.000000
1.686213 0.990955 0.189256 56.000000
1.714219 0.982323 0.191546 31.000000
1.737854 0.970764 0.193359 30.000000
1.778948 0.968314 0.197116 45.000000
1.797987 0.953726 0.198521 34.000000
1.834812 0.947707 0.201750 52.000000
1.858408 0.934275 0.203591 42.000000
1.913187 0.935727 0.208854 40.000000
1.936725 0.921176 0.210647 43.000000
1.960073 0.906462 0.212510 30.000000
1.997040 0.897174 0.215784 31.000000
2.029511 0.885233 0.218575 34.000000
2.066441 0.874872 0.221935 35.000000
2.103486 0.863569 0.225236 44.000000
2.126630 0.846075 0.226996 36.000000
2.163470 0.833717 0.230383 55.000000
2.214386 0.825684 0.235123 37.000000
2.237197 0.806683 0.236972 30.000000
2.227010 0.775631 0.235279 9.000000
2.268339 0.762352 0.239047 9.000000
2.323814 0.753027 0.244391 8.000000
2.350827 0.733557 0.246609 8.000000
2.396725 0.719394 0.250901 8.000000
2.476103 0.713973 0.258779 8.000000
2.502869 0.692246 0.261016 9.000000
2.553558 0.676390 0.265840 10.000000
2.623379 0.664478 0.272598 8.000000
2.659447 0.642937 0.275940 8.000000
2.763286 0.636136 0.286148 8.000000
2.804000 0.613485 0.289926 8.000000
2.868966 0.594968 0.296226 25.000000
2.933836 0.575267 0.302536 35.000000
2.993697 0.553206 0.308353 46.000000
3.073004 0.533279 0.316102 38.000000
3.078649 0.499794 0.316389 92.000000
3.049481 0.461008 0.313046 83.000000
3.014896 0.422281 0.309194 11.000000
2.999551 0.386865 0.307358 10.000000
2.968960 0.350039 0.304003 18.000000
2.987466 0.319253 0.305705 87.000000
2.965935 0.284254 0.303266 91.000000
2.949034 0.250217 0.301422 31.000000
2.946616 0.217711 0.301006 80.000000
2.933898 0.184597 0.299576 89.000000
2.915922 0.151640 0.297638 76.000000
2.917355 0.119843 0.297728 84.000000
2.903603 0.087507 0.296295 89.000000
2.859558 0.055012 0.291729 19.000000
2.850049 0.023782 0.290714 10.000000
2.790447 -0.007191 0.284712 9.000000
2.780244 -0.037445 0.283697 10.000000
2.789677 -0.068053 0.284712 9.000000
2.768852 -0.097740 0.282682 9.000000
2.737848 -0.126534 0.279552 10.000000
2.731285 -0.156097 0.279045 9.000000
2.734401 -0.186228 0.279468 9.000000
2.761967 -0.218343 0.282427 25.000000
2.744555 -0.247092 0.280821 71.000000
2.746715 -0.277517 0.281243 95.000000
2.723724 -0.305196 0.279132 62.000000
2.720277 -0.334874 0.279048 88.000000
2.701703 -0.362485 0.277445 88.000000
2.697606 -0.391918 0.277278 91.000000
2.698088 -0.422037 0.277616 59.000000
2.654067 -0.444780 0.273406 16.000000
2.781324 -0.497399 0.286877 9.000000
2.951707 -0.561089 0.304875 6.000000
3.301429 -0.664852 0.341516 1.000000
3.357243 -0.714153 0.347758 1.000000
3.354201 -0.751775 0.348052 1.000000
3.384501 -0.797489 0.351761 1.000000
3.187308 -0.787738 0.331833 2.000000
3.405005 -0.880945 0.355140 1.000000
3.520046 -0.951594 0.367865 1.000000
3.370684 -0.950791 0.352988 1.000000
3.465161 -1.018279 0.363687 1.000000
3.258913 -0.996206 0.342730 1.000000
3.337920 -1.060361 0.351914 1.000000
3.321593 -1.094898 0.350985 1.000000
3.328302 -1.137591 0.352551 1.000000
3.386027 -1.198743 0.359700 1.000000
3.274813 -1.199496 0.348703 1.000000
3.154537 -1.194590 0.336848 2.000000
3.146136 -1.230542 0.336931 6.000000
3.095655 -1.249934 0.332449 6.000000
3.086426 -1.285635 0.332534 2.000000
3.214109 -1.379698 0.347338 1.000000
3.162475 -1.398675 0.342961 2.000000
3.269359 -1.488816 0.355734 1.000000
3.063071 -1.517593 0.336812 1.000000
3.037534 -1.546413 0.335309 1.000000
3.201286 -1.674089 0.354825 1.000000
3.126120 -1.677948 0.347818 1.000000
3.164286 -1.743326 0.353495 1.000000
3.088352 -1.836178 0.349675 1.000000
3.043022 -1.853694 0.346004 1.000000
2.917054 -1.821129 0.333290 1.000000
2.930561 -1.874424 0.336509 1.000000
2.943280 -1.928241 0.339713 1.000000
3.050151 -2.046346 0.353820 1.000000
2.896242 -1.989503 0.337832 2.000000
2.903416 -2.040453 0.340311 3.000000
2.880896 -2.072222 0.339550 8.000000
2.765959 -2.035803 0.327859 8.000000
2.648106 -1.994159 0.315744 10.000000
2.559121 -1.971480 0.306992 24.000000
2.459143 -1.937887 0.296859 21.000000
2.410706 -1.942896 0.292796 22.000000
2.285633 -1.883707 0.279451 18.000000
2.208453 -1.859848 0.271609 24.000000
2.142654 -1.845029 0.265297 28.000000
2.066324 -1.819088 0.257616 22.000000
2.001921 -1.801655 0.251365 29.000000
1.941888 -1.786453 0.245607 29.000000
1.860580 -1.749661 0.237025 25.000000
1.819865 -1.749233 0.233633 29.000000
1.772190 -1.741200 0.229262 35.000000
1.742539 -1.749956 0.227278 74.000000
1.709493 -1.754612 0.224769 60.000000
1.683403 -1.766022 0.223183 75.000000
1.674978 -1.794587 0.223797 73.000000
1.665418 -1.823899 0.224402 58.000000
1.655389 -1.853128 0.225074 71.000000
1.635136 -1.871098 0.224389 36.000000
1.630833 -1.907765 0.225868 28.000000
1.619575 -1.936991 0.226439 50.000000
1.595225 -1.950697 0.225297 42.000000
1.592578 -1.991406 0.227187 34.000000
1.595404 -2.040057 0.229944 34.000000
1.564111 -2.045485 0.227828 32.000000
1.565643 -2.094360 0.230473 34.000000
1.548609 -2.119387 0.230546 32.000000
1.513952 -2.119979 0.227999 23.000000
1.502210 -2.152758 0.228858 31.000000
1.503983 -2.206043 0.231948 31.000000
1.486773 -2.229791 0.231829 29.000000
1.473265 -2.262579 0.232643 32.000000
1.451292 -2.282827 0.232160 28.000000
1.442197 -2.323884 0.233804 29.000000
1.442622 -2.382164 0.237125 26.000000
1.452172 -2.457825 0.242102 9.000000
0.786054 1.351327 0.144409 7.000000
0.787918 1.321228 0.142722 13.000000
0.802251 1.312552 0.143335 21.000000
0.813848 1.299422 0.143482 22.000000
0.837938 1.307681 0.145964 24.000000
0.854856 1.302606 0.147053 28.000000
0.874498 1.301413 0.148569 26.000000
0.882987 1.283550 0.148199 22.000000
0.899751 1.277877 0.149248 30.000000
0.904869 1.255797 0.148391 12.000000
0.927348 1.257849 0.150398 24.000000
0.946997 1.255543 0.151934 27.000000
0.963634 1.249068 0.152995 25.000000
0.977130 1.238426 0.153528 26.000000
0.999951 1.239258 0.155566 24.000000
1.019713 1.235899 0.157079 28.000000
1.033126 1.224648 0.157620 27.000000
1.039893 1.205713 0.157178 12.000000
1.055730 1.198460 0.158306 30.000000
1.078698 1.197894 0.160280 33.000000
1.091750 1.185980 0.160823 34.000000
1.108013 1.177540 0.161865 34.000000
1.131154 1.176047 0.163860 30.000000
1.147404 1.167133 0.164861 32.000000
1.167157 1.161450 0.166369 35.000000
1.190476 1.158980 0.168386 15.000000
1.203065 1.145832 0.168896 36.000000
1.218679 1.136381 0.169964 49.000000
1.238399 1.129590 0.171493 35.000000
1.265534 1.129157 0.173997 53.000000
1.307791 1.141322 0.178611 51.000000
1.320199 1.126890 0.179090 35.000000
1.336266 1.115486 0.180084 36.000000
1.367651 1.116471 0.183144 20.000000
1.356465 1.082744 0.180475 33.000000
1.395351 1.089576 0.184638 36.000000
1.423004 1.086218 0.187207 37.000000
1.442786 1.076455 0.188689 42.000000
1.466550 1.069280 0.190698 37.000000
1.482184 1.056014 0.191667 35.000000
1.509956 1.051013 0.194214 37.000000
1.529357 1.040290 0.195775 13.000000
1.548879 1.028934 0.197284 38.000000
1.580921 1.025398 0.200326 58.000000
1.596225 1.010593 0.201260 43.000000
1.611413 0.995637 0.202255 51.000000
1.639023 0.988466 0.204848 40.000000
1.679709 0.988075 0.208992 35.000000
1.707665 0.979486 0.211547 35.000000
1.726918 0.965546 0.212980 18.000000
1.767920 0.963185 0.217158 36.000000
1.800131 0.955682 0.220277 44.000000
1.828117 0.944981 0.222805 52.000000
1.856112 0.933828 0.225341 59.000000
1.883855 0.922481 0.228012 55.000000
1.929738 0.918841 0.232663 36.000000
1.962199 0.908086 0.235767 33.000000
1.999021 0.899011 0.239490 22.000000
2.031486 0.887018 0.242545 42.000000
2.063963 0.874459 0.245608 37.000000
2.100836 0.863360 0.249294 64.000000
2.128580 0.847633 0.251828 54.000000
2.156131 0.831644 0.254439 67.000000
2.202320 0.821918 0.259177 37.000000
2.239100 0.808079 0.262830 35.000000
2.205563 0.768799 0.258250 8.000000
2.270260 0.763789 0.265212 8.000000
2.311513 0.749662 0.269362 8.000000
2.347957 0.733330 0.273045 8.000000
2.408163 0.723530 0.279421 8.000000
2.430208 0.701257 0.281388 8.000000
2.499922 0.692007 0.288894 10.000000
2.569691 0.681322 0.296415 30.000000
2.644391 0.670334 0.304507 27.000000
2.666001 0.645022 0.306508 9.000000
2.730928 0.629268 0.313429 8.000000
2.790947 0.611183 0.319805 8.000000
2.855821 0.592768 0.326748 24.000000
2.920600 0.573170 0.333793 40.000000
2.980377 0.551212 0.340109 37.000000
3.059578 0.531483 0.348759 86.000000
3.060300 0.497212 0.348486 70.000000
3.036061 0.459426 0.345324 72.000000
3.001506 0.420715 0.341133 12.000000
2.976315 0.384136 0.337962 10.000000
2.950672 0.348109 0.334787 19.000000
2.959262 0.316519 0.335439 80.000000
2.962461 0.284163 0.335621 95.000000
2.940634 0.249706 0.333001 64.000000
2.948126 0.217986 0.333652 70.000000
2.920554 0.183973 0.330378 86.000000
2.912429 0.151551 0.329346 85.000000
2.899059 0.119142 0.327751 82.000000
2.880264 0.086908 0.325595 79.000000
2.831387 0.054533 0.320068 20.000000
2.806982 0.023450 0.317261 10.000000
2.767322 -0.007139 0.312769 9.000000
2.752163 -0.037110 0.311084 10.000000
2.736671 -0.066756 0.309399 9.000000
2.740796 -0.096779 0.309961 9.000000
2.734569 -0.126450 0.309399 10.000000
2.728096 -0.156013 0.308754 10.000000
2.731206 -0.186144 0.309231 10.000000
2.704256 -0.213948 0.306425 10.000000
2.701757 -0.243441 0.306342 29.000000
2.708894 -0.273849 0.307297 23.000000
2.671154 -0.299492 0.303289 24.000000
2.692426 -0.331669 0.305925 73.000000
2.693601 -0.361656 0.306402 91.000000
2.674761 -0.388892 0.304556 61.000000
2.685087 -0.420333 0.306068 52.000000
2.616629 -0.438943 0.298631 10.000000
2.758467 -0.493638 0.315236 9.000000
2.889631 -0.549761 0.330706 6.000000
3.146510 -0.634112 0.360576 2.000000
3.328943 -0.708768 0.382030 1.000000
3.151413 -0.706970 0.362213 1.000000
3.298234 -0.777781 0.379733 1.000000
3.144993 -0.777891 0.362731 1.000000
3.362423 -0.870657 0.388558 1.000000
3.300061 -0.892859 0.382024 1.000000
3.309322 -0.934162 0.383928 1.000000
3.284567 -0.966068 0.381843 1.000000
3.193169 -0.976992 0.372012 1.000000
3.286588 -1.044770 0.383767 1.000000
3.289203 -1.085340 0.385107 1.000000
3.253781 -1.113033 0.381816 1.000000
3.158872 -1.158015 0.372610 1.000000
3.132121 -1.187234 0.370548 1.000000
3.114432 -1.219258 0.369485 6.000000
3.091764 -1.249525 0.367875 7.000000
3.032273 -1.263884 0.361888 3.000000
3.173504 -1.363679 0.379972 2.000000
3.158445 -1.398357 0.379442 1.000000
3.136479 -1.470979 0.379364 1.000000
3.112734 -1.543355 0.379173 1.000000
2.993809 -1.525477 0.366077 1.000000
3.051860 -1.597360 0.374649 1.000000
3.047655 -1.637303 0.375527 1.000000
3.147128 -1.735350 0.389433 1.000000
3.016034 -1.794840 0.378337 1.000000
2.992399 -1.824570 0.376941 1.000000
2.871098 -1.794151 0.363382 1.000000
2.993604 -1.916675 0.380760 1.000000
2.893451 -1.897603 0.369899 1.000000
2.913801 -1.957077 0.374459 1.000000
2.888697 -1.985394 0.373068 2.000000
2.809823 -1.976967 0.364922 5.000000
2.767929 -1.993227 0.361444 8.000000
2.713924 -1.999881 0.356401 9.000000
2.644244 -1.993752 0.349382 9.000000
2.578982 -1.989207 0.342812 24.000000
2.475595 -1.952034 0.330853 24.000000
2.399927 -1.935419 0.322791 16.000000
2.298074 -1.895273 0.311126 15.000000
2.227812 -1.878730 0.303569 22.000000
2.139274 -1.844683 0.293551 24.000000
2.059303 -1.815461 0.284524 27.000000
1.991313 -1.794665 0.277083 26.000000
1.945969 -1.792870 0.272754 28.000000
1.861776 -1.752052 0.262663 25.000000
1.820974 -1.751754 0.258899 23.000000
1.762736 -1.733236 0.252534 31.000000
1.733176 -1.741920 0.250332 50.000000
1.703621 -1.750146 0.248062 61.000000
1.684441 -1.768727 0.247313 95.000000
1.668428 -1.790722 0.247066 70.000000
1.655536 -1.816318 0.247317 53.000000
1.635636 -1.834334 0.246563 66.000000
1.629503 -1.866436 0.247647 34.000000
1.625217 -1.903059 0.249290 29.000000
1.604418 -1.920788 0.248522 35.000000
1.589683 -1.945917 0.248663 33.000000
1.580839 -1.978806 0.249778 36.000000
1.565374 -2.003813 0.249902 34.000000
1.564607 -2.048493 0.252455 35.000000
1.551250 -2.077449 0.252964 32.000000
1.543183 -2.114402 0.254508 30.000000
1.520067 -2.131176 0.253625 21.000000
1.508174 -2.164042 0.254584 32.000000
1.495845 -2.196834 0.255527 30.000000
1.480077 -2.225564 0.255980 29.000000
1.463956 -2.254147 0.256421 29.000000
1.440720 -2.269226 0.255350 28.000000
1.429028 -2.306038 0.256716 27.000000
1.432250 -2.368362 0.260880 24.000000
1.439257 -2.439626 0.265851 9.000000
0.781975 1.346355 0.157942 6.000000
0.773684 1.299246 0.154050 9.000000
0.815426 1.337846 0.160394 16.000000
0.814180 1.303499 0.157951 20.000000
0.833686 1.302825 0.159638 10.000000
0.856006 1.306097 0.161849 23.000000
0.861827 1.284223 0.160919 10.000000
0.898307 1.307474 0.165740 20.000000
0.901030 1.281274 0.164287 20.000000
0.926539 1.287419 0.167006 10.000000
0.922819 1.253175 0.164485 23.000000
0.936430 1.242954 0.165106 14.000000
0.968108 1.256267 0.168904 17.000000
0.978659 1.241654 0.168957 24.000000
0.988400 1.227446 0.169103 16.000000
1.017502 1.235703 0.172360 18.000000
1.021310 1.213043 0.171387 18.000000
1.050666 1.220587 0.174666 10.000000
1.050781 1.194043 0.173096 26.000000
1.070418 1.189812 0.174718 23.000000
1.090069 1.185287 0.176396 24.000000
1.106377 1.176846 0.177486 29.000000
1.139782 1.186097 0.181369 20.000000
1.138283 1.159788 0.179776 25.000000
1.182583 1.178738 0.185288 23.000000
1.191843 1.162195 0.185299 18.000000
1.197278 1.142147 0.184752 32.000000
1.216992 1.135665 0.186423 29.000000
1.240320 1.132220 0.188609 32.000000
1.274883 1.138356 0.192482 33.000000
1.294385 1.131194 0.194234 26.000000
1.318016 1.126571 0.196451 29.000000
1.334076 1.115166 0.197548 28.000000
1.353892 1.106660 0.199160 23.000000
1.365923 1.091675 0.199697 34.000000
1.393504 1.088816 0.202455 22.000000
1.420752 1.085889 0.205334 32.000000
1.440521 1.076068 0.206972 31.000000
1.456243 1.063089 0.208043 26.000000
1.483993 1.058507 0.210783 32.000000
1.499548 1.044939 0.211863 26.000000
1.518877 1.034302 0.213579 20.000000
1.546653 1.028534 0.216344 33.000000
1.566112 1.016880 0.217960 26.000000
1.589769 1.007528 0.220162 31.000000
1.600699 0.989948 0.220625 32.000000
1.645175 0.993187 0.225813 24.000000
1.673098 0.985077 0.228565 34.000000
1.696696 0.974058 0.230739 27.000000
1.728700 0.967789 0.234215 21.000000
1.769683 0.965378 0.238758 35.000000
1.797691 0.955182 0.241548 33.000000
1.803604 0.933131 0.241396 26.000000
1.853433 0.933637 0.247154 37.000000
1.903634 0.932890 0.252932 30.000000
1.922501 0.916443 0.254575 29.000000
1.959412 0.907821 0.258533 31.000000
1.964708 0.884211 0.258336 16.000000
2.010501 0.878793 0.263571 32.000000
2.052002 0.870239 0.268156 35.000000
2.097977 0.863011 0.273422 34.000000
2.116473 0.843606 0.274969 35.000000
2.167114 0.836653 0.280789 31.000000
2.199361 0.821557 0.284149 32.000000
2.236176 0.807713 0.288192 30.000000
2.193250 0.765170 0.281931 6.000000
2.271948 0.765005 0.291336 8.000000
2.299012 0.746373 0.294120 8.000000
2.321175 0.725699 0.296306 7.000000
2.390739 0.718780 0.304474 8.000000
2.441250 0.705078 0.310312 7.000000
2.487012 0.689038 0.315558 9.000000
2.571141 0.682268 0.325594 32.000000
2.602390 0.660235 0.328962 10.000000
2.662463 0.644685 0.335988 25.000000
2.717643 0.626865 0.342417 10.000000
2.797045 0.613045 0.351909 8.000000
2.842342 0.590481 0.357056 22.000000
2.907023 0.570983 0.364653 29.000000
2.991106 0.553735 0.374800 30.000000
3.040906 0.528647 0.380588 62.000000
3.022016 0.491446 0.377717 30.000000
3.022288 0.457751 0.377386 35.000000
2.982854 0.418461 0.372058 9.000000
2.942916 0.380137 0.366815 8.000000
2.932056 0.346272 0.365157 13.000000
2.940622 0.314752 0.365952 42.000000
2.938866 0.282175 0.365520 57.000000
2.926939 0.248774 0.363767 65.000000
2.939365 0.217529 0.365177 28.000000
2.896971 0.182634 0.359734 36.000000
2.893801 0.150687 0.359208 63.000000
2.875485 0.118326 0.356836 36.000000
2.876547 0.086908 0.356924 81.000000
2.812852 0.054246 0.348924 10.000000
2.788476 0.023325 0.345933 8.000000
2.768714 -0.007067 0.343471 10.000000
2.753574 -0.037177 0.341624 10.000000
2.752981 -0.067241 0.341624 17.000000
2.786846 -0.098532 0.345933 33.000000
2.765819 -0.127972 0.343386 29.000000
2.754294 -0.157631 0.342155 41.000000
2.727675 -0.186060 0.338994 35.000000
2.705703 -0.214256 0.336450 14.000000
2.693316 -0.242912 0.335136 10.000000
2.641203 -0.267271 0.328905 9.000000
2.647963 -0.297195 0.329971 10.000000
2.693851 -0.332110 0.335949 81.000000
2.670424 -0.358846 0.333327 42.000000
2.661453 -0.387296 0.332630 68.000000
2.657070 -0.416325 0.332465 53.000000
2.627888 -0.441163 0.329152 14.000000
2.735315 -0.489966 0.343079 9.000000
2.890712 -0.550418 0.363024 5.000000
3.244521 -0.654420 0.408020 1.000000
3.358527 -0.715695 0.422997 1.000000
3.313287 -0.781924 0.418701 1.000000
3.184169 -0.788226 0.403039 1.000000
3.160982 -0.819187 0.400908 1.000000
3.295652 -0.892439 0.418767 1.000000
3.266680 -0.922945 0.415915 1.000000
3.380235 -0.994971 0.431291 1.000000
3.307496 -1.013020 0.422969 1.000000
3.424020 -1.089601 0.438912 1.000000
3.322545 -1.097260 0.426855 1.000000
3.493630 -1.195990 0.449901 1.000000
3.247831 -1.191587 0.420416 1.000000
3.257847 -1.235912 0.423004 1.000000
3.105601 -1.216934 0.404312 4.000000
3.073762 -1.243530 0.401395 6.000000
3.005232 -1.253823 0.393584 3.000000
3.041478 -1.308230 0.399675 2.000000
3.140693 -1.391476 0.414022 1.000000
3.296896 -1.504088 0.436089 1.000000
3.257832 -1.529629 0.432549 1.000000
3.095932 -1.578781 0.415390 1.000000
3.166479 -1.658716 0.426599 1.000000
3.043195 -1.636985 0.411742 1.000000
2.966904 -1.810883 0.410156 1.000000
2.723805 -1.703785 0.378410 2.000000
2.755118 -1.765854 0.384624 3.000000
2.793726 -1.834176 0.392077 5.000000
2.769375 -1.862109 0.390674 6.000000
2.790293 -1.919894 0.395551 6.000000
2.736582 -1.927609 0.390088 9.000000
2.715293 -1.957640 0.389163 9.000000
2.685703 -1.981567 0.387187 9.000000
2.663862 -2.010996 0.386367 8.000000
2.583349 -1.993877 0.376640 9.000000
2.498918 -1.973000 0.366685 13.000000
2.392183 -1.931730 0.353250 10.000000
2.275175 -1.878909 0.338167 8.000000
2.235443 -1.887809 0.334422 20.000000
2.113160 -1.824682 0.318320 10.000000
2.075066 -1.830631 0.314553 16.000000
2.003273 -1.806824 0.305819 22.000000
1.928599 -1.778262 0.296565 10.000000
1.883712 -1.775515 0.291838 18.000000
1.806984 -1.740946 0.282105 17.000000
1.738234 -1.711937 0.273460 10.000000
1.726433 -1.738018 0.273822 41.000000
1.694219 -1.741973 0.270705 33.000000
1.675117 -1.760478 0.269884 35.000000
1.659178 -1.782396 0.269614 55.000000
1.639664 -1.800490 0.268791 30.000000
1.633073 -1.833279 0.270081 50.000000
1.609757 -1.847321 0.268707 27.000000
1.592746 -1.868706 0.268347 13.000000
1.600964 -1.920404 0.272392 33.000000
1.579934 -1.937904 0.271471 25.000000
1.568974 -1.965985 0.272086 26.000000
1.562801 -2.002643 0.273761 25.000000
1.552953 -2.035529 0.274961 23.000000
1.545654 -2.072351 0.276678 29.000000
1.522961 -2.089172 0.275647 20.000000
1.511729 -2.121954 0.276808 10.000000
1.491383 -2.142506 0.276295 25.000000
1.487564 -2.187470 0.278923 19.000000
1.474703 -2.220193 0.279957 26.000000
1.461237 -2.252994 0.280975 22.000000
1.447241 -2.285703 0.281978 22.000000
1.424870 -2.305705 0.281415 24.000000
1.421737 -2.354401 0.284280 16.000000
1.426294 -2.421268 0.289242 9.000000
0.766992 1.324612 0.169236 7.000000
0.781373 1.316059 0.169941 17.000000
0.798291 1.311609 0.171248 22.000000
0.809901 1.298529 0.171351 20.000000
0.829398 1.297879 0.173174 27.000000
0.843446 1.288702 0.173883 23.000000
0.868512 1.295844 0.176845 25.000000
0.879787 1.282117 0.176951 23.000000
0.902251 1.284570 0.179322 23.000000
0.904589 1.258407 0.177766 21.000000
0.914597 1.244883 0.177908 25.000000
0.937075 1.246638 0.180295 23.000000
0.956689 1.244163 0.182119 29.000000
0.970190 1.233555 0.182794 21.000000
0.989820 1.230542 0.184581 28.000000
1.006318 1.223411 0.185843 25.000000
1.025999 1.219865 0.187645 24.000000
1.032749 1.200971 0.187109 26.000000
1.045258 1.189971 0.187790 28.000000
1.074793 1.196856 0.191376 30.000000
1.084437 1.181284 0.191426 32.000000
1.107493 1.180118 0.193801 27.000000
1.130636 1.178579 0.196187 33.000000
1.146913 1.169572 0.197388 30.000000
1.166681 1.163895 0.199192 31.000000
1.172241 1.143993 0.198596 30.000000
1.187814 1.134883 0.199855 29.000000
1.211066 1.131867 0.202278 33.000000
1.234388 1.128510 0.204660 36.000000
1.261475 1.128012 0.207662 32.000000
1.284961 1.123816 0.210066 34.000000
1.323213 1.132598 0.214983 35.000000
1.339336 1.121108 0.216187 33.000000
1.336223 1.093660 0.214261 27.000000
1.359739 1.088145 0.216697 31.000000
1.379391 1.079210 0.218470 37.000000
1.406897 1.075968 0.221491 33.000000
1.434173 1.072655 0.224578 31.000000
1.457866 1.065518 0.226945 35.000000
1.477548 1.055120 0.228750 33.000000
1.497134 1.044434 0.230505 31.000000
1.524646 1.039438 0.233635 30.000000
1.544200 1.028021 0.235348 30.000000
1.567861 1.019009 0.237753 35.000000
1.587282 1.007008 0.239535 35.000000
1.602197 0.992386 0.240747 30.000000
1.634206 0.987526 0.244385 34.000000
1.666260 0.982022 0.248035 34.000000
1.681033 0.966403 0.249208 31.000000
1.721756 0.964817 0.254155 33.000000
1.753962 0.957691 0.257778 31.000000
1.781681 0.947944 0.260896 33.000000
1.813942 0.939661 0.264541 38.000000
1.832855 0.924387 0.266394 34.000000
1.856190 0.910724 0.268770 33.000000
1.915276 0.913719 0.276251 35.000000
1.929505 0.894972 0.277420 26.000000
1.957208 0.881844 0.280403 29.000000
2.012075 0.880376 0.287420 30.000000
2.035229 0.864016 0.289775 33.000000
2.058168 0.847493 0.292204 36.000000
2.094974 0.835837 0.296525 33.000000
2.131604 0.823717 0.300857 35.000000
2.172898 0.812659 0.305925 48.000000
2.195595 0.793792 0.308246 21.000000
2.190037 0.764885 0.306711 8.000000
2.231056 0.752045 0.311733 8.000000
2.276813 0.739947 0.317352 8.000000
2.303619 0.720959 0.320426 8.000000
2.377716 0.715769 0.330020 8.000000
2.390122 0.691001 0.330985 8.000000
2.488217 0.690204 0.343910 13.000000
2.538640 0.674388 0.350255 20.000000
2.613086 0.663647 0.359839 32.000000
2.663489 0.645600 0.366130 36.000000
2.728270 0.629866 0.374506 36.000000
2.768792 0.607471 0.379407 32.000000
2.823769 0.587275 0.386396 32.000000
2.907786 0.571757 0.397383 35.000000
2.972279 0.550746 0.405637 37.000000
3.012225 0.524209 0.410574 36.000000
3.007997 0.489665 0.409525 47.000000
2.964072 0.449300 0.403143 59.000000
2.924616 0.410696 0.397418 10.000000
2.889576 0.373601 0.392263 9.000000
2.893434 0.342019 0.392532 22.000000
2.916731 0.312549 0.395383 77.000000
2.885456 0.277343 0.390887 87.000000
2.843789 0.241963 0.384961 16.000000
2.890723 0.214144 0.391154 51.000000
2.878030 0.181609 0.389237 55.000000
2.845257 0.148365 0.384644 33.000000
2.846661 0.117218 0.384731 32.000000
2.813132 0.085023 0.380134 23.000000
2.798964 0.054055 0.378213 35.000000
2.804350 0.023491 0.378969 85.000000
2.829210 -0.007232 0.382316 67.000000
2.833903 -0.038229 0.382986 98.000000
2.783845 -0.068003 0.376290 95.000000
2.782902 -0.098446 0.376205 98.000000
2.771802 -0.128430 0.374866 98.000000
2.765231 -0.158396 0.374111 95.000000
2.758411 -0.188253 0.373357 95.000000
2.706804 -0.214481 0.366582 66.000000
2.664899 -0.240518 0.361148 10.000000
2.652238 -0.268606 0.359728 11.000000
2.649118 -0.297585 0.359564 12.000000
2.655588 -0.327695 0.360736 74.000000
2.671524 -0.359341 0.363242 98.000000
2.638036 -0.384192 0.359072 72.000000
2.648371 -0.415309 0.360909 81.000000
2.614427 -0.439357 0.356661 36.000000
2.658305 -0.476592 0.363161 9.000000
2.871947 -0.547363 0.392877 9.000000
3.011639 -0.608118 0.412476 2.000000
3.213227 -0.685398 0.440779 1.000000
3.253990 -0.731370 0.447119 1.000000
3.298930 -0.779332 0.454010 1.000000
3.352802 -0.830836 0.462213 1.000000
3.118088 -0.808929 0.430748 2.000000
3.372137 -0.914275 0.466766 1.000000
3.204756 -0.906343 0.444302 1.000000
3.223231 -0.949817 0.447958 1.000000
3.297971 -1.011141 0.459320 1.000000
3.145147 -1.001906 0.439014 1.000000
3.237702 -1.070381 0.452991 1.000000
3.160198 -1.083053 0.443259 1.000000
3.157713 -1.120718 0.444058 1.000000
3.084747 -1.133158 0.435013 1.000000
3.146446 -1.194798 0.444889 2.000000
3.096474 -1.214508 0.439033 4.000000
3.092148 -1.252119 0.439828 7.000000
3.115084 -1.300983 0.444329 6.000000
3.214575 -1.384185 0.460102 2.000000
3.140473 -1.392852 0.450890 2.000000
3.079941 -1.406728 0.443758 1.000000
3.136413 -1.473813 0.453300 1.000000
3.039748 -1.469321 0.441004 2.000000
3.019098 -1.500470 0.439734 1.000000
2.971896 -1.517372 0.434386 1.000000
2.876019 -1.508471 0.422068 1.000000
2.877092 -1.548956 0.423841 2.000000
2.829618 -1.563741 0.418643 3.000000
2.795054 -1.584998 0.415382 4.000000
2.803670 -1.630110 0.418330 6.000000
2.806904 -1.673644 0.420824 8.000000
2.775708 -1.696655 0.418108 8.000000
2.782610 -1.742376 0.420922 9.000000
2.767491 -1.775560 0.420748 9.000000
2.760298 -1.814183 0.421839 9.000000
2.760851 -1.858417 0.424187 9.000000
2.728631 -1.879565 0.421271 9.000000
2.719999 -1.918108 0.422242 9.000000
2.714893 -1.959618 0.423832 10.000000
2.685284 -1.983592 0.421652 9.000000
2.675902 -2.021316 0.422397 9.000000
2.575012 -1.990041 0.408999 11.000000
2.514172 -1.987503 0.401779 20.000000
2.426606 -1.962170 0.390342 13.000000
2.301775 -1.903480 0.372668 16.000000
2.242854 -1.896702 0.365574 18.000000
2.158794 -1.865398 0.354023 21.000000
2.086201 -1.843092 0.344462 21.000000
1.995863 -1.802835 0.331968 20.000000
1.954139 -1.804551 0.327394 26.000000
1.865700 -1.761252 0.314921 21.000000
1.832791 -1.767273 0.311467 14.000000
1.770884 -1.745504 0.303340 24.000000
1.727221 -1.740262 0.298272 27.000000
1.708075 -1.759181 0.297368 44.000000
1.671685 -1.759955 0.293463 36.000000
1.659118 -1.785509 0.293764 47.000000
1.642828 -1.807313 0.293461 35.000000
1.632905 -1.836461 0.294344 33.000000
1.620164 -1.861096 0.294472 32.000000
1.606202 -1.886326 0.294743 22.000000
1.585568 -1.903915 0.293753 24.000000
1.580383 -1.940449 0.295697 29.000000
1.562251 -1.961637 0.295282 24.000000
1.562109 -2.006094 0.298359 26.000000
1.540156 -2.023125 0.297344 27.000000
1.509152 -2.027969 0.294514 24.000000
1.523187 -2.091839 0.300265 21.000000
1.497412 -2.104407 0.298578 17.000000
1.497085 -2.153379 0.302043 23.000000
1.462396 -2.153296 0.298716 21.000000
1.469095 -2.214745 0.303762 21.000000
1.455734 -2.247423 0.304882 22.000000
1.428488 -2.259180 0.303167 20.000000
1.422043 -2.304375 0.305864 19.000000
1.407097 -2.336869 0.306936 18.000000
1.406712 -2.395044 0.311247 8.000000
0.775287 1.340911 0.185336 7.000000
0.772134 1.302402 0.181969 23.000000
0.796593 1.310760 0.185110 28.000000
0.805631 1.293423 0.184661 29.000000
0.827695 1.297028 0.187222 25.000000
0.846412 1.296636 0.189240 30.000000
0.854988 1.278958 0.188783 32.000000
0.874501 1.277640 0.190763 29.000000
0.894097 1.276008 0.192704 32.000000
0.893486 1.245930 0.190343 19.000000
0.912889 1.243981 0.192287 29.000000
0.935350 1.245775 0.194861 35.000000
0.951883 1.239313 0.196202 29.000000
0.965389 1.228738 0.196923 32.000000
0.993603 1.237842 0.200830 31.000000
1.007080 1.226807 0.201562 30.000000
1.026788 1.223223 0.203510 31.000000
1.023952 1.193007 0.201027 15.000000
1.050000 1.196550 0.204250 37.000000
1.066340 1.188534 0.205525 34.000000
1.085966 1.184052 0.207493 32.000000
1.105105 1.179671 0.209520 50.000000
1.128227 1.178127 0.212101 36.000000
1.144547 1.169119 0.213400 36.000000
1.164300 1.163388 0.215352 35.000000
1.187600 1.160866 0.217963 20.000000
1.189478 1.137400 0.216619 51.000000
1.208671 1.131409 0.218637 56.000000
1.228315 1.124648 0.220562 35.000000
1.255337 1.124185 0.223810 65.000000
1.289950 1.129875 0.228393 39.000000
1.324888 1.134858 0.232998 37.000000
1.321674 1.107838 0.231041 62.000000
1.345225 1.102552 0.233622 20.000000
1.349542 1.081412 0.232876 35.000000
1.373013 1.075562 0.235469 47.000000
1.415863 1.084845 0.241479 34.000000
1.415776 1.060171 0.240012 66.000000
1.451313 1.061981 0.244600 32.000000
1.470950 1.051681 0.246560 31.000000
1.498387 1.047046 0.249881 36.000000
