x y z intensity
1.937750 -1.931488 0.930818 30.000000
1.926619 -1.963854 0.932901 32.000000
1.885578 -1.965420 0.920547 24.000000
1.870742 -1.993915 0.920932 40.000000
1.855404 -2.022295 0.921209 54.000000
1.820827 -2.029381 0.912037 32.000000
1.814535 -2.068002 0.916959 42.000000
1.803346 -2.103918 0.920698 35.000000
1.798917 -2.146330 0.927007 45.000000
1.802868 -2.199910 0.938040 23.000000
1.767314 -2.205647 0.928507 30.000000
1.506251 -1.922794 0.799360 17.000000
1.366039 -1.785875 0.733289 24.000000
1.230161 -1.645312 0.667353 21.000000
1.114321 -1.524854 0.611044 26.000000
1.078606 -1.510464 0.598068 28.000000
1.047917 -1.503789 0.588403 33.000000
1.021100 -1.499967 0.580081 34.000000
1.010448 -1.519470 0.580905 29.000000
0.995801 -1.535566 0.580371 34.000000
0.979453 -1.546875 0.578086 34.000000
0.972013 -1.574829 0.581976 32.000000
0.950393 -1.577726 0.576620 31.000000
0.943341 -1.604965 0.580215 32.000000
0.927503 -1.620476 0.579496 27.000000
0.912649 -1.635267 0.578525 29.000000
0.905450 -1.667272 0.583663 9.000000
1.046042 1.915834 0.692213 24.000000
1.065445 1.898681 0.693422 23.000000
1.090279 1.894453 0.699398 29.000000
1.094619 1.852320 0.691353 27.000000
1.121601 1.851770 0.698788 24.000000
1.138672 1.834677 0.700092 30.000000
1.154208 1.812662 0.699560 24.000000
1.183835 1.815135 0.708534 24.000000
1.189917 1.781607 0.703518 26.000000
1.210012 1.767018 0.705926 25.000000
1.234248 1.760684 0.711752 33.000000
1.247379 1.738665 0.711294 31.000000
1.268767 1.727899 0.715492 29.000000
1.287182 1.713139 0.718113 35.000000
1.303603 1.693727 0.718795 29.000000
1.321702 1.678588 0.721341 29.000000
1.330752 1.652109 0.719004 32.000000
1.354477 1.643898 0.724686 35.000000
1.369006 1.624556 0.725542 44.000000
1.386477 1.608592 0.727940 35.000000
1.403741 1.592423 0.730338 35.000000
1.431260 1.585959 0.737217 53.000000
1.441956 1.562325 0.736290 33.000000
1.458778 1.545570 0.738556 35.000000
1.478743 1.531938 0.742468 32.000000
1.495327 1.514665 0.744670 36.000000
1.518410 1.503894 0.750115 68.000000
1.534031 1.486752 0.752604 53.000000
1.550206 1.468780 0.754677 47.000000
1.552344 1.437860 0.750069 81.000000
1.571457 1.422867 0.753731 45.000000
1.611661 1.426312 0.767478 71.000000
1.598795 1.382845 0.755961 26.000000
1.620437 1.370769 0.761530 40.000000
1.642692 1.357769 0.766705 70.000000
1.661281 1.341439 0.770268 41.000000
1.686484 1.331266 0.777449 53.000000
1.701128 1.311532 0.779193 54.000000
1.711252 1.289249 0.779506 35.000000
1.729231 1.271924 0.782819 62.000000
1.773267 1.274039 0.798509 30.000000
1.764253 1.237078 0.789817 45.000000
1.789108 1.224791 0.796812 81.000000
1.829956 1.222022 0.810388 59.000000
1.823403 1.188179 0.803518 54.000000
1.859891 1.182315 0.815630 65.000000
1.880553 1.165884 0.820829 50.000000
1.889074 1.141781 0.820671 61.000000
1.917511 1.129444 0.829235 33.000000
1.925625 1.105007 0.829080 39.000000
1.949895 1.089656 0.835856 86.000000
1.974023 1.073804 0.842578 67.000000
1.985669 1.051025 0.843970 51.000000
2.013737 1.036594 0.852332 60.000000
2.037217 1.019983 0.859250 38.000000
2.056776 1.000444 0.864047 61.000000
2.080355 0.982634 0.870549 31.000000
2.090790 0.958835 0.872051 36.000000
2.122351 0.944464 0.882354 65.000000
2.141019 0.923823 0.887199 51.000000
2.164078 0.904406 0.893605 42.000000
2.178137 0.881340 0.896613 52.000000
2.204973 0.863128 0.904904 36.000000
2.227203 0.843022 0.911659 34.000000
2.240693 0.819022 0.914538 35.000000
2.267113 0.799422 0.922719 48.000000
2.297693 0.781079 0.932867 79.000000
2.332552 0.763525 0.944835 62.000000
2.354089 0.741081 0.951273 64.000000
2.370929 0.716821 0.955923 82.000000
2.391984 0.693574 0.962220 48.000000
2.408385 0.668610 0.966724 36.000000
2.460649 0.653007 0.985509 37.000000
2.481122 0.628364 0.991929 60.000000
2.492271 0.601143 0.994659 58.000000
2.516822 0.576773 1.002739 56.000000
2.545678 0.552893 1.012556 58.000000
2.569907 0.527555 1.020489 55.000000
2.589129 0.500916 1.026704 39.000000
2.626396 0.477209 1.040189 33.000000
2.654429 0.451122 1.049883 42.000000
2.677594 0.423694 1.057681 61.000000
2.705076 0.396433 1.067216 62.000000
2.755349 0.371759 1.086034 69.000000
2.782376 0.343181 1.095681 54.000000
2.795214 0.312433 1.099690 47.000000
2.826146 0.283424 1.111266 64.000000
2.852126 0.253185 1.120844 33.000000
2.919740 0.225740 1.146647 50.000000
2.940626 0.193563 1.154228 59.000000
2.975097 0.161816 1.166992 58.000000
3.032473 0.130229 1.189172 71.000000
3.061684 0.096588 1.200215 66.000000
3.081104 0.062022 1.207815 45.000000
3.114092 0.027154 1.220790 68.000000
3.132814 -0.008421 1.228089 33.000000
3.174501 -0.044644 1.244408 35.000000
3.239030 -0.082518 1.269635 41.000000
3.261122 -0.120335 1.278756 35.000000
3.301474 -0.159473 1.294849 37.000000
3.336702 -0.199396 1.309438 33.000000
3.403837 -0.242372 1.336571 33.000000
3.354642 -0.277347 1.318006 24.000000
3.300453 -0.310826 1.297518 30.000000
3.264562 -0.344884 1.284116 31.000000
3.246707 -0.380479 1.278224 32.000000
3.223841 -0.415162 1.270408 32.000000
3.210037 -0.450505 1.266024 36.000000
3.167995 -0.481545 1.251052 29.000000
3.171730 -0.519269 1.254057 28.000000
3.074071 -0.539284 1.216992 14.000000
3.072721 -0.575105 1.217990 30.000000
3.057131 -0.608302 1.213440 31.000000
3.041172 -0.641291 1.208999 34.000000
3.002206 -0.668802 1.195505 30.000000
2.994754 -0.703043 1.194598 35.000000
2.959745 -0.730481 1.182641 29.000000
2.947248 -0.762943 1.179736 26.000000
2.907177 -0.788081 1.166203 20.000000
2.889333 -0.818757 1.161610 30.000000
2.871347 -0.849130 1.156826 29.000000
2.821822 -0.869486 1.139450 32.000000
2.789950 -0.894528 1.129204 27.000000
2.789030 -0.929196 1.131454 35.000000
2.770019 -0.957869 1.126425 32.000000
2.754893 -0.988011 1.123483 26.000000
2.713257 -1.008105 1.109711 24.000000
2.689301 -1.033825 1.102646 31.000000
2.669229 -1.061067 1.097665 33.000000
2.653178 -1.089790 1.094381 42.000000
2.632302 -1.116777 1.089695 30.000000
2.615695 -1.144879 1.086237 35.000000
2.586159 -1.166930 1.077458 35.000000
2.552272 -1.186529 1.066838 25.000000
2.543170 -1.217943 1.067138 26.000000
2.512864 -1.238929 1.058596 35.000000
2.491083 -1.263123 1.053058 33.000000
2.481204 -1.293890 1.053179 42.000000
2.458627 -1.317937 1.048020 34.000000
2.435875 -1.341703 1.042690 35.000000
2.421010 -1.369619 1.040878 36.000000
2.397864 -1.392649 1.035476 27.000000
2.374548 -1.415312 1.029997 26.000000
2.358974 -1.442500 1.028017 35.000000
2.339247 -1.466928 1.024207 21.000000
2.311416 -1.486013 1.016844 18.000000
2.287399 -1.507229 1.011235 29.000000
2.262692 -1.528531 1.005907 33.000000
2.249944 -1.556956 1.005323 36.000000
2.224761 -1.577767 0.999924 27.000000
2.196340 -1.594668 0.992379 30.000000
2.170986 -1.614639 0.986924 36.000000
2.157411 -1.642094 0.986172 33.000000
2.142805 -1.669987 0.985676 37.000000
2.117549 -1.688379 0.979629 32.000000
2.109760 -1.721822 0.982522 36.000000
2.090588 -1.746294 0.980137 37.000000
2.064878 -1.763682 0.974022 25.000000
2.052510 -1.793826 0.974924 26.000000
2.046674 -1.830148 0.979169 34.000000
2.005713 -1.834733 0.966538 33.000000
1.985463 -1.857888 0.963985 37.000000
1.958225 -1.874348 0.958012 32.000000
1.948686 -1.906088 0.959923 34.000000
1.921201 -1.921816 0.953877 32.000000
1.906793 -1.950715 0.954455 22.000000
1.885450 -1.972675 0.951633 26.000000
1.870380 -2.001272 0.952005 31.000000
1.851796 -2.026266 0.950721 33.000000
1.838099 -2.059006 0.953046 52.000000
1.803296 -2.065878 0.943420 32.000000
1.777923 -2.082990 0.938790 42.000000
1.791775 -2.146992 0.955090 64.000000
1.819380 -2.229902 0.979224 36.000000
1.798304 -2.254478 0.977489 105.000000
1.488571 -1.908998 0.817385 13.000000
1.386443 -1.821199 0.770164 24.000000
1.239494 -1.665959 0.695937 24.000000
1.104505 -1.519019 0.626907 21.000000
1.077258 -1.516177 0.618302 30.000000
1.033923 -1.489565 0.600256 32.000000
1.017019 -1.501980 0.598216 24.000000
1.011412 -1.529487 0.602183 31.000000
0.984844 -1.525062 0.593611 32.000000
0.972598 -1.544941 0.594609 34.000000
0.956133 -1.556074 0.592266 30.000000
0.951844 -1.587435 0.597544 29.000000
0.933859 -1.598950 0.595288 30.000000
0.914467 -1.605497 0.591331 31.000000
0.907721 -1.637460 0.596672 21.000000
1.052595 1.937747 0.720610 10.000000
1.066189 1.912838 0.718976 22.000000
1.076056 1.878940 0.713892 23.000000
1.100832 1.874462 0.720028 17.000000
1.113339 1.849340 0.718227 24.000000
1.134167 1.835593 0.720866 24.000000
1.153607 1.822263 0.723782 20.000000
1.167891 1.800774 0.723434 26.000000
1.179176 1.775185 0.721458 9.000000
1.212551 1.780260 0.731974 22.000000
1.220678 1.750502 0.728292 26.000000
1.239328 1.736187 0.730976 18.000000
1.263487 1.729302 0.736913 30.000000
1.277384 1.706252 0.736068 24.000000
1.295620 1.691319 0.738683 23.000000
1.316632 1.679827 0.742942 30.000000
1.340539 1.671811 0.748792 10.000000
1.340527 1.634199 0.741426 36.000000
1.364159 1.625702 0.747276 31.000000
1.381668 1.609703 0.749680 27.000000
1.395863 1.589957 0.750480 35.000000
1.413059 1.573651 0.752878 27.000000
1.433235 1.560539 0.756889 28.000000
1.456572 1.550577 0.762598 35.000000
1.466812 1.526688 0.761490 18.000000
1.486657 1.512807 0.765453 36.000000
1.503104 1.495396 0.767655 32.000000
1.526082 1.484263 0.773202 34.000000
1.542257 1.466361 0.775345 47.000000
1.554095 1.445606 0.776047 30.000000
1.569889 1.427328 0.778116 35.000000
1.596069 1.418195 0.785294 38.000000
1.604467 1.393298 0.783847 20.000000
1.615547 1.371946 0.784393 39.000000
1.626975 1.349917 0.784515 33.000000
1.667322 1.351371 0.798579 31.000000
1.666893 1.320657 0.793683 36.000000
1.707366 1.321042 0.807749 31.000000
1.721434 1.301416 0.809789 33.000000
1.720723 1.270041 0.804436 33.000000
1.764610 1.272123 0.820505 24.000000
1.762866 1.240992 0.815416 36.000000
1.788215 1.228181 0.822280 36.000000
1.813031 1.215315 0.829449 37.000000
1.837802 1.202037 0.836571 35.000000
1.854649 1.183321 0.840147 35.000000
1.863405 1.159366 0.840013 32.000000
1.875955 1.137851 0.841734 34.000000
1.896254 1.120870 0.846901 26.000000
1.924598 1.108144 0.855603 35.000000
1.944719 1.090408 0.860730 34.000000
1.952442 1.065564 0.860457 33.000000
1.976440 1.049487 0.867261 35.000000
1.991641 1.028995 0.870756 32.000000
2.032018 1.020514 0.884768 35.000000
2.038703 0.995164 0.884516 33.000000
2.049552 0.971459 0.885704 24.000000
2.076875 0.955688 0.894478 32.000000
2.108318 0.941277 0.905024 33.000000
2.122655 0.918907 0.908214 30.000000
2.145386 0.899811 0.914993 34.000000
2.168005 0.880342 0.921711 32.000000
2.194839 0.862123 0.930201 35.000000
2.234554 0.848379 0.944221 32.000000
2.213019 0.811605 0.932677 12.000000
2.287493 0.809333 0.961306 52.000000
2.300494 0.784628 0.964345 34.000000
2.313288 0.759662 0.967388 34.000000
2.334654 0.737314 0.973972 35.000000
2.355870 0.714500 0.980568 31.000000
2.372472 0.690002 0.985161 32.000000
2.406700 0.670201 0.997175 34.000000
2.395813 0.637841 0.990820 10.000000
2.456567 0.624181 1.014086 33.000000
2.476850 0.599128 1.020244 32.000000
2.501140 0.574973 1.028774 29.000000
2.529970 0.551223 1.038842 32.000000
2.549479 0.524996 1.045027 32.000000
2.586924 0.501992 1.058933 29.000000
2.614942 0.476509 1.068954 29.000000
2.624585 0.447299 1.071433 12.000000
2.698025 0.428161 1.099971 32.000000
2.716194 0.399268 1.106387 33.000000
2.724944 0.368815 1.108799 29.000000
2.760956 0.341583 1.122437 35.000000
2.778349 0.311548 1.128417 32.000000
2.804634 0.282124 1.138330 28.000000
2.858398 0.254453 1.159114 30.000000
2.893301 0.224281 1.172604 22.000000
2.914000 0.192453 1.180577 29.000000
2.971562 0.162126 1.203162 32.000000
3.010078 0.129730 1.218353 31.000000
3.029899 0.095801 1.225951 32.000000
3.067770 0.061921 1.241250 34.000000
3.077444 0.026951 1.245203 25.000000
3.133163 -0.008458 1.267706 32.000000
3.146861 -0.044447 1.273229 31.000000
3.174041 -0.081110 1.284270 32.000000
3.228475 -0.119435 1.306662 31.000000
3.273284 -0.158583 1.325193 29.000000
3.340748 -0.200286 1.353199 33.000000
3.352306 -0.239395 1.358269 27.000000
3.344810 -0.277289 1.356064 24.000000
3.295343 -0.311264 1.337225 27.000000
3.254973 -0.344942 1.321703 23.000000
3.218753 -0.378426 1.308172 25.000000
3.186789 -0.411659 1.296414 27.000000
3.168361 -0.446095 1.290065 25.000000
3.145074 -0.479517 1.281854 26.000000
3.130477 -0.514023 1.277490 24.000000
3.078951 -0.541783 1.258093 12.000000
3.082001 -0.578668 1.261002 27.000000
3.021009 -0.602946 1.237705 22.000000
3.023300 -0.639517 1.240722 28.000000
2.984384 -0.666984 1.226877 26.000000
2.963591 -0.697781 1.219990 26.000000
2.969100 -0.735161 1.224866 29.000000
2.929603 -0.760879 1.210760 23.000000
2.854039 -0.776033 1.181642 10.000000
2.863158 -0.813867 1.188084 27.000000
2.836252 -0.841350 1.179601 23.000000
2.804731 -0.866956 1.169185 29.000000
2.795184 -0.899069 1.167931 29.000000
2.754402 -0.920677 1.153660 23.000000
2.744293 -0.952148 1.152229 28.000000
2.733612 -0.983715 1.151085 26.000000
2.692434 -1.003439 1.136590 9.000000
2.698566 -1.041064 1.142617 30.000000
2.665482 -1.063387 1.132020 26.000000
2.640811 -1.088666 1.125111 26.000000
2.603037 -1.107993 1.112539 27.000000
2.586622 -1.135902 1.109135 25.000000
2.569970 -1.163528 1.105551 28.000000
2.552990 -1.190964 1.101972 26.000000
2.493430 -1.198315 1.080486 10.000000
2.518051 -1.245270 1.094925 30.000000
2.487455 -1.265892 1.086108 29.000000
2.477966 -1.296295 1.085815 29.000000
2.447078 -1.316118 1.076940 33.000000
2.420283 -1.337544 1.069709 25.000000
2.405443 -1.365413 1.067809 31.000000
2.382360 -1.388403 1.062314 29.000000
2.334989 -1.396652 1.045977 10.000000
2.367435 -1.452818 1.065509 33.000000
2.319839 -1.460066 1.049033 15.000000
2.296046 -1.481602 1.043317 10.000000
2.295389 -1.518246 1.048204 27.000000
2.267245 -1.536623 1.040629 24.000000
2.234629 -1.552509 1.031572 28.000000
2.217756 -1.577996 1.029174 23.000000
2.159111 -1.573003 1.007370 10.000000
2.167676 -1.617864 1.017603 32.000000
2.150302 -1.642559 1.015045 25.000000
2.143023 -1.676262 1.018098 28.000000
2.110396 -1.688933 1.008447 32.000000
2.102429 -1.722406 1.011389 24.000000
2.072537 -1.737885 1.003781 28.000000
2.050400 -1.758252 0.999228 23.000000
2.013347 -1.766688 0.988115 10.000000
2.025168 -1.818341 1.001123 30.000000
2.008535 -1.845058 1.000278 28.000000
1.989031 -1.867665 0.997175 28.000000
1.951611 -1.874443 0.985957 29.000000
1.941014 -1.907000 0.988353 25.000000
1.923392 -1.932861 0.987228 28.000000
1.895592 -1.948422 0.981002 23.000000
1.854880 -1.949929 0.967938 10.000000
1.839907 -1.978292 0.968432 32.000000
1.831033 -2.013510 0.972182 25.000000
1.809072 -2.034677 0.969095 27.000000
1.786935 -2.055579 0.966097 29.000000
1.801257 -2.119412 0.982913 34.000000
1.805427 -2.172856 0.994616 98.000000
1.838365 -2.263278 1.022770 36.000000
1.514191 -1.951035 0.859643 10.000000
1.370435 -1.806592 0.786182 10.000000
1.231741 -1.663553 0.715118 10.000000
1.094664 -1.513074 0.642622 13.000000
1.064740 -1.506418 0.632167 17.000000
1.048553 -1.518677 0.629787 29.000000
1.031296 -1.531352 0.627644 22.000000
1.007064 -1.531383 0.620454 22.000000
0.985529 -1.534983 0.614839 33.000000
0.976749 -1.558429 0.617203 24.000000
0.954104 -1.562117 0.611842 29.000000
0.942292 -1.581282 0.612526 27.000000
0.923034 -1.588072 0.608467 28.000000
0.909641 -1.607617 0.609296 26.000000
0.899370 -1.630602 0.611423 17.000000
1.021320 1.893491 0.724061 21.000000
1.052122 1.897175 0.733306 27.000000
1.065295 1.872251 0.731557 24.000000
1.089991 1.867789 0.737772 30.000000
1.101395 1.837962 0.734079 24.000000
1.120887 1.824967 0.737051 28.000000
1.145276 1.819694 0.743221 29.000000
1.157036 1.794178 0.741218 15.000000
1.174708 1.775895 0.742193 28.000000
1.191055 1.758156 0.743362 28.000000
1.212489 1.747955 0.747836 27.000000
1.231207 1.733641 0.750588 34.000000
1.249719 1.719121 0.753341 30.000000
1.262538 1.696836 0.752741 31.000000
1.287500 1.688772 0.758502 34.000000
1.305599 1.673564 0.761118 22.000000
1.317690 1.650864 0.760346 35.000000
1.338409 1.638954 0.764648 33.000000
1.353111 1.619554 0.765484 33.000000
1.370582 1.603591 0.768019 38.000000
1.387847 1.587422 0.770486 34.000000
1.405043 1.571048 0.772952 35.000000
1.431536 1.564854 0.780530 39.000000
1.442093 1.541176 0.779411 28.000000
1.474987 1.541082 0.790432 45.000000
1.481125 1.514230 0.787841 64.000000
1.484355 1.483467 0.783125 42.000000
1.507256 1.472511 0.788818 52.000000
1.540249 1.470821 0.799805 35.000000
1.546094 1.443054 0.796600 53.000000
1.554291 1.419022 0.795547 76.000000
1.587251 1.416182 0.806400 33.000000
1.595758 1.391294 0.804860 34.000000
1.617522 1.379038 0.810774 42.000000
1.629069 1.356887 0.810863 36.000000
1.654338 1.346956 0.818452 44.000000
1.669191 1.327361 0.820335 36.000000
1.686960 1.310977 0.824227 45.000000
1.705141 1.293809 0.827847 38.000000
1.745225 1.293488 0.842534 33.000000
1.740638 1.259140 0.835183 37.000000
1.750268 1.236334 0.835266 36.000000
1.771202 1.221266 0.840801 42.000000
1.795901 1.208549 0.848177 47.000000
1.805066 1.185134 0.848123 35.000000
1.829563 1.171704 0.855388 68.000000
1.846192 1.152861 0.858933 77.000000
1.874503 1.141036 0.868003 34.000000
1.898884 1.126328 0.875114 41.000000
1.911133 1.104221 0.876709 36.000000
1.931262 1.086453 0.881929 54.000000
1.967494 1.077346 0.894570 79.000000
1.978917 1.054794 0.896339 52.000000
1.986294 1.029516 0.895807 42.000000
2.017971 1.017159 0.906809 75.000000
2.029117 0.993529 0.908072 34.000000
2.064799 0.982073 0.920764 33.000000
2.083749 0.962189 0.926010 52.000000
2.102558 0.941885 0.931192 35.000000
2.116895 0.919464 0.934434 35.000000
2.135315 0.898514 0.939484 36.000000
2.166454 0.882532 0.950111 48.000000
2.184627 0.860885 0.955112 43.000000
2.198083 0.837468 0.958391 32.000000
2.220186 0.816761 0.965142 33.000000
2.241926 0.795831 0.972064 52.000000
2.259153 0.773102 0.977106 48.000000
2.284997 0.752832 0.985791 64.000000
2.297421 0.727886 0.988720 52.000000
2.340689 0.712103 1.004951 58.000000
2.366033 0.690323 1.013445 41.000000
2.382259 0.665648 1.018391 31.000000
2.411774 0.644019 1.028650 35.000000
2.432049 0.619757 1.035359 43.000000
2.483505 0.602650 1.055354 53.000000
2.494420 0.575083 1.058108 39.000000
2.513962 0.549470 1.064858 40.000000
2.547056 0.526094 1.076930 36.000000
2.575223 0.501299 1.087361 38.000000
2.571424 0.469997 1.084223 24.000000
2.621865 0.448242 1.103994 34.000000
2.649323 0.421814 1.114375 47.000000
2.676683 0.394684 1.124412 48.000000
2.708245 0.367651 1.136558 61.000000
2.739526 0.339988 1.148533 59.000000
2.779688 0.312635 1.164638 59.000000
2.805886 0.283050 1.174433 57.000000
2.781194 0.248329 1.163362 23.000000
2.889609 0.224710 1.207877 48.000000
2.900926 0.192165 1.212300 41.000000
2.930592 0.160320 1.223846 38.000000
2.955196 0.127738 1.233761 37.000000
2.988655 0.094823 1.247333 39.000000
3.012512 0.060980 1.257256 35.000000
3.068278 0.026890 1.280563 36.000000
3.100679 -0.008408 1.294043 37.000000
3.128156 -0.044279 1.305493 36.000000
3.164439 -0.081123 1.320583 48.000000
3.223340 -0.119671 1.345609 49.000000
3.267939 -0.158815 1.364643 59.000000
3.293521 -0.198017 1.376083 39.000000
3.351070 -0.240052 1.400547 37.000000
3.311499 -0.275427 1.384936 26.000000
3.276149 -0.310393 1.370928 35.000000
3.249501 -0.345487 1.361098 34.000000
3.204354 -0.377893 1.343049 32.000000
3.190932 -0.413397 1.338675 35.000000
3.163395 -0.446755 1.328438 32.000000
3.153657 -0.482380 1.326097 35.000000
3.125499 -0.514793 1.315454 32.000000
3.078813 -0.543369 1.297576 27.000000
3.072718 -0.578698 1.296750 35.000000
3.034506 -0.607576 1.282422 31.000000
3.005062 -0.637643 1.272141 30.000000
2.998060 -0.672042 1.271025 34.000000
2.972563 -0.702191 1.262371 33.000000
2.960211 -0.735168 1.259454 34.000000
2.938635 -0.765611 1.252627 33.000000
2.872038 -0.783676 1.226957 26.000000
2.859042 -0.815229 1.223678 30.000000
2.832189 -0.842822 1.214993 32.000000
2.805061 -0.869908 1.206322 31.000000
2.773457 -0.894974 1.195573 32.000000
2.763556 -0.926793 1.194228 32.000000
2.718403 -0.946344 1.177544 30.000000
2.734084 -0.986904 1.187466 29.000000
2.697048 -1.008700 1.174887 30.000000
2.668765 -1.032766 1.165634 31.000000
2.648755 -1.060160 1.160452 33.000000
2.624069 -1.085302 1.153304 33.000000
2.603574 -1.111875 1.147956 34.000000
2.578545 -1.136196 1.140742 34.000000
2.553451 -1.160131 1.133359 29.000000
2.523914 -1.181531 1.124124 27.000000
2.498449 -1.204377 1.116688 26.000000
2.480789 -1.231331 1.113272 30.000000
2.471531 -1.261771 1.113129 34.000000
2.445151 -1.284040 1.105910 31.000000
2.423088 -1.307503 1.100112 32.000000
2.408520 -1.335553 1.098302 37.000000
2.381571 -1.356525 1.090855 30.000000
2.366626 -1.384073 1.088965 29.000000
2.355307 -1.413833 1.088827 29.000000
2.335747 -1.438629 1.084914 32.000000
2.312038 -1.460579 1.079083 26.000000
2.276543 -1.474669 1.067772 13.000000
2.275861 -1.511120 1.072769 28.000000
2.247833 -1.529507 1.064969 32.000000
2.219708 -1.547359 1.057194 28.000000
2.187698 -1.561975 1.047538 25.000000
2.162567 -1.582180 1.041801 26.000000
2.141727 -1.604127 1.037537 26.000000
2.138484 -1.640706 1.042562 35.000000
2.113506 -1.659375 1.036318 30.000000
2.094961 -1.684160 1.034033 29.000000
2.091278 -1.719928 1.038382 35.000000
2.065016 -1.738339 1.032420 29.000000
2.049948 -1.764936 1.031291 26.000000
2.009295 -1.770341 1.018156 22.000000
1.986150 -1.790729 1.013760 24.000000
1.987845 -1.832268 1.021396 34.000000
1.964156 -1.852341 1.016899 29.000000
1.960573 -1.891482 1.022958 32.000000
1.953035 -1.927552 1.027127 81.000000
1.921954 -1.940368 1.019022 35.000000
1.895059 -1.955254 1.012246 27.000000
1.838219 -1.939893 0.990124 18.000000
1.839223 -1.985374 0.999290 24.000000
1.817564 -2.006769 0.996297 30.000000
1.792529 -2.024385 0.991494 28.000000
1.782764 -2.059418 0.995193 26.000000
1.769478 -2.090886 0.997139 27.000000
1.758689 -2.126012 1.000666 32.000000
1.779931 -2.201283 1.022838 21.000000
1.744471 -2.207096 1.012574 24.000000
1.510529 -1.955532 0.885921 9.000000
1.386132 -1.838451 0.822636 13.000000
1.251729 -1.699072 0.750996 19.000000
1.106764 -1.537618 0.671431 12.000000
1.052234 -1.496502 0.645739 16.000000
1.036131 -1.508698 0.643312 21.000000
1.014652 -1.512878 0.637581 18.000000
1.005146 -1.537101 0.640340 20.000000
0.993728 -1.556697 0.641186 23.000000
0.974583 -1.564261 0.637047 24.000000
0.957921 -1.575568 0.634488 20.000000
0.947179 -1.599441 0.637030 21.000000
0.934762 -1.618671 0.637680 21.000000
0.915141 -1.625454 0.633480 18.000000
0.896504 -1.636757 0.631076 14.000000
1.038900 1.886177 0.749169 26.000000
1.056756 1.869543 0.750581 31.000000
1.080370 1.860293 0.755083 31.000000
1.097787 1.843369 0.756482 29.000000
1.114910 1.826225 0.757867 35.000000
1.134377 1.812993 0.760916 31.000000
1.160039 1.806716 0.766981 30.000000
1.166382 1.773280 0.761530 32.000000
1.182747 1.755478 0.762726 32.000000
1.198891 1.737532 0.763840 36.000000
1.222880 1.730957 0.770133 36.000000
1.235956 1.708825 0.769526 32.000000
1.257111 1.697868 0.773987 37.000000
1.269707 1.675488 0.773281 32.000000
1.293503 1.667793 0.779411 33.000000
1.309538 1.648124 0.780077 33.000000
1.327351 1.632571 0.782681 37.000000
1.341963 1.613281 0.783535 80.000000
1.364502 1.605103 0.789917 37.000000
1.381874 1.588898 0.792458 48.000000
1.380454 1.551520 0.784330 60.000000
1.419353 1.559327 0.799173 36.000000
1.436282 1.542536 0.801582 48.000000
1.459518 1.532234 0.807556 32.000000
1.459951 1.498164 0.800967 54.000000
1.482880 1.487411 0.806808 58.000000
1.524966 1.496523 0.823807 59.000000
1.517831 1.455827 0.813419 68.000000
1.543930 1.447361 0.820977 80.000000
1.548867 1.420110 0.818029 54.000000
1.564489 1.401667 0.820094 65.000000
1.597419 1.398351 0.831273 30.000000
1.605099 1.373860 0.829983 44.000000
1.623770 1.357724 0.833755 54.000000
1.645412 1.344794 0.839651 42.000000
1.663898 1.328099 0.843375 50.000000
1.685342 1.314526 0.849234 55.000000
1.695686 1.292128 0.849559 37.000000
1.710044 1.271957 0.851310 42.000000
1.734897 1.260250 0.858918 28.000000
1.744648 1.237334 0.859029 42.000000
1.765569 1.222284 0.864663 73.000000
1.790306 1.209512 0.872186 37.000000
1.803318 1.188607 0.874034 51.000000
1.820086 1.169994 0.877692 61.000000
1.828845 1.146299 0.877519 35.000000
1.857094 1.134552 0.886772 46.000000
1.889244 1.124660 0.897873 29.000000
1.905496 1.104803 0.901361 42.000000
1.925610 1.087053 0.906680 63.000000
1.945239 1.069336 0.912305 42.000000
1.961035 1.048665 0.915673 51.000000
1.984418 1.032458 0.923083 73.000000
1.995791 1.009121 0.924412 34.000000
2.023157 0.994229 0.933690 36.000000
2.058735 0.982708 0.946753 27.000000
2.065099 0.956948 0.946341 32.000000
2.096454 0.942413 0.957383 59.000000
2.106637 0.918096 0.958750 35.000000
2.129265 0.898935 0.965825 35.000000
2.151782 0.879401 0.972839 38.000000
2.161088 0.854714 0.974377 33.000000
2.191925 0.837719 0.985131 33.000000
2.196455 0.810881 0.984514 27.000000
2.231103 0.794811 0.997475 35.000000
2.252724 0.773496 1.004480 49.000000
2.282874 0.754612 1.015389 65.000000
2.286530 0.726853 1.014478 35.000000
2.320823 0.708365 1.027126 71.000000
2.359391 0.690559 1.041665 37.000000
2.366643 0.663344 1.042806 35.000000
2.400321 0.643195 1.055594 29.000000
2.424990 0.620068 1.064409 34.000000
2.462920 0.599714 1.079030 37.000000
2.473792 0.572249 1.081747 35.000000
2.502233 0.548705 1.092565 34.000000
2.526109 0.523455 1.101010 46.000000
2.545212 0.496994 1.107759 33.000000
2.577594 0.472623 1.120239 31.000000
2.609648 0.447627 1.132998 33.000000
2.641628 0.421829 1.145244 40.000000
2.659618 0.393475 1.151862 36.000000
2.691045 0.366579 1.164307 47.000000
2.726842 0.339532 1.178553 44.000000
2.766928 0.312173 1.194690 48.000000
2.788356 0.282214 1.203134 40.000000
2.814121 0.252152 1.213465 35.000000
2.867033 0.223612 1.235456 33.000000
2.882981 0.191572 1.241857 35.000000
2.917103 0.160126 1.255774 37.000000
2.950779 0.127941 1.269890 43.000000
2.984093 0.094917 1.283813 40.000000
3.007847 0.061066 1.293989 36.000000
3.049581 0.026849 1.311870 34.000000
3.077240 -0.008383 1.323827 32.000000
3.122961 -0.044409 1.343378 42.000000
3.145297 -0.080901 1.353046 36.000000
3.199227 -0.119116 1.376643 35.000000
3.229853 -0.157588 1.390254 35.000000
3.278356 -0.197799 1.411977 35.000000
3.317302 -0.238402 1.429197 32.000000
3.291540 -0.274716 1.418998 27.000000
3.270064 -0.310827 1.410667 30.000000
3.216318 -0.342998 1.388320 33.000000
3.194092 -0.377899 1.380112 32.000000
3.180599 -0.413458 1.375636 30.000000
3.157713 -0.447516 1.367117 33.000000
3.139107 -0.481747 1.360364 35.000000
3.115380 -0.514915 1.351965 30.000000
3.069084 -0.543447 1.333219 21.000000
3.035771 -0.573604 1.320601 28.000000
3.024906 -0.607561 1.317714 32.000000
2.995455 -0.637688 1.307184 31.000000
2.974982 -0.669110 1.300182 29.000000
2.971971 -0.704467 1.301232 36.000000
2.937285 -0.731937 1.288470 30.000000
2.924700 -0.764609 1.285409 28.000000
2.894086 -0.792118 1.274333 22.000000
2.836750 -0.811422 1.251562 26.000000
2.810008 -0.838920 1.242683 29.000000
2.791787 -0.868649 1.237618 32.000000
2.768954 -0.896561 1.230518 30.000000
2.737193 -0.921136 1.219443 31.000000
2.714004 -0.948054 1.212180 30.000000
2.703625 -0.979285 1.210657 27.000000
2.666973 -1.000610 1.197413 18.000000
2.651454 -1.029871 1.194157 30.000000
2.618855 -1.051595 1.182706 30.000000
2.611442 -1.083712 1.183235 33.000000
2.586748 -1.108473 1.175862 30.000000
2.553359 -1.129021 1.164562 29.000000
2.540896 -1.158469 1.162900 31.000000
2.519799 -1.183807 1.157216 25.000000
2.498511 -1.208768 1.151544 23.000000
2.472900 -1.231386 1.143879 32.000000
2.446694 -1.253898 1.136507 29.000000
2.441345 -1.286261 1.138232 37.000000
2.414666 -1.308076 1.130790 32.000000
2.384451 -1.326726 1.121014 30.000000
2.377720 -1.359045 1.122918 36.000000
2.346670 -1.377317 1.113356 25.000000
2.303663 -1.387872 1.098152 20.000000
2.323773 -1.436559 1.113092 33.000000
2.315752 -1.468438 1.114697 26.000000
2.252969 -1.464957 1.089890 20.000000
2.260002 -1.506489 1.098839 26.000000
2.235803 -1.527457 1.092772 33.000000
2.222939 -1.555959 1.092233 35.000000
2.190896 -1.570764 1.082371 25.000000
2.132716 -1.565813 1.059357 20.000000
2.144745 -1.613366 1.072108 34.000000
2.112561 -1.626637 1.062061 31.000000
2.109555 -1.662491 1.066728 34.000000
2.080093 -1.678604 1.058910 29.000000
2.072778 -1.711263 1.061613 34.000000
2.060745 -1.741699 1.062808 34.000000
2.028076 -1.753154 1.052578 27.000000
2.022424 -1.789313 1.057321 24.000000
1.981796 -1.794363 1.043756 33.000000
1.969629 -1.823291 1.044316 30.000000
1.959567 -1.856023 1.046928 36.000000
1.965773 -1.905045 1.058617 61.000000
1.988800 -1.970032 1.078674 125.000000
1.931038 -1.956832 1.055933 95.000000
1.877050 -1.945873 1.035001 29.000000
1.849260 -1.961074 1.028433 24.000000
1.827689 -1.982733 1.025351 29.000000
1.805942 -2.004128 1.022270 29.000000
1.784020 -2.025346 1.019100 32.000000
1.755726 -2.039120 1.012409 31.000000
1.749753 -2.076764 1.017496 31.000000
1.742075 -2.115287 1.022964 36.000000
1.745491 -2.168495 1.035258 22.000000
1.714773 -2.182332 1.028701 14.000000
1.488288 -1.938248 0.902226 10.000000
1.379994 -1.839294 0.845627 16.000000
1.251853 -1.707766 0.775569 28.000000
1.110280 -1.550502 0.695706 18.000000
1.050458 -1.501895 0.665849 23.000000
1.023663 -1.498624 0.656546 23.000000
1.007525 -1.510581 0.654131 20.000000
0.998973 -1.534192 0.656722 21.000000
0.983986 -1.550395 0.656090 27.000000
0.964902 -1.557935 0.651855 22.000000
0.945726 -1.565179 0.647634 26.000000
0.936154 -1.588437 0.650016 24.000000
0.929696 -1.620472 0.655911 24.000000
0.909990 -1.627290 0.651603 28.000000
1.030133 1.883324 0.768094 30.000000
1.051703 1.870173 0.771017 28.000000
1.069392 1.853436 0.772450 27.000000
1.089178 1.840523 0.775574 32.000000
1.103952 1.819368 0.775276 25.000000
1.128335 1.814140 0.781823 32.000000
1.143905 1.791996 0.781151 29.000000
1.160554 1.774315 0.782393 18.000000
1.174370 1.752663 0.781883 34.000000
1.195767 1.742450 0.786580 32.000000
1.214554 1.728136 0.789470 34.000000
1.233134 1.713615 0.792360 36.000000
1.248802 1.695053 0.793419 29.000000
1.264251 1.676419 0.794465 36.000000
1.288050 1.668678 0.800756 31.000000
1.303185 1.649597 0.801727 26.000000
1.318033 1.630448 0.802618 43.000000
1.335709 1.614690 0.805290 33.000000
1.356194 1.602287 0.809692 55.000000
1.355319 1.564935 0.801403 35.000000
1.387710 1.566183 0.812963 33.000000
1.392255 1.535799 0.808233 58.000000
1.430294 1.543680 0.823705 32.000000
1.453526 1.533400 0.829844 29.000000
1.454098 1.499316 0.823034 86.000000
1.477091 1.488515 0.829040 41.000000
1.495953 1.474711 0.833499 65.000000
1.535510 1.479409 0.848719 68.000000
1.531474 1.441891 0.839836 43.000000
1.543267 1.421052 0.840534 85.000000
1.569200 1.411877 0.848196 35.000000
1.587609 1.396681 0.852565 29.000000
1.606571 1.380707 0.856457 61.000000
1.610572 1.353077 0.853190 33.000000
1.632697 1.339695 0.858896 42.000000
1.650572 1.323526 0.863011 42.000000
1.661642 1.300869 0.862932 33.000000
1.693930 1.295578 0.874575 74.000000
1.700379 1.270206 0.872882 34.000000
1.714036 1.250315 0.874983 30.000000
1.738774 1.238255 0.882675 37.000000
1.752098 1.217882 0.884649 37.000000
1.776743 1.205143 0.892310 57.000000
1.797497 1.189376 0.898000 42.000000
1.806518 1.165711 0.897926 37.000000
1.823079 1.146978 0.901634 74.000000
1.839479 1.127939 0.905208 32.000000
1.871546 1.118121 0.916539 28.000000
1.903218 1.108059 0.928269 53.000000
1.911392 1.083396 0.927856 39.000000
1.931320 1.065281 0.933208 51.000000
1.954742 1.049447 0.940891 57.000000
1.970073 1.028925 0.944539 42.000000
2.001860 1.016046 0.955731 73.000000
2.008607 0.990779 0.955333 32.000000
2.039965 0.977304 0.966718 27.000000
2.062978 0.959395 0.974123 35.000000
2.077515 0.937190 0.977529 33.000000
2.096074 0.916653 0.982839 36.000000
2.114487 0.895767 0.988083 48.000000
2.132366 0.874839 0.993644 35.000000
2.167542 0.860025 1.006683 48.000000
2.176611 0.834988 1.008155 27.000000
2.194130 0.812906 1.013448 29.000000
2.215725 0.792091 1.020740 61.000000
2.237265 0.770819 1.027890 36.000000
2.262939 0.750610 1.037048 59.000000
2.292870 0.731312 1.048061 63.000000
2.322632 0.711346 1.059013 36.000000
2.347739 0.689663 1.068228 55.000000
2.359401 0.663689 1.071371 32.000000
2.388785 0.642123 1.082126 30.000000
2.400060 0.615576 1.085038 35.000000
2.437553 0.595529 1.100331 39.000000
2.457371 0.570371 1.107112 34.000000
2.490165 0.547940 1.120187 56.000000
2.514039 0.522685 1.128831 35.000000
2.532991 0.496219 1.135642 35.000000
2.560570 0.471186 1.146752 28.000000
2.601677 0.447700 1.163491 32.000000
2.620071 0.419760 1.169983 38.000000
2.647032 0.392850 1.180783 44.000000
2.664734 0.364091 1.187466 35.000000
2.704627 0.337851 1.204441 52.000000
2.744617 0.310682 1.220884 37.000000
2.775046 0.281749 1.233571 38.000000
2.768823 0.248911 1.229990 25.000000
2.848911 0.222969 1.264668 31.000000
2.874010 0.191492 1.274977 35.000000
2.903225 0.159835 1.287508 60.000000
2.927614 0.127347 1.297825 37.000000
2.965440 0.094672 1.314122 52.000000
2.993555 0.060966 1.326671 37.000000
3.039765 0.026788 1.347027 34.000000
3.062620 -0.008383 1.357257 35.000000
3.089841 -0.044045 1.369205 33.000000
3.134920 -0.080914 1.389250 38.000000
3.188694 -0.119181 1.413446 42.000000
3.205467 -0.156926 1.421332 34.000000
3.262864 -0.197472 1.447216 37.000000
3.306065 -0.238400 1.467346 35.000000
3.280408 -0.274658 1.456897 20.000000
3.245360 -0.309522 1.442297 33.000000
3.200957 -0.342568 1.423555 32.000000
3.192441 -0.379090 1.421103 33.000000
3.165582 -0.412819 1.410144 33.000000
3.142781 -0.446775 1.401428 32.000000
3.124135 -0.480904 1.394526 35.000000
3.073519 -0.509586 1.373825 29.000000
3.036167 -0.539521 1.359087 21.000000
3.034801 -0.575340 1.359867 32.000000
3.005881 -0.605838 1.348976 31.000000
2.976549 -0.635817 1.338199 30.000000
2.965082 -0.669106 1.335072 35.000000
2.944221 -0.700275 1.328132 33.000000
2.923229 -0.730732 1.320699 33.000000
2.901805 -0.761082 1.313578 34.000000
2.813605 -0.772922 1.276702 19.000000
2.827167 -0.811708 1.285352 29.000000
2.787524 -0.835027 1.269884 32.000000
2.751971 -0.859097 1.256829 28.000000
2.750997 -0.893891 1.259574 34.000000
2.719359 -0.918329 1.248256 27.000000
2.704906 -0.948334 1.244831 30.000000
2.703038 -0.982653 1.247284 32.000000
2.640795 -0.994439 1.221817 18.000000
2.638462 -1.028176 1.224096 31.000000
2.618367 -1.055436 1.218720 34.000000
2.577339 -1.073110 1.202993 27.000000
2.573810 -1.106705 1.205368 34.000000
2.548926 -1.130993 1.197865 32.000000
2.536422 -1.160539 1.196106 35.000000
2.519483 -1.187940 1.192378 34.000000
2.456812 -1.193058 1.166863 21.000000
2.460125 -1.229652 1.172805 35.000000
2.454529 -1.262695 1.175079 35.000000
2.424433 -1.282379 1.165154 32.000000
2.410519 -1.310298 1.162971 40.000000
2.375777 -1.327261 1.151411 34.000000
2.360988 -1.355127 1.149517 32.000000
2.362260 -1.391535 1.154937 33.000000
2.303439 -1.392899 1.131536 24.000000
2.311440 -1.434308 1.141090 34.000000
2.283922 -1.453885 1.133049 26.000000
2.260162 -1.475443 1.126957 15.000000
2.240080 -1.499209 1.122803 25.000000
2.219876 -1.522618 1.118478 31.000000
2.203152 -1.548416 1.116076 32.000000
2.190000 -1.576736 1.115496 31.000000
2.128155 -1.569212 1.090043 24.000000
2.129501 -1.607757 1.096930 34.000000
2.115729 -1.635238 1.096186 36.000000
2.093668 -1.657413 1.092000 29.000000
2.086587 -1.690369 1.094846 36.000000
2.063995 -1.712192 1.090484 33.000000
2.052685 -1.741954 1.091325 31.000000
2.019183 -1.754085 1.081259 32.000000
1.976161 -1.755766 1.065184 19.000000
1.990918 -1.810287 1.081128 34.000000
1.964826 -1.826800 1.074225 32.000000
1.941177 -1.846882 1.069637 31.000000
1.937306 -1.885976 1.075975 73.000000
1.947064 -1.937595 1.089278 98.000000
1.893020 -1.927417 1.067832 35.000000
1.858856 -1.936334 1.057487 32.000000
1.818442 -1.937894 1.043441 18.000000
1.820185 -1.982641 1.052705 34.000000
1.789066 -1.993671 1.044083 31.000000
1.776440 -2.025240 1.046355 29.000000
1.757249 -2.049683 1.044808 33.000000
1.740801 -2.077507 1.045137 28.000000
1.724109 -2.105209 1.045354 29.000000
1.706994 -2.132783 1.045459 21.000000
1.703843 -2.178628 1.054446 9.000000
1.507050 -1.972128 0.942554 12.000000
1.373670 -1.839976 0.868555 16.000000
1.262757 -1.731407 0.807314 21.000000
1.110870 -1.559462 0.718384 18.000000
1.043198 -1.499455 0.682512 22.000000
1.019111 -1.500086 0.674782 22.000000
1.002931 -1.512132 0.672242 24.000000
0.989123 -1.527880 0.671434 22.000000
0.979171 -1.551984 0.674298 29.000000
0.964927 -1.567497 0.673391 27.000000
0.943282 -1.570807 0.667337 23.000000
0.931132 -1.590048 0.668068 27.000000
0.914025 -1.601053 0.665376 24.000000
0.900111 -1.620705 0.666306 23.000000
1.045223 1.871346 0.791605 20.000000
1.062975 1.854518 0.793143 29.000000
1.080500 1.837537 0.794598 22.000000
1.100148 1.824415 0.797791 27.000000
1.114805 1.803194 0.797395 26.000000
1.134090 1.789646 0.800505 17.000000
1.159647 1.783176 0.806817 21.000000
1.168446 1.753598 0.802752 23.000000
1.192567 1.747205 0.809353 25.000000
1.203415 1.721352 0.806946 31.000000
1.224601 1.710656 0.811629 23.000000
1.245800 1.699690 0.816326 28.000000
1.255824 1.673473 0.813785 29.000000
1.285260 1.673105 0.823869 22.000000
1.294739 1.646713 0.821159 28.000000
1.318425 1.638376 0.827568 27.000000
1.330238 1.615334 0.826584 31.000000
1.349848 1.603508 0.831449 35.000000
1.364296 1.583817 0.832214 29.000000
1.384601 1.570889 0.836679 36.000000
1.398628 1.550789 0.837364 34.000000
1.418734 1.537375 0.841771 27.000000
1.444243 1.531045 0.850142 32.000000
1.457790 1.510322 0.850757 30.000000
1.480888 1.499356 0.856874 35.000000
1.499799 1.485395 0.861471 41.000000
1.502919 1.454503 0.856259 30.000000
1.539083 1.455500 0.869862 44.000000
1.544206 1.428123 0.866733 32.000000
1.563395 1.412615 0.870864 29.000000
1.581816 1.397443 0.875215 34.000000
1.597296 1.378336 0.877307 29.000000
1.608413 1.356672 0.877753 35.000000
1.622886 1.337816 0.880118 33.000000
1.644959 1.324046 0.885865 33.000000
1.651831 1.299060 0.884224 33.000000
1.676776 1.288066 0.892282 32.000000
1.690573 1.268385 0.894383 29.000000
1.704231 1.248495 0.896484 29.000000
1.732647 1.239099 0.906346 31.000000
1.746070 1.218681 0.908324 36.000000
1.770680 1.205886 0.916129 34.000000
1.783764 1.184981 0.918049 32.000000
1.808201 1.171355 0.925820 35.000000
1.840352 1.162289 0.937498 34.000000
1.856918 1.142925 0.941216 31.000000
1.872957 1.123760 0.945231 30.000000
1.889192 1.103849 0.948818 29.000000
1.896926 1.079672 0.948790 32.000000
1.924805 1.066040 0.958227 34.000000
1.940191 1.045802 0.962059 34.000000
1.951787 1.022756 0.963453 34.000000
1.966803 1.002083 0.967148 31.000000
1.989850 0.985230 0.974796 30.000000
2.033429 0.977785 0.992454 29.000000
2.048182 0.955874 0.995975 29.000000
2.071010 0.937563 1.003464 34.000000
2.089243 0.917275 1.009254 32.000000
2.103348 0.894547 1.012573 28.000000
2.125792 0.875046 1.019877 30.000000
2.152058 0.857172 1.029457 29.000000
2.148398 0.827183 1.024827 24.000000
2.191484 0.814922 1.042500 31.000000
2.213048 0.794000 1.049866 25.000000
2.225927 0.769717 1.053085 32.000000
2.251513 0.749499 1.062360 31.000000
2.276989 0.728719 1.071651 28.000000
2.302104 0.707695 1.081121 29.000000
2.327256 0.685944 1.090204 30.000000
2.321398 0.655196 1.085186 18.000000
2.398762 0.647154 1.119006 27.000000
2.414492 0.621568 1.124114 28.000000
2.429854 0.595778 1.129397 27.000000
2.458409 0.572631 1.140444 31.000000
2.464411 0.544143 1.141458 25.000000
2.496912 0.521069 1.154761 28.000000
2.520340 0.495617 1.163784 25.000000
2.521112 0.465444 1.162407 10.000000
2.588911 0.446995 1.191841 29.000000
2.598072 0.417695 1.194788 25.000000
2.620403 0.390303 1.203678 26.000000
2.660564 0.364789 1.220854 30.000000
2.700563 0.338437 1.237864 29.000000
2.726547 0.309707 1.248858 26.000000
2.752402 0.280454 1.259771 28.000000
2.750654 0.248131 1.258162 9.000000
2.821285 0.221519 1.289538 24.000000
2.850895 0.190596 1.302073 25.000000
2.861801 0.158134 1.306604 22.000000
2.913334 0.127151 1.329711 29.000000
2.955429 0.094620 1.348480 26.000000
2.988059 0.061052 1.363303 26.000000
3.024849 0.026788 1.380106 30.000000
3.047694 -0.008383 1.390483 28.000000
3.083878 -0.044175 1.406982 33.000000
3.110543 -0.080574 1.419120 31.000000
3.168491 -0.118797 1.445986 31.000000
3.198809 -0.157158 1.460293 34.000000
3.251476 -0.197420 1.484856 29.000000
3.280838 -0.237411 1.499263 27.000000
3.255300 -0.273567 1.488566 22.000000
3.229475 -0.309087 1.477765 23.000000
3.194323 -0.343111 1.462610 28.000000
3.154292 -0.375754 1.445291 24.000000
3.140900 -0.411105 1.440725 27.000000
3.127215 -0.446246 1.435950 29.000000
3.090745 -0.477491 1.420732 26.000000
3.062943 -0.509502 1.409456 22.000000
3.048151 -0.543494 1.404700 22.000000
3.006138 -0.572065 1.387353 24.000000
2.999780 -0.606826 1.386533 28.000000
2.975197 -0.637768 1.377261 27.000000
2.937060 -0.665176 1.361618 24.000000
2.929496 -0.699266 1.360811 29.000000
2.899829 -0.727510 1.349116 26.000000
2.887213 -0.759982 1.345860 21.000000
2.834866 -0.781350 1.324132 21.000000
2.795533 -0.805288 1.308496 21.000000
2.773377 -0.833961 1.301277 29.000000
2.746856 -0.860577 1.291636 27.000000
2.724214 -0.888204 1.284249 24.000000
2.705605 -0.916992 1.278822 27.000000
2.686867 -0.945388 1.273308 26.000000
2.654949 -0.968699 1.261594 16.000000
2.627188 -0.993031 1.251846 26.000000
2.595032 -1.015115 1.239993 23.000000
2.609371 -1.055366 1.250404 29.000000
2.568011 -1.073574 1.234708 26.000000
2.543432 -1.098061 1.227146 24.000000
2.527418 -1.125513 1.222998 27.000000
2.514956 -1.154961 1.221336 26.000000
2.481537 -1.174438 1.209412 15.000000
2.468536 -1.203278 1.207581 28.000000
2.463537 -1.236040 1.209585 25.000000
2.437733 -1.258306 1.201546 29.000000
2.407382 -1.278411 1.191798 29.000000
2.389469 -1.304088 1.187619 28.000000
2.366790 -1.327790 1.181814 29.000000
2.344479 -1.350493 1.175481 26.000000
2.321548 -1.373370 1.169522 10.000000
2.283206 -1.385820 1.155102 25.000000
2.287326 -1.424775 1.162965 25.000000
2.286951 -1.461448 1.168635 26.000000
2.232385 -1.463050 1.146645 10.000000
2.231508 -1.499455 1.152219 13.000000
2.218781 -1.528217 1.151774 30.000000
2.175667 -1.535495 1.135542 25.000000
2.151336 -1.555547 1.129154 10.000000
2.126945 -1.575161 1.122608 27.000000
2.106167 -1.597121 1.118028 24.000000
2.106932 -1.635770 1.125117 30.000000
2.078350 -1.651641 1.116475 26.000000
2.063293 -1.679336 1.116036 26.000000
2.059334 -1.715092 1.120847 31.000000
2.019817 -1.720982 1.106289 24.000000
2.003994 -1.748145 1.105664 10.000000
1.985273 -1.771260 1.102588 28.000000
1.958586 -1.788670 1.096044 21.000000
1.959854 -1.830200 1.104227 29.000000
1.936067 -1.850280 1.099496 28.000000
1.905557 -1.863633 1.090898 25.000000
1.905514 -1.905158 1.098887 36.000000
1.868189 -1.911242 1.086453 24.000000
1.866176 -1.953534 1.094637 13.000000
1.817223 -1.944397 1.074235 23.000000
1.805150 -1.976218 1.076592 20.000000
1.786494 -2.001074 1.075283 27.000000
1.758340 -2.015332 1.068310 24.000000
1.754277 -2.057372 1.076064 26.000000
1.727008 -2.070215 1.068561 29.000000
1.710229 -2.097868 1.068782 22.000000
1.701723 -2.136312 1.074381 10.000000
1.624108 -2.086665 1.036139 8.000000
1.525277 -2.005801 0.983584 9.000000
1.375571 -1.851794 0.896855 10.000000
1.248684 -1.720855 0.823271 10.000000
1.124773 -1.587229 0.750188 10.000000
1.051754 -1.519986 0.709871 19.000000
1.019632 -1.509215 0.696556 14.000000
1.016129 -1.540799 0.702834 10.000000
0.983244 -1.529800 0.689843 22.000000
0.974198 -1.553381 0.692472 21.000000
0.950122 -1.552949 0.684501 22.000000
0.942982 -1.580311 0.688841 21.000000
0.925951 -1.591585 0.686083 19.000000
0.911053 -1.606697 0.685063 24.000000
1.040902 1.876384 0.813980 24.000000
1.058762 1.859507 0.815491 20.000000
1.088170 1.862635 0.825926 25.000000
1.093799 1.825294 0.818470 23.000000
1.115862 1.815908 0.823473 22.000000
1.135317 1.802380 0.826681 18.000000
1.149650 1.780676 0.826257 23.000000
1.163743 1.758955 0.825735 24.000000
1.182752 1.744785 0.828776 28.000000
1.198901 1.726588 0.829982 25.000000
1.220285 1.715823 0.834790 31.000000
1.238879 1.700962 0.837762 29.000000
1.257335 1.685962 0.840666 25.000000
1.275583 1.670686 0.843569 27.000000
1.290906 1.651549 0.844534 25.000000
1.305943 1.632274 0.845487 35.000000
1.323698 1.616514 0.848240 34.000000
1.341315 1.600480 0.850993 31.000000
1.352700 1.577214 0.849891 35.000000
1.381202 1.575367 0.860435 31.000000
1.392308 1.551758 0.859251 31.000000
1.412431 1.538301 0.863708 32.000000
1.437913 1.531917 0.872287 32.000000
1.441925 1.501246 0.867096 52.000000
1.451974 1.477186 0.865717 42.000000
1.477332 1.469952 0.874191 36.000000
1.496844 1.455232 0.878475 58.000000
1.512120 1.437744 0.881102 42.000000
1.524714 1.416224 0.881433 36.000000
1.539680 1.398361 0.883985 50.000000
1.555198 1.379670 0.886123 26.000000
1.587185 1.376453 0.898366 34.000000
1.591383 1.348852 0.894893 41.000000
1.609954 1.332452 0.898878 37.000000
1.631326 1.319272 0.905130 49.000000
1.645482 1.300026 0.907361 32.000000
1.677584 1.294581 0.919545 43.000000
1.691542 1.274701 0.921730 37.000000
1.723744 1.268260 0.933843 27.000000
1.715174 1.231847 0.923885 37.000000
1.732288 1.214146 0.927934 45.000000
1.756805 1.201311 0.935946 58.000000
1.769861 1.180451 0.937791 52.000000
1.798038 1.169423 0.947718 52.000000
1.810848 1.148097 0.949579 62.000000
1.846264 1.141403 0.963829 58.000000
1.862716 1.121799 0.967529 28.000000
1.886369 1.106942 0.975673 79.000000
1.894612 1.082239 0.975241 52.000000
1.914111 1.064502 0.981152 57.000000
1.937498 1.048603 0.989127 55.000000
1.965285 1.033954 0.998730 76.000000
1.968240 1.006766 0.996331 54.000000
1.983200 0.985630 1.000017 40.000000
2.010214 0.970265 1.009817 26.000000
2.029005 0.950502 1.015441 52.000000
2.055491 0.934465 1.025513 53.000000
2.078202 0.915752 1.033086 37.000000
2.100425 0.896899 1.040982 52.000000
2.122840 0.877293 1.048436 56.000000
2.136386 0.854246 1.052056 48.000000
2.166697 0.837424 1.063856 35.000000
2.192695 0.818439 1.073598 41.000000
2.210046 0.795822 1.079029 69.000000
2.231439 0.774414 1.086481 74.000000
2.257079 0.753986 1.096038 81.000000
2.269558 0.728909 1.099091 75.000000
2.311949 0.713177 1.117221 63.000000
2.332568 0.690120 1.124736 77.000000
2.357391 0.667831 1.134283 42.000000
2.364478 0.640311 1.135272 32.000000
2.384490 0.616111 1.142573 50.000000
2.435154 0.599021 1.164459 61.000000
2.459143 0.574797 1.173987 65.000000
2.465177 0.546240 1.175007 55.000000
2.502010 0.524017 1.190634 72.000000
2.529747 0.499143 1.201971 57.000000
2.535131 0.469623 1.202665 36.000000
2.584544 0.447926 1.224685 36.000000
2.616236 0.422040 1.237823 91.000000
2.634139 0.393609 1.244888 81.000000
2.665006 0.366718 1.258498 78.000000
2.686876 0.337890 1.267429 75.000000
2.726427 0.310693 1.284754 57.000000
2.752092 0.281279 1.295914 74.000000
2.777527 0.251340 1.306895 42.000000
2.834126 0.223369 1.333024 50.000000
2.863622 0.192127 1.345857 78.000000
2.892578 0.160352 1.358984 81.000000
2.916751 0.127650 1.369897 79.000000
2.958747 0.095102 1.389012 91.000000
2.995647 0.061416 1.406407 57.000000
3.032257 0.026888 1.423607 70.000000
3.050463 -0.008433 1.432106 35.000000
3.068360 -0.044072 1.440398 36.000000
3.094887 -0.080469 1.452936 36.000000
3.125505 -0.117669 1.467700 35.000000
3.182803 -0.156836 1.495098 36.000000
3.217015 -0.196100 1.511761 34.000000
3.241715 -0.235440 1.524391 32.000000
3.248108 -0.273889 1.527869 30.000000
3.199853 -0.307245 1.506215 30.000000
3.164766 -0.341009 1.490829 33.000000
3.147308 -0.376297 1.484146 33.000000
3.133949 -0.411754 1.479480 33.000000
3.107059 -0.444863 1.467824 32.000000
3.057221 -0.473981 1.445810 32.000000
3.038293 -0.507385 1.439044 29.000000
2.997012 -0.536279 1.421089 24.000000
2.990962 -0.571143 1.420371 32.000000
2.975619 -0.604100 1.415224 34.000000
2.960010 -0.636851 1.409980 36.000000
2.917612 -0.663162 1.391986 30.000000
2.897132 -0.693832 1.384356 35.000000
2.871622 -0.723186 1.374931 32.000000
2.867936 -0.757724 1.375939 31.000000
2.833220 -0.783897 1.362129 18.000000
2.785290 -0.805478 1.341943 32.000000
2.759134 -0.832604 1.332089 31.000000
2.732703 -0.859133 1.322158 34.000000
2.722978 -0.891099 1.321002 29.000000
2.695863 -0.917022 1.311289 30.000000
