x y z intensity
1.778402 0.648334 -0.976597 14.000000
1.801990 0.633229 -0.987013 20.000000
1.804476 0.610482 -0.985896 16.000000
1.811284 0.588945 -0.986616 18.000000
1.809029 0.564829 -0.983059 21.000000
1.823590 0.545938 -0.988580 19.000000
1.807965 0.518354 -0.978223 20.000000
1.805039 0.494531 -0.974317 10.000000
1.831638 0.478889 -0.986838 16.000000
1.845520 0.459269 -0.992049 25.000000
1.846050 0.436385 -0.990521 21.000000
1.829067 0.409730 -0.979659 26.000000
1.824595 0.386401 -0.975927 24.000000
1.850489 0.369084 -0.988037 19.000000
1.841266 0.344862 -0.981789 26.000000
1.831796 0.320819 -0.975467 10.000000
1.795867 0.292810 -0.955066 24.000000
1.781432 0.268907 -0.946205 32.000000
1.073904 0.110726 -0.568189 100.000000
1.075058 0.098030 -0.568301 100.000000
1.080548 0.085684 -0.570705 95.000000
1.103439 0.074463 -0.582542 89.000000
1.099747 0.061209 -0.580326 100.000000
1.104774 0.048447 -0.582733 100.000000
1.105270 0.035400 -0.582733 100.000000
1.109998 0.022482 -0.585179 100.000000
1.114574 0.009421 -0.587549 105.000000
1.110189 -0.003677 -0.585217 100.000000
1.110113 -0.016775 -0.585141 98.000000
1.101039 -0.029598 -0.580364 98.000000
1.100659 -0.042592 -0.580326 98.000000
1.104507 -0.055771 -0.582581 95.000000
1.099444 -0.068504 -0.580098 85.000000
1.107508 -0.082114 -0.584566 55.000000
1.115329 -0.095933 -0.589108 100.000000
1.109806 -0.108666 -0.586626 98.000000
1.117335 -0.122706 -0.591049 98.000000
1.111585 -0.135310 -0.588452 98.000000
1.114467 -0.148983 -0.590429 100.000000
1.112761 -0.162122 -0.590235 98.000000
1.110901 -0.175261 -0.589964 95.000000
1.104597 -0.187619 -0.587294 61.000000
1.106870 -0.201422 -0.589228 98.000000
1.100312 -0.213600 -0.586445 95.000000
1.102220 -0.227505 -0.588452 98.000000
1.108437 -0.242305 -0.592500 98.000000
1.131658 -0.261376 -0.605947 98.000000
1.128740 -0.274729 -0.605427 95.000000
1.125621 -0.288082 -0.605027 94.000000
1.096758 -0.294414 -0.590586 31.000000
1.119105 -0.314627 -0.603948 92.000000
1.179583 -0.346504 -0.637764 103.000000
1.400194 -0.447286 -0.760528 98.000000
1.500463 -0.498995 -0.817318 93.000000
1.579021 -0.545675 -0.862145 37.000000
1.652604 -0.592777 -0.904505 33.000000
1.725147 -0.641821 -0.947002 20.000000
1.788555 -0.689484 -0.984771 12.000000
1.801520 -0.718905 -0.994998 22.000000
1.801831 -0.743656 -0.998225 17.000000
1.789582 -0.763230 -0.994546 20.000000
1.764943 -0.777188 -0.983989 22.000000
1.340138 -0.627718 -0.752086 98.000000
1.224682 -0.591375 -0.689992 35.000000
1.238042 -0.615923 -0.700310 46.000000
1.295026 -0.662983 -0.735062 81.000000
1.386411 -0.730429 -0.790200 63.000000
1.643311 -0.915541 -0.944578 29.000000
1.679844 -0.961723 -0.969784 22.000000
1.746444 -1.026950 -1.012642 17.000000
1.769722 -1.068502 -1.030787 10.000000
1.784799 -1.105946 -1.044258 9.000000
1.825179 -1.161143 -1.073661 17.000000
1.805218 -1.177766 -1.066866 11.000000
1.810635 -1.211959 -1.075954 11.000000
1.793958 -1.230779 -1.071298 13.000000
1.794875 -1.262643 -1.077970 10.000000
1.796017 -1.294260 -1.084155 10.000000
1.792566 -1.323782 -1.088481 10.000000
1.781468 -1.348064 -1.088249 9.000000
1.777267 -1.377716 -1.092377 10.000000
1.772734 -1.407396 -1.096398 10.000000
1.771204 -1.440017 -1.102487 11.000000
1.772812 -1.475625 -1.110625 10.000000
1.770443 -1.508491 -1.116467 10.000000
1.774383 -1.547457 -1.126582 12.000000
1.750842 -1.562634 -1.119250 9.000000
1.730686 -1.580457 -1.114089 8.000000
1.749899 -1.634981 -1.134547 12.000000
1.748611 -1.671467 -1.141985 10.000000
1.739453 -1.702348 -1.145516 10.000000
1.734026 -1.735846 -1.150642 10.000000
1.709171 -1.749957 -1.142935 9.000000
1.717719 -1.800485 -1.158885 10.000000
1.695442 -1.817524 -1.153178 9.000000
1.696520 -1.861828 -1.164606 8.000000
1.710108 -1.919197 -1.183802 12.000000
1.685706 -1.936756 -1.178262 10.000000
1.688853 -1.984376 -1.190923 11.000000
1.672638 -2.012096 -1.191395 10.000000
1.679054 -2.067977 -1.208366 9.000000
1.663029 -2.094931 -1.208197 10.000000
1.645508 -2.122561 -1.208449 9.000000
1.655098 -2.186438 -1.229035 8.000000
1.651367 -2.231665 -1.238711 10.000000
1.634809 -2.263094 -1.240628 9.000000
1.617821 -2.294349 -1.242409 9.000000
1.626243 -2.363305 -1.264313 9.000000
1.613077 -2.402402 -1.269863 9.000000
1.593513 -2.428966 -1.268851 9.000000
1.586779 -2.479502 -1.280062 9.000000
1.605701 -2.573055 -1.313104 8.000000
1.572787 -2.585079 -1.304204 9.000000
1.563281 -2.636205 -1.314947 9.000000
1.552780 -2.687496 -1.325569 9.000000
0.824416 1.474198 -0.704177 27.000000
0.845037 1.471809 -0.710776 19.000000
0.863380 1.465167 -0.715467 26.000000
0.884080 1.462182 -0.722062 31.000000
0.912002 1.470701 -0.734490 19.000000
0.910676 1.432172 -0.723518 18.000000
0.926216 1.420855 -0.726165 19.000000
0.949299 1.420770 -0.734680 21.000000
0.964739 1.408964 -0.737234 32.000000
0.974852 1.389476 -0.735811 22.000000
0.960551 1.336444 -0.716400 33.000000
0.835843 1.136812 -0.616931 91.000000
0.851004 1.130130 -0.620961 78.000000
1.050615 1.362323 -0.758070 27.000000
1.076868 1.363654 -0.768570 18.000000
1.093770 1.354452 -0.773325 28.000000
1.114473 1.347945 -0.779722 32.000000
1.141111 1.348146 -0.790286 23.000000
1.152122 1.331116 -0.790895 32.000000
1.169870 1.320333 -0.795188 31.000000
1.208940 1.332860 -0.813976 24.000000
1.222863 1.318455 -0.816568 29.000000
1.243714 1.309986 -0.822944 24.000000
1.267029 1.304932 -0.831665 29.000000
1.287166 1.296305 -0.838338 33.000000
1.308056 1.286788 -0.844667 28.000000
1.334828 1.283716 -0.855458 35.000000
1.352453 1.270386 -0.859614 33.000000
1.379292 1.266489 -0.870416 28.000000
1.389469 1.246951 -0.870634 25.000000
1.419821 1.245222 -0.883491 21.000000
1.446931 1.240015 -0.894278 26.000000
1.470634 1.231383 -0.902915 31.000000
1.497895 1.225171 -0.913653 27.000000
1.514684 1.209966 -0.917948 34.000000
1.542021 1.202881 -0.928622 32.000000
1.583834 1.206196 -0.947865 27.000000
1.604199 1.192536 -0.954259 30.000000
1.635430 1.186445 -0.967012 27.000000
1.659388 1.174571 -0.975483 31.000000
1.690239 1.167832 -0.988663 35.000000
1.706846 1.149961 -0.992644 23.000000
1.742043 1.144218 -1.007585 25.000000
1.739040 1.113882 -1.000981 25.000000
1.746992 1.090979 -1.000897 16.000000
1.743719 1.060460 -0.993748 15.000000
1.743482 1.032945 -0.989109 14.000000
1.738932 1.003254 -0.982109 14.000000
1.761452 0.989182 -0.990486 23.000000
1.748467 0.955329 -0.978973 13.000000
1.758832 0.934530 -0.980532 18.000000
1.756975 0.907423 -0.975454 20.000000
1.758854 0.882408 -0.972504 10.000000
1.788574 0.871252 -0.984935 14.000000
1.785641 0.844505 -0.979963 13.000000
1.786720 0.819374 -0.976724 14.000000
1.791338 0.796522 -0.976036 19.000000
1.787498 0.770091 -0.970745 14.000000
1.803985 0.752361 -0.976609 19.000000
1.803761 0.727677 -0.973400 16.000000
1.799099 0.701433 -0.967873 10.000000
1.819226 0.684865 -0.975657 16.000000
1.826660 0.663293 -0.976719 21.000000
1.812553 0.634410 -0.966739 21.000000
1.819508 0.612889 -0.967592 24.000000
1.817446 0.588748 -0.964202 16.000000
1.819454 0.566002 -0.962926 21.000000
1.821238 0.543225 -0.961646 22.000000
1.835666 0.524159 -0.967010 21.000000
1.837046 0.501303 -0.965467 10.000000
1.846573 0.480860 -0.968708 16.000000
1.847536 0.457910 -0.967031 18.000000
1.839343 0.433148 -0.961078 20.000000
1.830890 0.408563 -0.954984 20.000000
1.835258 0.386979 -0.955563 18.000000
1.839241 0.365459 -0.956398 21.000000
1.825648 0.340543 -0.947693 15.000000
1.859917 0.324457 -0.964248 17.000000
1.863346 0.302589 -0.964766 21.000000
1.840103 0.276685 -0.951560 25.000000
1.838628 0.254389 -0.949601 29.000000
1.814744 0.229469 -0.936503 28.000000
1.076770 0.097814 -0.554255 93.000000
1.077808 0.085170 -0.554329 73.000000
1.105257 0.074317 -0.568206 95.000000
1.128226 0.062554 -0.579732 98.000000
1.128846 0.049299 -0.579810 98.000000
1.129350 0.036044 -0.579810 95.000000
1.094042 0.022072 -0.561660 98.000000
1.116432 0.009422 -0.573153 99.000000
1.138711 -0.003750 -0.584531 98.000000
1.107498 -0.016642 -0.568472 100.000000
1.102861 -0.029517 -0.566075 98.000000
1.106890 -0.042630 -0.568320 98.000000
1.106359 -0.055624 -0.568244 98.000000
1.110153 -0.068893 -0.570374 77.000000
1.100477 -0.081246 -0.565621 98.000000
1.108360 -0.094948 -0.570068 100.000000
1.107254 -0.107956 -0.569916 103.000000
1.110457 -0.121448 -0.571966 100.000000
1.113536 -0.135005 -0.573975 98.000000
1.107623 -0.147453 -0.571353 103.000000
1.110344 -0.161114 -0.573398 103.000000
1.117296 -0.175532 -0.577678 86.000000
1.093402 -0.184919 -0.565964 95.000000
1.095734 -0.198517 -0.567856 95.000000
1.097819 -0.212294 -0.569859 98.000000
1.095521 -0.225125 -0.569323 98.000000
1.097347 -0.238942 -0.571207 95.000000
1.099038 -0.252822 -0.573049 100.000000
1.117924 -0.270968 -0.583862 103.000000
1.843098 -0.515957 -0.968418 22.000000
1.858751 -0.543957 -0.978778 17.000000
1.869801 -0.571025 -0.986797 19.000000
1.893301 -0.602491 -1.001481 24.000000
1.878235 -0.621887 -0.995831 16.000000
1.883876 -0.648420 -1.001622 20.000000
1.881075 -0.671973 -1.002503 19.000000
1.844299 -0.683337 -0.985730 9.000000
1.874213 -0.719513 -1.004728 16.000000
1.862109 -0.739990 -1.001260 15.000000
1.878805 -0.772138 -1.013284 18.000000
1.870353 -0.794237 -1.011829 18.000000
1.857593 -0.814399 -1.008080 14.000000
1.869221 -0.845402 -1.017599 17.000000
1.839414 -0.858153 -1.005177 15.000000
1.847839 -0.969436 -1.025276 17.000000
1.845098 -0.995553 -1.027976 17.000000
1.842050 -1.021715 -1.030589 14.000000
1.854237 -1.056820 -1.041889 18.000000
1.858303 -1.087793 -1.048617 15.000000
1.811769 -1.088797 -1.026906 9.000000
1.837793 -1.134155 -1.046997 16.000000
1.833168 -1.160577 -1.049153 12.000000
1.824442 -1.184579 -1.049045 11.000000
1.833750 -1.221381 -1.060062 14.000000
1.816373 -1.240775 -1.055884 10.000000
1.814278 -1.269755 -1.059828 14.000000
1.822192 -1.307188 -1.070579 10.000000
1.789521 -1.315583 -1.057557 8.000000
1.796678 -1.353284 -1.068022 10.000000
1.796096 -1.385755 -1.074149 10.000000
1.802216 -1.423944 -1.084507 13.000000
1.800703 -1.456797 -1.090391 11.000000
1.784766 -1.478203 -1.087734 10.000000
1.789398 -1.516946 -1.097636 16.000000
1.783226 -1.547116 -1.101131 10.000000
1.773313 -1.574283 -1.102405 9.000000
1.773105 -1.610522 -1.109963 10.000000
1.759109 -1.634640 -1.108917 10.000000
1.757076 -1.671683 -1.116628 12.000000
1.742489 -1.695631 -1.115536 10.000000
1.749157 -1.742528 -1.129234 10.000000
1.759281 -1.792383 -1.144497 15.000000
1.730787 -1.803249 -1.134759 9.000000
1.754220 -1.870882 -1.160431 9.000000
1.728386 -1.884780 -1.152628 14.000000
1.704285 -1.902441 -1.147241 10.000000
1.722165 -1.967851 -1.170464 15.000000
1.701618 -1.988048 -1.166442 10.000000
1.697084 -2.029804 -1.175034 10.000000
1.686213 -2.064643 -1.179504 12.000000
1.690383 -2.116570 -1.193467 9.000000
1.709318 -2.191317 -1.219724 9.000000
1.671263 -2.193934 -1.205727 10.000000
1.660784 -2.232718 -1.211666 9.000000
1.648514 -2.267010 -1.214989 10.000000
1.639565 -2.309608 -1.222684 9.000000
1.635170 -2.359772 -1.234245 10.000000
1.622200 -2.398837 -1.239697 10.000000
1.621289 -2.457031 -1.254785 9.000000
1.636886 -2.542647 -1.283404 9.000000
1.606668 -2.558796 -1.276646 9.000000
1.593281 -2.602100 -1.283373 9.000000
1.571886 -2.633577 -1.284318 10.000000
1.559414 -2.680884 -1.292812 9.000000
1.561965 -2.756310 -1.314512 9.000000
0.832849 1.476543 -0.689210 30.000000
0.846502 1.462150 -0.690000 32.000000
0.869407 1.463555 -0.698310 27.000000
0.885242 1.452773 -0.701006 27.000000
0.913149 1.461414 -0.713148 29.000000
0.913972 1.426818 -0.704309 20.000000
0.921775 1.403935 -0.701107 30.000000
0.949864 1.411677 -0.713271 27.000000
0.967795 1.403760 -0.717744 27.000000
0.987387 1.399938 -0.724406 33.000000
1.008047 1.395195 -0.730811 27.000000
1.015019 1.371719 -0.727383 35.000000
1.032740 1.362929 -0.731785 30.000000
1.053245 1.357473 -0.738116 23.000000
1.070881 1.348171 -0.742435 31.000000
1.087678 1.339087 -0.747054 28.000000
1.108229 1.332771 -0.753335 34.000000
1.137674 1.336666 -0.765638 34.000000
1.157597 1.330135 -0.772221 31.000000
1.175210 1.319395 -0.776465 36.000000
1.211334 1.328630 -0.792824 31.000000
1.225187 1.314298 -0.795343 19.000000
1.233390 1.292694 -0.793443 35.000000
1.256560 1.287883 -0.801996 34.000000
1.283710 1.285411 -0.812263 35.000000
1.316810 1.289316 -0.826974 39.000000
1.331111 1.273226 -0.829009 33.000000
1.357925 1.269895 -0.839583 45.000000
1.374796 1.256781 -0.844012 32.000000
1.388837 1.239931 -0.845946 18.000000
1.426001 1.244395 -0.862710 36.000000
1.439331 1.227383 -0.864932 31.000000
1.469928 1.224790 -0.877512 35.000000
1.497189 1.218723 -0.888054 38.000000
1.521014 1.209301 -0.896412 31.000000
1.551997 1.205061 -0.908999 36.000000
1.575856 1.194716 -0.917359 31.000000
1.603406 1.186676 -0.927789 18.000000
1.612623 1.164821 -0.927690 36.000000
1.666008 1.174232 -0.952858 37.000000
1.678848 1.154251 -0.954781 35.000000
1.713479 1.149672 -0.969738 36.000000
1.748855 1.144003 -0.984330 26.000000
1.761403 1.122995 -0.986093 27.000000
1.761732 1.095112 -0.981720 21.000000
1.766119 1.069281 -0.979047 10.000000
1.761928 1.039323 -0.972413 21.000000
1.765228 1.014020 -0.969909 21.000000
1.764219 0.986562 -0.965234 18.000000
1.782738 0.969955 -0.971191 21.000000
1.781288 0.942550 -0.966354 20.000000
1.795459 0.923535 -0.970020 24.000000
1.797379 0.898179 -0.967186 20.000000
1.799008 0.872946 -0.964204 10.000000
1.812633 0.853455 -0.967734 19.000000
1.813409 0.828529 -0.964939 14.000000
1.810193 0.801501 -0.959613 16.000000
1.822786 0.781992 -0.963207 22.000000
1.814521 0.753628 -0.955804 19.000000
1.830931 0.735641 -0.961518 23.000000
1.830458 0.710818 -0.958271 17.000000
1.808617 0.678174 -0.944037 10.000000
1.824412 0.659905 -0.949482 25.000000
1.844316 0.642783 -0.957005 21.000000
1.846831 0.619782 -0.955997 25.000000
1.840773 0.593796 -0.950178 21.000000
1.855658 0.574880 -0.955644 24.000000
1.848837 0.549245 -0.949942 26.000000
1.841802 0.523846 -0.944227 20.000000
1.830164 0.497446 -0.936091 10.000000
1.870039 0.485085 -0.954782 20.000000
1.862247 0.459831 -0.948789 17.000000
1.849630 0.433925 -0.940698 22.000000
1.871716 0.416140 -0.950291 23.000000
1.867390 0.392355 -0.946500 20.000000
1.858370 0.367776 -0.940351 24.000000
1.879788 0.349361 -0.949960 24.000000
1.852560 0.321973 -0.935028 10.000000
1.887020 0.305186 -0.950872 26.000000
1.894509 0.283827 -0.953818 27.000000
1.862045 0.256732 -0.936374 26.000000
1.838161 0.231586 -0.923250 31.000000
1.091651 0.098806 -0.546928 60.000000
1.097158 0.086372 -0.549236 95.000000
1.142617 0.076523 -0.571758 66.000000
1.143359 0.063164 -0.571914 95.000000
1.148453 0.049999 -0.574226 100.000000
1.148963 0.036548 -0.574226 95.000000
1.149276 0.023137 -0.574344 98.000000
1.131543 0.009535 -0.565444 96.000000
1.149473 -0.003765 -0.574383 95.000000
1.113615 -0.016680 -0.556428 103.000000
1.113387 -0.029674 -0.556276 100.000000
1.113008 -0.042706 -0.556276 98.000000
1.112476 -0.055700 -0.556162 100.000000
1.116295 -0.069008 -0.558243 95.000000
1.124418 -0.082672 -0.562516 95.000000
1.118960 -0.095443 -0.560169 100.000000
1.108942 -0.107676 -0.555554 103.000000
1.121072 -0.122086 -0.562017 98.000000
1.119727 -0.135198 -0.561747 98.000000
1.122587 -0.148898 -0.563784 100.000000
1.129749 -0.163305 -0.568007 100.000000
1.123575 -0.175764 -0.565314 100.000000
1.108274 -0.186749 -0.558484 45.000000
1.106206 -0.199694 -0.558101 95.000000
1.108422 -0.213409 -0.559825 98.000000
1.136721 -0.232695 -0.575059 100.000000
1.833069 -0.488087 -0.935317 23.000000
1.888137 -0.526446 -0.965406 14.000000
1.908112 -0.556048 -0.977782 18.000000
1.893374 -0.575811 -0.972359 24.000000
1.895674 -0.600662 -0.975687 19.000000
1.901639 -0.627187 -0.981410 22.000000
1.903330 -0.652285 -0.984580 19.000000
1.908781 -0.679156 -0.990072 22.000000
1.901211 -0.701660 -0.988971 16.000000
1.876642 -0.717535 -0.979040 14.000000
1.902174 -0.752802 -0.995312 21.000000
1.902307 -0.778495 -0.998293 21.000000
1.885512 -0.797236 -0.992466 15.000000
1.893333 -0.826446 -0.999650 21.000000
1.879913 -0.847009 -0.996214 17.000000
1.883083 -0.874645 -1.001052 17.000000
1.901750 -0.910492 -1.014824 21.000000
1.806798 -0.891053 -0.967854 15.000000
1.865247 -0.947102 -1.003105 19.000000
1.862834 -0.973227 -1.005794 18.000000
1.872041 -1.005805 -1.014861 17.000000
1.868948 -1.032161 -1.017366 17.000000
1.861616 -1.056331 -1.017564 19.000000
1.865729 -1.087272 -1.024181 19.000000
1.885015 -1.127716 -1.039246 15.000000
1.849219 -1.135986 -1.024731 10.000000
1.856122 -1.169651 -1.033186 18.000000
1.846898 -1.194162 -1.033388 18.000000
1.844868 -1.223694 -1.037827 16.000000
1.854286 -1.260461 -1.048068 18.000000
1.855260 -1.292804 -1.054405 16.000000
1.848324 -1.320155 -1.056415 11.000000
1.852101 -1.355489 -1.064641 13.000000
1.808153 -1.355640 -1.045454 10.000000
1.825667 -1.401955 -1.061949 17.000000
1.831774 -1.440464 -1.071933 15.000000
1.819580 -1.464997 -1.071435 10.000000
1.831731 -1.509623 -1.085402 20.000000
1.832711 -1.545875 -1.092985 17.000000
1.805647 -1.558583 -1.083964 10.000000
1.805926 -1.594927 -1.091321 14.000000
1.777786 -1.607632 -1.082563 9.000000
1.794000 -1.659542 -1.100037 15.000000
1.789426 -1.693103 -1.105115 16.000000
1.777032 -1.721125 -1.106396 11.000000
1.778140 -1.761249 -1.115299 17.000000
1.768033 -1.792583 -1.118378 10.000000
1.761729 -1.826429 -1.123025 10.000000
1.757092 -1.864416 -1.129980 10.000000
1.759157 -1.908486 -1.140385 9.000000
1.741025 -1.933173 -1.139103 15.000000
1.728700 -1.964555 -1.141721 15.000000
1.740956 -2.022915 -1.159719 16.000000
1.736384 -2.065034 -1.168087 18.000000
1.713594 -2.086029 -1.164408 12.000000
1.712023 -2.131018 -1.174094 16.000000
1.708465 -2.177032 -1.184048 10.000000
1.687288 -2.201351 -1.182059 9.000000
1.688005 -2.254938 -1.195686 13.000000
1.690436 -2.312569 -1.211047 12.000000
1.675803 -2.348073 -1.214633 12.000000
1.667563 -2.390155 -1.221453 13.000000
1.646721 -2.418034 -1.220965 10.000000
1.653534 -2.487953 -1.241459 13.000000
1.641567 -2.531252 -1.248388 10.000000
1.619010 -2.558993 -1.247514 9.000000
1.620378 -2.625926 -1.265484 13.000000
1.594165 -2.649535 -1.262591 10.000000
1.593542 -2.716949 -1.280188 10.000000
1.568571 -2.744505 -1.278958 10.000000
0.808210 1.461067 -0.658828 29.000000
0.828577 1.459126 -0.665142 26.000000
0.849009 1.456908 -0.671430 25.000000
0.867122 1.450368 -0.675891 30.000000
0.889948 1.451626 -0.684037 25.000000
0.910507 1.448557 -0.690355 29.000000
0.906080 1.406190 -0.677922 25.000000
0.926332 1.402847 -0.684170 22.000000
0.944103 1.395326 -0.688498 31.000000
0.964481 1.391376 -0.694739 28.000000
0.987588 1.390901 -0.702911 28.000000
1.008056 1.386325 -0.709155 33.000000
1.025872 1.377687 -0.713450 25.000000
1.052050 1.379879 -0.723531 31.000000
1.049997 1.345213 -0.714301 28.000000
1.063773 1.332962 -0.716898 28.000000
1.087082 1.330679 -0.724987 37.000000
1.116362 1.335135 -0.737012 32.000000
1.130955 1.321523 -0.739262 32.000000
1.159765 1.325562 -0.751553 35.000000
1.180449 1.318327 -0.757710 31.000000
1.207315 1.317481 -0.767779 33.000000
1.211669 1.293303 -0.764272 23.000000
1.232215 1.285143 -0.770364 33.000000
1.246424 1.270165 -0.772436 56.000000
1.282472 1.278133 -0.788782 35.000000
1.299858 1.265718 -0.792834 36.000000
1.339742 1.275692 -0.811193 35.000000
1.357210 1.262473 -0.815179 34.000000
1.380773 1.255701 -0.823520 62.000000
1.407763 1.251541 -0.833857 20.000000
1.411367 1.225390 -0.829658 24.000000
1.445306 1.226459 -0.844045 51.000000
1.465443 1.215190 -0.850213 32.000000
1.489123 1.206436 -0.858508 34.000000
1.523527 1.205730 -0.872853 36.000000
1.554562 1.201599 -0.885136 32.000000
1.578429 1.191354 -0.893350 35.000000
1.583943 1.167143 -0.891211 23.000000
1.607687 1.156265 -0.899325 35.000000
1.646304 1.155448 -0.915685 37.000000
1.681436 1.151240 -0.929961 32.000000
1.720482 1.148886 -0.946366 55.000000
1.744406 1.135845 -0.954353 35.000000
1.764096 1.120309 -0.960626 28.000000
1.791826 1.108811 -0.970679 28.000000
1.776300 1.071442 -0.957987 10.000000
1.780329 1.045578 -0.955322 19.000000
1.791437 1.024680 -0.957197 24.000000
1.790523 0.997026 -0.952610 16.000000
1.797159 0.973831 -0.952223 22.000000
1.800015 0.948068 -0.949233 19.000000
1.822318 0.933091 -0.957093 21.000000
1.828334 0.909556 -0.956489 21.000000
1.829680 0.884352 -0.953961 9.000000
1.826983 0.857007 -0.948948 13.000000
1.836306 0.835433 -0.950173 18.000000
1.828538 0.806696 -0.943202 14.000000
1.833216 0.783270 -0.942145 19.000000
1.841560 0.761804 -0.943491 21.000000
1.845508 0.738593 -0.942627 17.000000
1.857575 0.718536 -0.945980 18.000000
1.835705 0.685674 -0.932091 10.000000
1.864290 0.671803 -0.943901 17.000000
1.871591 0.649899 -0.944839 22.000000
1.865787 0.623570 -0.939313 19.000000
1.876667 0.603195 -0.942601 22.000000
1.887311 0.582588 -0.945828 24.000000
1.889403 0.559053 -0.944268 23.000000
1.869381 0.529609 -0.932158 21.000000
1.870489 0.506728 -0.931111 10.000000
1.880298 0.485875 -0.933934 15.000000
1.894309 0.465996 -0.938929 21.000000
1.890426 0.441878 -0.935381 18.000000
1.895095 0.419780 -0.936104 19.000000
1.903975 0.398606 -0.938935 20.000000
1.908193 0.376326 -0.939529 20.000000
1.920935 0.355751 -0.944607 20.000000
1.884861 0.326324 -0.925407 10.000000
1.897119 0.305773 -0.930283 18.000000
1.913728 0.285678 -0.937279 25.000000
1.885544 0.259018 -0.922408 23.000000
1.870335 0.234831 -0.914197 26.000000
1.801312 0.204833 -0.879472 34.000000
1.624405 0.165614 -0.792456 73.000000
1.098493 0.086208 -0.535227 63.000000
1.157764 0.077279 -0.563666 68.000000
1.163002 0.064023 -0.565970 95.000000
1.154649 0.050078 -0.561678 95.000000
1.164148 0.036912 -0.566088 98.000000
1.159929 0.023266 -0.563981 82.000000
1.160087 0.009763 -0.564060 98.000000
1.160126 -0.003779 -0.564021 95.000000
1.128573 -0.016814 -0.548680 98.000000
1.128382 -0.029950 -0.548526 100.000000
1.132454 -0.043259 -0.550673 100.000000
1.127424 -0.056224 -0.548411 100.000000
1.126773 -0.069361 -0.548258 95.000000
1.134863 -0.083155 -0.552588 52.000000
1.133976 -0.096357 -0.552318 95.000000
1.132856 -0.109560 -0.552125 95.000000
1.140566 -0.123734 -0.556256 100.000000
1.143555 -0.137578 -0.558320 100.000000
1.137609 -0.150270 -0.555789 98.000000
1.140312 -0.164180 -0.557734 100.000000
1.147371 -0.178847 -0.561816 93.000000
1.167600 -0.195918 -0.572343 69.000000
1.222956 -0.219921 -0.600339 105.000000
1.451775 -0.296088 -0.714617 100.000000
1.580595 -0.341547 -0.779177 95.000000
1.686621 -0.385020 -0.832793 60.000000
1.778790 -0.427769 -0.879700 31.000000
1.861345 -0.470683 -0.922385 29.000000
1.890936 -0.501706 -0.938978 11.000000
1.933295 -0.536898 -0.961555 10.000000
1.927387 -0.559441 -0.960672 23.000000
1.942589 -0.588593 -0.970711 17.000000
1.923295 -0.607109 -0.963148 20.000000
1.920967 -0.630889 -0.964141 23.000000
1.913926 -0.653379 -0.963184 16.000000
1.936402 -0.686360 -0.977192 24.000000
1.924595 -0.707435 -0.973867 10.000000
1.912545 -0.728342 -0.970546 14.000000
1.925548 -0.758954 -0.979931 18.000000
1.908860 -0.777975 -0.974330 13.000000
1.925446 -0.810770 -0.985670 21.000000
1.908057 -0.829791 -0.980209 19.000000
1.907329 -0.855676 -0.982850 17.000000
1.914243 -0.885696 -0.990008 20.000000
1.908518 -0.910114 -0.990708 10.000000
1.894689 -0.930208 -0.986737 13.000000
1.900697 -0.960568 -0.993629 23.000000
1.898126 -0.987054 -0.996201 16.000000
1.882965 -1.007458 -0.992725 17.000000
1.899790 -1.044823 -1.005655 21.000000
1.888412 -1.066996 -1.003759 18.000000
1.912227 -1.109453 -1.020652 19.000000
1.876337 -1.118243 -1.006463 10.000000
1.883680 -1.151892 -1.014774 11.000000
1.886249 -1.183878 -1.021257 20.000000
1.873538 -1.205785 -1.019014 16.000000
1.879211 -1.240446 -1.027448 23.000000
1.869233 -1.265278 -1.027480 16.000000
1.881415 -1.305547 -1.039832 16.000000
1.889333 -1.343565 -1.049983 19.000000
1.863451 -1.357806 -1.041479 9.000000
1.844896 -1.377084 -1.037109 10.000000
1.858858 -1.420973 -1.051111 18.000000
1.843359 -1.442813 -1.048607 14.000000
1.849001 -1.481624 -1.058258 17.000000
1.864790 -1.529392 -1.073870 17.000000
1.848193 -1.551306 -1.071130 14.000000
1.845310 -1.584814 -1.076404 16.000000
1.817146 -1.597994 -1.067832 10.000000
1.820450 -1.637670 -1.077004 10.000000
1.819748 -1.674399 -1.083939 16.000000
1.807632 -1.702599 -1.085224 10.000000
1.819235 -1.752310 -1.100049 16.000000
1.802911 -1.777390 -1.099098 12.000000
1.800289 -1.814652 -1.105654 14.000000
1.789648 -1.846216 -1.108618 17.000000
1.794327 -1.894431 -1.121249 9.000000
1.774480 -1.915232 -1.117609 10.000000
1.781026 -1.967238 -1.131972 13.000000
1.753181 -1.981739 -1.124714 10.000000
1.768631 -2.043787 -1.144245 19.000000
1.746149 -2.065015 -1.140752 10.000000
1.755603 -2.125064 -1.158479 17.000000
1.752521 -2.171265 -1.168255 18.000000
1.738667 -2.202349 -1.169780 10.000000
1.728646 -2.241506 -1.175472 9.000000
1.720819 -2.284414 -1.183010 10.000000
1.715062 -2.331166 -1.192281 10.000000
1.692353 -2.355555 -1.189976 10.000000
1.693198 -2.413827 -1.204678 10.000000
1.698258 -2.479997 -1.222916 14.000000
1.671322 -2.500496 -1.218459 13.000000
1.666988 -2.555553 -1.230838 9.000000
1.654225 -2.599120 -1.237401 9.000000
1.640752 -2.642644 -1.243777 10.000000
1.628969 -2.690294 -1.251917 10.000000
1.621106 -2.745947 -1.263640 10.000000
1.602872 -2.785784 -1.267789 9.000000
1.595477 -2.845887 -1.281002 9.000000
0.815277 1.463642 -0.644202 17.000000
0.837942 1.465764 -0.652181 24.000000
0.856043 1.459566 -0.656531 17.000000
0.878923 1.461074 -0.664525 19.000000
0.892171 1.446332 -0.665272 24.000000
0.915171 1.447327 -0.673267 10.000000
0.910492 1.404987 -0.661102 20.000000
0.933311 1.405506 -0.669049 18.000000
0.956327 1.405673 -0.677035 14.000000
0.968807 1.390248 -0.677580 25.000000
0.994627 1.393603 -0.687371 18.000000
1.015189 1.388986 -0.693530 20.000000
1.030247 1.376701 -0.695851 24.000000
1.062038 1.386310 -0.709464 16.000000
1.057054 1.347923 -0.698605 26.000000
1.068836 1.331499 -0.698969 21.000000
1.089178 1.325752 -0.704966 18.000000
1.112538 1.323176 -0.712892 30.000000
1.135959 1.320271 -0.720854 21.000000
1.161790 1.320908 -0.730944 25.000000
1.173178 1.303409 -0.731171 24.000000
1.215566 1.319796 -0.750684 18.000000
1.216637 1.292184 -0.745373 32.000000
1.227598 1.274180 -0.745488 24.000000
1.241602 1.259297 -0.747480 22.000000
1.274451 1.264275 -0.761481 30.000000
1.321411 1.280884 -0.783081 26.000000
1.334900 1.265381 -0.785339 29.000000
1.355621 1.255514 -0.791229 32.000000
1.385896 1.254983 -0.803306 20.000000
1.403247 1.241257 -0.807209 19.000000
1.423389 1.230763 -0.813293 27.000000
1.443471 1.219982 -0.819398 25.000000
1.464186 1.208342 -0.825208 30.000000
1.487777 1.199728 -0.833224 27.000000
1.522222 1.199176 -0.847278 27.000000
1.549582 1.192402 -0.857310 28.000000
1.555099 1.168594 -0.855240 18.000000
1.575123 1.155655 -0.861219 26.000000
1.606157 1.150334 -0.873215 25.000000
1.637350 1.144378 -0.885122 27.000000
1.676246 1.142994 -0.901197 31.000000
1.719070 1.143380 -0.919228 27.000000
1.746877 1.132903 -0.929103 33.000000
1.766909 1.117116 -0.934925 33.000000
1.794254 1.106147 -0.945064 12.000000
1.806379 1.084786 -0.946685 18.000000
1.806066 1.056871 -0.942429 16.000000
1.821652 1.037625 -0.945956 11.000000
1.816736 1.007519 -0.939470 19.000000
1.811490 0.977577 -0.932953 11.000000
1.826350 0.958104 -0.936262 12.000000
1.844688 0.940881 -0.941923 20.000000
1.830366 0.907098 -0.931009 10.000000
1.848359 0.889599 -0.936532 10.000000
1.870353 0.873626 -0.944148 12.000000
1.850518 0.838807 -0.931159 10.000000
1.859658 0.817049 -0.932387 14.000000
1.851534 0.788310 -0.925463 10.000000
1.860186 0.766476 -0.926477 14.000000
1.868298 0.744778 -0.927761 18.000000
1.872039 0.721379 -0.926881 10.000000
1.875475 0.697945 -0.925928 12.000000
1.878674 0.674475 -0.924902 16.000000
1.885993 0.652454 -0.925909 17.000000
1.893042 0.630432 -0.926782 21.000000
1.895572 0.606827 -0.925547 18.000000
1.893271 0.582124 -0.922330 17.000000
1.899406 0.560120 -0.923330 19.000000
1.887966 0.533057 -0.915738 10.000000
1.893648 0.511056 -0.916531 10.000000
1.899132 0.488988 -0.917258 13.000000
1.900019 0.465710 -0.915732 12.000000
1.913716 0.445682 -0.920833 20.000000
1.918352 0.423431 -0.921561 16.000000
1.922855 0.401114 -0.922223 18.000000
1.935974 0.380475 -0.927072 22.000000
1.922300 0.354639 -0.919028 12.000000
1.930383 0.333128 -0.921816 17.000000
1.920618 0.308446 -0.915692 18.000000
1.923833 0.286137 -0.916151 18.000000
1.926720 0.263829 -0.916807 25.000000
1.920566 0.240267 -0.912804 21.000000
1.878181 0.212840 -0.891669 27.000000
1.168298 0.077736 -0.553165 87.000000
1.169088 0.064141 -0.553284 87.000000
1.169721 0.050586 -0.553363 95.000000
1.170195 0.036991 -0.553402 95.000000
1.175030 0.023486 -0.555618 95.000000
1.134510 0.009537 -0.536462 100.000000
1.139068 -0.003653 -0.538561 98.000000
1.143511 -0.016947 -0.540659 103.000000
1.143318 -0.030228 -0.540505 100.000000
1.142893 -0.043508 -0.540466 98.000000
1.137838 -0.056525 -0.538253 98.000000
1.150722 -0.070583 -0.544505 95.000000
1.149827 -0.083929 -0.544466 95.000000
1.153437 -0.097656 -0.546328 100.000000
1.156806 -0.111449 -0.548266 98.000000
1.151055 -0.124375 -0.545898 95.000000
1.158551 -0.138850 -0.550045 95.000000
1.152492 -0.151723 -0.547717 100.000000
1.218015 -0.174690 -0.579270 103.000000
1.667061 -0.318661 -0.796852 43.000000
1.730054 -0.351521 -0.828131 36.000000
1.796942 -0.386882 -0.861486 27.000000
1.854483 -0.421756 -0.890424 29.000000
1.871956 -0.448502 -0.900181 23.000000
1.897646 -0.478037 -0.914348 21.000000
1.909829 -0.504750 -0.922083 9.000000
1.961018 -0.542683 -0.948685 14.000000
1.963697 -0.567948 -0.951947 13.000000
1.957503 -0.590726 -0.950915 16.000000
1.951035 -0.613436 -0.949814 15.000000
1.948464 -0.637556 -0.951024 12.000000
1.954245 -0.664699 -0.956364 18.000000
1.925491 -0.679916 -0.944824 10.000000
1.947842 -0.713295 -0.958336 9.000000
1.935718 -0.734279 -0.955056 10.000000
1.948853 -0.765051 -0.964192 10.000000
1.948901 -0.791119 -0.967032 17.000000
1.935880 -0.812180 -0.963816 13.000000
1.922897 -0.832791 -0.960182 10.000000
1.942668 -0.868288 -0.973477 18.000000
1.933385 -0.890711 -0.971763 10.000000
1.923530 -0.913277 -0.970334 9.000000
1.929816 -0.943770 -0.977115 18.000000
1.919444 -0.966240 -0.975531 10.000000
1.920990 -0.994923 -0.980064 13.000000
1.913776 -1.019751 -0.980748 15.000000
1.926647 -1.055184 -0.991271 14.000000
1.927167 -1.084249 -0.995591 16.000000
1.911008 -1.104760 -0.991913 10.000000
1.906965 -1.131498 -0.993936 9.000000
1.906052 -1.161166 -0.998355 10.000000
1.901411 -1.188017 -1.000266 10.000000
1.899762 -1.217738 -1.004493 13.000000
1.890088 -1.242636 -1.004562 10.000000
1.899085 -1.280174 -1.014675 10.000000
1.892544 -1.307696 -1.016576 10.000000
1.881848 -1.332598 -1.016444 9.000000
1.885838 -1.368108 -1.024275 9.000000
1.892902 -1.406631 -1.033992 9.000000
1.877578 -1.428792 -1.031556 10.000000
1.883712 -1.467618 -1.041030 10.000000
1.867812 -1.489639 -1.038486 10.000000
1.862336 -1.520124 -1.041827 10.000000
1.866273 -1.560094 -1.051411 12.000000
1.870471 -1.599756 -1.060452 10.000000
1.856753 -1.624536 -1.059562 9.000000
1.848752 -1.656024 -1.062927 9.000000
1.841292 -1.686767 -1.065767 10.000000
1.845894 -1.730835 -1.076820 10.000000
1.830837 -1.755421 -1.075583 10.000000
1.827684 -1.793409 -1.082459 10.000000
1.821692 -1.827588 -1.086829 10.000000
1.814308 -1.862587 -1.091580 9.000000
1.812735 -1.904320 -1.100061 9.000000
1.808456 -1.942081 -1.106113 9.000000
1.802588 -1.980740 -1.112457 10.000000
1.796079 -2.019507 -1.118655 10.000000
1.787150 -2.054076 -1.122440 9.000000
1.794550 -2.110612 -1.137932 10.000000
1.765512 -2.124881 -1.130580 9.000000
1.762619 -2.171086 -1.140149 9.000000
1.782024 -2.246633 -1.164592 9.000000
1.757467 -2.267885 -1.160720 9.000000
1.749516 -2.311039 -1.168060 9.000000
1.732615 -2.343022 -1.169546 9.000000
1.728776 -2.393831 -1.180369 9.000000
1.724186 -2.444873 -1.190893 9.000000
1.716107 -2.492308 -1.199566 10.000000
1.696772 -2.524351 -1.200603 9.000000
1.710271 -2.606964 -1.225478 9.000000
1.694607 -2.646915 -1.229885 8.000000
1.688291 -2.702768 -1.241587 9.000000
1.663918 -2.730874 -1.240297 9.000000
1.658225 -2.790967 -1.253492 9.000000
1.644438 -2.839203 -1.261058 9.000000
1.639010 -2.903676 -1.275669 9.000000
0.817598 1.457993 -0.626014 24.000000
0.849626 1.476417 -0.640788 18.000000
0.870155 1.474198 -0.646878 22.000000
0.890801 1.471641 -0.652939 23.000000
0.911450 1.468799 -0.658972 20.000000
0.922190 1.449910 -0.657937 24.000000
0.928495 1.422597 -0.652952 9.000000
0.948955 1.419188 -0.658997 21.000000
0.953664 1.392354 -0.654114 21.000000
0.976716 1.392309 -0.661930 18.000000
0.999849 1.391904 -0.669673 26.000000
1.014841 1.379831 -0.672031 21.000000
1.040914 1.382512 -0.681663 19.000000
1.055843 1.369968 -0.683934 24.000000
1.099439 1.393796 -0.704651 10.000000
1.082442 1.340867 -0.686567 26.000000
1.105861 1.338584 -0.694345 26.000000
1.125602 1.332891 -0.700525 24.000000
1.140060 1.319408 -0.702648 34.000000
1.163672 1.316114 -0.710394 24.000000
1.181122 1.305554 -0.714413 26.000000
1.207910 1.305000 -0.724043 25.000000
1.221445 1.290996 -0.726387 10.000000
1.238843 1.279613 -0.730276 34.000000
1.259333 1.271320 -0.736077 31.000000
1.285773 1.269724 -0.746012 30.000000
1.306442 1.260627 -0.751747 33.000000
1.330373 1.254479 -0.759419 31.000000
1.360509 1.254593 -0.771271 31.000000
1.370972 1.235168 -0.771179 33.000000
1.397874 1.231369 -0.781049 16.000000
1.401016 1.205521 -0.777084 31.000000
1.442009 1.212908 -0.794647 29.000000
1.469157 1.207692 -0.804498 29.000000
1.493350 1.198691 -0.812056 35.000000
1.516970 1.189690 -0.819894 28.000000
1.544361 1.183104 -0.829722 29.000000
1.571735 1.175983 -0.839523 28.000000
1.573243 1.149347 -0.835500 13.000000
1.611844 1.149513 -0.851136 34.000000
1.643116 1.143688 -0.862872 33.000000
1.663085 1.129486 -0.868635 31.000000
1.690615 1.120040 -0.878254 36.000000
1.718164 1.110032 -0.887971 31.000000
1.765194 1.111742 -0.907556 33.000000
1.796805 1.102902 -0.919144 35.000000
1.792731 1.072716 -0.913099 10.000000
1.844062 1.074553 -0.934688 24.000000
1.835531 1.041850 -0.926488 22.000000
1.838984 1.015689 -0.923869 18.000000
1.865889 1.002992 -0.933616 26.000000
1.856711 0.970287 -0.924792 18.000000
1.867054 0.948622 -0.926329 18.000000
1.877258 0.926818 -0.927867 21.000000
1.850097 0.887161 -0.911004 10.000000
1.884540 0.877077 -0.924566 18.000000
1.889819 0.853190 -0.923781 20.000000
1.894642 0.829468 -0.923267 15.000000
1.891022 0.801933 -0.918320 23.000000
1.920850 0.788419 -0.929565 20.000000
1.899570 0.754346 -0.916562 14.000000
1.911826 0.733969 -0.919842 23.000000
1.915361 0.710117 -0.918955 10.000000
1.914365 0.684761 -0.915941 21.000000
1.921715 0.662508 -0.916962 27.000000
1.911561 0.634377 -0.909615 17.000000
1.922781 0.613438 -0.912552 24.000000
1.911783 0.585860 -0.905384 19.000000
1.922583 0.564838 -0.908118 19.000000
1.924175 0.541248 -0.906925 19.000000
1.907955 0.513031 -0.897390 10.000000
1.917794 0.491977 -0.900254 17.000000
1.931813 0.472034 -0.905260 21.000000
1.936880 0.449496 -0.905860 16.000000
1.937172 0.426114 -0.904519 21.000000
1.950536 0.405546 -0.909337 26.000000
1.945887 0.381141 -0.905783 22.000000
1.949945 0.358588 -0.906249 21.000000
1.922435 0.330509 -0.892092 10.000000
1.957330 0.313282 -0.907247 27.000000
1.956093 0.289996 -0.905630 27.000000
1.963650 0.267910 -0.908112 25.000000
1.975465 0.246281 -0.912545 29.000000
1.959940 0.221384 -0.904674 26.000000
1.966713 0.199194 -0.907157 26.000000
1.964244 0.176021 -0.905337 26.000000
1.196935 0.079358 -0.550873 29.000000
1.165943 0.063764 -0.536384 100.000000
1.166570 0.050274 -0.536462 100.000000
1.171621 0.036927 -0.538550 100.000000
1.171897 0.023384 -0.538668 98.000000
1.167551 0.009765 -0.536619 98.000000
1.176676 -0.003754 -0.540795 100.000000
1.176558 -0.017349 -0.540716 98.000000
1.162734 -0.030625 -0.534336 94.000000
1.162305 -0.044062 -0.534297 98.000000
1.166296 -0.057725 -0.536266 95.000000
1.161094 -0.070937 -0.534063 95.000000
1.164767 -0.084705 -0.536070 29.000000
1.150162 -0.097048 -0.529696 95.000000
1.153562 -0.110777 -0.531587 95.000000
1.174911 -0.126556 -0.541772 98.000000
1.921748 -0.274694 -0.888519 28.000000
1.972606 -0.305256 -0.912953 24.000000
1.978228 -0.329525 -0.916507 18.000000
1.947597 -0.347676 -0.903639 10.000000
1.979426 -0.377053 -0.919717 22.000000
1.966318 -0.398095 -0.914892 19.000000
1.979671 -0.424657 -0.922511 23.000000
1.966177 -0.445528 -0.917554 21.000000
1.987669 -0.474719 -0.929365 19.000000
1.986946 -0.498711 -0.930473 19.000000
1.985856 -0.522873 -0.931715 17.000000
1.940494 -0.534965 -0.912246 10.000000
1.987151 -0.572557 -0.936042 21.000000
1.980708 -0.595626 -0.935350 18.000000
1.969917 -0.617124 -0.932114 18.000000
1.976005 -0.644242 -0.937383 20.000000
1.964520 -0.665740 -0.934355 18.000000
1.970065 -0.693052 -0.939467 20.000000
1.971017 -0.719031 -0.942377 16.000000
1.958888 -0.740230 -0.939137 10.000000
1.984764 -0.776148 -0.954152 24.000000
1.950964 -0.788827 -0.940486 13.000000
1.954739 -0.816899 -0.945544 19.000000
1.966643 -0.848674 -0.954445 19.000000
1.974250 -0.878719 -0.960998 14.000000
1.976966 -0.907462 -0.965713 18.000000
1.966943 -0.930414 -0.964260 12.000000
1.948480 -0.949287 -0.958690 10.000000
1.946315 -0.975954 -0.961137 22.000000
1.939705 -1.000640 -0.961482 16.000000
1.964808 -1.042732 -0.978214 19.000000
1.957556 -1.067690 -0.978444 18.000000
1.949587 -1.092966 -0.978889 11.000000
1.957677 -1.126883 -0.986963 18.000000
1.941169 -1.147495 -0.983234 10.000000
1.924936 -1.167489 -0.979138 9.000000
1.919763 -1.194887 -0.981321 15.000000
1.937461 -1.237134 -0.995334 13.000000
1.923853 -1.259762 -0.993423 10.000000
1.921377 -1.289993 -0.997295 15.000000
1.914795 -1.317657 -0.999168 10.000000
1.941669 -1.369100 -1.018680 13.000000
1.915500 -1.383744 -1.010494 10.000000
1.896744 -1.403282 -1.006180 9.000000
1.914488 -1.450363 -1.021443 16.000000
1.902355 -1.475486 -1.020926 10.000000
1.904429 -1.511909 -1.028108 11.000000
1.898153 -1.543267 -1.031681 13.000000
1.881543 -1.565306 -1.029007 10.000000
1.892783 -1.611013 -1.041631 15.000000
1.881728 -1.639609 -1.043102 10.000000
1.867674 -1.664391 -1.042053 9.000000
1.883181 -1.717756 -1.058668 16.000000
1.861525 -1.736252 -1.053640 10.000000
1.862248 -1.777511 -1.062308 11.000000
1.865685 -1.822311 -1.072819 16.000000
1.849682 -1.847009 -1.071359 10.000000
1.858388 -1.898677 -1.085446 15.000000
1.840569 -1.924095 -1.084267 9.000000
1.839473 -1.965538 -1.091946 9.000000
1.833485 -2.004360 -1.098124 16.000000
1.836129 -2.053839 -1.109762 10.000000
1.828825 -2.093063 -1.115630 13.000000
1.826988 -2.139438 -1.125154 11.000000
1.798931 -2.153114 -1.117385 10.000000
1.804731 -2.210404 -1.132231 17.000000
1.800953 -2.257208 -1.141349 9.000000
1.782132 -2.285867 -1.141222 9.000000
1.782611 -2.340298 -1.153755 16.000000
1.784955 -2.398782 -1.167994 10.000000
1.772596 -2.438788 -1.172944 16.000000
1.762331 -2.482528 -1.179537 10.000000
1.759347 -2.537956 -1.191551 12.000000
1.747568 -2.582058 -1.197866 14.000000
1.742911 -2.637817 -1.209460 9.000000
1.730248 -2.686904 -1.217790 9.000000
1.716261 -2.731215 -1.223735 10.000000
1.699110 -2.771474 -1.227831 10.000000
1.695732 -2.835915 -1.242308 13.000000
1.679288 -2.880332 -1.247977 10.000000
1.675995 -2.949315 -1.263818 12.000000
0.800843 1.458327 -0.603900 18.000000
0.817534 1.448118 -0.606115 23.000000
0.840042 1.450476 -0.613703 24.000000
0.855567 1.440344 -0.616100 22.000000
0.875807 1.438060 -0.621961 33.000000
0.906039 1.451456 -0.634807 24.000000
0.930107 1.451875 -0.642271 23.000000
0.907116 1.381976 -0.618353 21.000000
0.932375 1.386687 -0.627702 21.000000
0.944539 1.371667 -0.628226 27.000000
0.980816 1.390938 -0.644620 26.000000
1.001284 1.386797 -0.650452 22.000000
1.027301 1.389871 -0.659875 32.000000
1.045079 1.381287 -0.663923 23.000000
1.065682 1.376212 -0.669722 24.000000
1.057362 1.334219 -0.657530 25.000000
1.074667 1.325253 -0.661510 26.000000
1.106873 1.333923 -0.674511 34.000000
1.124361 1.324248 -0.678430 32.000000
1.138704 1.310873 -0.680536 31.000000
1.171479 1.318138 -0.693623 32.000000
1.192020 1.311083 -0.699376 27.000000
1.199295 1.290552 -0.697960 30.000000
1.210147 1.272843 -0.698137 26.000000
1.237000 1.271740 -0.707507 30.000000
1.263971 1.270096 -0.716859 57.000000
1.287150 1.265306 -0.724686 33.000000
1.307728 1.256359 -0.730321 32.000000
1.324890 1.243901 -0.734103 37.000000
1.351642 1.241065 -0.743708 35.000000
1.372194 1.231118 -0.749347 34.000000
1.378169 1.209100 -0.747636 24.000000
1.402126 1.201639 -0.755066 29.000000
1.428972 1.197267 -0.764664 35.000000
1.452991 1.188957 -0.772029 35.000000
1.498119 1.197963 -0.791170 35.000000
1.529626 1.194260 -0.802368 46.000000
1.538707 1.173642 -0.802376 31.000000
1.569814 1.169468 -0.813827 31.000000
1.578569 1.148443 -0.813779 28.000000
1.602245 1.137998 -0.821371 33.000000
1.644784 1.140230 -0.838584 36.000000
1.672375 1.131291 -0.848117 48.000000
1.696143 1.119323 -0.855608 62.000000
1.716003 1.104391 -0.861179 51.000000
1.759241 1.103827 -0.878382 36.000000
1.779070 1.087985 -0.883936 32.000000
1.814610 1.081244 -0.897185 32.000000
1.822048 1.057993 -0.897047 30.000000
1.865678 1.054644 -0.914209 28.000000
1.881226 1.034888 -0.917596 26.000000
1.892199 1.013154 -0.919307 30.000000
1.894881 0.986961 -0.917001 30.000000
1.897540 0.960462 -0.914258 24.000000
1.891302 0.930383 -0.907900 21.000000
1.905460 0.910370 -0.911282 14.000000
1.902725 0.882397 -0.906664 16.000000
1.916463 0.862104 -0.909976 24.000000
1.925758 0.839811 -0.911164 19.000000
1.939068 0.819093 -0.914344 20.000000
1.939196 0.793348 -0.911755 24.000000
1.930794 0.763940 -0.904742 18.000000
1.930321 0.738339 -0.901986 17.000000
1.920976 0.709623 -0.895146 16.000000
1.932861 0.688926 -0.898242 24.000000
1.931582 0.663528 -0.895253 25.000000
1.934381 0.639701 -0.894196 23.000000
1.945601 0.618613 -0.897022 24.000000
1.934762 0.590673 -0.889787 24.000000
1.945425 0.569635 -0.892814 23.000000
1.942631 0.544723 -0.889658 22.000000
1.961808 0.525665 -0.896252 14.000000
1.954138 0.499570 -0.890936 21.000000
1.963763 0.478177 -0.893901 29.000000
1.964434 0.454351 -0.892484 23.000000
1.955749 0.428804 -0.887148 24.000000
1.951475 0.404226 -0.883563 21.000000
1.964704 0.383424 -0.888150 21.000000
1.977637 0.362482 -0.893012 24.000000
1.981531 0.339587 -0.893414 21.000000
1.980644 0.315906 -0.891719 25.000000
1.988446 0.293732 -0.894220 28.000000
1.991534 0.270837 -0.894623 29.000000
1.980690 0.246186 -0.889123 24.000000
1.996906 0.224847 -0.895428 29.000000
1.985557 0.200443 -0.889657 24.000000
1.987624 0.177505 -0.889923 26.000000
1.180826 0.064379 -0.527754 80.000000
1.186020 0.050980 -0.529871 100.000000
1.186496 0.037292 -0.529871 103.000000
1.186813 0.023605 -0.529990 100.000000
1.186972 0.009918 -0.530029 100.000000
1.187012 -0.003769 -0.530029 100.000000
1.186932 -0.017456 -0.529950 95.000000
1.173002 -0.030745 -0.523717 98.000000
1.172610 -0.044274 -0.523678 95.000000
1.172060 -0.057803 -0.523561 95.000000
1.171394 -0.071293 -0.523404 67.000000
1.170531 -0.084822 -0.523365 81.000000
1.255973 -0.105580 -0.561888 103.000000
1.925133 -0.251553 -0.863735 24.000000
1.972099 -0.280816 -0.885625 21.000000
1.996068 -0.307746 -0.897273 27.000000
1.992494 -0.330812 -0.896936 10.000000
2.015781 -0.358613 -0.908633 21.000000
2.002903 -0.380015 -0.903760 21.000000
1.998684 -0.403153 -0.903147 24.000000
1.989585 -0.425336 -0.900647 25.000000
2.007271 -0.453255 -0.909943 23.000000
2.006570 -0.477522 -0.911345 19.000000
2.014722 -0.503836 -0.916368 21.000000
2.000329 -0.524791 -0.911573 10.000000
1.998741 -0.549177 -0.912968 18.000000
1.997126 -0.573458 -0.914013 20.000000
2.008432 -0.601712 -0.921018 21.000000
2.006094 -0.626278 -0.922188 21.000000
2.007801 -0.652361 -0.925292 22.000000
2.009305 -0.678505 -0.928247 23.000000
1.988846 -0.697131 -0.921179 21.000000
1.998423 -0.726345 -0.927986 9.000000
1.986133 -0.747741 -0.924785 16.000000
1.982280 -0.772224 -0.925437 19.000000
1.999164 -0.805589 -0.936328 23.000000
1.990486 -0.828538 -0.934894 23.000000
2.015031 -0.866127 -0.949567 22.000000
1.997085 -0.885745 -0.944214 20.000000
2.003979 -0.916553 -0.950830 23.000000
1.969021 -0.927951 -0.937498 10.000000
1.991883 -0.966780 -0.951776 21.000000
1.981292 -0.989727 -0.950158 22.000000
1.986537 -1.021374 -0.956709 19.000000
1.983617 -1.048586 -0.958933 23.000000
1.988390 -1.080154 -0.964916 23.000000
1.980395 -1.105669 -0.965373 21.000000
1.968058 -1.128839 -0.963718 16.000000
1.963882 -1.156002 -0.965588 10.000000
1.958924 -1.183727 -0.967745 12.000000
1.977203 -1.225975 -0.981474 14.000000
1.967606 -1.251488 -0.981564 14.000000
1.953786 -1.274420 -0.979557 14.000000
1.947478 -1.302246 -0.981413 13.000000
1.948437 -1.335312 -0.987031 13.000000
1.956490 -1.373882 -0.996385 17.000000
1.945220 -1.399263 -0.996091 9.000000
1.941172 -1.429972 -0.999539 10.000000
1.910884 -1.441304 -0.989508 17.000000
1.928243 -1.488862 -1.004208 16.000000
1.926026 -1.523173 -1.009642 20.000000
1.920366 -1.554105 -1.012739 15.000000
1.917265 -1.588732 -1.018026 16.000000
1.924914 -1.631690 -1.028528 16.000000
1.924194 -1.669739 -1.035446 10.000000
1.906403 -1.691811 -1.032509 14.000000
1.914975 -1.739237 -1.044973 17.000000
1.899897 -1.764361 -1.043689 15.000000
1.900547 -1.805972 -1.052133 19.000000
1.877217 -1.825237 -1.047517 15.000000
1.881000 -1.869586 -1.057120 20.000000
1.889673 -1.921622 -1.070862 19.000000
1.878186 -1.953890 -1.073287 10.000000
1.866212 -1.986209 -1.075680 12.000000
1.870661 -2.034805 -1.086650 16.000000
1.857700 -2.067309 -1.088858 21.000000
1.862773 -2.120575 -1.101852 18.000000
1.851706 -2.156724 -1.105681 17.000000
1.849136 -2.203504 -1.114791 23.000000
1.828086 -2.228858 -1.112921 15.000000
1.835959 -2.290414 -1.128987 12.000000
1.819642 -2.323036 -1.130514 10.000000
1.805733 -2.359283 -1.133787 13.000000
1.811000 -2.421709 -1.149448 16.000000
1.806807 -2.473241 -1.159463 17.000000
1.788174 -2.505954 -1.160657 16.000000
1.782477 -2.557661 -1.170500 20.000000
1.786557 -2.625057 -1.187141 20.000000
1.773770 -2.669579 -1.193159 16.000000
1.750171 -2.698320 -1.192147 10.000000
1.749367 -2.767461 -1.208741 19.000000
1.739361 -2.819971 -1.217854 24.000000
1.718773 -2.856641 -1.219879 24.000000
1.700001 -2.897159 -1.223560 26.000000
1.685247 -2.945904 -1.230582 31.000000
1.669612 -2.999821 -1.239539 28.000000
0.800751 1.448271 -0.584268 22.000000
0.820826 1.446828 -0.589967 21.000000
0.834936 1.432417 -0.590444 20.000000
0.854967 1.430509 -0.596122 25.000000
0.877574 1.432391 -0.603516 21.000000
0.897829 1.429898 -0.609253 27.000000
0.921681 1.430523 -0.616498 20.000000
0.911045 1.380371 -0.601724 16.000000
0.925815 1.369521 -0.603926 26.000000
0.951166 1.373948 -0.613016 25.000000
0.965887 1.362704 -0.615243 30.000000
0.988762 1.362574 -0.622619 26.000000
1.022953 1.377191 -0.636993 25.000000
1.043423 1.372532 -0.642664 29.000000
1.063885 1.367514 -0.648358 20.000000
1.059045 1.328792 -0.637975 22.000000
1.082206 1.327096 -0.645314 30.000000
1.105491 1.325024 -0.652743 29.000000
1.116028 1.308911 -0.653276 34.000000
1.139392 1.306222 -0.660640 32.000000
1.165981 1.306629 -0.669823 29.000000
1.189613 1.303182 -0.677200 35.000000
1.200560 1.285640 -0.677364 26.000000
1.214539 1.271432 -0.679320 19.000000
1.244694 1.273664 -0.690312 56.000000
1.261862 1.262212 -0.694047 34.000000
1.281669 1.254234 -0.699786 62.000000
1.302086 1.245455 -0.705311 36.000000
1.325926 1.239519 -0.712624 36.000000
1.356065 1.239980 -0.723869 45.000000
1.380149 1.233122 -0.731189 32.000000
1.386689 1.210611 -0.729267 23.000000
1.402972 1.197676 -0.733108 32.000000
1.430447 1.192855 -0.742146 31.000000
1.457446 1.188068 -0.751527 42.000000
1.477871 1.176484 -0.756915 35.000000
1.515987 1.179347 -0.771828 35.000000
1.521174 1.156110 -0.769985 41.000000
1.563785 1.160101 -0.786475 29.000000
1.568712 1.136527 -0.784515 25.000000
1.614933 1.142363 -0.803231 52.000000
1.638614 1.131427 -0.810646 33.000000
1.670013 1.125268 -0.821798 52.000000
1.686027 1.108362 -0.825350 36.000000
1.725264 1.106148 -0.840291 36.000000
1.745071 1.090907 -0.845647 53.000000
1.788471 1.089782 -0.862439 33.000000
