x y z intensity
1.039943 0.169559 -0.553055 49.000000
1.037345 0.156587 -0.550984 98.000000
1.047813 0.145546 -0.555816 100.000000
1.040491 0.132105 -0.551455 100.000000
1.050658 0.120820 -0.556364 103.000000
1.047496 0.108004 -0.554217 103.000000
1.039810 0.094816 -0.549668 103.000000
1.040854 0.082537 -0.549740 98.000000
1.037233 0.069995 -0.547590 93.000000
1.029081 0.057276 -0.543036 98.000000
1.029650 0.045152 -0.543107 100.000000
1.025691 0.032852 -0.540776 100.000000
1.030396 0.020870 -0.543214 103.000000
1.030539 0.008710 -0.543249 103.000000
1.030574 -0.003413 -0.543249 98.000000
1.030503 -0.015572 -0.543178 98.000000
1.070086 -0.028766 -0.564049 100.000000
1.060876 -0.041052 -0.559351 98.000000
1.064745 -0.053763 -0.561608 98.000000
1.064120 -0.066303 -0.561461 94.000000
1.045735 -0.077534 -0.551961 80.000000
1.049203 -0.090245 -0.554181 100.000000
1.048150 -0.102629 -0.554036 98.000000
1.051350 -0.115459 -0.556145 100.000000
1.072042 -0.130496 -0.567519 93.000000
1.136405 -0.151916 -0.602052 98.000000
1.196000 -0.174249 -0.634387 95.000000
1.194000 -0.188371 -0.634095 85.000000
1.200649 -0.203934 -0.638363 49.000000
1.211457 -0.220454 -0.644903 85.000000
1.209039 -0.234707 -0.644394 79.000000
1.210706 -0.249898 -0.646371 95.000000
1.203694 -0.263128 -0.643418 76.000000
1.209406 -0.279334 -0.647577 87.000000
1.696547 -0.455422 -0.913563 27.000000
1.772628 -0.498360 -0.956635 10.000000
1.784279 -0.524134 -0.964705 18.000000
1.782706 -0.546533 -0.966046 14.000000
1.810523 -0.578364 -0.983402 18.000000
1.799712 -0.598514 -0.980323 16.000000
1.797396 -0.621141 -0.981377 18.000000
1.790669 -0.642300 -0.980071 14.000000
1.816822 -0.675928 -0.997326 11.000000
1.771956 -0.683085 -0.975631 10.000000
1.793256 -0.715607 -0.990433 19.000000
1.777148 -0.733469 -0.984551 13.000000
1.781392 -0.759737 -0.989994 16.000000
1.785323 -0.786162 -0.995351 18.000000
1.772712 -0.805372 -0.991545 10.000000
1.780123 -0.833806 -0.999006 13.000000
1.770769 -0.855070 -0.997660 10.000000
1.737252 -0.864278 -0.982693 9.000000
1.759806 -0.900925 -0.998873 16.000000
1.773501 -0.934366 -1.010825 10.000000
1.778863 -0.963980 -1.018103 15.000000
1.768218 -0.985131 -1.016374 13.000000
1.738037 -0.995039 -1.003379 10.000000
1.746444 -1.026950 -1.012642 13.000000
1.739077 -1.050000 -1.012938 10.000000
1.712494 -1.061142 -1.001953 9.000000
1.742045 -1.108254 -1.024757 13.000000
1.741416 -1.136140 -1.029160 10.000000
1.747300 -1.169566 -1.038318 11.000000
1.734776 -1.190176 -1.035956 15.000000
1.706783 -1.200673 -1.025063 10.000000
1.708584 -1.231254 -1.031376 10.000000
1.698601 -1.254390 -1.031424 10.000000
1.699026 -1.285679 -1.037888 9.000000
1.699068 -1.317096 -1.044312 12.000000
1.681102 -1.334648 -1.039726 10.000000
1.676880 -1.363330 -1.043774 13.000000
1.675862 -1.394927 -1.049888 10.000000
1.664079 -1.417864 -1.049393 10.000000
1.672407 -1.458523 -1.061836 10.000000
1.659933 -1.481497 -1.061136 10.000000
1.650655 -1.507372 -1.062570 9.000000
1.647547 -1.539350 -1.068187 12.000000
1.657095 -1.583988 -1.082218 10.000000
1.645691 -1.610585 -1.083769 13.000000
1.650844 -1.652576 -1.095445 14.000000
1.623712 -1.662459 -1.085788 10.000000
1.630113 -1.708657 -1.099779 17.000000
1.630471 -1.747875 -1.108987 21.000000
1.623157 -1.781316 -1.114244 13.000000
1.589253 -1.783565 -1.100141 57.000000
1.563381 -1.796213 -1.092759 34.000000
1.541484 -1.811219 -1.087003 35.000000
1.512646 -1.819635 -1.077435 33.000000
1.498233 -1.845272 -1.078234 32.000000
1.467545 -1.848679 -1.066178 33.000000
1.447153 -1.866700 -1.062779 28.000000
1.440293 -1.902674 -1.069526 11.000000
1.425934 -1.927013 -1.069611 32.000000
1.407381 -1.948261 -1.068036 25.000000
1.372777 -1.946834 -1.054227 29.000000
1.353906 -1.967536 -1.052586 29.000000
1.337425 -1.991865 -1.052861 29.000000
1.309496 -1.996043 -1.042700 29.000000
1.295128 -2.023768 -1.044786 24.000000
1.268042 -2.031974 -1.036975 10.000000
1.257753 -2.067278 -1.042967 25.000000
1.232812 -2.078926 -1.036975 22.000000
1.216920 -2.106201 -1.038853 25.000000
0.736568 1.317111 -0.629142 30.000000
0.766963 1.335827 -0.645107 24.000000
0.779148 1.322224 -0.645665 29.000000
0.793527 1.312417 -0.648104 30.000000
0.819831 1.322066 -0.660259 23.000000
0.811958 1.276923 -0.645088 21.000000
0.818283 1.255281 -0.641544 17.000000
0.842120 1.260361 -0.651732 26.000000
0.835070 1.219587 -0.638143 31.000000
0.866828 1.235507 -0.654275 24.000000
0.864228 1.202428 -0.644561 36.000000
0.879263 1.195867 -0.648979 26.000000
0.906085 1.203278 -0.661153 25.000000
0.902523 1.170293 -0.651214 29.000000
0.932341 1.180637 -0.665420 23.000000
0.930135 1.151818 -0.657631 33.000000
0.936972 1.133260 -0.655537 31.000000
0.964195 1.139131 -0.667761 27.000000
0.973036 1.124207 -0.667958 48.000000
0.988494 1.115630 -0.671903 35.000000
0.994698 1.096657 -0.669727 32.000000
1.006153 1.084805 -0.671860 25.000000
1.024420 1.079006 -0.677840 24.000000
1.042131 1.073306 -0.684044 51.000000
1.050225 1.057682 -0.684017 35.000000
1.058748 1.041534 -0.683678 33.000000
0.988034 0.950201 -0.633206 85.000000
0.942419 0.885233 -0.598997 41.000000
0.931774 0.855570 -0.588005 79.000000
0.940927 0.844416 -0.589580 24.000000
0.949952 0.833134 -0.591112 31.000000
0.962329 0.824713 -0.594769 51.000000
0.960768 0.804465 -0.589876 36.000000
0.965933 0.790064 -0.589178 63.000000
0.967420 0.772799 -0.586289 89.000000
0.972221 0.758398 -0.585482 67.000000
0.973286 0.741222 -0.582475 95.000000
0.977728 0.726828 -0.581603 28.000000
0.967386 0.701804 -0.572005 40.000000
0.975028 0.690158 -0.573177 88.000000
0.978559 0.676113 -0.572384 80.000000
0.982277 0.661794 -0.571259 95.000000
0.982016 0.645013 -0.567990 71.000000
0.992654 0.635810 -0.571366 83.000000
0.991742 0.619333 -0.568195 98.000000
0.994765 0.604976 -0.566918 37.000000
1.008977 0.597780 -0.572411 65.000000
0.999789 0.576815 -0.564658 82.000000
1.005985 0.564933 -0.565678 86.000000
1.008125 0.550820 -0.564453 94.000000
1.014102 0.538828 -0.565352 93.000000
1.015938 0.524700 -0.564038 95.000000
1.017651 0.510550 -0.562679 95.000000
1.019165 0.496457 -0.561236 57.000000
1.024415 0.484489 -0.562201 62.000000
1.021564 0.468480 -0.558446 65.000000
1.022453 0.454636 -0.557098 66.000000
1.027298 0.442581 -0.557899 95.000000
1.019644 0.425247 -0.551996 81.000000
1.032497 0.416532 -0.557188 85.000000
1.020322 0.397804 -0.548910 95.000000
1.024622 0.385728 -0.549508 65.000000
1.037207 0.376628 -0.554597 98.000000
1.045380 0.365892 -0.557561 100.000000
1.040928 0.350630 -0.553553 95.000000
1.044607 0.338393 -0.554191 95.000000
1.048210 0.326081 -0.554754 98.000000
1.043151 0.311143 -0.550802 95.000000
1.025057 0.292696 -0.539989 100.000000
1.049741 0.286459 -0.551696 95.000000
1.035461 0.269641 -0.543201 59.000000
1.034101 0.256301 -0.541266 74.000000
1.045476 0.246200 -0.546273 95.000000
1.039389 0.231940 -0.542141 95.000000
1.037509 0.218767 -0.540199 95.000000
1.039761 0.206601 -0.540671 98.000000
1.046354 0.195179 -0.543162 95.000000
1.048397 0.182890 -0.543527 73.000000
1.059119 0.171990 -0.548369 98.000000
1.047714 0.157538 -0.541797 95.000000
1.062612 0.147021 -0.548810 98.000000
1.059705 0.133997 -0.546863 98.000000
1.061096 0.121545 -0.547082 95.000000
1.066768 0.109549 -0.549546 98.000000
1.063476 0.096606 -0.547412 100.000000
1.055631 0.083418 -0.542923 95.000000
1.056430 0.071034 -0.543105 98.000000
1.048273 0.058121 -0.538649 98.000000
1.053293 0.046000 -0.541003 98.000000
1.053763 0.033632 -0.541003 98.000000
1.054016 0.021264 -0.541112 92.000000
1.058609 0.008934 -0.543468 100.000000
1.054197 -0.003472 -0.541148 98.000000
1.063020 -0.015973 -0.545642 100.000000
1.062838 -0.028445 -0.545532 98.000000
1.071328 -0.041260 -0.550061 98.000000
1.070813 -0.053837 -0.549987 98.000000
1.061306 -0.065862 -0.545277 47.000000
1.020604 -0.075349 -0.524568 98.000000
1.024125 -0.087732 -0.526743 98.000000
1.031961 -0.100615 -0.531161 103.000000
1.114882 -0.121932 -0.574244 98.000000
1.210749 -0.146792 -0.624084 98.000000
1.209119 -0.160965 -0.623708 98.000000
1.211685 -0.175819 -0.625732 98.000000
1.214070 -0.190735 -0.627713 89.000000
1.194399 -0.202000 -0.618242 95.000000
1.196541 -0.216780 -0.620099 95.000000
1.198416 -0.231748 -0.622077 98.000000
1.195907 -0.245754 -0.621492 94.000000
1.197502 -0.260750 -0.623341 95.000000
1.801914 -0.459275 -0.943111 26.000000
1.801260 -0.481552 -0.944352 9.000000
1.821616 -0.509944 -0.957131 18.000000
1.815923 -0.531423 -0.956226 18.000000
1.818573 -0.555381 -0.959761 21.000000
1.820972 -0.579474 -0.963222 20.000000
1.814637 -0.600830 -0.962112 16.000000
1.820517 -0.626613 -0.967935 22.000000
1.813743 -0.647921 -0.966620 18.000000
1.773042 -0.656936 -0.947645 9.000000
1.803252 -0.692270 -0.966687 17.000000
1.803918 -0.716865 -0.969970 17.000000
1.808453 -0.743225 -0.975342 18.000000
1.812677 -0.769745 -0.980627 21.000000
1.804285 -0.791028 -0.979150 16.000000
1.791677 -0.810331 -0.975384 15.000000
1.806930 -0.842998 -0.987425 12.000000
1.769551 -0.850523 -0.970222 9.000000
1.788257 -0.885505 -0.984302 18.000000
1.774415 -0.904653 -0.980599 14.000000
1.768362 -0.927740 -0.981178 14.000000
1.777931 -0.959312 -0.990555 16.000000
1.790991 -0.993395 -1.002023 16.000000
1.787874 -1.018997 -1.004601 15.000000
1.784592 -1.044644 -1.007022 12.000000
1.738527 -1.044782 -0.985393 9.000000
1.757389 -1.084536 -1.001191 16.000000
1.741890 -1.102789 -0.996913 10.000000
1.756451 -1.140434 -1.009950 16.000000
1.747500 -1.163933 -1.010202 14.000000
1.745654 -1.192466 -1.014774 12.000000
1.736682 -1.215448 -1.014499 14.000000
1.734199 -1.244064 -1.018881 10.000000
1.727688 -1.270126 -1.021015 8.000000
1.717307 -1.293500 -1.020840 13.000000
1.717383 -1.325024 -1.027075 13.000000
1.720619 -1.359474 -1.035406 14.000000
1.712778 -1.385664 -1.037149 13.000000
1.708076 -1.414687 -1.040996 10.000000
1.682311 -1.426163 -1.031947 15.000000
1.697659 -1.472878 -1.048293 11.000000
1.671593 -1.483980 -1.039170 9.000000
1.682435 -1.528166 -1.053204 16.000000
1.685951 -1.566659 -1.062800 13.000000
1.687978 -1.605943 -1.072716 19.000000
1.680606 -1.635412 -1.075919 20.000000
1.671846 -1.665510 -1.079323 23.000000
1.666855 -1.698218 -1.084370 31.000000
1.645667 -1.714565 -1.078951 27.000000
1.635818 -1.744606 -1.082108 21.000000
1.608231 -1.753753 -1.072499 37.000000
1.588637 -1.773347 -1.069393 31.000000
1.571889 -1.796137 -1.068329 36.000000
1.541256 -1.800693 -1.056515 35.000000
1.518289 -1.815956 -1.051239 33.000000
1.495321 -1.830910 -1.045975 45.000000
1.476230 -1.848423 -1.042267 32.000000
1.478405 -1.895290 -1.054951 26.000000
1.446392 -1.898737 -1.043495 28.000000
1.422748 -1.912707 -1.038000 26.000000
1.394897 -1.918239 -1.028068 32.000000
1.387120 -1.953995 -1.034426 26.000000
1.357845 -1.959554 -1.024917 26.000000
1.336384 -1.976185 -1.021274 30.000000
1.319831 -2.000177 -1.021474 27.000000
1.310505 -2.035666 -1.027504 19.000000
1.276027 -2.032215 -1.013921 19.000000
1.261147 -2.059668 -1.015842 21.000000
1.236235 -2.071219 -1.010072 26.000000
1.213651 -2.086462 -1.006162 21.000000
1.202212 -2.121475 -1.011753 21.000000
0.744103 1.319207 -0.615770 32.000000
0.753735 1.301914 -0.614384 33.000000
0.777269 1.308450 -0.624305 29.000000
0.789020 1.294863 -0.624810 32.000000
0.810328 1.296858 -0.632848 29.000000
0.814357 1.271306 -0.627545 19.000000
0.805287 1.226515 -0.612505 30.000000
0.828879 1.231870 -0.622421 29.000000
0.842243 1.221650 -0.624632 29.000000
0.849365 1.204248 -0.623145 32.000000
0.873281 1.208672 -0.633109 29.000000
0.880960 1.190549 -0.631314 34.000000
0.893931 1.179740 -0.633427 29.000000
0.901172 1.161475 -0.631543 18.000000
0.916674 1.154035 -0.635525 32.000000
0.925684 1.139648 -0.635791 31.000000
0.946979 1.138849 -0.643723 49.000000
0.962419 1.130757 -0.647693 37.000000
0.974185 1.119386 -0.649869 33.000000
0.986446 1.107471 -0.651747 66.000000
0.995575 1.091978 -0.651609 35.000000
1.016313 1.090232 -0.659750 30.000000
1.028350 1.077796 -0.661541 56.000000
1.036503 1.062340 -0.661545 57.000000
1.045030 1.046415 -0.661240 79.000000
1.056055 1.034006 -0.663217 71.000000
0.955501 0.913950 -0.595081 56.000000
0.945222 0.883946 -0.584415 73.000000
0.947903 0.866534 -0.581935 37.000000
0.950793 0.848853 -0.579132 39.000000
0.959808 0.837573 -0.580670 37.000000
0.968781 0.826123 -0.582166 52.000000
0.970641 0.808769 -0.579449 85.000000
0.972292 0.791453 -0.576713 64.000000
0.973734 0.774179 -0.573871 86.000000
0.992848 0.770905 -0.581507 91.000000
0.993946 0.753548 -0.578609 70.000000
0.994840 0.736279 -0.575651 51.000000
0.977125 0.705791 -0.562108 44.000000
0.981094 0.691492 -0.561127 95.000000
0.981193 0.674596 -0.558016 95.000000
0.992014 0.665599 -0.561427 91.000000
0.995560 0.651240 -0.560344 95.000000
1.006516 0.641711 -0.563481 98.000000
1.009445 0.627482 -0.562511 85.000000
1.020253 0.617703 -0.565576 91.000000
1.007372 0.594227 -0.555971 36.000000
1.013734 0.582331 -0.556999 95.000000
1.019939 0.570356 -0.558026 95.000000
1.026065 0.558263 -0.558975 95.000000
1.028126 0.544022 -0.557761 98.000000
1.038000 0.533919 -0.560793 98.000000
1.039740 0.519575 -0.559493 98.000000
1.049421 0.509219 -0.562452 98.000000
1.034627 0.487141 -0.552369 32.000000
1.035649 0.473178 -0.551083 93.000000
1.036747 0.459042 -0.549597 64.000000
1.041592 0.446852 -0.550404 95.000000
1.033903 0.429413 -0.544612 95.000000
1.038501 0.417254 -0.545371 94.000000
1.042984 0.405020 -0.546017 95.000000
1.038903 0.389556 -0.542272 74.000000
1.047347 0.378834 -0.545073 46.000000
1.055712 0.367938 -0.547803 100.000000
1.051077 0.352733 -0.544081 98.000000
1.059192 0.341674 -0.546738 98.000000
1.058539 0.327934 -0.545137 100.000000
1.053407 0.312942 -0.541246 100.000000
1.056772 0.300568 -0.541769 98.000000
1.064351 0.289295 -0.544394 95.000000
1.049998 0.272368 -0.536096 41.000000
1.052953 0.259998 -0.536465 91.000000
1.051323 0.246641 -0.534689 95.000000
1.053934 0.234322 -0.535094 95.000000
1.056434 0.221966 -0.535462 98.000000
1.054394 0.208667 -0.533533 98.000000
1.052153 0.195544 -0.531711 103.000000
1.032141 0.179385 -0.520944 95.000000
1.069459 0.172963 -0.538902 81.000000
1.066768 0.159818 -0.537080 100.000000
1.068459 0.147315 -0.537300 98.000000
1.065601 0.134253 -0.535217 100.000000
1.071438 0.122272 -0.537668 100.000000
1.072688 0.109733 -0.537889 98.000000
1.073828 0.097193 -0.537999 100.000000
1.079318 0.084967 -0.540305 100.000000
1.057814 0.070844 -0.529323 43.000000
1.076366 0.059463 -0.538403 95.000000
1.068017 0.046497 -0.534008 100.000000
1.068491 0.033989 -0.534008 95.000000
1.068782 0.021516 -0.534118 98.000000
1.077873 0.009083 -0.538624 100.000000
1.073437 -0.003516 -0.536389 100.000000
1.077837 -0.016144 -0.538551 105.000000
1.073144 -0.028601 -0.536169 103.000000
1.072778 -0.041162 -0.536169 100.000000
1.072266 -0.053687 -0.536060 100.000000
1.080573 -0.066800 -0.540379 100.000000
1.057488 -0.077751 -0.529033 98.000000
1.074380 -0.091640 -0.537852 98.000000
1.144571 -0.111136 -0.573403 100.000000
1.210046 -0.131775 -0.606621 98.000000
1.221924 -0.147537 -0.613018 98.000000
1.220203 -0.161846 -0.612808 100.000000
1.227218 -0.177394 -0.617011 98.000000
1.225316 -0.191680 -0.616504 100.000000
1.214245 -0.204605 -0.611885 34.000000
1.211979 -0.218788 -0.611465 98.000000
1.209587 -0.232887 -0.610920 95.000000
1.215721 -0.248867 -0.615025 86.000000
1.388133 -0.301105 -0.703353 95.000000
1.817058 -0.438659 -0.923641 33.000000
1.825067 -0.463348 -0.929709 24.000000
1.863403 -0.496164 -0.950795 20.000000
1.862213 -0.519218 -0.952151 19.000000
1.869347 -0.544752 -0.957918 22.000000
1.833267 -0.557532 -0.941490 21.000000
1.835766 -0.581679 -0.944853 19.000000
1.829154 -0.603281 -0.944002 21.000000
1.822608 -0.624621 -0.942823 18.000000
1.828367 -0.650544 -0.948362 21.000000
1.837978 -0.678323 -0.956079 16.000000
1.826262 -0.698273 -0.952757 16.000000
1.835285 -0.726330 -0.960312 19.000000
1.827380 -0.747833 -0.958973 22.000000
1.831640 -0.774458 -0.964110 19.000000
1.835584 -0.801239 -0.969160 21.000000
1.826553 -0.822967 -0.967937 19.000000
1.825896 -0.848083 -0.970651 16.000000
1.840796 -0.881309 -0.982297 19.000000
1.790630 -0.883080 -0.959193 12.000000
1.800928 -0.914443 -0.968516 17.000000
1.794876 -0.937723 -0.969102 17.000000
1.804473 -0.969502 -0.978231 16.000000
1.805727 -0.997247 -0.982952 18.000000
1.798777 -1.020674 -0.983216 18.000000
1.799374 -1.048603 -0.987757 16.000000
1.803564 -1.078988 -0.994341 13.000000
1.764463 -1.083920 -0.977765 12.000000
1.771927 -1.116595 -0.986319 18.000000
1.778494 -1.149933 -0.995114 21.000000
1.773186 -1.176147 -0.997502 17.000000
1.764381 -1.199348 -0.997253 16.000000
1.780901 -1.240988 -1.012145 16.000000
1.767160 -1.262184 -1.010025 12.000000
1.764254 -1.291197 -1.014145 14.000000
1.728274 -1.295752 -0.999269 10.000000
1.746447 -1.341121 -1.015868 19.000000
1.735365 -1.364650 -1.015516 17.000000
1.731079 -1.393742 -1.019322 12.000000
1.744005 -1.437323 -1.033420 21.000000
1.738815 -1.466675 -1.036987 18.000000
1.719500 -1.484223 -1.032248 13.000000
1.720580 -1.519552 -1.039746 18.000000
1.710190 -1.546506 -1.041401 10.000000
1.723713 -1.594523 -1.056938 18.000000
1.716523 -1.624125 -1.060091 24.000000
1.711458 -1.657614 -1.065569 32.000000
1.680797 -1.664831 -1.054242 55.000000
1.662143 -1.685223 -1.051397 34.000000
1.650629 -1.711249 -1.052203 39.000000
1.628448 -1.727915 -1.047250 39.000000
1.607131 -1.743555 -1.041833 29.000000
1.584701 -1.759596 -1.036824 42.000000
1.565216 -1.778765 -1.033748 50.000000
1.543528 -1.793512 -1.028205 37.000000
1.523765 -1.812173 -1.025056 54.000000
1.497938 -1.823502 -1.017867 35.000000
1.478958 -1.840913 -1.014259 37.000000
1.455885 -1.855179 -1.008998 32.000000
1.427060 -1.861839 -0.999751 24.000000
1.417704 -1.893853 -1.004220 32.000000
1.388767 -1.899876 -0.994928 29.000000
1.375979 -1.927971 -0.997318 32.000000
1.343022 -1.924982 -0.983733 31.000000
1.324649 -1.945107 -0.982164 30.000000
1.313627 -1.976519 -0.986259 32.000000
1.294651 -1.996317 -0.984563 25.000000
1.272962 -2.012033 -0.980870 20.000000
1.260834 -2.043262 -0.984687 29.000000
1.236194 -2.054579 -0.979075 26.000000
1.216248 -2.073672 -0.977085 28.000000
1.186778 -2.076487 -0.967657 30.000000
0.700149 1.265715 -0.570739 36.000000
0.734473 1.293408 -0.589600 26.000000
0.760132 1.304394 -0.601143 29.000000
0.774216 1.294971 -0.603474 31.000000
0.792951 1.293410 -0.609483 26.000000
0.801937 1.275829 -0.608036 32.000000
0.795644 1.234799 -0.595294 23.000000
0.806394 1.221211 -0.595586 23.000000
0.822199 1.215160 -0.599599 34.000000
0.835356 1.205099 -0.601727 29.000000
0.856445 1.206201 -0.609570 32.000000
0.864048 1.188278 -0.607847 33.000000
0.876955 1.177700 -0.609885 26.000000
0.895361 1.174365 -0.615771 35.000000
0.896754 1.148885 -0.610051 24.000000
0.905644 1.134819 -0.610332 32.000000
0.923874 1.130899 -0.616142 52.000000
0.939162 1.123209 -0.620026 33.000000
0.954430 1.115254 -0.623874 42.000000
0.965966 1.104059 -0.625967 38.000000
0.987285 1.102600 -0.633721 35.000000
1.005579 1.097336 -0.639487 36.000000
1.013909 1.082220 -0.639534 17.000000
1.022611 1.066537 -0.639323 64.000000
1.027978 1.047559 -0.637061 76.000000
1.051952 1.048392 -0.647001 57.000000
1.050391 1.022803 -0.640674 89.000000
0.961696 0.915720 -0.582292 52.000000
0.948371 0.882173 -0.569619 79.000000
0.974663 0.886377 -0.581309 95.000000
0.977234 0.868788 -0.578843 30.000000
0.973119 0.844890 -0.572038 47.000000
0.978629 0.830446 -0.571510 62.000000
0.983990 0.815955 -0.570886 52.000000
0.992749 0.804291 -0.572339 69.000000
0.997803 0.789668 -0.571657 61.000000
0.999104 0.772258 -0.568869 74.000000
1.003793 0.757635 -0.568121 60.000000
1.000964 0.737570 -0.563196 43.000000
0.983091 0.707050 -0.549932 95.000000
0.994487 0.697974 -0.553140 72.000000
0.998352 0.683549 -0.552164 95.000000
1.013383 0.676706 -0.557420 98.000000
1.005509 0.654723 -0.550107 71.000000
1.012438 0.642960 -0.551316 95.000000
1.015626 0.628486 -0.550191 95.000000
1.026134 0.618951 -0.553411 76.000000
1.021244 0.599771 -0.547998 88.000000
1.023679 0.585532 -0.546970 95.000000
1.037870 0.577922 -0.552176 98.000000
1.036057 0.561410 -0.548953 95.000000
1.050343 0.553216 -0.553896 95.000000
1.056299 0.540863 -0.554775 100.000000
1.049974 0.522339 -0.549292 95.000000
1.055428 0.510128 -0.550280 95.000000
1.040479 0.488071 -0.540432 60.000000
1.041672 0.473912 -0.538999 55.000000
1.046652 0.461751 -0.539887 95.000000
1.051709 0.449359 -0.540505 86.000000
1.048144 0.433589 -0.536998 91.000000
1.061167 0.424691 -0.542010 95.000000
1.069896 0.413851 -0.544850 81.000000
1.061664 0.396554 -0.539066 73.000000
1.070162 0.385637 -0.541829 82.000000
1.065826 0.370102 -0.538063 88.000000
1.069832 0.357552 -0.538597 98.000000
1.069314 0.343697 -0.537089 98.000000
1.068614 0.329867 -0.535537 98.000000
1.076571 0.318545 -0.538038 100.000000
1.066978 0.302282 -0.532044 95.000000
1.087494 0.294609 -0.541344 98.000000
1.073210 0.277321 -0.533058 48.000000
1.058713 0.260441 -0.524759 71.000000
1.065832 0.249133 -0.527373 94.000000
1.068464 0.236674 -0.527780 88.000000
1.075393 0.225139 -0.530325 84.000000
1.073359 0.211683 -0.528485 98.000000
1.079973 0.200007 -0.531069 85.000000
1.073262 0.185813 -0.526938 95.000000
1.075182 0.173295 -0.527233 53.000000
1.077028 0.160777 -0.527492 95.000000
1.078727 0.148185 -0.527713 98.000000
1.084705 0.136191 -0.530191 100.000000
1.077211 0.122493 -0.525937 98.000000
1.082937 0.110410 -0.528304 100.000000
1.084081 0.097781 -0.528452 95.000000
1.089525 0.085504 -0.530858 98.000000
1.081477 0.072187 -0.526526 48.000000
1.077685 0.059326 -0.524451 95.000000
1.078271 0.046765 -0.524524 95.000000
1.078748 0.034204 -0.524561 98.000000
1.087996 0.021823 -0.529006 95.000000
1.079150 0.009082 -0.524707 98.000000
1.088180 -0.003545 -0.529043 95.000000
1.083610 -0.016144 -0.526820 100.000000
1.087922 -0.028876 -0.528858 100.000000
1.083022 -0.041370 -0.526636 98.000000
1.086999 -0.054208 -0.528747 100.000000
1.081882 -0.066597 -0.526415 95.000000
1.116921 -0.081840 -0.543852 66.000000
1.205689 -0.102451 -0.587247 98.000000
1.222410 -0.118221 -0.595771 95.000000
1.238968 -0.134409 -0.604247 98.000000
1.237362 -0.148864 -0.604120 95.000000
1.240217 -0.163824 -0.605919 98.000000
1.238308 -0.178289 -0.605665 98.000000
1.236314 -0.192711 -0.605368 82.000000
1.238633 -0.207837 -0.607162 37.000000
1.222956 -0.219921 -0.600339 95.000000
1.229400 -0.235852 -0.604222 90.000000
1.398822 -0.285288 -0.688552 93.000000
1.664247 -0.359624 -0.820415 60.000000
1.783250 -0.407078 -0.880505 32.000000
1.844509 -0.443574 -0.912201 27.000000
1.852606 -0.468473 -0.918054 25.000000
1.864794 -0.494770 -0.925997 10.000000
1.863783 -0.517594 -0.926982 11.000000
1.884075 -0.546870 -0.939084 21.000000
1.873519 -0.567665 -0.936197 16.000000
1.863057 -0.588094 -0.932982 21.000000
1.856649 -0.609765 -0.931859 22.000000
1.854115 -0.632961 -0.933084 20.000000
1.864053 -0.660716 -0.940681 23.000000
1.856768 -0.682504 -0.939545 10.000000
1.853438 -0.705832 -0.940552 14.000000
1.866689 -0.735754 -0.949977 22.000000
1.858627 -0.757502 -0.948690 17.000000
1.858764 -0.782691 -0.951534 22.000000
1.849985 -0.804537 -0.950377 23.000000
1.853660 -0.831598 -0.955194 16.000000
1.852626 -0.857186 -0.958141 20.000000
1.834956 -0.875035 -0.952522 10.000000
1.837767 -0.902262 -0.957093 16.000000
1.844081 -0.931956 -0.964032 23.000000
1.841826 -0.957777 -0.966653 15.000000
1.838989 -0.983929 -0.969540 20.000000
1.832225 -1.007664 -0.969890 20.000000
1.821251 -1.029048 -0.968061 15.000000
1.825843 -1.059334 -0.974545 20.000000
1.802220 -1.074071 -0.966706 10.000000
1.798411 -1.099748 -0.968838 11.000000
1.793861 -1.125892 -0.971236 18.000000
1.800891 -1.159030 -0.979501 16.000000
1.807080 -1.192833 -0.988011 25.000000
1.793861 -1.214259 -0.986050 19.000000
1.799126 -1.248445 -0.994352 16.000000
1.803960 -1.282854 -1.002538 20.000000
1.775066 -1.293404 -0.992080 9.000000
1.757218 -1.311638 -0.987820 10.000000
1.764647 -1.348955 -0.997839 17.000000
1.749933 -1.369687 -0.995461 15.000000
1.756373 -1.407400 -1.005243 21.000000
1.765900 -1.448288 -1.016922 16.000000
1.753683 -1.471978 -1.016357 15.000000
1.758594 -1.510339 -1.025821 20.000000
1.727834 -1.519454 -1.015348 10.000000
1.738785 -1.564204 -1.028690 12.000000
1.748980 -1.609283 -1.041785 23.000000
1.737594 -1.636631 -1.043177 28.000000
1.720184 -1.656903 -1.040156 53.000000
1.682064 -1.658254 -1.025427 34.000000
1.661308 -1.674563 -1.020298 35.000000
1.639446 -1.691266 -1.015574 57.000000
1.617422 -1.707656 -1.010703 29.000000
1.612028 -1.739894 -1.015292 35.000000
1.589651 -1.755853 -1.010339 47.000000
1.539751 -1.740484 -0.987792 35.000000
1.539643 -1.779174 -0.996098 63.000000
1.523047 -1.801172 -0.995000 36.000000
1.497253 -1.812346 -0.988000 48.000000
1.471538 -1.823145 -0.980948 58.000000
1.455562 -1.843742 -0.979306 30.000000
1.429728 -1.853904 -0.972209 28.000000
1.412239 -1.874769 -0.970871 31.000000
1.391775 -1.891745 -0.967538 28.000000
1.368457 -1.904731 -0.962229 32.000000
1.347647 -1.921209 -0.958825 29.000000
1.329299 -1.941199 -0.957228 31.000000
1.305639 -1.953392 -0.951863 33.000000
1.297109 -1.988516 -0.957734 23.000000
1.285512 -2.019798 -0.961595 23.000000
1.258726 -2.027342 -0.954181 26.000000
1.236765 -2.042557 -0.950495 24.000000
1.217011 -2.061462 -0.948651 30.000000
1.194615 -2.076235 -0.944879 24.000000
1.176692 -2.098892 -0.944762 27.000000
0.708541 1.272023 -0.559863 20.000000
0.745352 1.303801 -0.580117 22.000000
0.768788 1.310795 -0.589612 15.000000
0.778063 1.293409 -0.588268 22.000000
0.787066 1.275943 -0.586897 24.000000
0.815696 1.290009 -0.600085 13.000000
0.794151 1.225460 -0.576628 23.000000
0.804756 1.211910 -0.576893 18.000000
0.836133 1.229004 -0.591943 19.000000
0.838748 1.203612 -0.586617 29.000000
0.854462 1.197215 -0.590505 17.000000
0.870162 1.190559 -0.594455 24.000000
0.874738 1.168897 -0.590817 23.000000
0.895831 1.169354 -0.598433 18.000000
0.894211 1.140270 -0.590982 28.000000
0.912421 1.136645 -0.596681 21.000000
0.921838 1.122065 -0.596656 25.000000
0.937031 1.114439 -0.600430 32.000000
0.949143 1.103144 -0.602305 22.000000
0.966633 1.099023 -0.608160 32.000000
0.978677 1.087317 -0.609950 28.000000
0.999951 1.085693 -0.617529 27.000000
1.004910 1.067311 -0.615659 31.000000
1.016604 1.055180 -0.617357 24.000000
1.031435 1.046135 -0.620954 32.000000
1.048971 1.040595 -0.626757 35.000000
1.020790 0.989483 -0.604930 29.000000
0.964465 0.914238 -0.567408 46.000000
0.974564 0.902596 -0.568819 35.000000
0.990899 0.897297 -0.574354 35.000000
1.000845 0.885309 -0.575730 18.000000
0.979014 0.846525 -0.559387 23.000000
0.988007 0.835036 -0.560850 35.000000
0.997344 0.823074 -0.562098 33.000000
0.995419 0.802695 -0.557481 34.000000
1.014814 0.799450 -0.564852 56.000000
1.023377 0.787488 -0.566186 35.000000
1.020877 0.767148 -0.561440 44.000000
1.010735 0.741568 -0.552632 16.000000
1.018720 0.729610 -0.553845 32.000000
1.019128 0.712290 -0.550923 53.000000
1.026890 0.700212 -0.552085 34.000000
1.023075 0.680463 -0.547063 50.000000
1.022843 0.663344 -0.544014 95.000000
1.022338 0.646366 -0.540950 42.000000
1.029172 0.634478 -0.542082 77.000000
1.032217 0.619878 -0.540963 32.000000
1.030913 0.603268 -0.537944 52.000000
1.029629 0.586484 -0.534671 56.000000
1.035858 0.574463 -0.535663 52.000000
1.050023 0.566649 -0.540783 91.000000
1.056299 0.554135 -0.541502 72.000000
1.070325 0.545918 -0.546522 65.000000
1.063976 0.527289 -0.541188 98.000000
1.057376 0.508906 -0.535755 31.000000
1.054648 0.492617 -0.532383 36.000000
1.051525 0.476638 -0.529115 67.000000
1.056718 0.464274 -0.529813 46.000000
1.057422 0.450208 -0.528537 78.000000
1.066563 0.439469 -0.531208 88.000000
1.071214 0.427028 -0.531944 57.000000
1.080022 0.416180 -0.534739 90.000000
1.075953 0.400408 -0.531201 32.000000
1.071698 0.384757 -0.527615 53.000000
1.084446 0.375161 -0.532398 95.000000
1.084197 0.361066 -0.530793 95.000000
1.083801 0.346956 -0.529185 98.000000
1.078775 0.331691 -0.525538 95.000000
1.086617 0.320435 -0.528221 95.000000
1.090050 0.307770 -0.528717 98.000000
1.080210 0.291526 -0.522825 50.000000
1.087725 0.280067 -0.525358 52.000000
1.086354 0.266274 -0.523579 95.000000
1.084733 0.252621 -0.521947 69.000000
1.082941 0.239034 -0.520236 75.000000
1.085483 0.226435 -0.520610 81.000000
1.087875 0.213799 -0.520947 71.000000
1.094643 0.201947 -0.523336 98.000000
1.087791 0.187721 -0.519453 85.000000
1.089839 0.175025 -0.519602 95.000000
1.091663 0.162366 -0.519863 95.000000
1.093301 0.149708 -0.520235 98.000000
1.085928 0.135852 -0.516118 95.000000
1.091861 0.123732 -0.518362 100.000000
1.097620 0.111508 -0.520719 95.000000
1.098774 0.098738 -0.520868 98.000000
1.095235 0.085652 -0.518956 95.000000
1.091614 0.072634 -0.516857 84.000000
1.096867 0.060179 -0.519104 95.000000
1.092944 0.047266 -0.517042 95.000000
1.088869 0.034420 -0.514942 95.000000
1.093682 0.021860 -0.517152 96.000000
1.089310 0.009157 -0.515089 103.000000
1.098387 -0.003522 -0.519326 98.000000
1.102833 -0.016345 -0.521426 100.000000
1.102646 -0.029152 -0.521277 100.000000
1.102237 -0.041960 -0.521240 100.000000
1.097200 -0.054506 -0.519030 98.000000
1.159747 -0.071136 -0.548776 71.000000
1.316664 -0.096107 -0.623467 86.000000
1.266078 -0.107193 -0.599680 105.000000
1.251331 -0.120556 -0.593066 98.000000
1.254470 -0.135549 -0.594944 95.000000
1.257342 -0.150690 -0.596948 95.000000
1.251149 -0.164711 -0.594603 95.000000
1.258317 -0.180470 -0.598437 95.000000
1.247360 -0.193660 -0.593837 90.000000
1.240641 -0.207473 -0.591497 88.000000
1.247259 -0.223407 -0.595282 87.000000
1.850068 -0.420752 -0.888304 25.000000
1.871956 -0.448502 -0.900181 25.000000
1.897646 -0.478037 -0.914348 20.000000
1.879166 -0.496647 -0.907278 9.000000
1.886770 -0.522136 -0.912766 15.000000
1.889677 -0.546540 -0.916065 12.000000
1.905419 -0.575009 -0.925614 18.000000
1.907774 -0.599834 -0.928754 15.000000
1.888113 -0.617809 -0.921567 12.000000
1.902704 -0.647168 -0.931141 20.000000
1.886981 -0.666318 -0.925928 13.000000
1.866860 -0.683640 -0.918493 9.000000
1.876288 -0.711735 -0.925734 14.000000
1.889669 -0.741817 -0.934910 12.000000
1.898389 -0.770614 -0.941969 18.000000
1.881407 -0.789326 -0.936696 14.000000
1.868672 -0.809307 -0.933105 10.000000
1.872101 -0.836748 -0.938115 13.000000
1.867286 -0.860259 -0.938540 10.000000
1.853658 -0.880102 -0.935087 9.000000
1.864398 -0.911777 -0.943993 15.000000
1.858445 -0.935533 -0.944529 10.000000
1.852239 -0.959315 -0.944988 11.000000
1.853468 -0.987616 -0.949842 13.000000
1.842706 -1.009211 -0.948083 10.000000
1.839750 -1.035067 -0.950430 14.000000
1.828093 -1.056826 -0.948876 10.000000
1.832414 -1.087263 -0.955078 9.000000
1.847584 -1.125547 -0.967731 10.000000
1.831706 -1.144464 -0.963596 10.000000
1.826694 -1.170902 -0.965858 11.000000
1.813721 -1.192429 -0.963974 10.000000
1.811901 -1.221403 -0.968093 10.000000
1.817293 -1.255700 -0.976156 11.000000
1.799704 -1.274429 -0.972075 10.000000
1.808033 -1.311664 -0.982017 9.000000
1.804689 -1.341080 -0.985806 10.000000
1.793725 -1.364982 -0.985486 10.000000
1.807785 -1.408463 -0.999069 12.000000
1.778186 -1.418159 -0.988655 10.000000
1.784147 -1.456303 -0.998087 10.000000
1.792327 -1.498279 -1.009752 17.000000
1.772760 -1.516186 -1.005055 10.000000
1.773770 -1.551932 -1.012208 10.000000
1.770009 -1.585490 -1.017654 10.000000
1.766690 -1.618426 -1.022587 10.000000
1.758633 -1.649014 -1.025916 29.000000
1.714541 -1.643915 -1.007261 27.000000
1.686334 -1.654710 -0.998744 30.000000
1.662294 -1.667674 -0.991731 35.000000
1.634164 -1.677649 -0.983196 28.000000
1.618740 -1.700524 -0.982335 27.000000
1.610312 -1.729297 -0.984922 31.000000
1.581926 -1.738270 -0.976277 30.000000
1.559672 -1.753691 -0.971414 32.000000
1.532276 -1.761135 -0.962363 29.000000
1.512935 -1.779397 -0.959358 32.000000
1.490482 -1.793870 -0.954459 31.000000
1.470795 -1.811635 -0.951383 28.000000
1.468227 -1.851022 -0.959518 30.000000
1.430958 -1.846549 -0.945077 21.000000
1.419207 -1.874715 -0.947530 20.000000
1.398783 -1.891580 -0.944204 26.000000
1.367255 -1.893234 -0.933531 22.000000
1.349363 -1.913379 -0.932003 24.000000
1.331235 -1.933357 -0.930539 25.000000
1.305009 -1.941511 -0.923400 23.000000
1.281427 -1.953278 -0.918194 17.000000
1.275349 -1.992049 -0.925602 19.000000
1.258814 -2.015222 -0.925745 16.000000
1.232173 -2.022280 -0.918471 18.000000
1.212696 -2.041095 -0.916706 21.000000
1.188300 -2.051658 -0.911262 18.000000
1.173017 -2.078120 -0.912979 19.000000
0.712250 1.270129 -0.545351 30.000000
0.751592 1.306061 -0.566851 20.000000
0.770301 1.305027 -0.572646 24.000000
0.784292 1.295684 -0.574871 20.000000
0.803062 1.294131 -0.580608 22.000000
0.806916 1.268671 -0.575695 24.000000
0.818811 1.254543 -0.575817 10.000000
0.834873 1.248575 -0.579773 25.000000
0.829845 1.211579 -0.569188 21.000000
0.848271 1.209211 -0.574882 21.000000
0.866717 1.206569 -0.580504 30.000000
0.871440 1.184855 -0.577070 21.000000
0.895410 1.189258 -0.586377 26.000000
0.905414 1.174784 -0.586492 27.000000
0.944021 1.196768 -0.605040 12.000000
0.919054 1.138472 -0.582935 31.000000
0.937321 1.134575 -0.588522 30.000000
0.948978 1.123740 -0.590602 32.000000
0.958135 1.108864 -0.590523 43.000000
0.976379 1.104285 -0.596056 28.000000
0.991521 1.095978 -0.599731 31.000000
1.003446 1.084102 -0.601484 28.000000
1.027414 1.085916 -0.610997 23.000000
1.020034 1.053603 -0.601292 54.000000
1.038054 1.047936 -0.606741 35.000000
1.049006 1.035913 -0.608639 50.000000
0.990635 0.955895 -0.570027 35.000000
0.980982 0.925020 -0.559976 35.000000
0.990695 0.913569 -0.561624 93.000000
0.997382 0.898585 -0.561033 36.000000
1.006884 0.886951 -0.562587 36.000000
0.999228 0.859798 -0.554230 40.000000
1.001298 0.842215 -0.551784 35.000000
1.013825 0.833395 -0.555162 80.000000
1.023088 0.821219 -0.556336 71.000000
1.020968 0.800698 -0.551814 49.000000
1.033225 0.791533 -0.555109 81.000000
1.034327 0.773890 -0.552473 35.000000
1.050066 0.767135 -0.557657 74.000000
1.032178 0.736115 -0.545043 36.000000
1.032601 0.718740 -0.542264 60.000000
1.013798 0.688522 -0.529510 89.000000
1.025079 0.679119 -0.532516 73.000000
1.028587 0.664526 -0.531588 90.000000
1.035839 0.652385 -0.532566 98.000000
1.031210 0.632970 -0.527508 74.000000
1.037897 0.621046 -0.528636 89.000000
1.044705 0.608760 -0.529523 62.000000
1.055131 0.598894 -0.532580 82.000000
1.065729 0.588613 -0.535401 98.000000
1.063920 0.571901 -0.532342 95.000000
1.070244 0.559292 -0.533068 89.000000
1.080283 0.548875 -0.535976 95.000000
1.082087 0.534236 -0.534840 95.000000
1.083687 0.519651 -0.533617 98.000000
1.076880 0.501187 -0.528323 33.000000
1.057300 0.477335 -0.516829 95.000000
1.058156 0.463257 -0.515643 95.000000
1.063174 0.450865 -0.516300 95.000000
1.080742 0.443594 -0.523008 95.000000
1.076988 0.427687 -0.519658 92.000000
1.085781 0.416842 -0.522404 98.000000
1.085941 0.402611 -0.521015 98.000000
1.090243 0.389976 -0.521635 29.000000
1.081503 0.372846 -0.516048 98.000000
1.085524 0.360246 -0.516546 100.000000
1.080750 0.344799 -0.512924 98.000000
1.084360 0.332299 -0.513532 98.000000
1.092377 0.320930 -0.515976 98.000000
1.091389 0.306995 -0.514406 100.000000
1.085864 0.291978 -0.510726 98.000000
1.088954 0.279352 -0.511179 39.000000
1.087474 0.265722 -0.509597 98.000000
1.090326 0.253034 -0.509935 95.000000
1.088548 0.239445 -0.508273 98.000000
1.091053 0.226846 -0.508647 103.000000
1.088983 0.213299 -0.506906 98.000000
1.095726 0.201500 -0.509245 95.000000
1.097894 0.188752 -0.509470 95.000000
1.090897 0.174604 -0.505644 34.000000
1.101707 0.163331 -0.510068 98.000000
1.112435 0.151774 -0.514458 100.000000
1.114018 0.138885 -0.514608 103.000000
1.110934 0.125485 -0.512788 100.000000
1.112210 0.112647 -0.513013 98.000000
1.108848 0.099367 -0.511077 100.000000
1.114387 0.086860 -0.513276 100.000000
1.119859 0.074248 -0.515400 38.000000
1.097892 0.060042 -0.505077 100.000000
1.093943 0.047144 -0.503064 105.000000
1.094422 0.034494 -0.503064 100.000000
1.103763 0.022025 -0.507350 100.000000
1.094863 0.009157 -0.503211 98.000000
1.099443 -0.003508 -0.505299 100.000000
1.103875 -0.016278 -0.507313 95.000000
1.099147 -0.028950 -0.505114 95.000000
1.107822 -0.041997 -0.509252 91.000000
1.885381 -0.137109 -0.867725 22.000000
1.802223 -0.152068 -0.829997 24.000000
1.278846 -0.137752 -0.589698 103.000000
1.259280 -0.150364 -0.581066 95.000000
1.257535 -0.164924 -0.580853 71.000000
1.260162 -0.180127 -0.582635 94.000000
1.262648 -0.195391 -0.584373 76.000000
1.264990 -0.210717 -0.586066 33.000000
1.926189 -0.389971 -0.896221 22.000000
1.921838 -0.412251 -0.895561 23.000000
1.930671 -0.437482 -0.900984 25.000000
1.921266 -0.458860 -0.898317 21.000000
1.925130 -0.483195 -0.901525 21.000000
1.919808 -0.505482 -0.900727 16.000000
1.936104 -0.533754 -0.910182 12.000000
1.934627 -0.557423 -0.911301 24.000000
1.937080 -0.582506 -0.914747 23.000000
1.935128 -0.606226 -0.915653 21.000000
1.932671 -0.630114 -0.916826 24.000000
1.921344 -0.651109 -0.913820 21.000000
1.927051 -0.677920 -0.918955 23.000000
1.911030 -0.697147 -0.913696 14.000000
1.911943 -0.722490 -0.916631 10.000000
1.942264 -0.759528 -0.933720 26.000000
1.904411 -0.770004 -0.918045 16.000000
1.912611 -0.799294 -0.925166 20.000000
1.912130 -0.825150 -0.927989 21.000000
1.894946 -0.843422 -0.922395 13.000000
1.898053 -0.871240 -0.927165 16.000000
1.888430 -0.893275 -0.925771 11.000000
1.878598 -0.915241 -0.924306 10.000000
1.897249 -0.951350 -0.936907 20.000000
1.878708 -0.969174 -0.931247 13.000000
1.883952 -0.999821 -0.937959 18.000000
1.885203 -1.028228 -0.942280 15.000000
1.861696 -1.043693 -0.934759 10.000000
1.862374 -1.072025 -0.938916 14.000000
1.874096 -1.107845 -0.949261 13.000000
1.858289 -1.127066 -0.945237 10.000000
1.849670 -1.151260 -0.945492 18.000000
1.856250 -1.185278 -0.953613 15.000000
1.854733 -1.214502 -0.957731 16.000000
1.845132 -1.238802 -0.957720 18.000000
1.846680 -1.270784 -0.963624 12.000000
1.847778 -1.302896 -0.969421 14.000000
1.840967 -1.329901 -0.971176 10.000000
1.811705 -1.340367 -0.961069 10.000000
1.822798 -1.380901 -0.972523 17.000000
1.815058 -1.407778 -0.974076 11.000000
1.817864 -1.443186 -0.981376 13.000000
1.812361 -1.473515 -0.985051 15.000000
1.814219 -1.509297 -0.992188 12.000000
1.819039 -1.548246 -1.001048 18.000000
1.794772 -1.563841 -0.994900 10.000000
1.802202 -1.606045 -1.005524 10.000000
1.814950 -1.655519 -1.020311 22.000000
1.756793 -1.638568 -0.994360 25.000000
1.718484 -1.640289 -0.980299 33.000000
1.683748 -1.644604 -0.968200 54.000000
1.653255 -1.650867 -0.957586 33.000000
1.625280 -1.660516 -0.949293 60.000000
1.613298 -1.686511 -0.950383 29.000000
1.598853 -1.708428 -0.949110 28.000000
1.570665 -1.717046 -0.940714 57.000000
1.564109 -1.749567 -0.945353 44.000000
1.541831 -1.764603 -0.940556 47.000000
1.516460 -1.775804 -0.933915 66.000000
1.492160 -1.785944 -0.926838 35.000000
1.463772 -1.792803 -0.918324 62.000000
1.452943 -1.821033 -0.920798 29.000000
1.427422 -1.830895 -0.914077 24.000000
1.415935 -1.858907 -0.916432 37.000000
1.395713 -1.875683 -0.913291 26.000000
1.369858 -1.884689 -0.906448 35.000000
1.346712 -1.897062 -0.901361 30.000000
1.334127 -1.924553 -0.903563 30.000000
1.305444 -1.928813 -0.894813 34.000000
1.287231 -1.948166 -0.893250 21.000000
1.267331 -1.968040 -0.891978 21.000000
1.256104 -1.998932 -0.895632 31.000000
1.232161 -2.009817 -0.890398 26.000000
1.212952 -2.028522 -0.888620 29.000000
1.193427 -2.046978 -0.886905 29.000000
1.173660 -2.065335 -0.885022 25.000000
0.583665 1.062848 -0.440131 24.000000
0.725157 1.284489 -0.537627 30.000000
0.750625 1.296083 -0.548379 24.000000
0.769291 1.295099 -0.553972 25.000000
0.778224 1.277830 -0.552662 34.000000
0.794336 1.272510 -0.556543 25.000000
0.811317 1.266445 -0.560241 24.000000
0.806896 1.229293 -0.550037 19.000000
0.820072 1.219663 -0.552097 24.000000
0.835757 1.213694 -0.555874 31.000000
0.846089 1.199875 -0.556074 26.000000
0.864496 1.197344 -0.561592 29.000000
0.880147 1.190781 -0.565353 33.000000
0.892965 1.180237 -0.567288 24.000000
0.908544 1.173285 -0.570970 28.000000
0.900930 1.136828 -0.560252 21.000000
0.910237 1.122482 -0.560295 29.000000
0.934296 1.125946 -0.569345 44.000000
0.943499 1.111232 -0.569299 33.000000
0.955534 1.100008 -0.571066 37.000000
0.982929 1.105983 -0.581984 35.000000
0.998043 1.097731 -0.585567 32.000000
1.003104 1.079433 -0.583782 35.000000
1.005254 1.057335 -0.579934 21.000000
1.013563 1.042028 -0.579711 33.000000
1.018381 1.023316 -0.577573 81.000000
1.042294 1.024606 -0.586828 31.000000
0.996683 0.957532 -0.556613 57.000000
0.997047 0.936099 -0.552450 61.000000
1.003492 0.921397 -0.552147 73.000000
1.020526 0.915605 -0.557303 83.000000
1.012745 0.888506 -0.549399 30.000000
1.005032 0.861325 -0.541225 37.000000
1.021201 0.855615 -0.546460 71.000000
1.019957 0.834613 -0.541942 65.000000
1.039658 0.831357 -0.549053 95.000000
1.045245 0.816077 -0.548285 77.000000
1.050287 0.801102 -0.547684 90.000000
1.051479 0.783323 -0.545110 78.000000
1.048648 0.762914 -0.540596 35.000000
1.041835 0.739966 -0.534084 95.000000
1.057361 0.733005 -0.539090 95.000000
1.053825 0.712868 -0.534430 95.000000
1.034609 0.682762 -0.521902 100.000000
1.034250 0.665626 -0.519040 95.000000
1.037601 0.651038 -0.518070 95.000000
1.048591 0.641263 -0.520995 95.000000
1.047651 0.624248 -0.517982 54.000000
1.062198 0.616777 -0.522951 98.000000
1.064958 0.602007 -0.521845 100.000000
1.071533 0.589465 -0.522657 98.000000
1.085887 0.581425 -0.527568 100.000000
1.088028 0.566707 -0.526536 98.000000
1.086065 0.549725 -0.523280 95.000000
1.091928 0.537149 -0.524169 100.000000
1.085284 0.518515 -0.519035 92.000000
1.065859 0.494297 -0.507891 95.000000
1.071211 0.481875 -0.508633 95.000000
1.084816 0.473081 -0.513276 94.000000
1.085709 0.458620 -0.511953 98.000000
1.090532 0.446150 -0.512737 95.000000
1.095395 0.433405 -0.513286 98.000000
1.095703 0.419102 -0.511992 98.000000
1.095859 0.404819 -0.510654 85.000000
1.095863 0.390596 -0.509271 98.000000
1.095718 0.376396 -0.507845 98.000000
1.104119 0.365133 -0.510395 100.000000
1.099308 0.349530 -0.506838 98.000000
1.111831 0.339437 -0.511325 100.000000
1.097870 0.321465 -0.503845 100.000000
1.096860 0.307565 -0.502324 100.000000
1.104622 0.295982 -0.504646 95.000000
1.103357 0.282070 -0.503046 95.000000
1.097397 0.267217 -0.499533 100.000000
1.100261 0.254478 -0.499872 100.000000
1.098434 0.240835 -0.498261 98.000000
1.101062 0.228073 -0.498524 98.000000
1.107950 0.216223 -0.500852 100.000000
1.105679 0.202660 -0.499275 98.000000
1.107856 0.189860 -0.499500 98.000000
1.114395 0.177742 -0.501719 95.000000
1.125280 0.166225 -0.506047 100.000000
1.127027 0.153269 -0.506275 103.000000
1.124053 0.139712 -0.504583 98.000000
1.116452 0.125710 -0.500626 98.000000
1.122272 0.113294 -0.502849 100.000000
1.127988 0.100735 -0.505037 105.000000
1.124458 0.087364 -0.503113 98.000000
1.111731 0.073495 -0.497040 95.000000
1.121557 0.061147 -0.501264 98.000000
1.108472 0.047646 -0.495225 98.000000
1.113481 0.034998 -0.497263 103.000000
1.118343 0.022243 -0.499413 103.000000
1.123058 0.009384 -0.501489 100.000000
1.113965 -0.003537 -0.497412 100.000000
1.127586 -0.016583 -0.503452 84.000000
1.859645 -0.113181 -0.830929 29.000000
1.903821 -0.137960 -0.851231 11.000000
1.902163 -0.159901 -0.850976 23.000000
1.295501 -0.169280 -0.581243 100.000000
1.280055 -0.182273 -0.574844 95.000000
1.278026 -0.197041 -0.574498 93.000000
1.907793 -0.339402 -0.859956 23.000000
1.949013 -0.369790 -0.879443 25.000000
1.953870 -0.394114 -0.882897 23.000000
1.953817 -0.417689 -0.884456 25.000000
1.949283 -0.440161 -0.883655 26.000000
1.948731 -0.463758 -0.885076 19.000000
1.952594 -0.488300 -0.888110 24.000000
1.969350 -0.516663 -0.897456 10.000000
1.967855 -0.540691 -0.898860 19.000000
1.944339 -0.558300 -0.889854 24.000000
1.955810 -0.585947 -0.896886 26.000000
1.962388 -0.612634 -0.902097 21.000000
1.955537 -0.635380 -0.901206 22.000000
1.948549 -0.657989 -0.900179 24.000000
1.936963 -0.678945 -0.897148 22.000000
1.942432 -0.705995 -0.901986 10.000000
1.947525 -0.733206 -0.906808 20.000000
1.931014 -0.752253 -0.901503 20.000000
1.939614 -0.781593 -0.908437 22.000000
1.931195 -0.803859 -0.907046 22.000000
1.934935 -0.831699 -0.911823 19.000000
1.929956 -0.855972 -0.912476 18.000000
1.924655 -0.880273 -0.913193 20.000000
1.915018 -0.902501 -0.911786 10.000000
1.929895 -0.936694 -0.922157 21.000000
1.919634 -0.958926 -0.920589 22.000000
1.912961 -0.983545 -0.921275 19.000000
1.910451 -1.009909 -0.923563 24.000000
1.903520 -1.034050 -0.923731 21.000000
1.900055 -1.060814 -0.926210 20.000000
1.892210 -1.085334 -0.926577 16.000000
1.900403 -1.118636 -0.934377 10.000000
1.907685 -1.152764 -0.942432 17.000000
1.898898 -1.177422 -0.942603 19.000000
1.885947 -1.199549 -0.940827 18.000000
1.888145 -1.231603 -0.946647 22.000000
1.874639 -1.253540 -0.944707 20.000000
1.868521 -1.280544 -0.946548 17.000000
1.869619 -1.312880 -0.952144 19.000000
1.859016 -1.337253 -0.951948 9.000000
1.851922 -1.364226 -0.953583 14.000000
1.837104 -1.385655 -0.951303 16.000000
1.840429 -1.421058 -0.958475 15.000000
1.849855 -1.462935 -0.969713 22.000000
1.841250 -1.490078 -0.971016 16.000000
1.835300 -1.520812 -0.974505 21.000000
1.843679 -1.562830 -0.985122 24.000000
1.833232 -1.590806 -0.986498 10.000000
1.840545 -1.633366 -0.996840 23.000000
1.836042 -1.667548 -1.001900 23.000000
1.791137 -1.663360 -0.983943 28.000000
1.735721 -1.649348 -0.960886 36.000000
1.690827 -1.644008 -0.943508 36.000000
1.640522 -1.630567 -0.921972 75.000000
1.612738 -1.640005 -0.913925 55.000000
1.604351 -1.669017 -0.916804 32.000000
1.589146 -1.691328 -0.915980 48.000000
1.574631 -1.712799 -0.914688 52.000000
1.549639 -1.724489 -0.908294 66.000000
1.527720 -1.739151 -0.903664 71.000000
1.511721 -1.760736 -0.902671 60.000000
1.489498 -1.774946 -0.897976 88.000000
1.467202 -1.788857 -0.893218 62.000000
1.456508 -1.817037 -0.895651 33.000000
1.436711 -1.834169 -0.892605 31.000000
1.408245 -1.839944 -0.884211 32.000000
1.396737 -1.867747 -0.886514 35.000000
1.373725 -1.880418 -0.881546 35.000000
1.347925 -1.888987 -0.874902 32.000000
1.327490 -1.904805 -0.871724 35.000000
1.306980 -1.920395 -0.868469 33.000000
1.288836 -1.939738 -0.866959 29.000000
1.267981 -1.954905 -0.863698 27.000000
1.255634 -1.986387 -0.867592 32.000000
1.239233 -2.009129 -0.867678 31.000000
1.210403 -2.011719 -0.859070 31.000000
1.191190 -2.030038 -0.857348 28.000000
1.171737 -2.048260 -0.855612 33.000000
1.148144 -2.062891 -0.852395 28.000000
0.586305 1.060415 -0.427797 26.000000
0.723164 1.274684 -0.519773 25.000000
0.751917 1.289989 -0.531735 24.000000
0.765606 1.280992 -0.533815 26.000000
0.779247 1.271899 -0.535895 21.000000
0.795291 1.266595 -0.539672 30.000000
0.812200 1.260599 -0.543268 24.000000
0.804929 1.219589 -0.531636 15.000000
0.812719 1.202222 -0.530151 25.000000
0.836278 1.207994 -0.538972 27.000000
0.846508 1.194280 -0.539202 33.000000
0.856560 1.180392 -0.539372 25.000000
0.880410 1.185287 -0.548231 30.000000
0.887476 1.167398 -0.546613 29.000000
0.905740 1.164235 -0.551981 24.000000
0.910254 1.142102 -0.548342 21.000000
0.916623 1.124043 -0.546577 31.000000
0.931728 1.116755 -0.550144 33.000000
0.937099 1.099059 -0.548539 59.000000
0.955123 1.094973 -0.553798 42.000000
0.976315 1.094084 -0.560865 42.000000
0.981903 1.075642 -0.558959 37.000000
0.999936 1.070799 -0.564171 33.000000
1.011579 1.058964 -0.565800 30.000000
1.023126 1.046938 -0.567429 49.000000
1.021350 1.021634 -0.561761 52.000000
1.055296 1.032707 -0.576188 28.000000
1.053108 1.007306 -0.570446 19.000000
1.019943 0.953476 -0.548172 44.000000
1.026489 0.938618 -0.547942 61.000000
1.033378 0.923293 -0.547473 53.000000
1.029511 0.898787 -0.541425 48.000000
1.017773 0.868843 -0.531826 33.000000
1.034488 0.862663 -0.536714 75.000000
1.043603 0.850716 -0.538130 95.000000
1.049398 0.835391 -0.537465 78.000000
1.050938 0.817566 -0.535060 81.000000
1.063345 0.808154 -0.538242 74.000000
1.068586 0.792736 -0.537424 73.000000
1.069576 0.774905 -0.534897 62.000000
1.062754 0.751766 -0.528590 51.000000
1.070815 0.739374 -0.529748 95.000000
1.067273 0.719137 -0.525195 98.000000
1.071169 0.704166 -0.524363 95.000000
1.055410 0.676673 -0.514038 95.000000
