x y z intensity
2.205945 0.989597 0.186863 33.000000
2.253164 0.981396 0.190246 31.000000
2.268287 0.958738 0.190934 32.000000
2.296988 0.941501 0.192784 33.000000
2.302386 0.914812 0.192776 27.000000
2.326126 0.895004 0.194168 30.000000
2.354425 0.876555 0.196029 32.000000
2.359117 0.849181 0.195947 21.000000
2.405839 0.836722 0.199375 35.000000
2.428904 0.815203 0.200781 34.000000
2.437688 0.788694 0.201017 32.000000
2.469796 0.769678 0.203289 35.000000
2.492356 0.747046 0.204703 33.000000
2.519480 0.725321 0.206432 37.000000
2.536794 0.700686 0.207539 34.000000
2.534650 0.670422 0.206913 12.000000
2.614195 0.661226 0.213062 32.000000
2.650282 0.639680 0.215675 29.000000
2.691130 0.618702 0.218689 31.000000
2.697639 0.589369 0.218858 36.000000
2.728298 0.565090 0.221004 31.000000
2.704921 0.529660 0.218885 10.000000
2.749701 0.507447 0.222222 9.000000
2.745187 0.475785 0.221601 7.000000
2.853537 0.462595 0.230103 35.000000
2.892902 0.436739 0.233059 35.000000
2.907343 0.406591 0.233943 33.000000
2.946169 0.379412 0.236905 58.000000
2.965021 0.349057 0.238280 32.000000
3.033012 0.323668 0.243545 35.000000
3.056219 0.292510 0.245231 35.000000
3.014531 0.255448 0.241740 6.000000
3.116535 0.229901 0.249801 8.000000
3.118831 0.196033 0.249897 8.000000
3.175494 0.164815 0.254378 10.000000
3.256827 0.133522 0.260858 34.000000
3.297878 0.099296 0.264048 28.000000
3.298788 0.063335 0.264149 8.000000
3.433856 0.028596 0.274923 15.000000
3.463865 -0.008908 0.277423 37.000000
3.483481 -0.046930 0.279020 95.000000
3.462804 -0.084309 0.277423 64.000000
3.441820 -0.121359 0.275826 54.000000
3.410367 -0.157411 0.273327 80.000000
3.353750 -0.191393 0.268938 21.000000
3.321653 -0.225874 0.266544 8.000000
3.239506 -0.255782 0.260060 8.000000
3.176953 -0.285645 0.255176 8.000000
3.173633 -0.320215 0.255176 24.000000
3.165066 -0.354231 0.254680 28.000000
3.121397 -0.383784 0.251395 35.000000
3.117064 -0.417675 0.251299 28.000000
3.058090 -0.443695 0.246729 8.000000
3.028455 -0.473149 0.244645 8.000000
2.998621 -0.501880 0.242563 8.000000
2.968410 -0.530169 0.240390 8.000000
2.962502 -0.562387 0.240298 9.000000
2.887816 -0.580756 0.234557 8.000000
2.905700 -0.617317 0.236359 9.000000
2.903743 -0.649963 0.236574 41.000000
2.877049 -0.676915 0.234808 35.000000
2.874378 -0.709417 0.235022 52.000000
2.847279 -0.735609 0.233170 42.000000
2.810215 -0.758783 0.230620 33.000000
2.801838 -0.789170 0.230353 57.000000
2.778757 -0.815435 0.228992 68.000000
2.760180 -0.842755 0.228027 22.000000
2.883935 -0.914723 0.238684 26.000000
2.977999 -0.980413 0.247143 21.000000
3.019043 -1.030469 0.251172 18.000000
2.946716 -1.041492 0.245687 2.000000
3.459552 -1.265307 0.289236 1.000000
3.375632 -1.276412 0.283033 1.000000
3.607568 -1.409332 0.303397 1.000000
3.541301 -1.427601 0.298634 1.000000
3.447393 -1.433633 0.291664 1.000000
3.289592 -1.410232 0.279154 1.000000
3.616030 -1.596987 0.307951 1.000000
3.377417 -1.716772 0.292816 1.000000
3.420382 -1.785836 0.297738 1.000000
3.497318 -1.874856 0.305715 1.000000
3.354492 -1.845586 0.294375 1.000000
3.128288 -1.810509 0.276787 1.000000
2.898292 -1.719913 0.257667 5.000000
2.858016 -1.738522 0.255249 5.000000
2.847331 -1.774922 0.255497 3.000000
2.878242 -1.838136 0.259634 1.000000
2.866414 -1.874951 0.259868 1.000000
2.895470 -1.939486 0.263768 1.000000
2.985157 -2.047192 0.273402 1.000000
2.843091 -2.041430 0.263186 1.000000
2.776505 -2.039913 0.258429 1.000000
2.809845 -2.112117 0.263127 1.000000
2.735225 -2.103264 0.257642 1.000000
2.837515 -2.231678 0.268893 1.000000
2.910124 -2.340739 0.277492 1.000000
2.589968 -2.226961 0.251900 1.000000
2.483114 -2.182753 0.243203 1.000000
2.444301 -2.196432 0.241132 1.000000
2.438530 -2.239946 0.242252 1.000000
2.446629 -2.297212 0.244920 1.000000
2.436688 -2.336691 0.245549 1.000000
2.354187 -2.307388 0.239040 1.000000
2.304208 -2.308200 0.235810 2.000000
2.247599 -2.301139 0.231974 4.000000
2.239632 -2.343575 0.233078 6.000000
2.121980 -2.269516 0.222636 7.000000
1.986082 -2.171088 0.210213 8.000000
1.822625 -2.036604 0.194663 8.000000
1.724819 -1.970032 0.185852 7.000000
1.531393 -1.787933 0.166586 8.000000
1.431797 -1.708989 0.157217 9.000000
1.403624 -1.712899 0.155687 20.000000
1.375568 -1.716398 0.154097 21.000000
1.356861 -1.731269 0.153559 21.000000
1.334985 -1.741980 0.152673 29.000000
1.315985 -1.756482 0.152136 19.000000
1.308572 -1.786813 0.152977 18.000000
1.292032 -1.804961 0.152779 20.000000
1.286705 -1.839386 0.153877 18.000000
1.261025 -1.845020 0.152646 21.000000
1.235388 -1.850394 0.151421 20.000000
1.223350 -1.876269 0.151823 16.000000
1.200254 -1.885283 0.150937 21.000000
1.187577 -1.910983 0.151329 16.000000
1.173144 -1.931623 0.151309 14.000000
1.172477 -1.978608 0.153418 7.000000
1.135724 1.946671 0.167390 8.000000
1.144032 1.912723 0.166220 19.000000
1.156950 1.887352 0.165782 17.000000
1.161433 1.849283 0.164277 25.000000
1.194970 1.857482 0.166828 23.000000
1.201399 1.823485 0.165613 24.000000
1.225616 1.819257 0.167108 27.000000
1.248186 1.809866 0.168161 22.000000
1.262018 1.787992 0.168068 24.000000
1.275539 1.766044 0.167969 23.000000
1.294676 1.751974 0.168636 25.000000
1.313614 1.737771 0.169236 27.000000
1.332418 1.723301 0.169903 26.000000
1.357272 1.716451 0.171283 29.000000
1.375827 1.701580 0.171953 28.000000
1.394248 1.686442 0.172556 29.000000
1.409318 1.667295 0.172765 29.000000
1.424104 1.648019 0.172970 26.000000
1.438675 1.628613 0.173173 35.000000
1.462985 1.620178 0.174569 34.000000
1.473802 1.596746 0.174304 31.000000
1.498006 1.587763 0.175705 34.000000
1.518641 1.574910 0.176709 35.000000
1.532225 1.554614 0.176841 31.000000
1.559071 1.548910 0.178658 36.000000
1.579468 1.535224 0.179670 22.000000
1.585293 1.507522 0.178987 43.000000
1.609001 1.496827 0.180341 45.000000
1.628904 1.482483 0.181222 34.000000
1.652466 1.471170 0.182584 56.000000
1.672145 1.456218 0.183538 42.000000
1.687966 1.437749 0.184013 46.000000
1.695927 1.412833 0.183727 36.000000
1.715134 1.397256 0.184616 22.000000
1.745898 1.390840 0.186758 36.000000
1.761006 1.371631 0.187236 44.000000
1.779393 1.355715 0.188202 33.000000
1.794123 1.336120 0.188682 54.000000
1.812675 1.319321 0.189583 35.000000
1.822898 1.296452 0.189573 35.000000
1.857399 1.290661 0.192169 61.000000
1.863148 1.264629 0.191736 21.000000
1.885178 1.249650 0.193000 44.000000
1.911233 1.237057 0.194694 47.000000
1.928833 1.218729 0.195609 37.000000
1.954481 1.205750 0.197312 61.000000
1.971762 1.186864 0.198163 53.000000
1.988888 1.167744 0.199016 42.000000
2.005857 1.148389 0.199871 48.000000
1.992149 1.111804 0.197636 18.000000
2.047928 1.113728 0.202379 42.000000
2.086190 1.105658 0.205408 84.000000
2.093626 1.080446 0.205335 51.000000
2.123122 1.066437 0.207436 61.000000
2.143572 1.047593 0.208671 59.000000
2.154828 1.024131 0.209036 56.000000
2.188324 1.011263 0.211588 69.000000
2.240075 1.005619 0.215898 24.000000
2.228079 0.971145 0.214081 37.000000
2.266026 0.958437 0.217014 56.000000
2.280810 0.935754 0.217831 36.000000
2.300111 0.914508 0.219015 37.000000
2.333209 0.898278 0.221525 58.000000
2.366196 0.881463 0.224041 35.000000
2.389613 0.860921 0.225755 35.000000
2.370575 0.824952 0.223407 28.000000
2.426551 0.815046 0.228153 58.000000
2.449471 0.793139 0.229722 82.000000
2.462745 0.767879 0.230482 66.000000
2.499506 0.749748 0.233472 71.000000
2.526643 0.727917 0.235496 61.000000
2.553577 0.705751 0.237604 52.000000
2.585197 0.684196 0.240001 42.000000
2.597236 0.657313 0.240777 28.000000
2.633257 0.636089 0.243711 40.000000
2.659476 0.611750 0.245670 70.000000
2.665914 0.582819 0.245921 58.000000
2.735491 0.566941 0.252012 73.000000
2.717050 0.532364 0.250020 14.000000
2.722649 0.502755 0.250190 9.000000
2.772066 0.480719 0.254412 10.000000
2.870543 0.465696 0.263235 47.000000
2.904987 0.438881 0.266029 95.000000
2.929304 0.409952 0.268105 95.000000
2.948380 0.379957 0.269550 71.000000
3.006694 0.354209 0.274702 81.000000
3.050016 0.325690 0.278411 95.000000
3.048349 0.291941 0.278146 35.000000
3.041429 0.257880 0.277335 9.000000
3.113569 0.229901 0.283765 8.000000
3.140713 0.197500 0.286124 8.000000
3.182519 0.165332 0.289844 9.000000
3.253734 0.133522 0.296284 9.000000
3.274940 0.098696 0.298196 13.000000
3.325628 0.063909 0.302728 22.000000
3.370848 0.028098 0.306910 15.000000
3.435681 -0.008844 0.312804 70.000000
3.485260 -0.046890 0.317337 81.000000
3.464601 -0.084430 0.315524 91.000000
3.423623 -0.120728 0.311897 62.000000
3.367439 -0.155573 0.306910 55.000000
3.335751 -0.190541 0.304088 34.000000
3.288686 -0.223744 0.300009 29.000000
3.271168 -0.258427 0.298549 29.000000
3.253374 -0.292686 0.297090 80.000000
3.215291 -0.324619 0.293821 73.000000
3.162044 -0.354036 0.289196 66.000000
3.148162 -0.387239 0.288193 81.000000
3.074694 -0.412285 0.281765 25.000000
3.045396 -0.442075 0.279315 10.000000
3.010880 -0.470654 0.276509 9.000000
2.961358 -0.495937 0.272259 8.000000
2.921524 -0.522009 0.268917 9.000000
2.891243 -0.549193 0.266480 9.000000
2.885111 -0.580575 0.266300 9.000000
2.854264 -0.606780 0.263868 9.000000
2.876714 -0.644248 0.266389 34.000000
2.874334 -0.676734 0.266658 95.000000
2.837817 -0.700789 0.263691 42.000000
2.786723 -0.720383 0.259384 25.000000
2.812349 -0.759814 0.262347 90.000000
2.775200 -0.782148 0.259391 48.000000
2.742651 -0.805348 0.256888 80.000000
2.743330 -0.837949 0.257520 29.000000
2.800465 -0.888925 0.263509 24.000000
2.880521 -0.949053 0.271716 28.000000
2.954944 -1.009155 0.279364 16.000000
2.939055 -1.039640 0.278632 4.000000
3.292480 -1.204844 0.312920 2.000000
3.395607 -1.284782 0.323587 2.000000
3.525275 -1.377917 0.337000 1.000000
3.560887 -1.436802 0.341407 1.000000
3.416376 -1.421695 0.328441 1.000000
3.190187 -1.368560 0.307681 2.000000
3.384632 -1.495841 0.327534 1.000000
3.252289 -1.522510 0.316846 1.000000
3.239944 -1.560095 0.316844 1.000000
3.227221 -1.597669 0.316732 1.000000
3.174165 -1.614685 0.312791 1.000000
3.187284 -1.665416 0.315302 1.000000
3.024363 -1.621993 0.300365 1.000000
3.163578 -1.741367 0.315506 1.000000
2.939522 -1.702815 0.295648 1.000000
2.830854 -1.681447 0.286041 3.000000
2.825060 -1.720082 0.286832 6.000000
2.853012 -1.779270 0.290966 4.000000
2.871222 -1.834513 0.294219 2.000000
2.851078 -1.865824 0.293593 1.000000
2.830518 -1.897031 0.293071 1.000000
3.056103 -2.097041 0.318098 1.000000
2.902604 -2.038678 0.303765 2.000000
3.211813 -2.308847 0.338022 1.000000
2.925522 -2.151983 0.309571 2.000000
2.734645 -2.058086 0.291107 2.000000
2.811344 -2.163182 0.300940 2.000000
2.748400 -2.163007 0.295963 2.000000
2.790601 -2.246107 0.302363 1.000000
2.596042 -2.184757 0.285032 1.000000
2.462510 -2.118881 0.272197 1.000000
2.401818 -2.112832 0.267337 1.000000
2.393421 -2.152315 0.268312 2.000000
2.384438 -2.191925 0.269180 2.000000
2.345811 -2.204262 0.266834 3.000000
2.310879 -2.219437 0.264810 4.000000
2.247334 -2.206252 0.259604 6.000000
2.245208 -2.250952 0.261193 9.000000
2.217098 -2.271820 0.260006 9.000000
2.192215 -2.295925 0.259228 10.000000
2.146629 -2.297889 0.256016 7.000000
2.054256 -2.247711 0.247063 9.000000
1.920022 -2.147391 0.233013 11.000000
1.791563 -2.048167 0.219446 10.000000
1.548890 -1.810078 0.191460 8.000000
1.449080 -1.731376 0.180893 10.000000
1.408109 -1.720070 0.177485 24.000000
1.379981 -1.723709 0.175683 32.000000
1.355044 -1.730798 0.174284 33.000000
1.330076 -1.737552 0.172891 29.000000
1.311119 -1.751954 0.172288 31.000000
1.292028 -1.766155 0.171685 26.000000
1.295929 -1.812595 0.174132 19.000000
1.270439 -1.818405 0.172742 29.000000
1.250680 -1.832189 0.172131 26.000000
1.231735 -1.845023 0.171384 30.000000
1.214359 -1.862507 0.171088 25.000000
1.196756 -1.879847 0.170858 28.000000
1.178926 -1.897041 0.170557 26.000000
1.160867 -1.914019 0.170252 23.000000
1.172976 -1.982407 0.174477 9.000000
1.113591 1.911539 0.184345 8.000000
1.129212 1.890721 0.184257 18.000000
1.141912 1.865495 0.183810 28.000000
1.159494 1.848681 0.184126 27.000000
1.182170 1.840108 0.185350 28.000000
1.199394 1.822884 0.185663 29.000000
1.218107 1.810386 0.186465 26.000000
1.240515 1.801055 0.187628 33.000000
1.251398 1.775175 0.187144 28.000000
1.270624 1.761337 0.187809 26.000000
1.295634 1.755382 0.189406 34.000000
1.311680 1.737104 0.189707 30.000000
1.333529 1.726643 0.190876 33.000000
1.352242 1.711940 0.191545 32.000000
1.377014 1.704785 0.193091 31.000000
1.389134 1.681932 0.192948 33.000000
1.407380 1.666627 0.193617 30.000000
1.418916 1.643582 0.193398 30.000000
1.440041 1.631682 0.194508 42.000000
1.461047 1.619509 0.195622 32.000000
1.471873 1.596081 0.195327 36.000000
1.498747 1.591388 0.197408 46.000000
1.516029 1.574843 0.198078 36.000000
1.540095 1.565262 0.199586 38.000000
1.553589 1.544727 0.199738 30.000000
1.563236 1.520663 0.199431 34.000000
1.579743 1.503420 0.200033 52.000000
1.599695 1.489369 0.201092 42.000000
1.623267 1.478456 0.202614 56.000000
1.639282 1.460557 0.203152 50.000000
1.658916 1.445726 0.204220 55.000000
1.685997 1.437137 0.206149 77.000000
1.697316 1.415887 0.206364 42.000000
1.720410 1.403414 0.207838 32.000000
1.727871 1.378286 0.207448 52.000000
1.746769 1.362242 0.208390 51.000000
1.773447 1.352012 0.210342 58.000000
1.792136 1.335435 0.211359 35.000000
1.806592 1.315704 0.211839 51.000000
1.828953 1.301607 0.213264 48.000000
1.846871 1.284768 0.214358 32.000000
1.869037 1.269948 0.215791 35.000000
1.882823 1.249373 0.216276 55.000000
1.904685 1.234072 0.217716 45.000000
1.913838 1.210468 0.217655 61.000000
1.939665 1.197274 0.219579 37.000000
1.956647 1.178877 0.220549 57.000000
1.982266 1.164940 0.222484 72.000000
1.994885 1.143157 0.222907 34.000000
2.011566 1.123659 0.223813 35.000000
2.045572 1.113442 0.226659 75.000000
2.070543 1.098300 0.228615 36.000000
2.095665 1.082441 0.230433 65.000000
2.116274 1.063911 0.231841 81.000000
2.127749 1.040669 0.232277 49.000000
2.138935 1.017354 0.232640 81.000000
2.185887 1.010893 0.236993 34.000000
2.192205 0.984852 0.236872 35.000000
2.221061 0.968783 0.239205 63.000000
2.249717 0.952466 0.241619 36.000000
2.282996 0.937266 0.244458 61.000000
2.316177 0.921486 0.247228 46.000000
2.344533 0.903492 0.249664 45.000000
2.358904 0.879570 0.250468 51.000000
2.358886 0.850561 0.249862 30.000000
2.391452 0.832903 0.252652 36.000000
2.419247 0.813069 0.254950 77.000000
2.437402 0.789835 0.256337 58.000000
2.460057 0.767642 0.258067 48.000000
2.482493 0.745138 0.259880 53.000000
2.504783 0.722243 0.261776 44.000000
2.541228 0.702855 0.265016 59.000000
2.563176 0.678937 0.266842 29.000000
2.599267 0.658370 0.270092 39.000000
2.625599 0.634754 0.272428 61.000000
2.651785 0.610467 0.274602 76.000000
2.677650 0.585841 0.276862 82.000000
2.683872 0.556583 0.277114 71.000000
2.699520 0.529323 0.278373 11.000000
2.724656 0.503489 0.280642 9.000000
2.759332 0.478845 0.283837 8.000000
2.847873 0.462329 0.292673 59.000000
2.892088 0.437214 0.296889 95.000000
2.916370 0.408481 0.299089 80.000000
2.935416 0.378593 0.300787 73.000000
2.973900 0.350622 0.304509 72.000000
3.002305 0.320839 0.307223 79.000000
3.045158 0.291847 0.311366 44.000000
3.033292 0.257366 0.310034 7.000000
3.110317 0.229806 0.317729 8.000000
3.177148 0.199902 0.324414 9.000000
3.199069 0.166365 0.326540 8.000000
3.250341 0.133522 0.331710 9.000000
3.286442 0.099045 0.335361 10.000000
3.327034 0.064005 0.339420 41.000000
3.377283 0.028181 0.344494 63.000000
3.437075 -0.008857 0.350688 55.000000
3.476548 -0.046823 0.354748 95.000000
3.451045 -0.084187 0.352210 80.000000
3.390228 -0.119675 0.346120 31.000000
3.324175 -0.153632 0.339420 10.000000
3.312304 -0.189304 0.338406 21.000000
3.305102 -0.225096 0.337797 47.000000
3.242956 -0.256367 0.331610 32.000000
3.215192 -0.289463 0.328976 59.000000
3.187179 -0.322020 0.326343 78.000000
3.148842 -0.352830 0.322699 45.000000
3.125109 -0.384711 0.320576 69.000000
3.071461 -0.412095 0.315417 29.000000
3.032345 -0.440551 0.311685 9.000000
3.012619 -0.471236 0.309980 9.000000
2.943512 -0.493286 0.303223 8.000000
2.933122 -0.524545 0.302534 9.000000
2.888177 -0.549012 0.298314 9.000000
2.857662 -0.575485 0.295611 9.000000
2.831762 -0.602372 0.293327 9.000000
2.844518 -0.637540 0.295164 32.000000
2.842206 -0.669708 0.295399 46.000000
2.839601 -0.701803 0.295633 51.000000
2.807805 -0.726437 0.292852 36.000000
2.780500 -0.751668 0.290578 53.000000
2.743468 -0.773868 0.287304 71.000000
2.730127 -0.802280 0.286541 62.000000
2.726069 -0.833323 0.286692 32.000000
2.783180 -0.884136 0.293428 27.000000
2.858555 -0.942266 0.302057 27.000000
2.937568 -1.004040 0.311162 25.000000
2.935808 -1.039353 0.311873 7.000000
3.162694 -1.158429 0.336765 2.000000
3.261549 -1.235115 0.348275 2.000000
3.419511 -1.337467 0.366207 1.000000
3.460121 -1.397095 0.371590 1.000000
3.394150 -1.413816 0.365689 1.000000
3.312635 -1.465087 0.359246 1.000000
3.246718 -1.478506 0.353270 1.000000
3.275693 -1.534625 0.357532 1.000000
3.236309 -1.559545 0.354522 1.000000
3.299377 -1.634671 0.362796 1.000000
3.206040 -1.632200 0.353910 1.000000
3.024906 -1.581853 0.335275 1.000000
3.029662 -1.626174 0.337086 1.000000
3.103266 -1.709708 0.346678 1.000000
3.004970 -1.742337 0.338690 1.000000
2.818870 -1.675957 0.319163 3.000000
2.830520 -1.724247 0.321842 6.000000
2.815738 -1.757877 0.321714 6.000000
2.855096 -1.826156 0.327843 3.000000
2.785084 -1.824601 0.321454 2.000000
2.843501 -1.907705 0.329849 1.000000
2.847014 -1.955687 0.332090 1.000000
2.866768 -2.014697 0.336016 2.000000
2.800085 -2.014095 0.330025 2.000000
2.810054 -2.068258 0.333086 1.000000
2.727629 -2.054043 0.325226 2.000000
2.578837 -1.986669 0.309357 2.000000
2.635075 -2.076528 0.318097 2.000000
2.732391 -2.202157 0.331867 1.000000
2.539165 -2.092655 0.310449 1.000000
2.520683 -2.122792 0.310009 1.000000
2.357674 -2.030182 0.291920 2.000000
2.339094 -2.059221 0.291623 3.000000
2.353460 -2.118027 0.295505 6.000000
2.308282 -2.123520 0.291948 8.000000
2.295803 -2.158938 0.292469 9.000000
2.379823 -2.287459 0.305521 34.000000
2.276501 -2.236692 0.294502 10.000000
2.269517 -2.279177 0.296011 16.000000
2.216781 -2.275289 0.291469 10.000000
2.188424 -2.295828 0.290137 11.000000
2.167619 -2.322407 0.289619 8.000000
2.058268 -2.254133 0.277335 10.000000
1.930735 -2.161364 0.262511 11.000000
1.782593 -2.039834 0.244624 10.000000
1.572588 -1.839630 0.217801 9.000000
1.469437 -1.757428 0.205447 10.000000
1.402915 -1.715534 0.198137 25.000000
1.371732 -1.715254 0.195683 29.000000
1.353025 -1.730126 0.195010 32.000000
1.316032 -1.721056 0.191693 32.000000
1.306194 -1.747295 0.192280 34.000000
1.284141 -1.757442 0.191174 31.000000
1.265003 -1.771378 0.190507 26.000000
1.248517 -1.789200 0.190208 32.000000
1.248643 -1.831510 0.192569 32.000000
1.229766 -1.844344 0.191754 27.000000
1.220472 -1.874350 0.192724 34.000000
1.186692 -1.866621 0.189833 29.000000
1.171621 -1.887892 0.189939 28.000000
1.156162 -1.909141 0.190039 28.000000
1.175930 -1.990281 0.196047 9.000000
1.131517 1.945222 0.207875 8.000000
1.121954 1.881360 0.203229 21.000000
1.142365 1.869006 0.204102 25.000000
1.154713 1.843660 0.203577 26.000000
1.181708 1.844165 0.205847 28.000000
1.198984 1.826978 0.206250 29.000000
1.221521 1.817847 0.207526 29.000000
1.235618 1.796150 0.207384 27.000000
1.249335 1.774377 0.207236 30.000000
1.268562 1.760539 0.208034 26.000000
1.293562 1.754580 0.209790 29.000000
1.303619 1.728358 0.209150 32.000000
1.325377 1.717961 0.210429 29.000000
1.347021 1.707231 0.211645 31.000000
1.368683 1.696234 0.212932 32.000000
1.383896 1.677292 0.213179 31.000000
1.402099 1.662022 0.213912 32.000000
1.407105 1.631480 0.212681 30.000000
1.433951 1.627815 0.215020 34.000000
1.451581 1.611981 0.215685 37.000000
1.469145 1.595948 0.216417 35.000000
1.493261 1.586961 0.218145 54.000000
1.510504 1.570454 0.218813 38.000000
1.527546 1.553812 0.219481 35.000000
1.551508 1.543921 0.221155 37.000000
1.554035 1.512921 0.219810 30.000000
1.577672 1.502617 0.221486 52.000000
1.597015 1.489168 0.222729 84.000000
1.616901 1.474835 0.223907 37.000000
1.636658 1.460288 0.225022 70.000000
1.660033 1.448727 0.226718 69.000000
1.675783 1.430408 0.227327 50.000000
1.691330 1.411887 0.227935 53.000000
1.714380 1.399520 0.229575 29.000000
1.717930 1.371268 0.228567 44.000000
1.740269 1.358910 0.230279 52.000000
1.770850 1.351738 0.232969 60.000000
1.785547 1.332188 0.233516 57.000000
1.796021 1.309502 0.233540 48.000000
1.818307 1.295493 0.235133 37.000000
1.840514 1.281100 0.236731 43.000000
1.862362 1.266805 0.238403 29.000000
1.871907 1.243524 0.238428 58.000000
1.889597 1.225608 0.239440 83.000000
1.911269 1.210052 0.240983 74.000000
1.928621 1.191628 0.242069 67.000000
1.954056 1.178457 0.244222 65.000000
1.975373 1.161996 0.245779 42.000000
1.987964 1.140260 0.246271 39.000000
2.030647 1.135366 0.250439 34.000000
2.038564 1.110636 0.250403 60.000000
2.067956 1.097869 0.253050 76.000000
2.088645 1.079652 0.254558 74.000000
2.109219 1.061169 0.256069 81.000000
2.129381 1.042710 0.257730 91.000000
2.131687 1.014999 0.257011 47.000000
2.160675 0.999939 0.259614 42.000000
2.198470 0.988708 0.263384 29.000000
2.218237 0.968560 0.264842 51.000000
2.242444 0.950078 0.266847 42.000000
2.266329 0.931371 0.268932 52.000000
2.276334 0.906471 0.269308 60.000000
2.309147 0.890664 0.272496 52.000000
2.351314 0.877524 0.276711 54.000000
2.369987 0.855315 0.278194 36.000000
2.365115 0.824414 0.276932 36.000000
2.411562 0.811328 0.281719 66.000000
2.424962 0.786455 0.282582 75.000000
2.447567 0.764441 0.284628 65.000000
2.474792 0.743549 0.287152 58.000000
2.501825 0.721923 0.289681 70.000000
2.523868 0.698635 0.291661 56.000000
2.564888 0.680048 0.295861 35.000000
2.586590 0.655681 0.297851 36.000000
2.617704 0.633337 0.300955 59.000000
2.638929 0.608069 0.302870 64.000000
2.655040 0.581421 0.304232 80.000000
2.680677 0.556414 0.306709 59.000000
2.696314 0.529154 0.308160 20.000000
2.721426 0.503319 0.310559 9.000000
2.741382 0.476208 0.312488 13.000000
2.854318 0.463746 0.325031 58.000000
2.864115 0.433407 0.325767 71.000000
2.908016 0.407611 0.330508 90.000000
2.927038 0.377776 0.332367 76.000000
2.960541 0.349274 0.335907 73.000000
2.988904 0.319689 0.338798 70.000000
3.031701 0.290805 0.343466 35.000000
3.000040 0.254750 0.339728 8.000000
3.091816 0.228611 0.349915 8.000000
3.118894 0.196467 0.352814 8.000000
3.185314 0.165751 0.360204 8.000000
3.216764 0.132198 0.363669 8.000000
3.242780 0.097846 0.366575 10.000000
3.328122 0.064101 0.376221 65.000000
3.358442 0.028057 0.379590 70.000000
3.403259 -0.008780 0.384644 73.000000
3.462559 -0.046689 0.391382 95.000000
3.402214 -0.082991 0.384644 81.000000
3.371377 -0.119045 0.381274 26.000000
3.310268 -0.153071 0.374536 10.000000
3.298516 -0.188634 0.373312 21.000000
3.306197 -0.225332 0.374333 63.000000
3.214400 -0.254308 0.364231 24.000000
3.196584 -0.288027 0.362448 71.000000
3.163672 -0.319824 0.358887 58.000000
3.135274 -0.351529 0.355986 56.000000
3.106645 -0.382695 0.352991 56.000000
3.062925 -0.411244 0.348413 29.000000
3.004189 -0.436788 0.342065 9.000000
2.999248 -0.469512 0.341879 9.000000
2.891032 -0.484975 0.329948 7.000000
2.895413 -0.518145 0.330886 9.000000
2.865226 -0.545117 0.327912 9.000000
2.859135 -0.576198 0.327644 9.000000
2.833247 -0.603229 0.325144 10.000000
2.826575 -0.634098 0.324877 29.000000
2.833966 -0.668299 0.326281 69.000000
2.831458 -0.700341 0.326569 47.000000
2.780372 -0.719942 0.321297 29.000000
2.762842 -0.747510 0.319834 62.000000
2.730669 -0.770819 0.316796 76.000000
2.717276 -0.799214 0.315894 77.000000
2.727498 -0.834514 0.317760 35.000000
2.737245 -0.870140 0.319622 26.000000
2.817294 -0.929624 0.329855 25.000000
2.910536 -0.995618 0.341538 24.000000
2.913537 -1.032332 0.342814 9.000000
3.014226 -1.104990 0.355548 4.000000
3.285474 -1.245363 0.388690 2.000000
3.322678 -1.300783 0.394190 1.000000
3.432734 -1.387326 0.408445 1.000000
3.371741 -1.405378 0.402402 1.000000
3.095878 -1.330323 0.370678 2.000000
3.208435 -1.420489 0.385447 1.000000
3.351324 -1.527318 0.403878 1.000000
3.091479 -1.449874 0.373921 1.000000
3.079917 -1.485893 0.373835 1.000000
3.206250 -1.589722 0.390564 1.000000
3.122241 -1.590919 0.381782 1.000000
3.091495 -1.618105 0.379514 1.000000
3.043276 -1.634951 0.374988 1.000000
3.247245 -1.790555 0.401822 1.000000
3.001029 -1.741698 0.374689 1.000000
2.776802 -1.652473 0.348328 2.000000
2.831106 -1.726225 0.356624 7.000000
2.782562 -1.738824 0.352176 6.000000
2.830317 -1.812129 0.359991 3.000000
2.764576 -1.813083 0.353423 2.000000
2.802367 -1.882232 0.360139 1.000000
2.737092 -1.881196 0.353489 1.000000
2.756961 -1.939773 0.358056 2.000000
2.763894 -1.990321 0.360917 2.000000
2.757955 -2.032327 0.362183 2.000000
2.711740 -2.044644 0.358300 2.000000
2.764039 -2.131944 0.367410 3.000000
2.612260 -2.059797 0.349118 2.000000
2.558631 -2.063406 0.344136 3.000000
2.417006 -1.993359 0.327228 3.000000
2.379881 -2.006971 0.324290 6.000000
2.369020 -2.042791 0.325077 8.000000
2.354022 -2.075283 0.325244 10.000000
2.371842 -2.137616 0.330032 18.000000
2.333700 -2.150096 0.327100 12.000000
2.292809 -2.157682 0.323474 9.000000
2.283387 -2.196589 0.324643 9.000000
2.259282 -2.221471 0.323671 9.000000
2.241902 -2.253212 0.323810 12.000000
2.203257 -2.263428 0.320814 10.000000
2.185313 -2.294662 0.320852 13.000000
2.166921 -2.325755 0.320885 8.000000
2.067745 -2.268560 0.308895 9.000000
1.943560 -2.179664 0.292980 10.000000
1.770203 -2.027594 0.269031 9.000000
1.589676 -1.861441 0.243838 8.000000
1.502347 -1.798591 0.232711 10.000000
1.400810 -1.714719 0.219118 19.000000
1.372752 -1.718334 0.216899 32.000000
1.341749 -1.717554 0.214201 33.000000
1.319949 -1.728169 0.212979 36.000000
1.304122 -1.746493 0.212664 36.000000
1.279140 -1.752622 0.210961 26.000000
1.265760 -1.774630 0.211194 24.000000
1.252069 -1.796564 0.211353 30.000000
1.243737 -1.826581 0.212461 30.000000
1.223751 -1.840131 0.211648 30.000000
1.198275 -1.845061 0.209885 30.000000
1.181924 -1.861606 0.209481 29.000000
1.169443 -1.887143 0.210083 29.000000
1.154043 -1.908320 0.210205 24.000000
1.168606 -1.980856 0.215858 9.000000
1.139235 1.961462 0.230101 6.000000
1.127441 1.893309 0.224488 10.000000
1.151951 1.889973 0.226588 16.000000
1.156716 1.851897 0.224403 27.000000
1.179492 1.843225 0.225855 14.000000
1.194047 1.821881 0.225764 21.000000
1.208221 1.800389 0.225598 21.000000
1.236228 1.799313 0.228088 16.000000
1.247140 1.773445 0.227394 25.000000
1.277985 1.775751 0.230353 9.000000
1.285460 1.745637 0.229124 24.000000
1.304421 1.731400 0.229988 25.000000
1.320147 1.713091 0.230324 18.000000
1.341810 1.702393 0.231652 28.000000
1.356322 1.684350 0.232050 24.000000
1.390375 1.688538 0.235522 21.000000
1.395897 1.657952 0.234246 26.000000
1.413860 1.642518 0.235045 10.000000
1.418555 1.611958 0.233679 27.000000
1.449386 1.611050 0.236575 31.000000
1.470247 1.598675 0.237917 26.000000
1.480843 1.575163 0.237559 34.000000
1.504788 1.565934 0.239451 28.000000
1.514230 1.542838 0.239152 27.000000
1.541582 1.536569 0.241536 29.000000
1.547617 1.509119 0.240612 16.000000
1.571202 1.498853 0.242452 33.000000
1.591172 1.484840 0.243742 35.000000
1.603609 1.463846 0.243852 29.000000
1.626958 1.452727 0.245638 46.000000
1.646039 1.438513 0.247003 33.000000
1.665459 1.423547 0.248237 32.000000
1.684747 1.408295 0.249475 34.000000
1.707750 1.395901 0.251213 22.000000
1.707404 1.364594 0.249622 34.000000
1.737966 1.357961 0.252501 30.000000
1.764100 1.348312 0.254957 35.000000
1.782744 1.331709 0.256143 44.000000
1.797236 1.312021 0.256758 31.000000
1.807480 1.289245 0.256730 32.000000
1.829612 1.274939 0.258496 32.000000
1.834967 1.249548 0.258026 17.000000
1.869218 1.243041 0.261464 38.000000
1.886832 1.225124 0.262596 33.000000
1.900172 1.204249 0.263149 34.000000
1.930130 1.193684 0.266030 50.000000
1.951254 1.177966 0.267825 31.000000
1.972629 1.161434 0.269484 35.000000
1.989527 1.142170 0.270562 36.000000
1.997320 1.118173 0.270610 20.000000
2.039930 1.112800 0.275218 48.000000
2.051999 1.090305 0.275718 36.000000
2.077011 1.074584 0.277989 33.000000
2.097306 1.056484 0.279675 56.000000
2.122084 1.039943 0.281957 34.000000
2.133124 1.016846 0.282465 35.000000
2.157605 0.999646 0.284684 37.000000
2.159368 0.971818 0.283932 14.000000
2.201544 0.962299 0.288616 36.000000
2.239378 0.949704 0.292642 36.000000
2.267835 0.932883 0.295559 34.000000
2.273249 0.906095 0.295337 35.000000
2.319923 0.895648 0.300588 32.000000
2.338855 0.873665 0.302171 32.000000
2.362224 0.853242 0.304437 33.000000
2.357275 0.822394 0.303016 10.000000
2.398952 0.807770 0.307622 49.000000
2.426473 0.787753 0.310427 43.000000
2.430128 0.759762 0.310214 31.000000
2.466786 0.741644 0.314159 57.000000
2.498467 0.721603 0.317585 34.000000
2.515708 0.696988 0.319199 34.000000
2.561547 0.679722 0.324380 40.000000
2.563908 0.650472 0.324097 10.000000
2.599760 0.629502 0.328075 34.000000
2.625765 0.605672 0.330841 45.000000
2.646770 0.580108 0.333002 35.000000
2.662570 0.553134 0.334473 35.000000
2.717117 0.533683 0.340832 34.000000
2.732495 0.505859 0.342395 25.000000
2.752460 0.478502 0.344487 24.000000
2.811405 0.457196 0.351393 22.000000
2.850567 0.431743 0.355944 37.000000
2.894401 0.406052 0.361025 73.000000
2.913389 0.376323 0.363135 35.000000
2.946840 0.348018 0.366998 57.000000
2.994895 0.320561 0.372706 35.000000
2.983319 0.286443 0.371049 19.000000
3.006045 0.255498 0.373599 8.000000
3.072972 0.227417 0.381776 6.000000
3.109911 0.196058 0.386176 7.000000
3.156424 0.164363 0.391807 8.000000
3.212611 0.132198 0.398672 7.000000
3.248514 0.098146 0.403078 9.000000
3.299023 0.063622 0.409232 34.000000
3.334263 0.027891 0.413643 29.000000
3.393907 -0.008663 0.421029 68.000000
3.433285 -0.046354 0.425953 65.000000
3.377983 -0.082506 0.419182 62.000000
3.352149 -0.118519 0.416105 24.000000
3.316009 -0.153428 0.411694 9.000000
3.279393 -0.187682 0.407386 17.000000
3.262319 -0.222529 0.405439 34.000000
3.225080 -0.255384 0.401033 28.000000
3.162793 -0.285254 0.393555 71.000000
3.120075 -0.315730 0.388539 35.000000
3.126273 -0.350879 0.389575 37.000000
3.107533 -0.383110 0.387539 63.000000
3.039267 -0.408410 0.379366 19.000000
3.000273 -0.436602 0.374976 9.000000
2.956113 -0.463181 0.369882 8.000000
2.936188 -0.492920 0.367767 7.000000
2.891619 -0.517964 0.362683 9.000000
2.871213 -0.546705 0.360576 8.000000
2.840780 -0.572986 0.357247 9.000000
2.824657 -0.601928 0.355757 9.000000
2.788945 -0.626221 0.351826 17.000000
2.820641 -0.665662 0.356445 51.000000
2.798793 -0.692828 0.354260 35.000000
2.747845 -0.712120 0.348510 18.000000
2.744780 -0.743267 0.348770 74.000000
2.712682 -0.766422 0.345380 33.000000
2.704188 -0.795977 0.345033 51.000000
2.714329 -0.831345 0.347114 35.000000
2.705165 -0.860845 0.346765 16.000000
2.804133 -0.926056 0.360254 25.000000
2.864401 -0.980583 0.368871 13.000000
2.904968 -1.030199 0.375143 9.000000
2.986886 -1.095850 0.386638 4.000000
3.327459 -1.262321 0.432042 1.000000
3.387508 -1.327399 0.441012 1.000000
3.363653 -1.360809 0.439251 1.000000
3.431278 -1.431576 0.449382 1.000000
3.150916 -1.355303 0.414056 1.000000
3.167925 -1.403541 0.417611 1.000000
3.369157 -1.537054 0.445647 1.000000
2.997205 -1.407259 0.397945 1.000000
3.241127 -1.564808 0.431774 1.000000
3.134935 -1.556172 0.419218 1.000000
3.113153 -1.674617 0.421207 1.000000
2.902315 -1.685977 0.397641 1.000000
2.806962 -1.672008 0.386350 1.000000
2.793128 -1.704816 0.386133 6.000000
2.795373 -1.748552 0.388353 5.000000
2.763479 -1.771213 0.385792 3.000000
2.810331 -1.845077 0.394407 1.000000
2.818828 -1.895361 0.397650 1.000000
2.966221 -2.040943 0.420490 1.000000
2.842148 -2.001968 0.405136 2.000000
2.916725 -2.102865 0.418032 2.000000
2.773628 -2.046440 0.399863 2.000000
2.560796 -1.933190 0.371418 3.000000
2.516504 -1.942285 0.366895 3.000000
2.463832 -1.945298 0.361537 6.000000
2.446288 -1.975420 0.361240 7.000000
2.455197 -2.027577 0.364925 6.000000
2.402437 -2.028834 0.359404 9.000000
2.391405 -2.064943 0.360234 9.000000
2.350749 -2.073839 0.356343 9.000000
2.457054 -2.216104 0.375092 45.000000
2.396138 -2.209355 0.368459 12.000000
2.295887 -2.164015 0.355695 9.000000
2.279305 -2.196005 0.355844 8.000000
2.248022 -2.214012 0.353661 7.000000
2.230705 -2.245674 0.353802 10.000000
2.200059 -2.262071 0.351529 9.000000
2.178680 -2.289701 0.351015 10.000000
2.170476 -2.331665 0.352699 8.000000
2.094754 -2.300217 0.343394 7.000000
1.966961 -2.208099 0.325300 9.000000
1.795876 -2.060905 0.299774 8.000000
1.602418 -1.880055 0.269977 7.000000
1.515027 -1.817321 0.257770 9.000000
1.407178 -1.726006 0.241787 10.000000
1.376728 -1.725093 0.238748 22.000000
1.333427 -1.708713 0.233581 25.000000
1.311717 -1.719331 0.232249 23.000000
1.298944 -1.741572 0.232516 32.000000
1.268158 -1.739638 0.229529 24.000000
1.278046 -1.793942 0.234019 13.000000
1.247080 -1.791543 0.231035 28.000000
1.238705 -1.821521 0.232261 21.000000
1.221583 -1.839115 0.231905 25.000000
1.198755 -1.848289 0.230504 21.000000
1.186525 -1.873940 0.231180 21.000000
1.160812 -1.878410 0.229263 25.000000
1.151787 -1.907363 0.230303 19.000000
1.156182 -1.962727 0.234465 9.000000
1.103174 1.905205 0.243415 8.000000
1.108637 1.867265 0.241118 22.000000
1.128974 1.854929 0.242185 26.000000
1.149112 1.842393 0.243119 27.000000
1.169183 1.829591 0.244119 31.000000
1.186267 1.812498 0.244558 29.000000
1.205959 1.799325 0.245556 26.000000
1.225518 1.785953 0.246487 30.000000
1.247733 1.776446 0.247986 24.000000
1.264105 1.758543 0.248417 28.000000
1.276319 1.737232 0.248271 34.000000
1.301161 1.731000 0.250346 28.000000
1.313933 1.708756 0.250125 33.000000
1.332476 1.694187 0.251052 29.000000
1.350886 1.679419 0.251913 32.000000
1.369097 1.664452 0.252840 33.000000
1.390372 1.653088 0.254285 27.000000
1.398581 1.626394 0.253389 31.000000
1.415522 1.611496 0.254312 35.000000
1.449643 1.614278 0.258122 35.000000
1.460465 1.590894 0.257803 50.000000
1.484584 1.581938 0.259789 36.000000
1.494914 1.558303 0.259396 35.000000
1.522267 1.552342 0.261987 38.000000
1.528633 1.524982 0.260989 30.000000
1.548779 1.511457 0.262388 34.000000
1.571790 1.501749 0.264460 35.000000
1.584538 1.480916 0.264657 35.000000
1.608001 1.470077 0.266605 46.000000
1.631409 1.458807 0.268559 35.000000
1.647290 1.440706 0.269300 42.000000
1.673807 1.432689 0.271945 52.000000
1.677975 1.404570 0.270847 32.000000
1.689478 1.382788 0.270905 35.000000
1.708390 1.367157 0.272260 36.000000
1.723262 1.348248 0.272933 44.000000
1.749754 1.338179 0.275468 40.000000
1.751995 1.310363 0.274346 34.000000
1.778276 1.299697 0.276823 45.000000
1.816658 1.297279 0.281250 57.000000
1.826666 1.274322 0.281242 32.000000
1.844330 1.257385 0.282623 36.000000
1.849736 1.231426 0.281914 35.000000
1.863135 1.210918 0.282529 56.000000
1.893012 1.200970 0.285673 57.000000
1.926853 1.193475 0.289530 37.000000
1.948313 1.177336 0.291357 56.000000
1.939697 1.143174 0.288738 57.000000
1.981985 1.139416 0.293823 32.000000
2.011599 1.127236 0.296940 43.000000
2.028155 1.107404 0.298076 35.000000
2.053092 1.092349 0.300639 39.000000
2.078108 1.076505 0.303066 62.000000
2.089631 1.053890 0.303715 53.000000
2.105462 1.033028 0.304863 42.000000
2.125599 1.014057 0.306587 56.000000
2.140896 0.993022 0.307814 33.000000
2.174173 0.979600 0.311487 35.000000
2.193753 0.959868 0.313372 35.000000
2.217761 0.941506 0.315764 36.000000
2.232356 0.919218 0.316933 36.000000
2.256126 0.900133 0.319334 33.000000
2.274945 0.879108 0.321088 33.000000
2.298257 0.859543 0.323575 38.000000
2.321457 0.839296 0.325916 24.000000
2.344462 0.818819 0.328338 36.000000
2.367268 0.797959 0.330765 60.000000
2.394660 0.778247 0.333778 34.000000
2.431335 0.760930 0.338191 42.000000
2.467889 0.742914 0.342535 62.000000
2.475824 0.715778 0.342853 37.000000
2.512096 0.696828 0.347210 81.000000
2.519480 0.669298 0.347611 28.000000
2.584265 0.656328 0.355870 42.000000
2.605692 0.631590 0.358185 45.000000
2.617208 0.604225 0.359260 51.000000
2.652619 0.581982 0.363488 62.000000
2.678214 0.557003 0.366478 81.000000
2.713285 0.533513 0.370802 65.000000
2.728650 0.505603 0.372388 63.000000
2.694891 0.468984 0.367321 10.000000
2.743880 0.446670 0.373566 9.000000
2.777899 0.421080 0.377821 15.000000
2.836289 0.398292 0.385416 31.000000
2.879748 0.372330 0.390929 53.000000
2.908197 0.343764 0.394535 57.000000
2.941365 0.315189 0.398723 54.000000
2.949577 0.283506 0.399573 26.000000
2.912909 0.247844 0.394318 6.000000
3.043906 0.225492 0.411882 8.000000
3.070888 0.193778 0.415320 9.000000
3.092670 0.161266 0.418091 9.000000
3.143703 0.129449 0.424877 9.000000
3.169726 0.095801 0.428320 10.000000
3.259678 0.062953 0.440467 53.000000
3.319636 0.027808 0.448602 59.000000
3.374242 -0.008625 0.455967 77.000000
3.433383 -0.046316 0.464002 98.000000
3.383214 -0.082644 0.457307 95.000000
3.337501 -0.118065 0.451178 28.000000
3.291514 -0.152511 0.445153 10.000000
3.284640 -0.188148 0.444382 22.000000
3.272524 -0.223340 0.442943 88.000000
3.190867 -0.252837 0.432139 67.000000
3.153463 -0.284613 0.427359 69.000000
3.135359 -0.317534 0.425255 95.000000
3.102127 -0.348473 0.421051 67.000000
3.068679 -0.378669 0.416851 65.000000
3.054573 -0.410864 0.415325 49.000000
2.966564 -0.432037 0.403789 9.000000
2.961671 -0.464440 0.403604 9.000000
2.917408 -0.490273 0.397994 9.000000
2.887554 -0.517693 0.394480 9.000000
2.871947 -0.547363 0.392877 10.000000
2.851342 -0.575750 0.390521 9.000000
2.796428 -0.596493 0.383604 10.000000
2.833341 -0.636824 0.389319 32.000000
2.797339 -0.660837 0.384979 29.000000
2.761131 -0.684218 0.380646 21.000000
2.758308 -0.715591 0.381046 32.000000
2.731192 -0.740498 0.378047 70.000000
2.718320 -0.768773 0.376863 84.000000
2.695534 -0.794316 0.374620 51.000000
2.677233 -0.820826 0.372868 42.000000
2.734294 -0.871027 0.381665 31.000000
2.790636 -0.922581 0.390441 24.000000
2.846053 -0.975390 0.399196 23.000000
2.900799 -1.029536 0.407929 20.000000
2.945165 -1.081884 0.415329 6.000000
3.169616 -1.203596 0.448165 2.000000
3.285677 -1.288718 0.465859 2.000000
3.321877 -1.345145 0.472505 1.000000
3.334650 -1.392682 0.475648 1.000000
3.305640 -1.423397 0.473136 1.000000
2.990927 -1.326526 0.429419 2.000000
3.156601 -1.441742 0.454803 1.000000
3.212692 -1.509657 0.464325 1.000000
3.182585 -1.538364 0.461727 1.000000
3.107895 -1.544601 0.452667 1.000000
2.971896 -1.517372 0.434386 1.000000
3.007745 -1.577561 0.441399 1.000000
2.955677 -1.591264 0.435418 1.000000
2.855657 -1.578132 0.422495 2.000000
2.743293 -1.555646 0.407690 3.000000
2.760800 -1.605185 0.411934 5.000000
2.747273 -1.638089 0.411884 7.000000
2.750320 -1.681137 0.414284 7.000000
2.748983 -1.721321 0.415835 6.000000
2.771665 -1.778239 0.421383 4.000000
2.772732 -1.822355 0.423739 2.000000
2.678560 -1.803024 0.411544 2.000000
2.593834 -1.786713 0.400460 3.000000
2.590282 -1.826634 0.402105 5.000000
2.558033 -1.846395 0.399344 8.000000
2.525683 -1.865696 0.396591 9.000000
2.509648 -1.895731 0.396153 10.000000
2.465103 -1.905101 0.391542 12.000000
2.463577 -1.947507 0.393693 10.000000
2.469043 -1.996484 0.397168 9.000000
2.412658 -1.995175 0.390620 9.000000
2.398187 -2.028061 0.390892 9.000000
2.369042 -2.047072 0.388502 9.000000
2.324200 -2.053356 0.383759 9.000000
2.316232 -2.092220 0.385255 9.000000
2.289551 -2.114287 0.383588 9.000000
2.259048 -2.132580 0.381316 9.000000
2.286523 -2.204785 0.388574 9.000000
2.237464 -2.205397 0.383262 9.000000
2.213221 -2.229930 0.382199 9.000000
2.174857 -2.239929 0.378632 10.000000
2.150286 -2.263828 0.377481 9.000000
2.125428 -2.287343 0.376329 9.000000
2.060213 -2.266488 0.368020 9.000000
2.015565 -2.266823 0.363322 13.000000
1.907034 -2.190626 0.346612 23.000000
1.928086 -2.264347 0.353810 16.000000
1.604632 -1.926807 0.297285 17.000000
1.454956 -1.786445 0.272229 17.000000
1.364263 -1.713034 0.257860 18.000000
1.348540 -1.731823 0.257568 23.000000
1.308531 -1.718866 0.252626 30.000000
1.280852 -1.721184 0.249961 30.000000
1.286377 -1.766620 0.253583 23.000000
1.258402 -1.768511 0.250920 18.000000
1.247571 -1.794482 0.251703 21.000000
1.222385 -1.799893 0.249690 24.000000
1.205482 -1.817332 0.249255 21.000000
1.196457 -1.847140 0.250580 24.000000
1.170935 -1.851855 0.248507 22.000000
1.171554 -1.898466 0.251987 18.000000
1.158484 -1.923980 0.252705 17.000000
1.134932 -1.932316 0.251114 8.000000
1.108263 1.916815 0.264935 8.000000
1.103771 1.861795 0.260126 30.000000
1.129152 1.857971 0.262388 30.000000
1.141530 1.832700 0.261653 31.000000
1.169453 1.832574 0.264527 34.000000
1.182807 1.811965 0.264450 29.000000
1.196983 1.790541 0.264297 39.000000
1.219256 1.781325 0.265968 33.000000
1.241485 1.771782 0.267577 32.000000
1.252037 1.745914 0.266727 32.000000
1.268064 1.727973 0.267100 31.000000
1.289829 1.717901 0.268709 36.000000
1.311483 1.707497 0.270323 35.000000
1.327027 1.689028 0.270691 36.000000
1.347575 1.678823 0.272376 49.000000
1.365852 1.663856 0.273369 33.000000
1.380742 1.644893 0.273664 32.000000
1.395417 1.625801 0.273955 32.000000
1.419625 1.617765 0.276150 49.000000
1.437241 1.601938 0.277011 51.000000
1.458009 1.589699 0.278579 47.000000
1.474603 1.574100 0.279575 71.000000
1.502016 1.568449 0.282372 74.000000
1.519125 1.551740 0.283240 61.000000
1.536034 1.534831 0.284109 50.000000
1.552743 1.517789 0.284978 35.000000
1.569251 1.500546 0.285780 51.000000
1.592261 1.490479 0.288025 72.000000
1.612164 1.476101 0.289487 55.000000
1.628247 1.458134 0.290294 56.000000
1.651584 1.446631 0.292422 71.000000
1.663637 1.425021 0.292571 48.000000
1.674879 1.403898 0.292784 85.000000
1.682489 1.378976 0.292193 29.000000
1.701428 1.363385 0.293597 40.000000
1.716266 1.344452 0.294336 67.000000
1.738365 1.331949 0.296483 38.000000
1.748900 1.309622 0.296485 73.000000
1.771162 1.296026 0.298506 40.000000
1.781260 1.273542 0.298574 33.000000
1.823240 1.274048 0.304056 58.000000
1.841171 1.256630 0.305420 29.000000
1.858957 1.238915 0.306718 58.000000
1.863868 1.213347 0.306111 69.000000
1.881203 1.195312 0.307411 47.000000
1.906808 1.182268 0.310083 49.000000
1.927862 1.166659 0.312215 49.000000
1.953363 1.152897 0.314833 36.000000
1.991626 1.146052 0.319595 73.000000
2.003804 1.124387 0.320232 28.000000
2.020397 1.104602 0.321490 43.000000
2.054027 1.094176 0.325664 75.000000
2.061465 1.069162 0.325472 35.000000
2.077478 1.048636 0.326739 54.000000
2.106441 1.034705 0.330171 54.000000
2.108717 1.007148 0.329282 33.000000
2.137409 0.992514 0.332654 40.000000
2.152599 0.970944 0.333862 25.000000
2.181146 0.955380 0.337249 32.000000
2.209571 0.939273 0.340572 42.000000
2.233440 0.920585 0.343199 33.000000
2.247866 0.897997 0.344425 32.000000
2.275882 0.880594 0.347769 52.000000
2.294632 0.858939 0.349557 34.000000
2.331696 0.843970 0.354330 32.000000
2.322028 0.811902 0.351956 29.000000
2.349431 0.792827 0.355247 35.000000
2.395568 0.779391 0.361386 52.000000
2.427492 0.760537 0.365406 43.000000
2.454525 0.739661 0.368645 42.000000
2.467182 0.714164 0.369832 51.000000
2.493858 0.692375 0.373001 37.000000
2.520330 0.670249 0.376337 36.000000
2.565855 0.652423 0.382376 29.000000
2.592029 0.628927 0.385646 35.000000
2.617976 0.605009 0.388840 63.000000
2.643688 0.580670 0.392121 56.000000
2.674003 0.556750 0.396042 51.000000
2.699318 0.531346 0.399252 66.000000
2.714648 0.503542 0.400943 51.000000
2.720011 0.473827 0.401199 18.000000
2.729833 0.444907 0.402259 8.000000
2.758984 0.418680 0.406115 9.000000
2.807469 0.394672 0.412771 9.000000
2.821392 0.365253 0.414474 10.000000
2.874298 0.340185 0.421951 21.000000
2.922053 0.313423 0.428623 33.000000
2.930241 0.281902 0.429527 23.000000
2.947935 0.251113 0.431875 9.000000
3.029433 0.224666 0.443617 8.000000
3.046494 0.192436 0.445879 8.000000
3.097783 0.161687 0.453297 9.000000
3.124029 0.128838 0.457008 8.000000
3.194514 0.096699 0.467132 10.000000
3.230026 0.062375 0.472293 36.000000
3.265155 0.027393 0.477457 39.000000
3.354308 -0.008587 0.490478 72.000000
3.403467 -0.045981 0.497712 95.000000
3.353273 -0.082039 0.490478 88.000000
3.327415 -0.117787 0.486758 26.000000
3.286441 -0.152409 0.480972 9.000000
3.235222 -0.185498 0.473640 25.000000
3.237959 -0.221216 0.474263 67.000000
3.215629 -0.255085 0.471271 29.000000
3.128879 -0.282638 0.458790 60.000000
3.115740 -0.315940 0.457248 78.000000
3.097417 -0.348280 0.454889 77.000000
3.068924 -0.379086 0.451088 69.000000
3.025405 -0.407373 0.445126 32.000000
2.962041 -0.431853 0.436192 10.000000
2.942484 -0.461953 0.433845 9.000000
2.898306 -0.487538 0.427808 7.000000
2.873297 -0.515674 0.424657 10.000000
2.848094 -0.543384 0.421509 18.000000
2.856564 -0.577442 0.423398 29.000000
2.859861 -0.610695 0.424565 62.000000
2.819215 -0.634294 0.419180 31.000000
2.754478 -0.651373 0.410130 10.000000
2.732738 -0.677910 0.407719 9.000000
2.701324 -0.701558 0.403791 11.000000
2.712682 -0.736088 0.406222 63.000000
2.709296 -0.767077 0.406503 81.000000
2.686548 -0.792483 0.404014 67.000000
2.658901 -0.815953 0.400730 34.000000
2.701675 -0.861563 0.408137 25.000000
2.762710 -0.914354 0.418282 26.000000
2.822882 -0.968502 0.428401 20.000000
2.868173 -1.019119 0.436457 9.000000
2.894075 -1.064032 0.441564 6.000000
3.141370 -1.194384 0.480634 2.000000
3.202031 -1.257524 0.491323 2.000000
3.312104 -1.342513 0.509639 2.000000
3.283531 -1.373139 0.506863 1.000000
3.300322 -1.422511 0.511023 1.000000
3.044910 -1.351936 0.472998 2.000000
2.952106 -1.388771 0.461750 1.000000
2.985741 -1.444871 0.468742 1.000000
2.947832 -1.466255 0.464433 2.000000
2.878696 -1.471581 0.455354 3.000000
2.809852 -1.475642 0.446302 4.000000
2.811246 -1.515459 0.448201 7.000000
2.794416 -1.546362 0.447414 8.000000
2.764765 -1.569244 0.444451 8.000000
2.781662 -1.619644 0.449196 10.000000
2.750954 -1.642576 0.446333 10.000000
2.737408 -1.674877 0.446034 9.000000
2.748189 -1.723453 0.450053 8.000000
2.720866 -1.748381 0.447782 7.000000
2.639869 -1.736840 0.436522 7.000000
2.600056 -1.752109 0.432232 8.000000
2.584815 -1.783512 0.432044 8.000000
2.553424 -1.802706 0.428941 10.000000
2.581674 -1.865638 0.436117 14.000000
2.541155 -1.879362 0.431752 19.000000
2.508568 -1.898431 0.428753 13.000000
2.460695 -1.904047 0.422972 11.000000
2.431940 -1.925015 0.420575 11.000000
2.429893 -1.967350 0.422971 9.000000
2.400500 -1.987796 0.420575 9.000000
2.375506 -2.010317 0.418756 10.000000
2.349528 -2.033139 0.417037 10.000000
2.323429 -2.055686 0.415226 10.000000
2.300791 -2.081286 0.414175 9.000000
2.285048 -2.113329 0.414348 10.000000
2.262625 -2.137668 0.413102 10.000000
2.239051 -2.162487 0.411952 9.000000
2.215287 -2.187114 0.410803 9.000000
2.198213 -2.218497 0.410861 10.000000
2.153093 -2.221267 0.405806 16.000000
2.114978 -2.230490 0.401974 21.000000
2.074555 -2.234649 0.397419 29.000000
2.060063 -2.268370 0.398132 73.000000
2.015409 -2.268759 0.392959 39.000000
1.931932 -2.223512 0.380223 34.000000
1.897917 -2.233294 0.377130 17.000000
1.600780 -1.926114 0.321173 20.000000
1.482769 -1.824295 0.300445 23.000000
1.361773 -1.711755 0.278451 20.000000
1.346112 -1.730542 0.278138 29.000000
1.294131 -1.701877 0.270296 29.000000
1.275454 -1.716016 0.269309 30.000000
1.256711 -1.729958 0.268389 23.000000
1.252130 -1.763932 0.270504 22.000000
1.238492 -1.785791 0.270743 25.000000
1.224542 -1.807507 0.270972 26.000000
1.201998 -1.816797 0.269351 26.000000
1.188633 -1.837590 0.269434 26.000000
1.176462 -1.863166 0.270183 27.000000
1.148258 -1.863362 0.267348 23.000000
1.153444 -1.918484 0.272309 21.000000
1.134966 -1.935359 0.271810 9.000000
1.098307 1.902569 0.282823 9.000000
1.100112 1.861130 0.279619 25.000000
1.122973 1.853062 0.281460 27.000000
1.140562 1.836248 0.281947 28.000000
1.160520 1.823541 0.283078 32.000000
1.174931 1.802263 0.282905 31.000000
1.194533 1.789151 0.284031 33.000000
1.216800 1.779932 0.285814 34.000000
1.239023 1.770385 0.287535 30.000000
1.242834 1.737193 0.285422 26.000000
1.264636 1.727314 0.287205 35.000000
1.286394 1.717174 0.288927 32.000000
1.302078 1.698904 0.289314 35.000000
1.323591 1.688301 0.290975 35.000000
1.341959 1.673567 0.292032 33.000000
1.360128 1.658635 0.293023 45.000000
1.377373 1.644166 0.294146 29.000000
1.385611 1.617552 0.293092 27.000000
1.413051 1.613245 0.296128 42.000000
1.433863 1.601209 0.297805 36.000000
1.451346 1.585250 0.298733 42.000000
