x y z intensity
1.393506 -1.369775 1.393432 28.000000
1.381510 -1.391345 1.392666 28.000000
1.335214 -1.377670 1.357088 16.000000
1.333328 -1.410954 1.368191 29.000000
1.320883 -1.431864 1.367222 33.000000
1.300144 -1.443495 1.357499 28.000000
1.271186 -1.445587 1.339172 28.000000
1.249376 -1.456952 1.329898 26.000000
1.236627 -1.476854 1.328604 25.000000
1.214632 -1.487679 1.319229 25.000000
1.193914 -1.497578 1.309319 18.000000
1.169382 -1.504356 1.297055 26.000000
1.143755 -1.506923 1.281477 27.000000
1.134348 -1.532819 1.285889 25.000000
1.109935 -1.538651 1.273528 29.000000
1.086923 -1.543375 1.260734 25.000000
1.067387 -1.555183 1.253879 26.000000
1.047719 -1.566785 1.247042 22.000000
1.028059 -1.578046 1.240085 10.000000
1.056492 1.619225 1.300243 17.000000
1.081328 1.614191 1.312980 17.000000
1.100128 1.602573 1.320512 23.000000
1.120364 1.590027 1.327562 22.000000
1.138044 1.573929 1.331731 22.000000
1.159188 1.564734 1.341933 23.000000
1.174094 1.544861 1.343201 25.000000
1.202763 1.544849 1.361942 18.000000
1.217600 1.524397 1.362936 21.000000
1.241281 1.517121 1.375985 24.000000
1.267713 1.512544 1.391750 30.000000
1.279564 1.488299 1.389730 28.000000
1.303423 1.479857 1.402607 27.000000
1.310977 1.452850 1.398024 26.000000
1.331905 1.440760 1.407816 25.000000
1.358541 1.434189 1.423488 22.000000
1.375038 1.415017 1.426832 18.000000
1.396056 1.401876 1.436497 18.000000
1.410083 1.383222 1.440825 24.000000
1.433899 1.372264 1.453343 25.000000
1.451859 1.355268 1.459832 23.000000
1.472628 1.340826 1.469305 25.000000
1.487432 1.320584 1.472703 26.000000
1.504060 1.303347 1.479614 21.000000
1.530762 1.293030 1.494751 18.000000
1.541101 1.270038 1.495492 21.000000
1.561650 1.253952 1.504544 29.000000
1.577942 1.235467 1.511147 26.000000
1.594210 1.216745 1.517535 27.000000
1.613494 1.200161 1.526959 28.000000
1.623142 1.176174 1.527166 28.000000
1.632509 1.152043 1.527282 22.000000
1.674375 1.150312 1.557656 17.000000
1.667107 1.114673 1.542336 22.000000
1.699219 1.105156 1.563437 26.000000
1.698036 1.073888 1.553936 26.000000
1.722500 1.059766 1.569453 25.000000
1.734297 1.036562 1.571875 25.000000
1.769016 1.027531 1.596454 26.000000
1.787440 1.007561 1.604832 23.000000
1.798092 0.983871 1.607614 12.000000
1.801643 0.956336 1.604057 19.000000
1.811859 0.932499 1.606591 21.000000
1.825507 0.910175 1.612067 21.000000
1.846014 0.891006 1.623681 24.000000
1.845105 0.861536 1.616431 22.000000
1.864608 0.842166 1.628390 22.000000
1.863275 0.812659 1.620953 17.000000
1.886163 0.794283 1.635741 12.000000
1.901710 0.772434 1.644231 22.000000
1.913527 0.748813 1.649448 24.000000
1.918564 0.721950 1.647602 19.000000
1.922047 0.695583 1.646873 22.000000
1.925901 0.668992 1.645416 20.000000
1.940636 0.646023 1.653141 17.000000
1.950920 0.621840 1.658294 16.000000
1.969142 0.599501 1.668947 10.000000
1.979015 0.574785 1.673797 13.000000
1.981354 0.547824 1.672182 13.000000
1.990926 0.522768 1.676714 14.000000
2.000358 0.497613 1.681171 12.000000
1.986945 0.466963 1.666416 11.000000
1.987750 0.440233 1.664778 10.000000
1.985229 0.412493 1.659168 9.000000
1.993183 0.387325 1.663616 10.000000
2.004797 0.362666 1.670999 10.000000
2.000954 0.335175 1.665539 10.000000
2.016013 0.310825 1.675862 10.000000
2.015572 0.283861 1.673251 10.000000
2.018226 0.257646 1.674296 10.000000
2.013611 0.230312 1.668182 10.000000
2.019694 0.204506 1.672082 9.000000
2.044761 0.180131 1.691724 9.000000
2.038934 0.152928 1.685768 10.000000
2.044402 0.126560 1.689111 10.000000
2.049713 0.100091 1.692373 10.000000
2.034946 0.072832 1.680132 9.000000
2.035429 0.046326 1.680535 10.000000
2.047238 0.019851 1.690245 14.000000
2.047319 -0.006806 1.690245 16.000000
2.039527 -0.033337 1.683717 16.000000
2.058478 -0.060460 1.699306 26.000000
2.046346 -0.086777 1.689273 19.000000
2.056604 -0.114156 1.698817 24.000000
2.055056 -0.140964 1.698654 26.000000
2.022583 -0.165178 1.672804 10.000000
2.047629 -0.194052 1.694578 22.000000
2.041677 -0.220314 1.690668 23.000000
2.038754 -0.247021 1.690506 23.000000
2.040065 -0.273999 1.692626 27.000000
2.025348 -0.298982 1.682533 24.000000
2.029419 -0.326655 1.688152 27.000000
2.018150 -0.351791 1.680916 25.000000
1.991465 -0.373795 1.660847 10.000000
1.968424 -0.395886 1.643891 20.000000
1.959889 -0.420891 1.640012 24.000000
1.959238 -0.447204 1.641673 25.000000
1.957855 -0.473773 1.643805 26.000000
1.948705 -0.498362 1.639456 29.000000
1.943161 -0.523862 1.638110 28.000000
1.929915 -0.547088 1.630377 28.000000
1.909112 -0.567826 1.616119 10.000000
1.906167 -0.594109 1.618171 22.000000
1.903510 -0.620097 1.619355 28.000000
1.885391 -0.641406 1.608516 24.000000
1.878125 -0.666094 1.606953 26.000000
1.864018 -0.687772 1.598341 26.000000
1.859408 -0.713915 1.600228 27.000000
1.847987 -0.736798 1.595151 27.000000
1.811110 -0.748986 1.567984 10.000000
1.824695 -0.781890 1.584477 24.000000
1.819277 -0.807584 1.585810 28.000000
1.796504 -0.824817 1.570882 26.000000
1.773101 -0.841829 1.556451 24.000000
1.774259 -0.870403 1.563618 28.000000
1.754066 -0.888462 1.552017 26.000000
1.740799 -0.909729 1.546555 25.000000
1.692801 -0.912100 1.510068 10.000000
1.700160 -0.943964 1.522870 24.000000
1.682467 -0.962739 1.514603 25.000000
1.675580 -0.986812 1.514822 27.000000
1.654243 -1.003014 1.503287 28.000000
1.653765 -1.030970 1.509406 31.000000
1.635518 -1.048739 1.500661 31.000000
1.623830 -1.070541 1.498038 27.000000
1.592294 -1.078773 1.476920 10.000000
1.573862 -1.095476 1.467956 24.000000
1.561923 -1.116407 1.465008 26.000000
1.543345 -1.132408 1.455859 24.000000
1.537455 -1.157753 1.458743 25.000000
1.524999 -1.178094 1.455500 23.000000
1.499945 -1.188437 1.440084 26.000000
1.486350 -1.208756 1.437161 25.000000
1.455174 -1.213030 1.415622 10.000000
1.450603 -1.240552 1.421623 24.000000
1.431634 -1.254434 1.411889 23.000000
1.414612 -1.271202 1.405734 25.000000
1.394616 -1.284872 1.396484 25.000000
1.377455 -1.301005 1.390077 25.000000
1.360212 -1.316916 1.383685 24.000000
1.343957 -1.331960 1.376664 25.000000
1.309506 -1.329975 1.352485 9.000000
1.299644 -1.354114 1.355174 19.000000
1.282174 -1.368743 1.348510 18.000000
1.261954 -1.380154 1.338882 26.000000
1.236229 -1.385131 1.323413 26.000000
1.224157 -1.404974 1.322340 21.000000
1.197475 -1.409680 1.307310 22.000000
1.185086 -1.429072 1.306178 19.000000
1.175207 -1.451580 1.307757 9.000000
1.135779 -1.439095 1.278332 18.000000
1.120774 -1.454578 1.274103 21.000000
1.101934 -1.467044 1.267441 23.000000
1.086621 -1.482016 1.263154 23.000000
1.070016 -1.497397 1.259207 19.000000
1.046122 -1.502398 1.246816 21.000000
1.023663 -1.506458 1.233942 16.000000
1.002302 -1.514046 1.224323 9.000000
1.034053 1.562118 1.290657 21.000000
1.049168 1.543583 1.291977 26.000000
1.069724 1.535563 1.302261 18.000000
1.089364 1.523240 1.309161 24.000000
1.103958 1.504112 1.310332 28.000000
1.134345 1.508253 1.332014 21.000000
1.156247 1.498286 1.341746 20.000000
1.171895 1.482144 1.346064 18.000000
1.177234 1.453152 1.338742 21.000000
1.204180 1.448655 1.354065 31.000000
1.227357 1.441133 1.366953 23.000000
1.242678 1.424102 1.371014 30.000000
1.255162 1.403774 1.372061 33.000000
1.294697 1.413055 1.402546 28.000000
1.307160 1.392143 1.403499 26.000000
1.327783 1.379787 1.413270 18.000000
1.334210 1.352759 1.408116 25.000000
1.351785 1.337103 1.414709 31.000000
1.369278 1.321152 1.421246 26.000000
1.395427 1.313128 1.436722 31.000000
1.402993 1.288867 1.434654 30.000000
1.423201 1.274756 1.444031 29.000000
1.452384 1.268196 1.462354 29.000000
1.456446 1.240812 1.457033 18.000000
1.490822 1.238914 1.481886 33.000000
1.504746 1.218287 1.484865 34.000000
1.520738 1.200414 1.491340 32.000000
1.517743 1.167756 1.479488 32.000000
1.546033 1.159077 1.497980 33.000000
1.561681 1.140437 1.504259 34.000000
1.583654 1.126131 1.516477 33.000000
1.586130 1.097969 1.510240 22.000000
1.598093 1.076511 1.513081 34.000000
1.616477 1.059133 1.521960 35.000000
1.638116 1.043536 1.533884 35.000000
1.645586 1.019719 1.533875 34.000000
1.660323 0.999351 1.539397 34.000000
1.674197 0.979194 1.545383 36.000000
1.691282 0.960726 1.554426 35.000000
1.698124 0.936273 1.553959 18.000000
1.708058 0.913598 1.556538 33.000000
1.721374 0.892488 1.562025 36.000000
1.734576 0.871209 1.567446 35.000000
1.744094 0.847986 1.569654 35.000000
1.767515 0.831221 1.584232 37.000000
1.776034 0.807888 1.586765 33.000000
1.792189 0.787213 1.594846 34.000000
1.803999 0.764991 1.600321 20.000000
1.804867 0.738204 1.596149 46.000000
1.816308 0.715627 1.601319 69.000000
1.816790 0.688770 1.596819 35.000000
1.831488 0.667313 1.604864 43.000000
1.838808 0.642963 1.606405 54.000000
1.853285 0.620985 1.614237 42.000000
1.852216 0.594263 1.609795 34.000000
1.884141 0.577734 1.633906 29.000000
1.894474 0.553736 1.638037 40.000000
1.904049 0.529796 1.642720 53.000000
1.909696 0.504620 1.644132 37.000000
1.922009 0.481467 1.652340 46.000000
1.927284 0.456035 1.653364 45.000000
1.928657 0.429769 1.651024 44.000000
1.921719 0.402031 1.642734 32.000000
1.925781 0.376797 1.643984 29.000000
1.926542 0.350642 1.641163 41.000000
1.929661 0.325457 1.642645 50.000000
1.933170 0.300038 1.643346 37.000000
1.936445 0.274541 1.643892 53.000000
1.939564 0.249044 1.644282 52.000000
1.941981 0.223625 1.645140 35.000000
1.951695 0.198903 1.652283 44.000000
1.946113 0.172553 1.646387 28.000000
1.955531 0.147632 1.653223 37.000000
1.945651 0.121243 1.643788 36.000000
1.947052 0.095641 1.643788 46.000000
1.947675 0.070116 1.644333 43.000000
1.948141 0.044591 1.644644 36.000000
1.944632 0.018951 1.641575 36.000000
1.948531 -0.006537 1.644878 35.000000
1.940734 -0.032014 1.638272 35.000000
1.944244 -0.057551 1.641186 34.000000
1.943700 -0.083026 1.640643 39.000000
1.927193 -0.107648 1.627750 33.000000
1.937246 -0.133790 1.637264 34.000000
1.927920 -0.158511 1.630510 27.000000
1.907112 -0.182019 1.613863 23.000000
1.924137 -0.209083 1.629351 33.000000
1.921898 -0.234254 1.628502 33.000000
1.915172 -0.259065 1.624898 39.000000
1.908226 -0.283623 1.621220 33.000000
1.901140 -0.308081 1.617312 33.000000
1.905771 -0.334273 1.622278 33.000000
1.890160 -0.357258 1.612258 27.000000
1.886330 -0.382076 1.611109 23.000000
1.878521 -0.405931 1.606600 35.000000
1.866148 -0.428980 1.599425 35.000000
1.853740 -0.451756 1.592029 34.000000
1.856631 -0.477863 1.596684 32.000000
1.847515 -0.501298 1.592193 34.000000
1.834570 -0.523503 1.584436 32.000000
1.824602 -0.546693 1.580335 30.000000
1.822385 -0.571790 1.581787 22.000000
1.827316 -0.599309 1.589451 33.000000
1.813167 -0.620947 1.581791 30.000000
1.787869 -0.638423 1.564376 29.000000
1.769879 -0.658034 1.553196 32.000000
1.758962 -0.679995 1.548232 31.000000
1.755105 -0.704669 1.549540 31.000000
1.761714 -0.733753 1.560108 29.000000
1.711126 -0.738498 1.520006 17.000000
1.727390 -0.772404 1.540414 31.000000
1.712227 -0.791782 1.531727 32.000000
1.696245 -0.811270 1.523504 31.000000
1.690573 -0.835518 1.524580 34.000000
1.684789 -0.859784 1.525498 32.000000
1.664882 -0.876661 1.513797 29.000000
1.651874 -0.896910 1.508236 27.000000
1.625131 -0.909296 1.490043 14.000000
1.611918 -0.928888 1.484304 35.000000
1.598675 -0.948174 1.478432 29.000000
1.587803 -0.969700 1.476185 31.000000
1.567620 -0.984390 1.463909 30.000000
1.549933 -1.001231 1.455196 27.000000
1.545293 -1.026378 1.458795 30.000000
1.530592 -1.044902 1.453045 28.000000
1.509417 -1.058670 1.441005 14.000000
1.513779 -1.090478 1.453442 29.000000
1.485994 -1.099017 1.435078 29.000000
1.470919 -1.116550 1.428948 27.000000
1.452628 -1.131351 1.419635 30.000000
1.431202 -1.143368 1.407233 25.000000
1.408881 -1.155414 1.395364 24.000000
1.405753 -1.181929 1.401030 23.000000
1.378266 -1.187687 1.382380 10.000000
1.355918 -1.198594 1.370258 29.000000
1.339521 -1.214479 1.364129 26.000000
1.332799 -1.237823 1.366402 28.000000
1.316154 -1.253252 1.360143 29.000000
1.299361 -1.268463 1.353760 26.000000
1.276886 -1.277779 1.341362 26.000000
1.257266 -1.289463 1.331914 23.000000
1.240409 -1.303773 1.325394 10.000000
1.218060 -1.311960 1.312841 21.000000
1.203832 -1.328626 1.309182 22.000000
1.192149 -1.348186 1.308328 23.000000
1.177685 -1.364483 1.304458 27.000000
1.152699 -1.368233 1.288829 21.000000
1.139531 -1.387725 1.288312 24.000000
1.122284 -1.400196 1.281360 20.000000
1.092478 -1.396346 1.259878 10.000000
1.076614 -1.411878 1.256227 22.000000
1.061813 -1.426746 1.252045 18.000000
1.048154 -1.445195 1.251132 23.000000
1.019955 -1.443419 1.232969 19.000000
1.004961 -1.457558 1.228629 18.000000
0.990813 -1.475442 1.227590 21.000000
0.988912 1.509747 1.266691 27.000000
1.015913 1.512505 1.285612 29.000000
1.028295 1.490749 1.283912 34.000000
1.052158 1.485544 1.296611 33.000000
1.074738 1.480476 1.309708 30.000000
1.082919 1.455465 1.305341 32.000000
1.106735 1.449234 1.317947 22.000000
1.131883 1.446321 1.333958 24.000000
1.134490 1.414635 1.323446 32.000000
1.160978 1.410510 1.338899 33.000000
1.183696 1.403430 1.351802 37.000000
1.193399 1.380649 1.349891 38.000000
1.210885 1.366888 1.356752 34.000000
1.236308 1.361746 1.372602 36.000000
1.256467 1.350234 1.382381 23.000000
1.276613 1.338359 1.392123 24.000000
1.291166 1.320415 1.395796 31.000000
1.305579 1.302329 1.399329 31.000000
1.325622 1.289648 1.408921 35.000000
1.335869 1.268821 1.409856 33.000000
1.361596 1.260906 1.425366 30.000000
1.377459 1.244994 1.432205 33.000000
1.385480 1.220516 1.429233 22.000000
1.401158 1.204206 1.435935 24.000000
1.420843 1.189702 1.445084 32.000000
1.433322 1.170267 1.448526 32.000000
1.451881 1.155657 1.458003 35.000000
1.464197 1.135779 1.461316 32.000000
1.479496 1.118193 1.467588 32.000000
1.494703 1.100233 1.473728 35.000000
1.506637 1.079837 1.476693 25.000000
1.518426 1.059224 1.479586 26.000000
1.542910 1.047230 1.494844 33.000000
1.557759 1.028298 1.500603 36.000000
1.561808 1.003188 1.497467 37.000000
1.569646 0.979803 1.496724 32.000000
1.589845 0.964710 1.509081 34.000000
1.600004 0.943367 1.511931 42.000000
1.604023 0.917593 1.507657 24.000000
1.634075 0.907246 1.529200 29.000000
1.647207 0.887117 1.534877 32.000000
1.656882 0.864887 1.537167 32.000000
1.672405 0.846362 1.546411 33.000000
1.685209 0.825513 1.551673 34.000000
1.690870 0.801052 1.550415 32.000000
1.706094 0.781786 1.559327 35.000000
1.700898 0.752483 1.548171 23.000000
1.722848 0.735842 1.563200 29.000000
1.737759 0.715755 1.571700 35.000000
1.741824 0.691089 1.570432 36.000000
1.752863 0.669174 1.575438 36.000000
1.760115 0.645697 1.577083 44.000000
1.770825 0.623415 1.581800 36.000000
1.784432 0.602408 1.590274 37.000000
1.787569 0.577313 1.588250 29.000000
1.797145 0.554715 1.593208 30.000000
1.803013 0.530869 1.594788 38.000000
1.804911 0.505844 1.592979 36.000000
1.817751 0.483854 1.600736 44.000000
1.823027 0.459658 1.601867 35.000000
1.828077 0.435386 1.602847 34.000000
1.843502 0.413686 1.614021 51.000000
1.829085 0.385351 1.599135 27.000000
1.855950 0.365430 1.619169 30.000000
1.844811 0.338072 1.607143 40.000000
1.837204 0.311745 1.598207 34.000000
1.840051 0.287545 1.599481 37.000000
1.843198 0.263121 1.600005 42.000000
1.846195 0.238697 1.600380 36.000000
1.844753 0.213837 1.597943 35.000000
1.858153 0.190622 1.608403 31.000000
1.863807 0.166360 1.612194 28.000000
1.880646 0.142935 1.625628 36.000000
1.882166 0.118011 1.625780 35.000000
1.883534 0.093162 1.625856 35.000000
1.876650 0.068040 1.619780 35.000000
1.880889 0.043302 1.623425 43.000000
1.873546 0.018354 1.617043 34.000000
1.873622 -0.006345 1.617043 29.000000
1.865901 -0.030993 1.610359 28.000000
1.865600 -0.055592 1.610058 34.000000
1.868932 -0.080429 1.612872 33.000000
1.867651 -0.105078 1.612872 29.000000
1.854960 -0.129013 1.602927 26.000000
1.857162 -0.153825 1.605892 21.000000
1.836505 -0.176487 1.589051 22.000000
1.845874 -0.202023 1.598242 27.000000
1.836180 -0.225399 1.590900 26.000000
1.840865 -0.250772 1.597046 30.000000
1.841550 -0.275633 1.599856 32.000000
1.831362 -0.298686 1.592070 32.000000
1.831668 -0.323521 1.594504 31.000000
1.831810 -0.348456 1.596784 25.000000
1.805133 -0.368250 1.576827 27.000000
1.793783 -0.390462 1.569072 27.000000
1.797066 -0.415761 1.574163 30.000000
1.784865 -0.437851 1.566714 29.000000
1.779780 -0.461509 1.565682 31.000000
1.770947 -0.484089 1.561190 33.000000
1.761915 -0.506497 1.556630 28.000000
1.763640 -0.531966 1.561555 24.000000
1.747046 -0.551880 1.550244 25.000000
1.744153 -0.576369 1.552299 29.000000
1.741749 -0.600588 1.553541 32.000000
1.720438 -0.618652 1.539190 28.000000
1.709924 -0.640212 1.534441 28.000000
1.699222 -0.661531 1.529481 30.000000
1.677668 -0.678370 1.514828 25.000000
1.691482 -0.709531 1.532042 25.000000
1.680374 -0.730464 1.526726 30.000000
1.661343 -0.748292 1.515533 29.000000
1.646411 -0.767029 1.506761 26.000000
1.637697 -0.789139 1.504889 26.000000
1.614963 -0.804232 1.490136 27.000000
1.610184 -0.827277 1.490601 32.000000
1.614606 -0.856057 1.501076 28.000000
1.605224 -0.877709 1.498695 26.000000
1.578829 -0.889640 1.480353 30.000000
1.558349 -0.905223 1.468877 29.000000
1.545298 -0.924021 1.463027 32.000000
1.532147 -0.942588 1.457048 32.000000
1.524695 -0.965439 1.457859 32.000000
1.504778 -0.979386 1.445479 32.000000
1.484083 -0.993209 1.433556 31.000000
1.472971 -1.013336 1.430901 22.000000
1.455337 -1.028741 1.421938 27.000000
1.450329 -1.053101 1.425380 29.000000
1.438728 -1.072669 1.422444 32.000000
1.420825 -1.087397 1.413171 31.000000
1.402886 -1.101748 1.403856 31.000000
1.381848 -1.113255 1.391414 29.000000
1.372980 -1.134414 1.391188 29.000000
1.363023 -1.155932 1.391432 25.000000
1.326933 -1.153580 1.363464 29.000000
1.313828 -1.171914 1.360477 31.000000
1.304531 -1.192310 1.359927 33.000000
1.291124 -1.210344 1.356797 30.000000
1.281537 -1.230450 1.356019 32.000000
1.262155 -1.242599 1.346625 34.000000
1.240023 -1.251556 1.334174 30.000000
1.226197 -1.268686 1.330735 24.000000
1.204075 -1.276956 1.318152 25.000000
1.182009 -1.284795 1.305552 26.000000
1.168038 -1.301161 1.301893 28.000000
1.154000 -1.317327 1.298167 29.000000
1.142377 -1.336419 1.297344 31.000000
1.107390 -1.327467 1.269797 25.000000
1.099709 -1.352768 1.275249 25.000000
1.082827 -1.364895 1.268351 24.000000
1.063401 -1.373486 1.258407 25.000000
1.033038 -1.369380 1.237257 29.000000
1.013892 -1.377231 1.227296 29.000000
0.989942 -1.378144 1.211563 25.000000
0.976626 -1.395863 1.210769 24.000000
0.967704 -1.420143 1.215668 24.000000
0.941548 -1.416733 1.196977 25.000000
0.968658 1.457295 1.257631 29.000000
0.988416 1.449984 1.267894 30.000000
1.002546 1.431870 1.268855 28.000000
1.024509 1.427277 1.281981 29.000000
1.047949 1.421816 1.294632 27.000000
1.074986 1.422837 1.313737 29.000000
1.087532 1.404248 1.314953 29.000000
1.103584 1.388197 1.318595 29.000000
1.108166 1.360062 1.310739 32.000000
1.122736 1.344289 1.314682 32.000000
1.157874 1.352577 1.342641 30.000000
1.156598 1.318134 1.328339 35.000000
1.192119 1.325352 1.356318 32.000000
1.214554 1.317160 1.369186 34.000000
1.209862 1.279779 1.351525 25.000000
1.232087 1.271170 1.364204 27.000000
1.253334 1.262604 1.377411 35.000000
1.264457 1.242122 1.377707 32.000000
1.281075 1.226898 1.384140 30.000000
1.299459 1.214695 1.394085 36.000000
1.310141 1.193633 1.394098 31.000000
1.340122 1.191243 1.416340 32.000000
1.356543 1.174911 1.422444 26.000000
1.353899 1.143629 1.410303 31.000000
1.369011 1.127449 1.416810 32.000000
1.384037 1.110979 1.423194 35.000000
1.402115 1.096686 1.432588 34.000000
1.413899 1.077370 1.435656 38.000000
1.428664 1.060229 1.441803 34.000000
1.459062 1.054153 1.463594 35.000000
1.467434 1.031746 1.463195 29.000000
1.475614 1.009356 1.462713 31.000000
1.482761 0.987264 1.462713 36.000000
1.503455 0.973086 1.474709 34.000000
1.513579 0.952695 1.477683 34.000000
1.530982 0.935825 1.486257 36.000000
1.544101 0.917026 1.492225 34.000000
1.550536 0.894157 1.491661 32.000000
1.566760 0.876857 1.500562 24.000000
1.572890 0.853749 1.499707 28.000000
1.582153 0.832371 1.501988 34.000000
1.594682 0.812587 1.507346 35.000000
1.599541 0.789473 1.506691 32.000000
1.611749 0.769383 1.511845 32.000000
1.623137 0.749344 1.517437 32.000000
1.635132 0.728781 1.522322 32.000000
1.656787 0.712779 1.537448 29.000000
1.660870 0.689046 1.536153 33.000000
1.671758 0.668081 1.541281 34.000000
1.675449 0.644154 1.539762 44.000000
1.675408 0.618935 1.534832 33.000000
1.688729 0.599117 1.543442 35.000000
1.695441 0.576310 1.544742 35.000000
1.704956 0.554818 1.549816 33.000000
1.732397 0.538769 1.571118 30.000000
1.735001 0.514332 1.568722 31.000000
1.722315 0.485963 1.553721 34.000000
1.759734 0.471827 1.585065 57.000000
1.754004 0.445459 1.576318 34.000000
1.751655 0.420190 1.570698 35.000000
1.770506 0.400171 1.585240 33.000000
1.775139 0.376415 1.585902 32.000000
1.775273 0.352001 1.583712 27.000000
1.778943 0.328368 1.584667 30.000000
1.778760 0.303955 1.582178 32.000000
1.778343 0.279641 1.579539 33.000000
1.780901 0.256033 1.580709 36.000000
1.783898 0.232206 1.581001 37.000000
1.782362 0.208016 1.578576 34.000000
1.776938 0.183541 1.572552 29.000000
1.789964 0.160870 1.582975 23.000000
1.791645 0.137043 1.583340 34.000000
1.793180 0.113216 1.583486 34.000000
1.794496 0.089315 1.583559 34.000000
1.798828 0.065625 1.587305 37.000000
1.791771 0.041501 1.581056 35.000000
1.788241 0.017614 1.577893 32.000000
1.780815 -0.006161 1.571278 27.000000
1.780743 -0.029789 1.571133 24.000000
1.776704 -0.053377 1.567536 25.000000
1.783692 -0.077280 1.573714 25.000000
1.782530 -0.101031 1.573714 28.000000
1.773667 -0.124257 1.566957 26.000000
1.779625 -0.148459 1.573278 22.000000
1.766677 -0.171053 1.562857 19.000000
1.761069 -0.194098 1.558977 26.000000
1.755254 -0.217044 1.554884 26.000000
1.759965 -0.241422 1.561197 29.000000
1.764942 -0.265926 1.566711 32.000000
1.750698 -0.287582 1.556168 30.000000
1.747385 -0.310917 1.555448 32.000000
1.743928 -0.334180 1.554512 23.000000
1.721820 -0.353585 1.536976 20.000000
1.717474 -0.376601 1.536406 29.000000
1.709885 -0.398549 1.531765 27.000000
1.701533 -0.420470 1.527555 28.000000
1.692988 -0.442292 1.523279 25.000000
1.688599 -0.464666 1.521509 27.000000
1.679802 -0.486201 1.516887 27.000000
1.684713 -0.512034 1.525863 19.000000
1.679167 -0.534503 1.524298 18.000000
1.662705 -0.553246 1.512790 27.000000
1.659783 -0.576814 1.514783 34.000000
1.660964 -0.601485 1.519250 28.000000
1.625741 -0.613033 1.491701 27.000000
1.618892 -0.634838 1.490023 27.000000
1.618872 -0.659369 1.494775 28.000000
1.615146 -0.682538 1.496126 16.000000
1.590322 -0.696497 1.477811 18.000000
1.592590 -0.722720 1.485993 30.000000
1.584956 -0.744012 1.483682 31.000000
1.572977 -0.763776 1.478632 32.000000
1.565010 -0.784742 1.476116 35.000000
1.542614 -0.798809 1.461146 29.000000
1.540503 -0.823202 1.465426 29.000000
1.511238 -0.832901 1.443878 15.000000
1.515458 -0.860879 1.454288 25.000000
1.509423 -0.883187 1.454992 32.000000
1.480132 -0.891615 1.433202 32.000000
1.460035 -0.905801 1.421516 31.000000
1.453691 -0.927476 1.421839 31.000000
1.433434 -0.940966 1.409993 27.000000
1.420404 -0.958044 1.403843 25.000000
1.425566 -0.988477 1.417090 15.000000
1.414561 -1.007959 1.414424 24.000000
1.393952 -1.020425 1.402168 30.000000
1.370319 -1.030095 1.386738 30.000000
1.356000 -1.046423 1.380640 33.000000
1.341530 -1.062533 1.374487 30.000000
1.320986 -1.073434 1.362034 29.000000
1.315484 -1.096403 1.365074 31.000000
1.309741 -1.119403 1.368018 16.000000
1.285128 -1.127322 1.352720 21.000000
1.261538 -1.134316 1.336882 27.000000
1.251575 -1.154583 1.337004 29.000000
1.239550 -1.171629 1.333370 32.000000
1.212240 -1.175210 1.314903 29.000000
1.196311 -1.189340 1.308574 24.000000
1.173035 -1.194335 1.292572 29.000000
1.170771 -1.222178 1.301407 16.000000
1.159994 -1.241432 1.301058 20.000000
1.133017 -1.243001 1.282374 29.000000
1.116816 -1.255839 1.275736 27.000000
1.100551 -1.268537 1.269116 27.000000
1.084222 -1.280905 1.262384 26.000000
1.065346 -1.289922 1.252673 27.000000
1.051506 -1.304847 1.248846 27.000000
1.036453 -1.320091 1.245402 16.000000
1.010191 -1.318731 1.226661 14.000000
0.996264 -1.332974 1.222691 27.000000
0.985701 -1.353993 1.225002 26.000000
0.969112 -1.364628 1.217944 30.000000
0.946537 -1.368913 1.205481 23.000000
0.929907 -1.378970 1.198357 22.000000
0.952679 1.412173 1.253458 22.000000
0.976609 1.411453 1.269611 30.000000
0.990442 1.393457 1.270408 24.000000
1.000349 1.372552 1.268649 26.000000
1.024415 1.370872 1.284797 26.000000
1.038913 1.355982 1.288911 13.000000
1.061914 1.349900 1.301497 25.000000
1.071322 1.328384 1.299451 29.000000
1.088057 1.315996 1.306351 32.000000
1.104793 1.303338 1.313203 30.000000
1.121396 1.290410 1.320073 25.000000
1.132809 1.271376 1.320700 29.000000
1.149280 1.257978 1.327324 29.000000
1.168441 1.247313 1.337045 16.000000
1.191975 1.242368 1.353378 26.000000
1.208362 1.228123 1.359885 27.000000
1.219244 1.208015 1.360129 27.000000
1.240043 1.199265 1.373280 29.000000
1.253502 1.181500 1.376443 28.000000
1.265749 1.164071 1.380076 29.000000
1.281770 1.148636 1.386173 26.000000
1.299697 1.135948 1.395969 20.000000
1.314643 1.120309 1.402440 27.000000
1.326526 1.102043 1.405767 27.000000
1.335333 1.081139 1.405792 31.000000
1.356019 1.069755 1.418428 32.000000
1.376793 1.057915 1.430969 31.000000
1.382090 1.034141 1.427480 31.000000
1.390259 1.012598 1.427091 29.000000
1.404512 0.995518 1.433018 24.000000
1.414697 0.976309 1.436230 25.000000
1.428748 0.958756 1.441903 30.000000
1.441887 0.941322 1.448135 30.000000
1.455758 0.923320 1.453624 29.000000
1.465461 0.903363 1.456377 33.000000
1.475026 0.883337 1.458992 27.000000
1.484454 0.863105 1.461538 28.000000
1.490433 0.840935 1.460701 23.000000
1.529556 0.836882 1.492296 24.000000
1.531957 0.812385 1.488025 25.000000
1.540952 0.791326 1.490047 23.000000
1.545582 0.768790 1.489362 24.000000
1.564435 0.752487 1.501051 26.000000
1.579060 0.734522 1.509913 25.000000
1.587431 0.712856 1.511531 23.000000
1.588038 0.688332 1.507004 18.000000
1.605819 0.671118 1.518828 22.000000
1.609589 0.647930 1.517299 26.000000
1.623637 0.628769 1.525577 24.000000
1.626404 0.605628 1.524467 24.000000
1.636636 0.584755 1.529180 23.000000
1.646118 0.563999 1.534395 21.000000
1.649000 0.540388 1.532218 18.000000
1.651078 0.517085 1.530530 12.000000
1.667262 0.498022 1.541959 13.000000
1.679778 0.477575 1.549873 11.000000
1.692196 0.456791 1.557728 15.000000
1.682730 0.430261 1.545506 11.000000
1.694243 0.409452 1.553650 12.000000
1.684324 0.383266 1.541120 15.000000
1.702794 0.363775 1.555645 10.000000
1.688299 0.337251 1.540047 9.000000
1.713796 0.318636 1.560976 13.000000
1.720893 0.296202 1.565099 11.000000
1.727789 0.273669 1.569081 10.000000
1.722936 0.249439 1.563547 12.000000
1.722177 0.225747 1.560491 10.000000
1.720622 0.202296 1.557931 10.000000
1.715220 0.178418 1.551882 10.000000
1.691087 0.153063 1.528958 9.000000
1.718689 0.132397 1.552661 10.000000
1.720105 0.109316 1.552873 9.000000
1.717740 0.086120 1.549527 9.000000
1.729439 0.063498 1.560065 10.000000
1.722371 0.040144 1.553652 9.000000
1.715229 0.016989 1.547167 10.000000
1.733792 -0.006057 1.563911 15.000000
1.718871 -0.029036 1.550375 15.000000
1.718588 -0.051997 1.550092 13.000000
1.725586 -0.075352 1.556291 16.000000
1.720671 -0.098271 1.552944 18.000000
1.715621 -0.121020 1.549456 13.000000
1.714137 -0.144052 1.549174 16.000000
1.690250 -0.164848 1.528679 10.000000
1.688437 -0.187441 1.528052 16.000000
1.693865 -0.210954 1.534039 20.000000
1.694818 -0.234225 1.537100 23.000000
1.688752 -0.256338 1.532708 22.000000
1.685741 -0.278961 1.532078 22.000000
1.678853 -0.300926 1.527971 18.000000
1.682745 -0.324841 1.533801 17.000000
1.660983 -0.343597 1.516088 19.000000
1.664588 -0.367491 1.521567 23.000000
1.656493 -0.389022 1.517542 24.000000
1.656081 -0.412050 1.519405 26.000000
1.644112 -0.432464 1.511783 25.000000
1.635511 -0.453543 1.507283 23.000000
1.641228 -0.478715 1.515988 23.000000
1.635998 -0.500750 1.514524 22.000000
1.623423 -0.520428 1.506368 23.000000
1.606512 -0.538860 1.495333 26.000000
1.590231 -0.556660 1.483626 22.000000
1.587318 -0.579460 1.485558 25.000000
1.581345 -0.600677 1.483498 26.000000
1.567617 -0.619268 1.475332 21.000000
1.571164 -0.644748 1.483422 23.000000
1.553672 -0.661514 1.471709 14.000000
1.532686 -0.676338 1.456604 17.000000
1.535062 -0.701984 1.464877 29.000000
1.520724 -0.719418 1.456150 26.000000
1.519238 -0.743454 1.460921 25.000000
1.508081 -0.762139 1.455135 26.000000
1.502868 -0.784446 1.456419 24.000000
1.490727 -0.803108 1.451052 23.000000
1.475167 -0.819695 1.442309 21.000000
1.446344 -0.828401 1.420479 21.000000
1.443884 -0.851923 1.424481 29.000000
1.421644 -0.863604 1.409003 26.000000
1.409157 -0.880872 1.403183 24.000000
1.399001 -0.900320 1.400993 28.000000
1.389443 -0.919304 1.398138 28.000000
1.375852 -0.936329 1.392540 22.000000
1.369265 -0.957138 1.392696 19.000000
1.349209 -0.969258 1.380454 20.000000
1.332202 -0.983273 1.371439 27.000000
1.318238 -0.999316 1.365434 26.000000
1.307240 -1.017448 1.362620 26.000000
1.290135 -1.030622 1.353270 22.000000
1.287913 -1.055775 1.359759 24.000000
1.261719 -1.061008 1.340836 16.000000
1.253312 -1.080926 1.340805 15.000000
1.233062 -1.090418 1.328071 21.000000
1.217654 -1.105161 1.322098 25.000000
1.203206 -1.119245 1.315497 24.000000
1.182003 -1.128108 1.303125 22.000000
1.167531 -1.141634 1.296444 24.000000
1.154678 -1.158114 1.293326 23.000000
1.149976 -1.182852 1.299362 21.000000
1.129736 -1.190120 1.286327 16.000000
1.111209 -1.200243 1.276738 18.000000
1.095329 -1.213080 1.270250 25.000000
1.082063 -1.228557 1.266776 23.000000
1.063508 -1.237898 1.257073 23.000000
1.049991 -1.252986 1.253426 25.000000
1.038991 -1.270900 1.252751 29.000000
1.012903 -1.270082 1.233849 24.000000
1.000594 -1.288110 1.233503 12.000000
0.989278 -1.305524 1.232577 16.000000
0.963494 -1.303569 1.213653 21.000000
0.949651 -1.317350 1.209698 22.000000
0.929834 -1.324865 1.200157 20.000000
0.915814 -1.338209 1.196099 23.000000
0.932915 1.364691 1.245740 24.000000
0.953164 1.356938 1.255503 25.000000
0.962921 1.336391 1.253573 28.000000
0.974712 1.319046 1.254578 10.000000
1.004344 1.323249 1.276385 26.000000
1.023335 1.314790 1.286460 26.000000
1.034940 1.296735 1.287314 26.000000
1.048846 1.281674 1.291159 29.000000
1.060159 1.263342 1.291857 28.000000
1.084092 1.259848 1.307869 29.000000
1.097840 1.244099 1.311483 32.000000
1.115612 1.234417 1.321770 13.000000
1.121195 1.209605 1.315917 28.000000
1.129147 1.187723 1.313077 28.000000
1.147725 1.176959 1.322613 29.000000
1.168076 1.169048 1.335777 34.000000
1.183954 1.154898 1.342105 27.000000
1.187493 1.130242 1.336204 29.000000
1.197435 1.110442 1.336007 29.000000
1.234811 1.116959 1.367986 18.000000
1.237906 1.091943 1.361794 32.000000
1.243627 1.069550 1.358746 30.000000
1.269798 1.064413 1.377851 34.000000
1.278203 1.044096 1.377737 35.000000
1.289488 1.026118 1.380756 35.000000
1.300642 1.008009 1.383642 32.000000
1.314716 0.992005 1.389688 34.000000
1.344020 0.987077 1.411768 25.000000
1.342554 0.959344 1.401489 32.000000
1.339905 0.932153 1.391618 31.000000
1.362903 0.921882 1.406973 35.000000
1.381993 0.909309 1.419648 42.000000
1.388315 0.888240 1.419180 29.000000
1.404967 0.872720 1.427772 35.000000
1.410933 0.851363 1.427099 36.000000
1.439589 0.843318 1.449166 30.000000
1.445416 0.821559 1.448310 28.000000
1.454366 0.801573 1.450530 30.000000
1.462441 0.781790 1.453222 31.000000
1.467718 0.759808 1.451941 33.000000
1.479600 0.741213 1.457125 35.000000
1.493949 0.724296 1.466099 34.000000
1.501452 0.703882 1.468397 35.000000
1.502748 0.679978 1.463248 29.000000
1.527068 0.666931 1.481880 31.000000
1.534214 0.646039 1.483718 35.000000
1.537768 0.623608 1.482156 35.000000
1.550886 0.605540 1.491000 52.000000
1.557570 0.584259 1.492501 46.000000
1.560619 0.561651 1.490523 35.000000
1.566335 0.540486 1.492361 47.000000
1.575440 0.520418 1.497412 32.000000
1.580829 0.499001 1.498981 31.000000
1.593862 0.479447 1.506509 33.000000
1.594824 0.456914 1.505000 33.000000
1.599814 0.435244 1.506162 33.000000
1.601086 0.412515 1.503823 32.000000
1.612292 0.392642 1.511990 35.000000
1.613213 0.369824 1.509307 34.000000
1.616973 0.348018 1.510469 30.000000
1.631448 0.328327 1.521685 32.000000
1.645764 0.308273 1.532707 36.000000
1.641824 0.284707 1.526714 35.000000
1.644928 0.262430 1.527266 42.000000
1.650986 0.240753 1.531750 37.000000
1.661122 0.219391 1.538791 44.000000
1.659550 0.196533 1.536171 35.000000
1.650510 0.172937 1.526639 29.000000
1.644972 0.149973 1.520349 28.000000
1.657549 0.128560 1.530783 32.000000
1.651657 0.105743 1.524216 31.000000
1.652893 0.083427 1.524216 35.000000
1.649768 0.060976 1.521308 34.000000
1.650179 0.038709 1.521582 33.000000
1.646709 0.016406 1.518398 31.000000
1.646777 -0.005811 1.518398 35.000000
1.635614 -0.027840 1.508095 33.000000
1.642760 -0.050132 1.514600 39.000000
1.627587 -0.071652 1.500573 35.000000
1.630177 -0.093832 1.503961 38.000000
1.625221 -0.115522 1.500438 35.000000
1.638395 -0.138733 1.513713 26.000000
1.618518 -0.159033 1.496377 33.000000
1.613039 -0.180475 1.492386 31.000000
1.618461 -0.203127 1.498478 36.000000
1.612178 -0.224521 1.494825 34.000000
1.609952 -0.246237 1.493814 37.000000
1.610620 -0.268561 1.496585 36.000000
1.603882 -0.289671 1.492532 33.000000
1.607820 -0.312797 1.498405 23.000000
1.593524 -0.332217 1.487271 28.000000
1.593563 -0.354485 1.489565 33.000000
1.592842 -0.376985 1.492259 35.000000
1.585335 -0.397581 1.487474 34.000000
1.580749 -0.419029 1.486462 31.000000
1.575893 -0.440476 1.485383 32.000000
1.564465 -0.459564 1.476849 31.000000
1.548131 -0.477635 1.465980 21.000000
1.542930 -0.498640 1.464513 29.000000
1.527039 -0.515878 1.452869 29.000000
1.518037 -0.535304 1.447738 29.000000
1.515318 -0.557268 1.449823 30.000000
1.505484 -0.576598 1.445029 29.000000
1.499603 -0.596881 1.442915 30.000000
1.489482 -0.615872 1.437935 27.000000
1.489557 -0.639053 1.442737 16.000000
1.472355 -0.654760 1.430857 26.000000
1.467993 -0.676582 1.432727 29.000000
1.460742 -0.696489 1.430552 26.000000
1.446631 -0.712949 1.421698 26.000000
1.448531 -0.737942 1.429767 30.000000
1.433488 -0.754329 1.421256 29.000000
1.422420 -0.771934 1.415334 25.000000
1.410537 -0.789646 1.409882 15.000000
1.392027 -0.803300 1.397747 25.000000
1.380005 -0.820415 1.392132 26.000000
1.367894 -0.837377 1.386333 26.000000
1.358060 -0.856398 1.384327 31.000000
1.345757 -0.872902 1.378416 27.000000
1.330207 -0.887083 1.369137 30.000000
1.320058 -0.905649 1.366824 26.000000
1.301275 -0.917054 1.354150 13.000000
1.297119 -0.939642 1.358066 21.000000
1.283545 -0.955435 1.352211 23.000000
1.263818 -0.966304 1.339863 29.000000
1.253218 -0.983887 1.337070 26.000000
1.239440 -0.998936 1.331007 22.000000
1.225588 -1.013711 1.324830 25.000000
1.214596 -1.030704 1.321798 21.000000
1.203541 -1.047634 1.318640 13.000000
1.198057 -1.069453 1.321772 18.000000
1.183905 -1.083473 1.315302 20.000000
1.162962 -1.092426 1.302902 24.000000
1.137546 -1.095067 1.283674 23.000000
1.125125 -1.111338 1.280694 22.000000
1.110900 -1.124157 1.273954 24.000000
1.098262 -1.140016 1.270856 21.000000
1.082826 -1.152843 1.264451 10.000000
1.075318 -1.174124 1.267403 13.000000
1.071233 -1.197794 1.272867 18.000000
1.037388 -1.189450 1.244595 18.000000
1.024322 -1.204356 1.241099 17.000000
1.006165 -1.212952 1.231384 15.000000
0.995525 -1.230485 1.230791 16.000000
0.967550 -1.226118 1.208699 16.000000
0.954350 -1.240041 1.205022 10.000000
0.944644 -1.260616 1.207792 13.000000
0.926444 -1.267826 1.197850 12.000000
0.910572 -1.278023 1.190970 18.000000
0.900330 -1.298227 1.193450 14.000000
0.909788 1.310783 1.230535 32.000000
0.921393 1.293974 1.231469 29.000000
0.937582 1.283357 1.238529 31.000000
0.957191 1.275265 1.248136 23.000000
0.970910 1.261114 1.251968 35.000000
0.991736 1.255950 1.265039 34.000000
1.000380 1.235235 1.262617 32.000000
1.018755 1.226503 1.272510 34.000000
1.036011 1.217938 1.282814 35.000000
1.046839 1.199740 1.283242 31.000000
1.067720 1.193012 1.296113 33.000000
1.083545 1.180216 1.302662 19.000000
1.100887 1.170417 1.312833 29.000000
1.105880 1.145925 1.306611 28.000000
1.121420 1.132511 1.312934 31.000000
1.146859 1.130085 1.332464 34.000000
1.155824 1.111092 1.332840 33.000000
1.168486 1.094231 1.335767 28.000000
1.180003 1.077687 1.339139 32.000000
1.191392 1.060889 1.342384 21.000000
1.211371 1.051474 1.355310 35.000000
1.225497 1.036697 1.361685 36.000000
1.233737 1.016867 1.361462 31.000000
1.247724 1.001751 1.367659 34.000000
1.264624 0.988695 1.376996 32.000000
1.275467 0.970752 1.379772 34.000000
1.289222 0.954932 1.385686 35.000000
1.286737 0.928171 1.375754 21.000000
1.303296 0.914239 1.384752 30.000000
1.322094 0.902451 1.397514 36.000000
1.326070 0.879550 1.393197 34.000000
1.338457 0.863126 1.399208 32.000000
1.353936 0.848477 1.408408 33.000000
1.356572 0.825666 1.404319 29.000000
1.375162 0.812483 1.416601 31.000000
1.387199 0.795186 1.422269 21.000000
1.408931 0.783040 1.437737 30.000000
1.413561 0.761958 1.437039 30.000000
1.425344 0.743950 1.442351 35.000000
1.433716 0.724043 1.444197 30.000000
1.441164 0.704268 1.446504 32.000000
1.451834 0.686011 1.452033 28.000000
1.462472 0.667529 1.457505 30.000000
1.460123 0.642659 1.448746 19.000000
1.476511 0.627067 1.461280 31.000000
1.476496 0.603874 1.456194 34.000000
1.486588 0.584857 1.461150 35.000000
1.496511 0.565612 1.465982 36.000000
1.491888 0.541381 1.457755 33.000000
1.505021 0.523147 1.465643 37.000000
1.524392 0.507242 1.480850 35.000000
1.512224 0.480806 1.465422 21.000000
1.527837 0.463236 1.476993 30.000000
1.539929 0.444362 1.484984 35.000000
1.541262 0.422255 1.482717 33.000000
1.541775 0.400378 1.480909 33.000000
1.553465 0.380948 1.488518 33.000000
1.553702 0.358920 1.486376 32.000000
1.557361 0.337764 1.487507 31.000000
1.561420 0.316409 1.487972 24.000000
1.564813 0.295053 1.488771 32.000000
1.567407 0.273831 1.490101 32.000000
1.574069 0.252987 1.494119 35.000000
1.569720 0.230457 1.487679 31.000000
1.582751 0.210592 1.498808 35.000000
1.581138 0.188574 1.496119 36.000000
1.575760 0.166338 1.489870 29.000000
1.599177 0.146830 1.510891 20.000000
1.582576 0.123676 1.494093 31.000000
1.580340 0.101887 1.490799 32.000000
1.577965 0.080196 1.487372 32.000000
1.578495 0.058740 1.487835 31.000000
1.575188 0.037198 1.484738 31.000000
1.579091 0.015827 1.488299 32.000000
1.571814 -0.005603 1.481440 26.000000
1.571748 -0.026960 1.481308 26.000000
1.578760 -0.048542 1.487901 33.000000
1.574726 -0.069837 1.484011 27.000000
1.577237 -0.091454 1.487504 29.000000
1.572347 -0.112650 1.483945 29.000000
1.570960 -0.134057 1.483680 24.000000
1.565749 -0.155039 1.479792 19.000000
1.564036 -0.176331 1.479265 26.000000
1.565740 -0.198013 1.481963 30.000000
1.560146 -0.218782 1.477683 27.000000
1.560983 -0.240563 1.480707 29.000000
1.558076 -0.261838 1.480179 27.000000
1.551973 -0.282261 1.475508 28.000000
1.545223 -0.302718 1.471237 18.000000
1.530549 -0.321575 1.460605 16.000000
1.544928 -0.346408 1.476545 28.000000
1.537668 -0.366570 1.471948 26.000000
1.536867 -0.388495 1.474563 32.000000
1.525823 -0.407417 1.466239 28.000000
1.521153 -0.428264 1.465121 26.000000
1.516287 -0.449046 1.463937 28.000000
1.486743 -0.462133 1.438867 14.000000
1.478202 -0.481245 1.433989 16.000000
1.480003 -0.503754 1.439213 27.000000
1.480974 -0.526583 1.444878 24.000000
1.471980 -0.545435 1.439609 25.000000
1.462234 -0.564323 1.434868 26.000000
1.455814 -0.584427 1.433311 26.000000
1.445854 -0.602978 1.428321 24.000000
1.429650 -0.618177 1.415903 10.000000
1.418820 -0.636511 1.411258 16.000000
1.418622 -0.659053 1.415982 27.000000
1.404913 -0.675284 1.407156 24.000000
1.401064 -0.696099 1.408258 24.000000
1.379798 -0.708765 1.393160 25.000000
1.371717 -0.727854 1.391315 26.000000
1.351123 -0.739400 1.375448 24.000000
1.365628 -0.770966 1.396646 16.000000
1.334486 -0.776707 1.371163 20.000000
1.341968 -0.804798 1.385403 29.000000
1.323598 -0.817449 1.373054 29.000000
1.311628 -0.833736 1.367218 24.000000
1.299511 -0.849746 1.361332 27.000000
1.292866 -0.870123 1.362417 28.000000
1.277441 -0.883647 1.353069 26.000000
1.267383 -0.901627 1.350680 14.000000
1.242748 -0.907888 1.331308 19.000000
1.232563 -0.925339 1.328761 25.000000
1.222254 -0.942665 1.326153 25.000000
1.208782 -0.957510 1.320169 24.000000
1.201201 -0.976884 1.320564 25.000000
1.193445 -0.996156 1.320883 26.000000
1.176815 -1.008000 1.311434 26.000000
1.154425 -1.014385 1.295447 13.000000
1.149257 -1.035768 1.298748 18.000000
1.141040 -1.054461 1.298749 28.000000
1.112142 -1.055034 1.276707 24.000000
1.098241 -1.067997 1.270107 24.000000
1.095261 -1.091589 1.276254 29.000000
1.082901 -1.107376 1.273195 25.000000
1.065080 -1.117378 1.263739 24.000000
1.050932 -1.129517 1.256928 10.000000
1.038301 -1.144699 1.253649 16.000000
1.017817 -1.150958 1.240884 22.000000
1.002555 -1.162774 1.234376 19.000000
0.995861 -1.182876 1.236714 24.000000
0.980448 -1.194294 1.230035 23.000000
0.964980 -1.205459 1.223314 23.000000
0.942210 -1.207086 1.207265 21.000000
0.924413 -1.214572 1.197462 10.000000
0.917182 -1.237984 1.203380 13.000000
0.896883 -1.241865 1.190358 20.000000
0.885839 -1.258243 1.189567 19.000000
0.896424 1.274124 1.230085 29.000000
0.912407 1.263730 1.237130 23.000000
0.932991 1.259366 1.250310 19.000000
0.940647 1.235612 1.244297 34.000000
0.949274 1.215324 1.241790 29.000000
0.978291 1.222848 1.267922 32.000000
0.986714 1.202217 1.265301 36.000000
0.997314 1.184570 1.265686 31.000000
1.012841 1.172663 1.272338 43.000000
1.038665 1.171983 1.291610 27.000000
1.047972 1.154203 1.292322 18.000000
1.060826 1.138630 1.295597 30.000000
1.072506 1.123366 1.299305 28.000000
1.090533 1.112953 1.308826 32.000000
1.102085 1.097241 1.312366 33.000000
1.114567 1.080969 1.315347 27.000000
1.125932 1.065009 1.318763 34.000000
1.142823 1.053954 1.328551 26.000000
1.165281 1.047688 1.344821 24.000000
1.167952 1.023436 1.338181 28.000000
1.173212 1.001759 1.334703 32.000000
1.192750 0.992192 1.347465 35.000000
1.185967 0.960837 1.330698 37.000000
1.211307 0.955432 1.349879 31.000000
1.227777 0.942679 1.359167 35.000000
1.240399 0.927700 1.365617 27.000000
1.253762 0.912132 1.371451 17.000000
1.260124 0.892346 1.371037 31.000000
1.264056 0.870026 1.366718 31.000000
1.282505 0.858499 1.379474 33.000000
1.297778 0.844492 1.388804 33.000000
1.306728 0.826274 1.391343 33.000000
1.325103 0.813692 1.403806 33.000000
1.330742 0.793126 1.402815 25.000000
1.323332 0.765174 1.388304 18.000000
1.331776 0.746521 1.390384 26.000000
1.346521 0.731265 1.399143 22.000000
1.357256 0.714302 1.404927 29.000000
1.365317 0.695195 1.406704 27.000000
1.379089 0.679467 1.415699 30.000000
1.379600 0.657173 1.411020 27.000000
1.393184 0.641070 1.419845 19.000000
1.396724 0.620193 1.418294 16.000000
1.416866 0.606485 1.433697 34.000000
1.420102 0.585370 1.431894 33.000000
1.433368 0.568260 1.440258 36.000000
1.439099 0.548556 1.442254 30.000000
1.445280 0.528466 1.443477 34.000000
1.450754 0.508569 1.445216 34.000000
1.456034 0.488478 1.446826 24.000000
1.461185 0.468388 1.448242 18.000000
1.459259 0.446045 1.442725 29.000000
1.460580 0.424908 1.440504 27.000000
1.465247 0.404704 1.441527 29.000000
1.476802 0.386272 1.449372 33.000000
1.477139 0.365103 1.447275 28.000000
1.480792 0.344788 1.448492 29.000000
1.506106 0.328977 1.469705 23.000000
1.491834 0.304624 1.453419 21.000000
1.505699 0.286156 1.464617 29.000000
1.515922 0.266705 1.472240 32.000000
1.521891 0.246547 1.476804 33.000000
1.521187 0.225038 1.473800 32.000000
1.530419 0.205131 1.481568 32.000000
1.528798 0.183737 1.478824 33.000000
1.520450 0.161549 1.468434 24.000000
1.500593 0.138725 1.448101 16.000000
1.530222 0.120450 1.476660 27.000000
1.520802 0.098753 1.466390 25.000000
1.532822 0.078458 1.476790 30.000000
1.518945 0.056923 1.463375 28.000000
1.515667 0.036038 1.460228 27.000000
1.512259 0.015253 1.456888 27.000000
1.512323 -0.005447 1.456952 22.000000
1.523061 -0.026399 1.467165 26.000000
1.526402 -0.047358 1.470375 25.000000
1.522415 -0.068095 1.466520 25.000000
1.517722 -0.088732 1.463053 23.000000
1.527279 -0.110310 1.473324 26.000000
1.530027 -0.131500 1.475945 24.000000
1.496176 -0.149210 1.444382 18.000000
1.497531 -0.170170 1.447845 25.000000
1.495746 -0.190644 1.447208 27.000000
1.490195 -0.210612 1.442918 22.000000
1.491089 -0.231655 1.445996 24.000000
1.485295 -0.251399 1.441455 23.000000
1.485923 -0.272412 1.444210 28.000000
1.482798 -0.292822 1.443444 19.000000
1.472466 -0.311606 1.435586 24.000000
1.465000 -0.331121 1.431628 24.000000
1.468497 -0.352887 1.437319 26.000000
1.450819 -0.369416 1.422271 25.000000
1.453412 -0.391279 1.428272 25.000000
1.441933 -0.409307 1.420381 24.000000
1.433790 -0.428119 1.415747 22.000000
1.432480 -0.448946 1.417923 21.000000
1.437935 -0.472075 1.426826 18.000000
1.436237 -0.492999 1.428665 26.000000
1.417293 -0.507805 1.413323 25.000000
1.421558 -0.531299 1.422383 23.000000
1.419439 -0.552110 1.423893 24.000000
1.409751 -0.570400 1.418955 25.000000
1.406713 -0.591306 1.420775 23.000000
1.393381 -0.607847 1.412251 15.000000
1.359937 -0.615071 1.383226 18.000000
1.363268 -0.638498 1.391482 22.000000
1.353077 -0.655725 1.386029 24.000000
1.339505 -0.671088 1.377140 21.000000
1.328470 -0.688148 1.372022 25.000000
1.318030 -0.704684 1.366294 24.000000
1.313293 -0.724885 1.367685 24.000000
1.295471 -0.737731 1.355611 14.000000
1.284037 -0.753995 1.350101 26.000000
1.288388 -0.779587 1.361242 27.000000
1.273535 -0.793624 1.352194 26.000000
1.271228 -0.815395 1.356410 25.000000
1.259321 -0.831061 1.350536 26.000000
1.250484 -0.848611 1.347878 26.000000
1.243722 -0.868487 1.348914 24.000000
1.228533 -0.881469 1.339434 18.000000
1.200389 -0.885565 1.317112 15.000000
1.194212 -0.904471 1.317438 21.000000
1.184105 -0.921397 1.314820 20.000000
1.173816 -0.938261 1.312202 24.000000
1.157634 -0.950096 1.302838 20.000000
1.147154 -0.966512 1.299991 23.000000
1.136614 -0.982808 1.297023 20.000000
1.125952 -0.998921 1.293994 18.000000
1.112360 -1.012357 1.287652 20.000000
1.095981 -1.022996 1.277963 19.000000
1.087853 -1.041142 1.277952 23.000000
1.073135 -1.054318 1.271891 21.000000
1.062013 -1.069528 1.268464 21.000000
1.049809 -1.085039 1.265458 22.000000
1.028023 -1.088782 1.249040 22.000000
1.013100 -1.101007 1.242751 16.000000
1.004398 -1.118239 1.242256 18.000000
0.989298 -1.130033 1.235806 18.000000
0.981796 -1.150400 1.238759 20.000000
0.966609 -1.161859 1.232140 20.000000
0.951369 -1.173007 1.225478 22.000000
0.925124 -1.168297 1.202661 17.000000
0.912383 -1.181914 1.199096 17.000000
0.905394 -1.205190 1.205249 13.000000
0.885325 -1.209148 1.192200 15.000000
0.870015 -1.219105 1.185298 18.000000
0.887452 1.244076 1.235141 20.000000
0.896360 1.224261 1.232733 18.000000
0.914317 1.216791 1.242757 21.000000
0.915769 1.187575 1.230616 28.000000
0.940703 1.188787 1.250133 27.000000
0.958569 1.180552 1.260111 26.000000
0.973987 1.169039 1.266806 30.000000
0.981934 1.148525 1.263895 29.000000
1.003624 1.145732 1.280613 26.000000
1.003668 1.116406 1.267763 19.000000
1.012539 1.098971 1.268246 19.000000
1.032764 1.092072 1.281026 28.000000
1.044096 1.077065 1.284582 26.000000
1.053717 1.058767 1.284336 28.000000
1.067481 1.046085 1.290971 28.000000
1.089494 1.040970 1.307331 26.000000
1.097755 1.022632 1.307334 25.000000
1.105901 1.004131 1.307200 15.000000
1.111058 0.983100 1.303628 21.000000
1.124506 0.969395 1.309889 27.000000
1.143679 0.960301 1.322735 28.000000
1.151258 0.941375 1.322213 24.000000
1.164562 0.926998 1.328275 27.000000
1.174851 0.910134 1.330893 23.000000
1.190040 0.897991 1.340623 26.000000
1.200136 0.880736 1.343071 11.000000
1.209253 0.863726 1.345947 25.000000
1.221286 0.848643 1.352064 29.000000
1.227977 0.828910 1.350842 29.000000
1.233704 0.809448 1.350037 27.000000
1.236098 0.787971 1.345716 25.000000
1.253982 0.776228 1.358245 29.000000
1.259277 0.756531 1.357117 24.000000
1.285786 0.750037 1.380199 10.000000
1.294088 0.731761 1.382244 23.000000
1.305411 0.715119 1.387635 23.000000
1.312739 0.696861 1.389995 26.000000
1.317381 0.676501 1.388315 24.000000
1.327706 0.659661 1.393908 22.000000
1.337941 0.642605 1.399387 22.000000
1.351318 0.626924 1.408249 18.000000
