x y z intensity
0.954338 0.064169 -0.490620 100.000000
0.941669 0.052211 -0.483871 98.000000
0.946630 0.041342 -0.486218 100.000000
0.947053 0.030226 -0.486218 98.000000
0.947281 0.019111 -0.486316 95.000000
0.951858 0.008033 -0.488664 101.000000
0.951891 -0.003135 -0.488632 98.000000
0.951826 -0.014302 -0.488566 103.000000
0.951663 -0.025470 -0.488468 100.000000
0.955749 -0.036809 -0.490718 100.000000
0.955289 -0.048029 -0.490652 100.000000
0.954732 -0.059248 -0.490521 91.000000
0.954043 -0.070435 -0.490357 100.000000
0.953190 -0.081655 -0.490259 103.000000
0.956667 -0.093274 -0.492407 105.000000
0.951189 -0.104029 -0.489931 100.000000
0.950040 -0.115183 -0.489701 100.000000
0.948761 -0.126305 -0.489406 103.000000
0.947317 -0.137459 -0.489209 103.000000
0.950142 -0.149271 -0.491254 92.000000
0.944102 -0.159669 -0.488684 103.000000
0.942331 -0.170724 -0.488356 103.000000
0.944736 -0.182692 -0.490397 100.000000
0.934029 -0.191939 -0.485399 100.000000
0.936229 -0.203859 -0.487339 100.000000
0.938309 -0.215848 -0.489243 103.000000
0.935936 -0.226857 -0.488815 103.000000
0.907439 -0.231290 -0.474948 61.000000
0.917867 -0.245384 -0.481213 100.000000
0.915104 -0.256175 -0.480823 100.000000
0.907961 -0.265712 -0.478113 98.000000
0.900749 -0.275083 -0.475375 98.000000
0.893468 -0.284322 -0.472609 95.000000
0.903079 -0.299011 -0.478808 95.000000
0.903923 -0.311125 -0.480599 98.000000
0.904768 -0.323209 -0.482188 42.000000
0.909575 -0.337010 -0.486144 98.000000
0.901626 -0.346135 -0.483343 95.000000
0.897803 -0.356781 -0.482750 98.000000
0.902157 -0.370762 -0.486555 98.000000
0.959895 -0.407615 -0.519287 100.000000
0.992356 -0.435065 -0.538533 98.000000
1.032561 -0.467001 -0.562124 76.000000
1.067916 -0.498222 -0.583579 48.000000
1.046378 -0.502935 -0.573716 84.000000
1.040806 -0.515384 -0.572886 93.000000
1.039072 -0.529752 -0.574225 95.000000
1.037174 -0.544135 -0.575478 95.000000
1.058857 -0.571324 -0.589930 95.000000
1.036890 -0.575123 -0.580118 98.000000
1.057891 -0.602944 -0.594425 88.000000
1.059116 -0.619974 -0.597646 63.000000
1.033094 -0.620846 -0.585555 35.000000
1.575000 -1.049039 -0.910483 21.000000
1.600493 -1.093306 -0.930389 14.000000
1.603660 -1.122350 -0.936793 16.000000
1.583877 -1.136228 -0.930564 12.000000
1.567649 -1.152472 -0.926437 9.000000
1.565780 -1.179368 -0.930766 15.000000
1.577845 -1.217366 -0.943625 12.000000
1.582260 -1.250156 -0.952146 13.000000
1.575615 -1.274697 -0.954092 16.000000
1.551212 -1.284766 -0.945394 10.000000
1.554497 -1.317810 -0.953545 16.000000
1.547060 -1.342220 -0.955300 10.000000
1.529186 -1.357556 -0.950640 8.000000
1.544751 -1.403107 -0.967014 16.000000
1.516359 -1.409066 -0.955891 10.000000
1.533329 -1.458810 -0.974436 11.000000
1.521014 -1.480111 -0.973748 10.000000
1.510782 -1.505057 -0.975342 10.000000
1.517061 -1.545605 -0.986921 15.000000
1.488036 -1.550334 -0.975603 10.000000
1.504953 -1.605038 -0.995539 9.000000
1.475752 -1.609287 -0.984151 12.000000
1.472989 -1.644253 -0.991544 10.000000
1.481723 -1.693108 -1.007048 15.000000
1.467015 -1.713954 -1.005623 12.000000
1.459668 -1.745842 -1.010651 11.000000
1.446152 -1.770706 -1.011581 18.000000
1.427689 -1.787643 -1.007996 10.000000
1.438981 -1.844749 -1.026819 9.000000
1.413078 -1.855004 -1.019460 9.000000
1.409068 -1.894316 -1.028020 9.000000
1.400293 -1.925660 -1.032045 10.000000
1.387120 -1.953995 -1.034426 9.000000
1.384008 -1.997311 -1.044665 9.000000
1.382732 -2.044723 -1.056694 10.000000
1.362896 -2.065442 -1.054804 9.000000
1.372792 -2.132418 -1.076340 9.000000
1.347054 -2.145332 -1.070358 9.000000
1.328536 -2.169727 -1.070123 9.000000
1.314239 -2.201908 -1.073806 10.000000
1.311115 -2.254017 -1.086963 9.000000
1.304673 -2.302282 -1.097982 9.000000
0.505171 0.895608 -0.418045 31.000000
0.514859 0.889308 -0.419671 32.000000
0.519754 0.874951 -0.417468 29.000000
0.524409 0.860610 -0.415270 31.000000
0.533690 0.854124 -0.416800 34.000000
0.525472 0.820323 -0.404930 26.000000
0.554584 0.844675 -0.421820 32.000000
0.622946 0.925815 -0.467782 45.000000
0.677456 0.982632 -0.502421 38.000000
1.059258 1.466074 -0.767938 30.000000
1.105304 1.493732 -0.792083 32.000000
1.143788 1.509481 -0.810471 29.000000
1.174340 1.513547 -0.822979 24.000000
1.182252 1.488381 -0.819649 34.000000
1.194710 1.470859 -0.820568 30.000000
1.222571 1.470279 -0.831060 36.000000
1.244610 1.462306 -0.837604 36.000000
1.283880 1.475240 -0.856463 32.000000
1.303083 1.462956 -0.860950 39.000000
1.322296 1.450336 -0.865449 30.000000
1.334300 1.431347 -0.866175 20.000000
1.365877 1.431551 -0.878672 51.000000
1.380941 1.415363 -0.881381 42.000000
1.396599 1.398449 -0.883694 37.000000
1.430890 1.401014 -0.898618 59.000000
1.446430 1.383530 -0.900829 34.000000
1.474413 1.378832 -0.911605 52.000000
1.499166 1.370476 -0.920365 33.000000
1.511082 1.349069 -0.920406 21.000000
1.542549 1.346100 -0.933220 44.000000
1.563889 1.333599 -0.939781 33.000000
1.585148 1.320795 -0.946295 35.000000
1.609918 1.310486 -0.954919 35.000000
1.638289 1.302542 -0.965528 20.000000
1.652358 1.282986 -0.967779 28.000000
1.662601 1.260480 -0.967856 24.000000
1.639847 1.213646 -0.948875 10.000000
1.653030 1.194008 -0.950935 23.000000
1.662306 1.171623 -0.950740 23.000000
1.656464 1.138861 -0.942050 22.000000
1.668388 1.119417 -0.944218 23.000000
1.680718 1.099431 -0.945980 20.000000
1.669902 1.064658 -0.934867 24.000000
1.688806 1.049780 -0.941083 16.000000
1.669504 1.010786 -0.925488 9.000000
1.668581 0.984260 -0.920894 17.000000
1.663464 0.955563 -0.913994 16.000000
1.669707 0.933711 -0.913525 20.000000
1.691620 0.920380 -0.921553 24.000000
1.673694 0.885617 -0.907983 20.000000
1.691258 0.869937 -0.913724 24.000000
1.692599 0.845819 -0.910803 21.000000
1.689608 0.819862 -0.905570 10.000000
1.714874 0.807426 -0.915541 18.000000
1.694699 0.774292 -0.901772 13.000000
1.703227 0.754140 -0.902909 16.000000
1.707053 0.732341 -0.902051 22.000000
1.698259 0.705340 -0.894563 17.000000
1.709981 0.687045 -0.898001 20.000000
1.708986 0.663647 -0.894679 16.000000
1.695052 0.635591 -0.884760 10.000000
0.961714 0.322744 -0.497823 33.000000
0.948148 0.305853 -0.489419 100.000000
0.947114 0.293414 -0.487754 100.000000
0.950216 0.282286 -0.488226 103.000000
0.948938 0.269897 -0.486487 100.000000
0.956185 0.259895 -0.489069 98.000000
0.950205 0.246482 -0.485144 66.000000
0.965932 0.238510 -0.492129 95.000000
0.959714 0.225150 -0.488098 95.000000
0.962097 0.213904 -0.488467 95.000000
0.959996 0.201704 -0.486581 95.000000
0.957742 0.189539 -0.484626 100.000000
0.950900 0.176726 -0.480542 103.000000
0.965978 0.167886 -0.487550 98.000000
0.958977 0.155095 -0.483230 46.000000
0.956107 0.143240 -0.481366 103.000000
0.953190 0.131422 -0.479334 98.000000
0.954600 0.120268 -0.479465 105.000000
0.955847 0.109081 -0.479662 100.000000
0.965864 0.098805 -0.484323 103.000000
0.962435 0.087111 -0.482190 103.000000
0.963358 0.075839 -0.482256 100.000000
0.955157 0.063969 -0.477954 71.000000
0.964709 0.053295 -0.482552 98.000000
0.956299 0.041634 -0.478150 98.000000
0.961195 0.030576 -0.480384 98.000000
0.961457 0.019356 -0.480482 100.000000
0.966061 0.008141 -0.482750 98.000000
0.957148 -0.003135 -0.478280 101.000000
0.961555 -0.014402 -0.480450 105.000000
0.961359 -0.025622 -0.480318 103.000000
0.956561 -0.036703 -0.478084 100.000000
0.960571 -0.048094 -0.480220 103.000000
0.968944 -0.059899 -0.484555 98.000000
0.959325 -0.070534 -0.479925 103.000000
0.958472 -0.081754 -0.479826 98.000000
0.957520 -0.092973 -0.479695 105.000000
0.956470 -0.104160 -0.479498 103.000000
0.950879 -0.114811 -0.477039 100.000000
0.953977 -0.126534 -0.479105 108.000000
0.961394 -0.138969 -0.483363 103.000000
0.951057 -0.148777 -0.478514 100.000000
0.953734 -0.160708 -0.480608 100.000000
0.951954 -0.171848 -0.480278 100.000000
0.954474 -0.183769 -0.482071 105.000000
0.952388 -0.194961 -0.481806 100.000000
0.950236 -0.206120 -0.481475 105.000000
0.952320 -0.218213 -0.483295 103.000000
0.949925 -0.229323 -0.482863 100.000000
0.951642 -0.241603 -0.484777 95.000000
0.927368 -0.246928 -0.473186 98.000000
0.920305 -0.256597 -0.470553 100.000000
0.921752 -0.268610 -0.472337 98.000000
0.910193 -0.276807 -0.467438 100.000000
0.915743 -0.290162 -0.471325 100.000000
0.908182 -0.299531 -0.468700 103.000000
0.913428 -0.313039 -0.472510 98.000000
0.922648 -0.328284 -0.478571 98.000000
0.923205 -0.340717 -0.480232 86.000000
0.990800 -0.378833 -0.516898 100.000000
1.020067 -0.403701 -0.533750 98.000000
1.048975 -0.429280 -0.550481 95.000000
1.056715 -0.446803 -0.556217 95.000000
1.088976 -0.475342 -0.574962 98.000000
1.091827 -0.491931 -0.578587 95.000000
1.086551 -0.504676 -0.577613 83.000000
1.089036 -0.521393 -0.581138 72.000000
1.050934 -0.518286 -0.562958 98.000000
1.077341 -0.547033 -0.579380 95.000000
1.067332 -0.557622 -0.576281 83.000000
1.049297 -0.563763 -0.568839 98.000000
1.066841 -0.589183 -0.580737 95.000000
1.080051 -0.612850 -0.590359 98.000000
1.549958 -0.976719 -0.862763 25.000000
1.592284 -1.029534 -0.890925 24.000000
1.629822 -1.081055 -0.916853 21.000000
1.625778 -1.105132 -0.918912 19.000000
1.621029 -1.129584 -0.921284 18.000000
1.604832 -1.146242 -0.917246 10.000000
1.603202 -1.173329 -0.921567 12.000000
1.597565 -1.197754 -0.923694 12.000000
1.613213 -1.238809 -0.938369 20.000000
1.603248 -1.260757 -0.938203 19.000000
1.589477 -1.279735 -0.935942 15.000000
1.593115 -1.312967 -0.944009 17.000000
1.585800 -1.337607 -0.945732 16.000000
1.567881 -1.353350 -0.941228 15.000000
1.570370 -1.386893 -0.948975 19.000000
1.561478 -1.412027 -0.950845 10.000000
1.563056 -1.445907 -0.958427 13.000000
1.557463 -1.473627 -0.961859 16.000000
1.544247 -1.495664 -0.961462 12.000000
1.538026 -1.523416 -0.964693 19.000000
1.524166 -1.545330 -0.964119 12.000000
1.530006 -1.586196 -0.975312 14.000000
1.518630 -1.611388 -0.976626 14.000000
1.501644 -1.629113 -0.973450 10.000000
1.486615 -1.650684 -0.972649 16.000000
1.492556 -1.696192 -0.985759 17.000000
1.480710 -1.720521 -0.986359 14.000000
1.482423 -1.763005 -0.997244 19.000000
1.465881 -1.784477 -0.996084 15.000000
1.455939 -1.812261 -0.998473 16.000000
1.464399 -1.866028 -1.014899 12.000000
1.432656 -1.869141 -1.003672 9.000000
1.434253 -1.915961 -1.015942 11.000000
1.415944 -1.937055 -1.014398 10.000000
1.421488 -1.991736 -1.030303 10.000000
1.408985 -2.019530 -1.032050 11.000000
1.386985 -2.036641 -1.028383 10.000000
1.387742 -2.088034 -1.041904 10.000000
1.372581 -2.116483 -1.043828 10.000000
1.359474 -2.148773 -1.047531 9.000000
1.358008 -2.200738 -1.060578 10.000000
1.336426 -2.221167 -1.058459 10.000000
1.333420 -2.273448 -1.071216 10.000000
1.317876 -2.305867 -1.074550 10.000000
0.504287 0.911641 -0.411079 24.000000
0.521017 0.917511 -0.418247 22.000000
0.523906 0.899028 -0.414326 30.000000
0.528849 0.884565 -0.412219 24.000000
0.535909 0.874140 -0.411913 26.000000
0.537915 0.855787 -0.407852 35.000000
0.532103 0.825796 -0.398115 10.000000
0.589484 0.892721 -0.435381 26.000000
0.661391 0.977495 -0.482327 28.000000
1.027734 1.447441 -0.731484 35.000000
1.095004 1.505900 -0.770322 36.000000
1.116877 1.499902 -0.776740 26.000000
1.141586 1.497316 -0.785109 29.000000
1.154997 1.479735 -0.785731 31.000000
1.175900 1.473463 -0.792462 32.000000
1.200745 1.469812 -0.800790 48.000000
1.222682 1.462291 -0.807204 33.000000
1.241657 1.450879 -0.811623 32.000000
1.271805 1.453619 -0.824158 52.000000
1.309225 1.462144 -0.840370 33.000000
1.331461 1.452955 -0.846728 32.000000
1.327813 1.417272 -0.837532 29.000000
1.368775 1.427569 -0.855739 36.000000
1.365284 1.391289 -0.846096 66.000000
1.409096 1.404328 -0.866662 35.000000
1.427875 1.390372 -0.870916 37.000000
1.459125 1.389368 -0.883478 54.000000
1.474500 1.371576 -0.885626 41.000000
1.495837 1.360342 -0.892147 52.000000
1.513687 1.345710 -0.896599 23.000000
1.535595 1.333248 -0.902684 29.000000
1.563717 1.326940 -0.913196 56.000000
1.581413 1.311356 -0.917496 33.000000
1.609672 1.304100 -0.928007 33.000000
1.652276 1.307623 -0.946615 38.000000
1.651948 1.276873 -0.940586 18.000000
1.669352 1.259981 -0.944810 24.000000
1.653607 1.218476 -0.930408 10.000000
1.677907 1.206769 -0.938606 23.000000
1.683551 1.181589 -0.936402 27.000000
1.677682 1.148670 -0.927885 18.000000
1.697795 1.133736 -0.933887 24.000000
1.694892 1.103605 -0.927264 23.000000
1.698901 1.078907 -0.925125 18.000000
1.687560 1.044290 -0.914195 22.000000
1.702450 1.026897 -0.918159 10.000000
1.698160 0.997320 -0.911230 14.000000
1.693007 0.968379 -0.904604 22.000000
1.699412 0.946293 -0.904136 18.000000
1.701524 0.922009 -0.901550 24.000000
1.707809 0.899504 -0.900609 21.000000
1.713463 0.877354 -0.899921 20.000000
1.726985 0.859137 -0.903469 24.000000
1.723730 0.833143 -0.898720 9.000000
1.740959 0.816654 -0.904266 16.000000
1.733374 0.788604 -0.896912 19.000000
1.725114 0.761068 -0.889854 14.000000
1.725135 0.737091 -0.886599 20.000000
1.728811 0.715163 -0.885726 21.000000
1.732261 0.693270 -0.884784 15.000000
1.735422 0.671285 -0.883773 18.000000
1.632678 0.609839 -0.829002 10.000000
1.609489 0.579985 -0.814894 30.000000
0.961953 0.309189 -0.483164 31.000000
0.960891 0.296614 -0.481552 98.000000
0.964158 0.285283 -0.481858 100.000000
0.967220 0.274020 -0.482300 98.000000
0.970045 0.262791 -0.482879 100.000000
0.977231 0.252520 -0.485386 35.000000
0.979966 0.241069 -0.485728 95.000000
0.978109 0.228628 -0.483967 98.000000
0.967334 0.214273 -0.477826 90.000000
0.978431 0.204839 -0.482509 95.000000
0.985016 0.194261 -0.484988 98.000000
0.978172 0.181154 -0.481010 92.000000
0.975693 0.168921 -0.479034 98.000000
0.972995 0.156825 -0.477124 33.000000
0.974666 0.145497 -0.477358 98.000000
0.971746 0.133489 -0.475378 100.000000
0.977574 0.122740 -0.477826 103.000000
0.974407 0.110803 -0.475744 103.000000
0.975538 0.099460 -0.475910 100.000000
0.972089 0.087679 -0.473860 98.000000
0.972950 0.076355 -0.474058 100.000000
0.982753 0.065597 -0.478461 46.000000
0.969917 0.053394 -0.472006 95.000000
0.974937 0.042283 -0.474257 98.000000
0.975367 0.030926 -0.474290 100.000000
0.975599 0.019569 -0.474356 95.000000
0.966739 0.008136 -0.470050 101.000000
0.971268 -0.003164 -0.472203 98.000000
0.971202 -0.014469 -0.472170 100.000000
0.966542 -0.025655 -0.469853 100.000000
0.975169 -0.037251 -0.474191 103.000000
0.970214 -0.048384 -0.471940 103.000000
0.969653 -0.059689 -0.471808 98.000000
0.968895 -0.070994 -0.471775 98.000000
0.968137 -0.082266 -0.471544 103.000000
0.962704 -0.093105 -0.469197 98.000000
0.966127 -0.104810 -0.471182 100.000000
0.964874 -0.116082 -0.471083 105.000000
0.968083 -0.127877 -0.472966 103.000000
0.962139 -0.138527 -0.470588 103.000000
0.965037 -0.150426 -0.472535 98.000000
0.967821 -0.162396 -0.474413 95.000000
0.961527 -0.172909 -0.472005 103.000000
0.972907 -0.186646 -0.478162 103.000000
0.966379 -0.197092 -0.475687 100.000000
0.964207 -0.208353 -0.475320 100.000000
0.961901 -0.219581 -0.474952 100.000000
0.959495 -0.230743 -0.474518 103.000000
0.961258 -0.243076 -0.476349 95.000000
0.954182 -0.253165 -0.473816 94.000000
0.947097 -0.263020 -0.471054 103.000000
0.931210 -0.270292 -0.464145 95.000000
0.941076 -0.285140 -0.470255 100.000000
0.929377 -0.293368 -0.465414 100.000000
0.990498 -0.325302 -0.497135 103.000000
1.029589 -0.351483 -0.518141 105.000000
1.195453 -0.439420 -0.604913 58.000000
1.101930 -0.419641 -0.559189 108.000000
1.088902 -0.429190 -0.554153 95.000000
1.109315 -0.452113 -0.566222 95.000000
1.112758 -0.468562 -0.569640 95.000000
1.107502 -0.481640 -0.568948 95.000000
1.106416 -0.496366 -0.570138 95.000000
1.100895 -0.509370 -0.569361 51.000000
1.099339 -0.524241 -0.570665 71.000000
1.073386 -0.526985 -0.559010 95.000000
1.091890 -0.551816 -0.570808 95.000000
1.089814 -0.566720 -0.571971 98.000000
1.103394 -0.590358 -0.581724 93.000000
1.548661 -0.922957 -0.830698 15.000000
1.612368 -0.985981 -0.868613 16.000000
1.636032 -1.026833 -0.885784 25.000000
1.647949 -1.060598 -0.896316 18.000000
1.647632 -1.087583 -0.900833 23.000000
1.650654 -1.117322 -0.907332 22.000000
1.649511 -1.144624 -0.911662 17.000000
1.644351 -1.169351 -0.913836 20.000000
1.635123 -1.191434 -0.913867 9.000000
1.618394 -1.208016 -0.909780 10.000000
1.623330 -1.240928 -0.917930 19.000000
1.606202 -1.257187 -0.913698 14.000000
1.617430 -1.296064 -0.925721 19.000000
1.610500 -1.320839 -0.927433 17.000000
1.606668 -1.348579 -0.931153 12.000000
1.602506 -1.376286 -0.934772 19.000000
1.576692 -1.386539 -0.926531 10.000000
1.589066 -1.429518 -0.940114 10.000000
1.577115 -1.451146 -0.939413 14.000000
1.564168 -1.473282 -0.939059 10.000000
1.568306 -1.510612 -0.948318 16.000000
1.551418 -1.529457 -0.945782 13.000000
1.551416 -1.563794 -0.952808 15.000000
1.543572 -1.592361 -0.956183 19.000000
1.535287 -1.620939 -0.959378 9.000000
1.527677 -1.648853 -0.962167 10.000000
1.531003 -1.691074 -0.973064 17.000000
1.509261 -1.706019 -0.968232 12.000000
1.506500 -1.740875 -0.974655 20.000000
1.499249 -1.773028 -0.979453 14.000000
1.488446 -1.801685 -0.982189 16.000000
1.477332 -1.830322 -0.984810 18.000000
1.478439 -1.872721 -0.994698 10.000000
1.455108 -1.886814 -0.989467 10.000000
1.448379 -1.922746 -0.995716 10.000000
1.460268 -1.984843 -1.015153 10.000000
1.438635 -2.002410 -1.011574 10.000000
1.427390 -2.034890 -1.015561 10.000000
1.423501 -2.078765 -1.025064 10.000000
1.400923 -2.095947 -1.021328 10.000000
1.403513 -2.151636 -1.036299 9.000000
1.382673 -2.172457 -1.034274 9.000000
1.368926 -2.204833 -1.037719 9.000000
1.371510 -2.265092 -1.054051 9.000000
1.354073 -2.293626 -1.055490 10.000000
1.336113 -2.322158 -1.056797 9.000000
1.340564 -2.391195 -1.076334 10.000000
0.533677 0.958094 -0.421692 13.000000
0.532394 0.931287 -0.414369 14.000000
0.537680 0.916752 -0.412366 10.000000
0.540321 0.898201 -0.408520 20.000000
0.545080 0.883650 -0.406454 12.000000
0.552087 0.873116 -0.406155 17.000000
0.599407 0.924949 -0.435226 9.000000
0.647919 0.975723 -0.464464 10.000000
1.080881 1.514458 -0.746980 21.000000
1.108225 1.516278 -0.757088 24.000000
1.119110 1.495446 -0.755871 24.000000
1.163453 1.518690 -0.777211 13.000000
1.162759 1.482715 -0.768466 26.000000
1.181803 1.472227 -0.772844 24.000000
1.203674 1.465117 -0.779073 21.000000
1.225577 1.457616 -0.785325 32.000000
1.259498 1.463855 -0.799249 23.000000
1.283762 1.459586 -0.807683 26.000000
1.302845 1.447470 -0.811984 29.000000
1.321810 1.435151 -0.816297 16.000000
1.330400 1.413012 -0.815071 32.000000
1.361866 1.413543 -0.827026 26.000000
1.370935 1.390474 -0.825343 25.000000
1.411699 1.400427 -0.843486 35.000000
1.430428 1.386557 -0.847685 28.000000
1.451704 1.376102 -0.854057 32.000000
1.473648 1.364825 -0.860117 37.000000
1.501672 1.359822 -0.870412 21.000000
1.516745 1.341653 -0.872498 20.000000
1.541426 1.332827 -0.880737 30.000000
1.562593 1.320660 -0.887018 28.000000
1.587970 1.310497 -0.894972 31.000000
1.612650 1.300424 -0.903159 31.000000
1.640977 1.292728 -0.913378 28.000000
1.672968 1.287348 -0.925573 30.000000
1.672189 1.256582 -0.919634 10.000000
1.678409 1.231435 -0.917692 13.000000
1.691670 1.211579 -0.919706 15.000000
1.686058 1.178421 -0.911453 12.000000
1.706449 1.163588 -0.917435 18.000000
1.707661 1.135791 -0.913127 10.000000
1.720061 1.115512 -0.914840 19.000000
1.716756 1.085407 -0.908388 16.000000
1.704930 1.051079 -0.898015 9.000000
1.720361 1.033130 -0.901605 13.000000
1.719501 1.006215 -0.897258 10.000000
1.706809 0.972210 -0.886320 10.000000
1.725102 0.956702 -0.892085 18.000000
1.719312 0.927833 -0.885480 10.000000
1.725558 0.905229 -0.884592 14.000000
1.743332 0.889185 -0.890169 18.000000
1.732529 0.858612 -0.881245 10.000000
1.754097 0.844231 -0.888771 10.000000
1.746761 0.815897 -0.881759 10.000000
1.747022 0.791894 -0.879081 10.000000
1.759811 0.773181 -0.882326 13.000000
1.755405 0.747382 -0.877414 10.000000
1.751011 0.721491 -0.872101 15.000000
1.758646 0.701066 -0.873310 15.000000
1.744977 0.672417 -0.863970 10.000000
1.688352 0.628309 -0.833545 18.000000
1.665189 0.597830 -0.819800 21.000000
0.966131 0.297057 -0.470663 32.000000
0.969262 0.285828 -0.471173 95.000000
0.976685 0.275762 -0.473730 95.000000
0.975251 0.263200 -0.472024 73.000000
0.986847 0.254093 -0.476635 71.000000
0.980797 0.240401 -0.472704 84.000000
0.992134 0.231056 -0.477390 95.000000
0.990117 0.218545 -0.475645 95.000000
0.988011 0.206102 -0.473861 91.000000
0.990189 0.194601 -0.474168 95.000000
1.001198 0.184708 -0.478661 95.000000
0.989712 0.170795 -0.472617 91.000000
0.978175 0.157092 -0.466364 95.000000
0.979813 0.145730 -0.466598 98.000000
0.981283 0.134369 -0.466932 98.000000
0.982720 0.122940 -0.467066 100.000000
0.984023 0.111512 -0.467166 100.000000
0.989658 0.100540 -0.469501 98.000000
0.986195 0.088621 -0.467500 103.000000
0.991571 0.077545 -0.469836 98.000000
0.987866 0.065731 -0.467734 95.000000
1.011104 0.055474 -0.478516 98.000000
1.011650 0.043750 -0.478584 95.000000
0.989470 0.031278 -0.467935 98.000000
0.985218 0.019692 -0.465865 98.000000
0.985351 0.008283 -0.465931 103.000000
0.985384 -0.003160 -0.465898 103.000000
0.985318 -0.014603 -0.465865 105.000000
0.989670 -0.026165 -0.467868 105.000000
0.984785 -0.037489 -0.465698 100.000000
0.984320 -0.048898 -0.465632 103.000000
0.979242 -0.060064 -0.463363 81.000000
0.973971 -0.071093 -0.461195 100.000000
0.973213 -0.082397 -0.460964 100.000000
0.976758 -0.094103 -0.462933 105.000000
0.980195 -0.105913 -0.464867 100.000000
0.978931 -0.117323 -0.464767 98.000000
0.968632 -0.127518 -0.460338 103.000000
0.967247 -0.138724 -0.460009 100.000000
0.979111 -0.152013 -0.466130 56.000000
0.972877 -0.162695 -0.463835 100.000000
0.971081 -0.173938 -0.463470 100.000000
0.978009 -0.186948 -0.467487 100.000000
0.975928 -0.198294 -0.467151 100.000000
0.978138 -0.210593 -0.468937 98.000000
0.975811 -0.221924 -0.468532 103.000000
0.973417 -0.233221 -0.468094 100.000000
0.992750 -0.250084 -0.478340 36.000000
0.963675 -0.254691 -0.465271 94.000000
0.960855 -0.265903 -0.464835 88.000000
1.005796 -0.290900 -0.487583 95.000000
1.245810 -0.407641 -0.608066 98.000000
1.352939 -0.460176 -0.662098 100.000000
1.446258 -0.510693 -0.709668 50.000000
1.402276 -0.513510 -0.689918 19.000000
1.235294 -0.468586 -0.609477 100.000000
1.137183 -0.446418 -0.562620 95.000000
1.128090 -0.457926 -0.559751 73.000000
1.118788 -0.469377 -0.557010 76.000000
1.122037 -0.485945 -0.560280 73.000000
1.112468 -0.497225 -0.557461 42.000000
1.119546 -0.515775 -0.562709 69.000000
1.117949 -0.530793 -0.563955 40.000000
1.108009 -0.541868 -0.561013 64.000000
1.126454 -0.567052 -0.572504 47.000000
1.466969 -0.803428 -0.754765 35.000000
1.525840 -0.858457 -0.788262 32.000000
1.591191 -0.919873 -0.825911 21.000000
1.585214 -0.940587 -0.826235 9.000000
1.672181 -1.018692 -0.875858 12.000000
1.665187 -1.040422 -0.875996 11.000000
1.661330 -1.064905 -0.878423 12.000000
1.653350 -1.086993 -0.878738 10.000000
1.664068 -1.121749 -0.889106 10.000000
1.674318 -1.156908 -0.899357 10.000000
1.661552 -1.176599 -0.897456 10.000000
1.648719 -1.196087 -0.895486 9.000000
1.631938 -1.212708 -0.891442 10.000000
1.618727 -1.231813 -0.889341 10.000000
1.641469 -1.278884 -0.907155 10.000000
1.627614 -1.298073 -0.904938 10.000000
1.634875 -1.334460 -0.914581 10.000000
1.619784 -1.354044 -0.912546 13.000000
1.626193 -1.390832 -0.921960 10.000000
1.614719 -1.412772 -0.921444 9.000000
1.602252 -1.435221 -0.921204 10.000000
1.590361 -1.456894 -0.920524 10.000000
1.597537 -1.497959 -0.931939 10.000000
1.571663 -1.506922 -0.923323 10.000000
1.584431 -1.554718 -0.938391 10.000000
1.580968 -1.586085 -0.943212 11.000000
1.566610 -1.608298 -0.942552 10.000000
1.561496 -1.640388 -0.947596 9.000000
1.550555 -1.665124 -0.948372 9.000000
1.538415 -1.690459 -0.949425 9.000000
1.535110 -1.726074 -0.956116 10.000000
1.517105 -1.743698 -0.952835 10.000000
1.530910 -1.800539 -0.970756 10.000000
1.505269 -1.811666 -0.963928 10.000000
1.499977 -1.847580 -0.970260 9.000000
1.497015 -1.887317 -0.978332 9.000000
1.493421 -1.927152 -0.986330 9.000000
1.483589 -1.959761 -0.990515 9.000000
1.476034 -1.996046 -0.996349 9.000000
1.443365 -1.998623 -0.985497 9.000000
1.448423 -2.053845 -1.000424 9.000000
1.441951 -2.094151 -1.007930 9.000000
1.429543 -2.126785 -1.011517 9.000000
1.424375 -2.171173 -1.020622 9.000000
1.413427 -2.207723 -1.025815 8.000000
1.411846 -2.260210 -1.038286 9.000000
1.397109 -2.292979 -1.041416 9.000000
1.379472 -2.321796 -1.042776 9.000000
1.368416 -2.362637 -1.049387 9.000000
1.358955 -2.407529 -1.057698 9.000000
0.529034 0.943407 -0.405068 18.000000
0.536851 0.932901 -0.404893 19.000000
0.534931 0.906269 -0.397671 21.000000
0.547068 0.903779 -0.400990 17.000000
0.549334 0.885249 -0.397164 26.000000
0.556321 0.874674 -0.396908 10.000000
0.632601 0.969242 -0.444868 9.000000
1.067698 1.522003 -0.723589 21.000000
1.097660 1.528069 -0.735184 26.000000
1.119635 1.522314 -0.741426 24.000000
1.133253 1.505154 -0.742133 19.000000
1.158021 1.502545 -0.750121 27.000000
1.214563 1.539744 -0.778436 10.000000
1.184559 1.467364 -0.751338 27.000000
1.212308 1.467432 -0.761180 31.000000
1.224391 1.449873 -0.762007 24.000000
1.243150 1.438716 -0.766185 35.000000
1.271135 1.437654 -0.775997 26.000000
1.289909 1.425803 -0.780215 26.000000
1.321152 1.427344 -0.791922 30.000000
1.339137 1.415389 -0.796377 10.000000
1.348247 1.392617 -0.794768 33.000000
1.366717 1.379727 -0.798843 32.000000
1.417310 1.399619 -0.822330 32.000000
1.416143 1.366481 -0.814871 35.000000
1.458035 1.374859 -0.832292 33.000000
1.475864 1.360968 -0.836666 32.000000
1.504641 1.355597 -0.846369 36.000000
1.515516 1.334999 -0.846780 16.000000
1.537274 1.322766 -0.852661 31.000000
1.565409 1.316702 -0.862648 33.000000
1.582990 1.301266 -0.866832 28.000000
1.618992 1.299543 -0.880378 36.000000
1.647306 1.291907 -0.890338 31.000000
1.664842 1.275403 -0.894452 31.000000
1.693204 1.266867 -0.904404 32.000000
1.699400 1.241511 -0.902498 10.000000
1.727777 1.232193 -0.912354 22.000000
1.726026 1.201397 -0.906412 22.000000
1.723837 1.170746 -0.900366 17.000000
1.736514 1.150448 -0.902098 22.000000
1.737426 1.122476 -0.897926 16.000000
1.741917 1.097082 -0.895588 19.000000
1.753838 1.076528 -0.897164 23.000000
1.721965 1.030372 -0.877056 9.000000
1.753046 1.021517 -0.888555 19.000000
1.751917 0.994391 -0.884283 18.000000
1.746834 0.964794 -0.877575 14.000000
1.761109 0.946669 -0.881188 23.000000
1.747255 0.913087 -0.870273 13.000000
1.761064 0.894770 -0.873743 17.000000
1.778886 0.878251 -0.879245 21.000000
1.747085 0.837765 -0.860280 10.000000
1.780994 0.828886 -0.873766 20.000000
1.785754 0.806208 -0.872912 21.000000
1.781717 0.780029 -0.868238 15.000000
1.794369 0.760946 -0.871383 20.000000
1.789979 0.734702 -0.866232 20.000000
1.814768 0.720670 -0.875645 16.000000
1.796861 0.689832 -0.864528 23.000000
1.795651 0.665735 -0.861520 10.000000
1.777011 0.635630 -0.850224 20.000000
1.783834 0.614973 -0.851171 31.000000
1.747219 0.579838 -0.831413 21.000000
1.675380 0.534508 -0.795135 41.000000
0.974400 0.286270 -0.460251 49.000000
0.955513 0.268774 -0.450363 95.000000
0.958374 0.257697 -0.450763 95.000000
0.961101 0.246554 -0.451162 59.000000
0.985799 0.240878 -0.461952 98.000000
0.988385 0.229377 -0.462258 98.000000
0.986358 0.216966 -0.460558 98.000000
0.979721 0.203699 -0.456744 100.000000
0.986333 0.193193 -0.459124 100.000000
0.983917 0.180939 -0.457282 103.000000
0.990345 0.170262 -0.459562 98.000000
0.987643 0.158078 -0.457785 95.000000
0.980295 0.145331 -0.453856 100.000000
0.990833 0.135184 -0.458221 100.000000
0.983222 0.122578 -0.454189 108.000000
0.989002 0.111712 -0.456506 103.000000
0.985617 0.099826 -0.454621 100.000000
0.986648 0.088416 -0.454754 103.000000
0.992076 0.077326 -0.456941 103.000000
0.992912 0.065831 -0.456974 95.000000
0.989010 0.054088 -0.454987 100.000000
1.016777 0.043818 -0.467578 103.000000
0.994516 0.031345 -0.457141 105.000000
1.022003 0.020393 -0.469769 103.000000
1.017632 0.008511 -0.467715 100.000000
0.990407 -0.003160 -0.455187 103.000000
1.022106 -0.015072 -0.469734 100.000000
0.999225 -0.026318 -0.459195 100.000000
0.989775 -0.037522 -0.454987 100.000000
0.998386 -0.049414 -0.459061 98.000000
0.993279 -0.060685 -0.456874 100.000000
1.001609 -0.072839 -0.460979 95.000000
0.991675 -0.083676 -0.456707 100.000000
0.995230 -0.095572 -0.458624 98.000000
0.994156 -0.107086 -0.458423 98.000000
0.992981 -0.118567 -0.458188 98.000000
0.996112 -0.130639 -0.460102 98.000000
0.990128 -0.141528 -0.457785 98.000000
0.993043 -0.153671 -0.459596 98.000000
0.968928 -0.161400 -0.448901 82.000000
0.971560 -0.173438 -0.450781 98.000000
0.965138 -0.183845 -0.448440 95.000000
0.967553 -0.195888 -0.450185 95.000000
0.965368 -0.207080 -0.449854 100.000000
0.958678 -0.217233 -0.447385 98.000000
0.973914 -0.232602 -0.455368 98.000000
1.771294 -0.532652 -0.836458 20.000000
1.761184 -0.551733 -0.833347 18.000000
1.755004 -0.572189 -0.832544 21.000000
1.752957 -0.594045 -0.833732 20.000000
1.772198 -0.623444 -0.845110 19.000000
1.782485 -0.650254 -0.852236 16.000000
1.104558 -0.446602 -0.532466 84.000000
1.107966 -0.463027 -0.535944 98.000000
1.102829 -0.475909 -0.535222 71.000000
1.101907 -0.490448 -0.536371 85.000000
1.104775 -0.507111 -0.539663 47.000000
1.711983 -0.883165 -0.848604 18.000000
1.738411 -0.922581 -0.865498 17.000000
1.732457 -0.944917 -0.865933 18.000000
1.729859 -0.969784 -0.868564 17.000000
1.723391 -0.992023 -0.868848 19.000000
1.716277 -1.014553 -0.869323 15.000000
1.697551 -1.029577 -0.863476 10.000000
1.713379 -1.066431 -0.875824 18.000000
1.686094 -1.076628 -0.866199 12.000000
1.693452 -1.108893 -0.874450 10.000000
1.688829 -1.133863 -0.876591 19.000000
1.680176 -1.156205 -0.876740 10.000000
1.693796 -1.194321 -0.888636 11.000000
1.691901 -1.222217 -0.892538 10.000000
1.652719 -1.222743 -0.876730 10.000000
1.657756 -1.255870 -0.884468 15.000000
1.655012 -1.283645 -0.888186 11.000000
1.659161 -1.317194 -0.895700 13.000000
1.651500 -1.342730 -0.897620 17.000000
1.640592 -1.364852 -0.897232 10.000000
1.650479 -1.404779 -0.908287 14.000000
1.620860 -1.412306 -0.898495 10.000000
1.595448 -1.421795 -0.890167 9.000000
1.603433 -1.462582 -0.901402 18.000000
1.601385 -1.493618 -0.906398 10.000000
1.601466 -1.528596 -0.913547 11.000000
1.597741 -1.560596 -0.918744 17.000000
1.591054 -1.588755 -0.921558 10.000000
1.596142 -1.630746 -0.932274 15.000000
1.574886 -1.646356 -0.927755 10.000000
1.567193 -1.674598 -0.930315 9.000000
1.570665 -1.717046 -0.940714 17.000000
1.548654 -1.732278 -0.936011 10.000000
1.560150 -1.785568 -0.951731 16.000000
1.552638 -1.818169 -0.956195 16.000000
1.533857 -1.835851 -0.952737 10.000000
1.540193 -1.886403 -0.966269 19.000000
1.531245 -1.919172 -0.970422 9.000000
1.504657 -1.929961 -0.963536 9.000000
1.509014 -1.981107 -0.976675 11.000000
1.498584 -2.013930 -0.980606 9.000000
1.484926 -2.043003 -0.982590 10.000000
1.473557 -2.075743 -0.986259 10.000000
1.467008 -2.116241 -0.993560 10.000000
1.462411 -2.160734 -1.002406 11.000000
1.462295 -2.213116 -1.014731 9.000000
1.444403 -2.243015 -1.016606 9.000000
1.427730 -2.272054 -1.018006 10.000000
1.413073 -2.304909 -1.021131 9.000000
1.409907 -2.357906 -1.032911 10.000000
1.405696 -2.411064 -1.044655 10.000000
1.386632 -2.440110 -1.045618 9.000000
0.545207 0.992816 -0.411130 11.000000
0.538094 0.953140 -0.398940 21.000000
0.541203 0.934480 -0.395383 17.000000
0.546412 0.919883 -0.393475 22.000000
0.551344 0.905297 -0.391541 33.000000
0.556035 0.890757 -0.389580 22.000000
0.599009 0.935039 -0.413636 21.000000
0.660421 1.006142 -0.450189 10.000000
1.032094 1.498816 -0.686460 31.000000
1.077820 1.528503 -0.708374 29.000000
1.099771 1.523203 -0.714431 25.000000
1.124478 1.521345 -0.722296 32.000000
1.143672 1.511597 -0.726558 25.000000
1.168536 1.509036 -0.734360 25.000000
1.164546 1.469469 -0.724184 29.000000
1.183308 1.459227 -0.728384 29.000000
1.208038 1.455841 -0.736160 34.000000
1.226850 1.444957 -0.740271 32.000000
1.245553 1.433877 -0.744393 32.000000
1.276572 1.436388 -0.755848 34.000000
1.298395 1.428082 -0.761787 29.000000
1.313213 1.413138 -0.764257 30.000000
1.322197 1.390699 -0.762780 29.000000
1.343861 1.381603 -0.768626 31.000000
1.375305 1.381970 -0.780002 37.000000
1.396342 1.372646 -0.786163 36.000000
1.418099 1.362395 -0.791959 32.000000
1.446564 1.358137 -0.801520 42.000000
1.450626 1.331951 -0.798172 35.000000
1.503207 1.348662 -0.820893 34.000000
1.510417 1.325125 -0.819379 32.000000
1.521605 1.304035 -0.819407 32.000000
1.556623 1.304219 -0.832972 57.000000
1.588986 1.300239 -0.844288 38.000000
1.628076 1.301883 -0.859801 36.000000
1.649811 1.288094 -0.865411 52.000000
1.670911 1.274480 -0.871315 36.000000
1.695696 1.263246 -0.879087 33.000000
1.705452 1.240753 -0.879189 32.000000
1.718840 1.220810 -0.881142 26.000000
1.762269 1.221675 -0.898483 24.000000
1.760193 1.190696 -0.892653 26.000000
1.757681 1.159933 -0.886651 26.000000
1.766360 1.136799 -0.886450 27.000000
1.774844 1.113617 -0.886172 23.000000
1.767288 1.080780 -0.878082 18.000000
1.767170 1.052976 -0.873729 10.000000
1.766353 1.025653 -0.869626 20.000000
1.773595 1.002590 -0.869087 24.000000
1.784546 0.981703 -0.870439 22.000000
1.799008 0.963256 -0.874030 24.000000
1.793005 0.933899 -0.867700 24.000000
1.774589 0.898229 -0.855019 18.000000
1.784169 0.877681 -0.856473 21.000000
1.797760 0.858914 -0.859775 12.000000
1.806965 0.837988 -0.861033 20.000000
1.807668 0.813164 -0.858318 24.000000
1.816435 0.792136 -0.859438 19.000000
1.829229 0.772695 -0.862551 21.000000
1.816139 0.743005 -0.853897 25.000000
1.815713 0.718407 -0.850817 21.000000
1.823318 0.697411 -0.851987 21.000000
1.787754 0.660410 -0.833066 16.000000
1.799114 0.641255 -0.836087 25.000000
1.801655 0.618896 -0.835034 27.000000
1.773545 0.586512 -0.819847 29.000000
1.710035 0.543713 -0.788414 30.000000
0.977923 0.274214 -0.447855 75.000000
0.967649 0.259281 -0.442070 98.000000
0.992578 0.253750 -0.452539 95.000000
0.986324 0.240170 -0.448973 100.000000
0.997808 0.230781 -0.453325 100.000000
0.995735 0.218318 -0.451676 100.000000
0.998117 0.206749 -0.451914 98.000000
1.000295 0.195213 -0.452186 100.000000
1.002302 0.183712 -0.452594 100.000000
0.999772 0.171337 -0.450768 100.000000
1.019648 0.162631 -0.459062 98.000000
0.998742 0.147533 -0.449142 103.000000
0.991241 0.134803 -0.445278 105.000000
1.001676 0.124501 -0.449648 100.000000
1.007530 0.113446 -0.451784 103.000000
0.999594 0.100909 -0.447882 105.000000
1.000635 0.089362 -0.448016 105.000000
1.006094 0.078167 -0.450154 103.000000
1.029718 0.068073 -0.460373 98.000000
1.030373 0.056176 -0.460511 100.000000
0.998994 0.042941 -0.446314 103.000000
1.035902 0.032559 -0.462618 105.000000
1.031615 0.020518 -0.460683 103.000000
1.031753 0.008621 -0.460718 103.000000
1.027222 -0.003262 -0.458679 103.000000
0.999762 -0.014703 -0.446381 100.000000
1.004126 -0.026318 -0.448318 100.000000
1.008353 -0.038072 -0.450323 100.000000
1.007881 -0.049706 -0.450221 100.000000
1.002750 -0.061029 -0.448050 67.000000
1.006566 -0.072941 -0.450053 98.000000
1.014790 -0.085306 -0.453990 100.000000
1.009257 -0.096576 -0.451818 103.000000
0.999091 -0.107220 -0.447546 100.000000
1.006920 -0.119848 -0.451479 103.000000
1.010128 -0.131991 -0.453207 98.000000
1.004142 -0.142984 -0.450938 100.000000
0.998034 -0.153873 -0.448636 91.000000
0.982723 -0.163161 -0.442380 95.000000
0.976394 -0.173703 -0.440119 95.000000
0.974507 -0.184895 -0.439722 95.000000
0.976935 -0.197057 -0.441449 100.000000
1.005970 -0.215057 -0.455383 100.000000
1.764893 -0.484924 -0.806152 20.000000
1.785976 -0.512828 -0.817377 23.000000
1.793556 -0.537337 -0.822481 24.000000
1.796306 -0.560785 -0.825750 19.000000
1.776969 -0.577361 -0.818914 21.000000
1.792318 -0.605233 -0.828004 19.000000
1.789961 -0.627418 -0.829061 21.000000
1.740006 -0.632421 -0.807988 9.000000
1.148456 -0.462785 -0.537891 103.000000
1.126530 -0.468918 -0.529110 91.000000
1.121335 -0.481987 -0.528420 81.000000
1.698473 -0.824371 -0.811577 24.000000
1.722327 -0.860364 -0.825968 22.000000
1.753548 -0.901583 -0.844502 18.000000
1.760054 -0.930406 -0.850857 24.000000
1.753986 -0.952819 -0.851166 20.000000
1.747407 -0.975590 -0.851800 22.000000
1.740514 -0.998324 -0.852294 19.000000
1.733770 -1.020551 -0.852449 10.000000
1.730317 -1.045586 -0.854809 16.000000
1.718796 -1.065749 -0.853202 16.000000
1.726516 -1.098144 -0.861293 12.000000
1.718250 -1.120784 -0.861468 19.000000
1.717461 -1.148438 -0.865498 19.000000
1.712494 -1.173615 -0.867508 16.000000
1.714762 -1.204136 -0.873279 18.000000
1.679111 -1.207842 -0.859824 9.000000
1.677142 -1.235474 -0.863586 10.000000
1.671101 -1.260445 -0.865342 16.000000
1.679437 -1.296751 -0.874632 16.000000
1.679378 -1.328115 -0.880347 19.000000
1.686614 -1.364935 -0.889466 16.000000
1.674934 -1.387926 -0.889354 16.000000
1.674145 -1.419121 -0.894536 18.000000
1.647810 -1.429904 -0.886718 10.000000
1.639506 -1.454957 -0.887958 13.000000
1.643858 -1.493001 -0.897029 17.000000
1.638194 -1.521327 -0.899925 14.000000
1.648262 -1.566242 -0.912470 21.000000
1.634244 -1.588992 -0.911934 15.000000
1.620756 -1.610922 -0.910864 18.000000
1.615996 -1.643318 -0.915771 17.000000
1.601129 -1.665666 -0.914963 9.000000
1.592331 -1.694717 -0.917816 14.000000
1.590377 -1.729927 -0.923835 15.000000
1.590091 -1.769506 -0.932004 17.000000
1.592271 -1.812636 -0.941847 19.000000
1.566361 -1.824377 -0.935297 12.000000
1.570417 -1.871371 -0.946760 19.000000
1.555944 -1.897054 -0.947243 14.000000
1.549911 -1.933561 -0.953087 10.000000
1.537483 -1.962818 -0.955213 10.000000
1.521813 -1.988326 -0.955519 10.000000
1.528293 -2.043668 -0.970013 13.000000
1.514408 -2.072991 -0.971824 15.000000
1.508263 -2.113685 -0.978973 10.000000
1.504132 -2.158267 -0.987719 17.000000
1.480893 -2.175932 -0.984032 11.000000
1.475549 -2.220746 -0.992555 10.000000
1.464429 -2.257778 -0.997511 10.000000
1.448616 -2.291680 -1.000934 10.000000
1.443719 -2.340656 -1.010854 13.000000
1.425855 -2.369805 -1.011984 10.000000
1.419442 -2.419027 -1.021630 10.000000
1.412153 -2.468521 -1.031166 14.000000
1.392868 -2.502591 -1.034081 10.000000
0.552085 0.998523 -0.402829 13.000000
0.560394 0.987778 -0.402782 15.000000
0.550299 0.944093 -0.389156 16.000000
0.557902 0.933468 -0.388995 18.000000
0.565384 0.922829 -0.388820 24.000000
0.572710 0.912107 -0.388632 20.000000
0.651797 1.011641 -0.435977 11.000000
1.004720 1.486242 -0.655397 30.000000
1.050023 1.516746 -0.676728 24.000000
1.077127 1.519644 -0.686100 29.000000
1.098930 1.514393 -0.691991 29.000000
1.129161 1.520178 -0.703129 27.000000
1.142661 1.503071 -0.703786 29.000000
1.170274 1.504265 -0.713194 23.000000
1.166992 1.464233 -0.703003 26.000000
1.188653 1.457630 -0.708788 35.000000
1.207352 1.447113 -0.712887 28.000000
1.228237 1.440513 -0.718959 36.000000
1.253024 1.436492 -0.726526 37.000000
1.274806 1.428581 -0.732339 32.000000
1.293468 1.416952 -0.736321 36.000000
1.318387 1.411817 -0.743843 30.000000
1.343402 1.406332 -0.751397 21.000000
1.355479 1.387026 -0.751753 53.000000
1.373881 1.374262 -0.755660 33.000000
1.401513 1.371513 -0.765221 71.000000
1.416481 1.354875 -0.767277 38.000000
1.431320 1.338045 -0.769268 36.000000
1.469356 1.343574 -0.784344 52.000000
1.491116 1.332268 -0.789978 33.000000
1.502246 1.311495 -0.790039 25.000000
1.526660 1.303264 -0.797739 37.000000
1.551732 1.293995 -0.805071 32.000000
1.579800 1.287807 -0.814618 62.000000
1.604961 1.277656 -0.822006 47.000000
1.644150 1.279050 -0.837079 36.000000
1.668860 1.268353 -0.844741 59.000000
1.690377 1.254014 -0.850142 31.000000
1.700063 1.231690 -0.850204 26.000000
1.739740 1.230649 -0.865308 69.000000
1.756747 1.212995 -0.869088 29.000000
1.773669 1.195112 -0.872806 28.000000
1.786570 1.174457 -0.874568 24.000000
1.791470 1.148596 -0.872537 23.000000
1.796051 1.122777 -0.870351 25.000000
1.780575 1.084971 -0.858631 15.000000
1.800291 1.068907 -0.864029 10.000000
1.791904 1.036260 -0.855928 21.000000
1.791109 1.008475 -0.851622 15.000000
1.817965 0.996781 -0.860921 25.000000
1.824854 0.973301 -0.860303 22.000000
1.818790 0.943812 -0.854180 18.000000
1.820917 0.918315 -0.851546 25.000000
1.830696 0.897273 -0.852962 17.000000
1.819455 0.866185 -0.844647 10.000000
1.832909 0.847048 -0.847850 21.000000
1.837793 0.823909 -0.847114 20.000000
1.846728 0.802638 -0.848314 22.000000
1.838347 0.774017 -0.841607 17.000000
1.851003 0.754414 -0.844610 19.000000
1.850383 0.729778 -0.841970 20.000000
1.845454 0.703370 -0.837040 13.000000
1.783810 0.656656 -0.806893 10.000000
1.821094 0.646893 -0.821594 25.000000
1.819310 0.622892 -0.818575 26.000000
1.812902 0.597525 -0.813586 28.000000
1.775459 0.562672 -0.794785 33.000000
1.689141 0.514043 -0.754277 34.000000
0.990087 0.264459 -0.439256 56.000000
1.001816 0.255329 -0.443573 68.000000
1.000064 0.242676 -0.441978 98.000000
1.007137 0.232189 -0.444225 98.000000
1.009575 0.220619 -0.444637 100.000000
1.011944 0.208946 -0.444843 100.000000
1.014141 0.197308 -0.445152 100.000000
1.016235 0.185600 -0.445427 98.000000
1.018158 0.173962 -0.445770 95.000000
1.033612 0.164383 -0.451888 98.000000
1.012612 0.149141 -0.442250 103.000000
1.032369 0.139970 -0.450391 100.000000
1.038378 0.128654 -0.452549 103.000000
1.007813 0.113103 -0.438756 103.000000
1.018091 0.102422 -0.442897 103.000000
1.023716 0.091123 -0.445054 105.000000
1.015524 0.078657 -0.441148 98.000000
1.039158 0.068513 -0.451257 95.000000
1.039886 0.056528 -0.451257 103.000000
1.045023 0.044775 -0.453314 100.000000
1.045441 0.032772 -0.453349 103.000000
1.041132 0.020679 -0.451465 103.000000
1.041306 0.008694 -0.451499 100.000000
1.013816 -0.003170 -0.439532 103.000000
1.041236 -0.015240 -0.451430 98.000000
1.018132 -0.026591 -0.441385 92.000000
1.026929 -0.038657 -0.445293 98.000000
1.021868 -0.050224 -0.443237 95.000000
1.034994 -0.062797 -0.449165 75.000000
1.025117 -0.074033 -0.445020 95.000000
1.024263 -0.085791 -0.444883 98.000000
1.014135 -0.096712 -0.440775 103.000000
1.022178 -0.109307 -0.444541 95.000000
1.020913 -0.121064 -0.444404 98.000000
1.014960 -0.132195 -0.442216 100.000000
1.013497 -0.143867 -0.442012 98.000000
1.025511 -0.157596 -0.447682 95.000000
0.991976 -0.164143 -0.433616 78.000000
1.026377 -0.181916 -0.449075 100.000000
1.110070 -0.209942 -0.486362 110.000000
1.193301 -0.239865 -0.523563 110.000000
1.311897 -0.279498 -0.576595 105.000000
1.425362 -0.320737 -0.627353 95.000000
1.546958 -0.366823 -0.682064 62.000000
1.632078 -0.406847 -0.720931 32.000000
1.712044 -0.447706 -0.757652 18.000000
1.800225 -0.492880 -0.798173 19.000000
1.808097 -0.517304 -0.803197 18.000000
1.815576 -0.542095 -0.808397 24.000000
1.835894 -0.571229 -0.819340 20.000000
1.838269 -0.595239 -0.822427 18.000000
1.827371 -0.614920 -0.819574 22.000000
1.816249 -0.634373 -0.816598 14.000000
1.817953 -0.658365 -0.819479 10.000000
1.720237 -0.645294 -0.777409 26.000000
1.513764 -0.669071 -0.694817 95.000000
1.690981 -0.794044 -0.781499 15.000000
1.782023 -0.861718 -0.826435 24.000000
1.780861 -0.886320 -0.828841 18.000000
1.787366 -0.915454 -0.835339 22.000000
1.765217 -0.929509 -0.828061 16.000000
1.779241 -0.963271 -0.838226 21.000000
1.764844 -0.981343 -0.834645 19.000000
1.761935 -1.006399 -0.837058 14.000000
1.754804 -1.029236 -0.837488 10.000000
1.763201 -1.061506 -0.845443 16.000000
1.763330 -1.089307 -0.849570 13.000000
1.755276 -1.112223 -0.849754 20.000000
1.723671 -1.119891 -0.838597 19.000000
1.711408 -1.139877 -0.836836 19.000000
1.741033 -1.188390 -0.855763 21.000000
1.716656 -1.200487 -0.848190 10.000000
1.730005 -1.239249 -0.859364 10.000000
1.716557 -1.259140 -0.857333 15.000000
1.698701 -1.276594 -0.853718 13.000000
1.695900 -1.304652 -0.857200 21.000000
1.703792 -1.341371 -0.866148 16.000000
1.703221 -1.373055 -0.871626 18.000000
1.702827 -1.404430 -0.876709 20.000000
1.687172 -1.424507 -0.874680 15.000000
1.686031 -1.455945 -0.879560 18.000000
1.655933 -1.463428 -0.870041 10.000000
1.667240 -1.507901 -0.882483 14.000000
1.664997 -1.539487 -0.887191 22.000000
1.644521 -1.555829 -0.882996 15.000000
1.664149 -1.610836 -0.900555 21.000000
1.643923 -1.626440 -0.895942 16.000000
1.626062 -1.645740 -0.893369 10.000000
1.630590 -1.688231 -0.903368 13.000000
1.612093 -1.707418 -0.900758 10.000000
1.612372 -1.746891 -0.908784 13.000000
1.627698 -1.803845 -0.925568 22.000000
1.604849 -1.819462 -0.920937 13.000000
1.597266 -1.852398 -0.925082 19.000000
1.584148 -1.877506 -0.925255 13.000000
1.581673 -1.917680 -0.932750 15.000000
1.575465 -1.954385 -0.938425 17.000000
1.558933 -1.980887 -0.939136 9.000000
1.545997 -2.010259 -0.941071 11.000000
1.544009 -2.054582 -0.949986 12.000000
1.541206 -2.099119 -0.958649 10.000000
1.529539 -2.132416 -0.962146 13.000000
1.519984 -2.169476 -0.967137 13.000000
1.512584 -2.210559 -0.973860 10.000000
1.491365 -2.232124 -0.971909 10.000000
1.485394 -2.277127 -0.980032 9.000000
1.479664 -2.327064 -0.990109 10.000000
1.467129 -2.364415 -0.994679 10.000000
1.453987 -2.401697 -0.999093 10.000000
1.449910 -2.455228 -1.010118 13.000000
1.433597 -2.493576 -1.014743 10.000000
1.413709 -2.522769 -1.015524 10.000000
0.549648 1.015190 -0.394504 9.000000
0.570427 1.024794 -0.402485 10.000000
0.567261 0.993390 -0.394336 10.000000
0.573047 0.978479 -0.392651 10.000000
0.569504 0.947054 -0.384192 10.000000
0.574584 0.932305 -0.382430 10.000000
0.622287 0.985347 -0.408739 10.000000
1.016597 1.531769 -0.650020 15.000000
1.038199 1.527601 -0.655806 20.000000
1.059909 1.523071 -0.661556 26.000000
1.078933 1.514400 -0.665646 16.000000
1.100631 1.509286 -0.671379 24.000000
1.125244 1.507629 -0.678833 19.000000
1.153757 1.508712 -0.687717 18.000000
1.175700 1.502490 -0.693476 21.000000
1.159517 1.448341 -0.676917 12.000000
1.187027 1.449249 -0.686025 26.000000
1.202613 1.435246 -0.688277 24.000000
1.230289 1.435306 -0.697391 22.000000
1.248876 1.424381 -0.701279 30.000000
1.273614 1.420115 -0.708660 25.000000
1.295350 1.411991 -0.714327 24.000000
1.313844 1.400179 -0.718138 25.000000
1.325742 1.381286 -0.718508 14.000000
1.346587 1.372927 -0.724342 27.000000
1.371514 1.366902 -0.731651 32.000000
1.393057 1.357256 -0.737217 26.000000
1.411231 1.344039 -0.740961 32.000000
1.439607 1.340100 -0.749996 29.000000
1.481233 1.348807 -0.766539 25.000000
1.513464 1.346780 -0.777393 31.000000
1.521189 1.322776 -0.775657 10.000000
1.527991 1.299264 -0.774231 30.000000
1.560228 1.296119 -0.785026 32.000000
1.581138 1.284074 -0.790702 25.000000
1.613594 1.279814 -0.801503 30.000000
1.638194 1.269760 -0.808980 30.000000
1.659676 1.256028 -0.814321 25.000000
1.691758 1.250697 -0.825361 31.000000
1.698074 1.225182 -0.823288 12.000000
1.730133 1.219008 -0.834380 32.000000
1.762411 1.212119 -0.845374 32.000000
1.771537 1.189102 -0.845357 21.000000
1.815383 1.188949 -0.861872 20.000000
1.820380 1.162855 -0.859884 16.000000
1.817171 1.131890 -0.854175 10.000000
1.829411 1.110787 -0.855723 14.000000
1.797501 1.063477 -0.836815 8.000000
1.813056 1.044919 -0.840188 11.000000
1.832502 1.028333 -0.845297 19.000000
1.827420 0.998082 -0.839203 12.000000
1.837970 0.977186 -0.840779 17.000000
1.832189 0.947227 -0.834511 13.000000
1.829819 0.919934 -0.830369 10.000000
1.835706 0.896521 -0.829634 16.000000
1.811787 0.859512 -0.815905 9.000000
1.829381 0.842507 -0.820935 10.000000
1.859540 0.830841 -0.831580 19.000000
1.851483 0.802065 -0.825217 11.000000
1.872931 0.786015 -0.831967 17.000000
1.860009 0.755672 -0.823551 12.000000
1.863850 0.732458 -0.822644 10.000000
1.880225 0.714402 -0.827573 20.000000
1.853270 0.679893 -0.813200 9.000000
1.834359 0.649333 -0.802801 18.000000
1.836859 0.626770 -0.801855 22.000000
1.825967 0.599917 -0.795107 16.000000
1.814759 0.573277 -0.788279 25.000000
1.789982 0.543020 -0.775628 25.000000
1.028957 0.261389 -0.442024 22.000000
1.013786 0.245222 -0.434682 95.000000
1.007412 0.231499 -0.431143 98.000000
1.018855 0.221945 -0.435406 95.000000
1.016716 0.209255 -0.433685 95.000000
1.023442 0.198495 -0.435923 100.000000
1.021008 0.185909 -0.434269 95.000000
1.022964 0.174202 -0.434509 95.000000
1.029304 0.163217 -0.436751 73.000000
1.044750 0.153363 -0.442688 100.000000
1.014372 0.137090 -0.429359 100.000000
1.047825 0.129393 -0.443072 103.000000
1.049152 0.117407 -0.443317 103.000000
1.022855 0.102592 -0.431770 100.000000
1.051459 0.093332 -0.443527 100.000000
