x y z intensity
0.763041 0.964745 -0.647363 91.000000
0.773264 0.955116 -0.649484 36.000000
0.784038 0.945063 -0.651350 45.000000
0.771199 0.908267 -0.634625 69.000000
0.777989 0.895257 -0.634245 32.000000
0.778769 0.875572 -0.629079 60.000000
0.782219 0.859281 -0.626202 34.000000
0.791444 0.849452 -0.628015 63.000000
0.794483 0.833142 -0.625056 95.000000
0.800412 0.820006 -0.624423 83.000000
0.812393 0.813033 -0.628534 95.000000
0.808651 0.790542 -0.620592 95.000000
0.817273 0.780385 -0.622206 78.000000
0.825776 0.770110 -0.623781 88.000000
0.811529 0.739105 -0.608389 31.000000
0.812700 0.723337 -0.605213 86.000000
0.817307 0.710253 -0.604220 57.000000
0.815159 0.691492 -0.598257 61.000000
0.825768 0.684293 -0.602275 87.000000
0.840126 0.679374 -0.608458 83.000000
0.840445 0.663647 -0.605053 62.000000
0.847464 0.653325 -0.606517 95.000000
0.837410 0.629565 -0.595329 30.000000
0.819586 0.601246 -0.579359 95.000000
0.829543 0.593668 -0.583089 75.000000
0.832368 0.580930 -0.581858 91.000000
0.838617 0.570682 -0.583036 98.000000
0.848404 0.562686 -0.586675 74.000000
0.854500 0.552216 -0.587787 92.000000
0.860524 0.541602 -0.588863 83.000000
0.855380 0.524174 -0.582372 37.000000
0.853410 0.509337 -0.578545 95.000000
0.851556 0.494436 -0.574418 98.000000
0.856739 0.484034 -0.575532 98.000000
0.865913 0.475464 -0.578894 98.000000
0.867142 0.462881 -0.577375 100.000000
0.872082 0.452271 -0.578350 100.000000
0.880799 0.443527 -0.581795 100.000000
0.866216 0.423281 -0.569980 89.000000
0.863021 0.408967 -0.565704 75.000000
0.863551 0.396570 -0.563898 93.000000
0.867901 0.385981 -0.564606 95.000000
0.871914 0.375460 -0.565517 98.000000
0.876062 0.364703 -0.566124 98.000000
0.875925 0.352478 -0.564368 95.000000
0.879852 0.341669 -0.564871 89.000000
0.883511 0.330960 -0.565576 55.000000
0.879005 0.317274 -0.561067 98.000000
0.878185 0.305256 -0.559288 103.000000
0.881529 0.294527 -0.559817 98.000000
0.888818 0.285041 -0.562863 98.000000
0.879539 0.270522 -0.555740 100.000000
0.894673 0.263452 -0.564094 100.000000
0.897633 0.252508 -0.564426 100.000000
0.887938 0.238273 -0.557151 98.000000
0.902789 0.230720 -0.565557 80.000000
0.913589 0.221759 -0.571115 93.000000
0.907679 0.208733 -0.566223 98.000000
0.901494 0.195908 -0.561489 98.000000
0.903570 0.184999 -0.561918 98.000000
0.901323 0.173218 -0.559644 100.000000
0.898959 0.161538 -0.557335 95.000000
0.900723 0.150632 -0.557596 76.000000
0.872744 0.135155 -0.539705 98.000000
0.882675 0.125746 -0.545047 98.000000
0.879753 0.114512 -0.542693 105.000000
0.872489 0.102881 -0.537663 103.000000
0.877703 0.092767 -0.540589 100.000000
0.878714 0.082154 -0.540684 105.000000
0.875255 0.071165 -0.538260 100.000000
0.871819 0.060278 -0.535616 56.000000
0.851044 0.048523 -0.522827 98.000000
0.864336 0.038812 -0.530701 98.000000
0.945675 0.030995 -0.580372 98.000000
1.001303 0.020690 -0.614465 98.000000
1.014231 0.008716 -0.622346 95.000000
1.027052 -0.003604 -0.630191 97.000000
1.044024 -0.016299 -0.640575 98.000000
1.039576 -0.028817 -0.637812 100.000000
1.043426 -0.041534 -0.640426 100.000000
1.038608 -0.053948 -0.637775 98.000000
1.038124 -0.066495 -0.637402 98.000000
1.020227 -0.077747 -0.626990 95.000000
1.010854 -0.089337 -0.621474 100.000000
1.014043 -0.102002 -0.623976 98.000000
1.008711 -0.113741 -0.621002 100.000000
1.007440 -0.125944 -0.620748 100.000000
1.044066 -0.143370 -0.643882 95.000000
1.576996 -0.275116 -0.976181 18.000000
1.590694 -0.297366 -0.986073 26.000000
1.583210 -0.315788 -0.982779 22.000000
1.583870 -0.335766 -0.984685 23.000000
1.584396 -0.355844 -0.986414 26.000000
1.584496 -0.376082 -0.988428 22.000000
1.588548 -0.397400 -0.992915 29.000000
1.576067 -0.414335 -0.986626 24.000000
1.583848 -0.436875 -0.993457 13.000000
1.578750 -0.456211 -0.992871 21.000000
1.581966 -0.477729 -0.996982 21.000000
1.597267 -0.503307 -1.008703 26.000000
1.579388 -0.518746 -1.000076 28.000000
1.577582 -0.539315 -1.001644 21.000000
1.571884 -0.558309 -1.000220 24.000000
1.569736 -0.578906 -1.001601 21.000000
1.575454 -0.602549 -1.008046 10.000000
1.580531 -0.626605 -1.014774 23.000000
1.569730 -0.644069 -1.010765 21.000000
1.570408 -0.666654 -1.014732 24.000000
1.559322 -0.683888 -1.010544 22.000000
1.543872 -0.699432 -1.004118 20.000000
1.536056 -0.718249 -1.002735 19.000000
1.539756 -0.742618 -1.008916 21.000000
1.527720 -0.759479 -1.004804 10.000000
1.507931 -0.772136 -0.995573 20.000000
1.530061 -0.806577 -1.014064 20.000000
1.521311 -0.825178 -1.012290 22.000000
1.512010 -0.843962 -1.010760 18.000000
1.510450 -0.866558 -1.013834 16.000000
1.515630 -0.893977 -1.022220 22.000000
1.506128 -0.912235 -1.020108 16.000000
1.496006 -0.930804 -1.018245 10.000000
1.482046 -0.946854 -1.013885 14.000000
1.475263 -0.967383 -1.014395 14.000000
1.475439 -0.992781 -1.019807 16.000000
1.478842 -1.020723 -1.027609 15.000000
1.485450 -1.051400 -1.037846 18.000000
1.477588 -1.072110 -1.037952 18.000000
1.469479 -1.092714 -1.038046 15.000000
1.457080 -1.111086 -1.035990 10.000000
1.431465 -1.118155 -1.023666 11.000000
1.433119 -1.146482 -1.030915 15.000000
1.440513 -1.180935 -1.043327 18.000000
1.438035 -1.206882 -1.047836 14.000000
1.434524 -1.233339 -1.052768 18.000000
1.424129 -1.254134 -1.052617 21.000000
1.417452 -1.277211 -1.054474 13.000000
1.416223 -1.306720 -1.061462 15.000000
1.398669 -1.321368 -1.056370 10.000000
1.393592 -1.347933 -1.060757 14.000000
1.391300 -1.377621 -1.067430 19.000000
1.370089 -1.388652 -1.059730 13.000000
1.379395 -1.430984 -1.075721 20.000000
1.369842 -1.454565 -1.077363 13.000000
1.372012 -1.490985 -1.088373 16.000000
1.355868 -1.508041 -1.085074 10.000000
1.339655 -1.524887 -1.081705 10.000000
1.337684 -1.558278 -1.090057 18.000000
1.329461 -1.584970 -1.093590 17.000000
1.319872 -1.612379 -1.097438 16.000000
1.310993 -1.639139 -1.100739 21.000000
1.299020 -1.662397 -1.101680 15.000000
1.299035 -1.703795 -1.114417 13.000000
1.286283 -1.727058 -1.115109 10.000000
1.270692 -1.746637 -1.113478 10.000000
1.266411 -1.784791 -1.123546 14.000000
1.247642 -1.800482 -1.119417 13.000000
1.249901 -1.849930 -1.136072 10.000000
1.238005 -1.876542 -1.138568 15.000000
1.226669 -1.907635 -1.143651 10.000000
1.214766 -1.938828 -1.148594 11.000000
1.206197 -1.973066 -1.155235 10.000000
1.207011 -2.027313 -1.173318 10.000000
0.744013 1.289029 -0.723759 26.000000
0.762939 1.286859 -0.730826 33.000000
0.753877 1.238456 -0.711393 25.000000
0.770004 1.232304 -0.716116 28.000000
0.773047 1.207568 -0.710010 31.000000
0.801171 1.219864 -0.725859 27.000000
0.816302 1.213576 -0.730780 32.000000
0.761261 1.103577 -0.672684 29.000000
0.739265 1.046646 -0.645899 29.000000
0.748341 1.033398 -0.645699 37.000000
0.751157 1.013318 -0.641215 13.000000
0.770554 1.014197 -0.650020 36.000000
0.770276 0.990503 -0.643080 35.000000
0.775836 0.973566 -0.640442 33.000000
0.786090 0.963910 -0.642535 64.000000
0.793457 0.950676 -0.642327 36.000000
0.798378 0.933675 -0.639497 42.000000
0.784925 0.897063 -0.622998 57.000000
0.803350 0.897190 -0.631855 28.000000
0.803971 0.877361 -0.626775 93.000000
0.807282 0.860897 -0.623948 73.000000
0.810414 0.844461 -0.621053 64.000000
0.819472 0.834352 -0.622832 98.000000
0.819110 0.814792 -0.617461 65.000000
0.824745 0.801487 -0.616777 94.000000
0.830234 0.788141 -0.616040 95.000000
0.838803 0.777786 -0.617587 59.000000
0.824443 0.746654 -0.602466 57.000000
0.826007 0.730526 -0.599158 51.000000
0.820720 0.708708 -0.591004 71.000000
0.831460 0.701587 -0.595024 95.000000
0.845947 0.696754 -0.601158 72.000000
0.849820 0.683709 -0.600273 92.000000
0.850495 0.667664 -0.596696 73.000000
0.857543 0.657262 -0.598165 55.000000
0.850848 0.636051 -0.589628 86.000000
0.839987 0.612795 -0.578803 95.000000
0.846524 0.602481 -0.580074 100.000000
0.856536 0.594619 -0.583788 95.000000
0.859307 0.581636 -0.582544 95.000000
0.865554 0.571104 -0.583706 98.000000
0.864438 0.555754 -0.579917 95.000000
0.870452 0.545131 -0.580997 98.000000
0.865253 0.527606 -0.574607 65.000000
0.871012 0.516940 -0.575603 95.000000
0.869140 0.501858 -0.571578 98.000000
0.870642 0.489227 -0.570192 98.000000
0.876047 0.478488 -0.571034 98.000000
0.877270 0.465820 -0.569565 98.000000
0.878379 0.453175 -0.568052 98.000000
0.879341 0.440554 -0.566461 100.000000
0.891841 0.433603 -0.572360 50.000000
0.880863 0.415352 -0.563187 88.000000
0.881426 0.402808 -0.561436 95.000000
0.877892 0.388541 -0.557134 71.000000
0.882126 0.377802 -0.557845 93.000000
0.886090 0.367166 -0.558658 95.000000
0.882101 0.353116 -0.554230 88.000000
0.893915 0.345554 -0.560013 95.000000
0.889487 0.331699 -0.555640 33.000000
0.884926 0.318005 -0.551220 98.000000
0.896503 0.310080 -0.556882 103.000000
0.895769 0.297843 -0.554885 98.000000
0.911326 0.290880 -0.562994 100.000000
0.910222 0.278611 -0.561099 98.000000
0.913325 0.267550 -0.561504 98.000000
0.911978 0.255362 -0.559500 100.000000
0.902224 0.240986 -0.552367 70.000000
0.913146 0.232213 -0.557893 74.000000
0.923880 0.223239 -0.563561 98.000000
0.917925 0.210125 -0.558795 95.000000
0.915895 0.198155 -0.556709 98.000000
0.913879 0.186186 -0.554387 100.000000
0.915866 0.175160 -0.554718 95.000000
0.913491 0.163345 -0.552458 98.000000
0.910902 0.151664 -0.550360 62.000000
0.882832 0.136094 -0.532600 95.000000
0.892731 0.126668 -0.538042 100.000000
0.889755 0.115349 -0.535735 98.000000
0.886704 0.104102 -0.533362 98.000000
0.892083 0.093887 -0.536085 100.000000
0.888831 0.082710 -0.533616 98.000000
0.889624 0.072014 -0.533806 98.000000
0.894635 0.061613 -0.536532 64.000000
0.895240 0.050834 -0.536628 100.000000
0.994326 0.044427 -0.595718 100.000000
1.016262 0.033162 -0.608557 95.000000
1.025093 0.021115 -0.613801 95.000000
1.033818 0.008826 -0.619011 95.000000
1.042435 -0.003634 -0.624148 90.000000
1.059519 -0.016432 -0.634309 100.000000
1.050753 -0.028973 -0.629061 98.000000
1.054629 -0.041778 -0.631629 98.000000
1.054066 -0.054466 -0.631554 100.000000
1.049146 -0.066880 -0.628837 95.000000
1.031281 -0.078218 -0.618386 95.000000
1.043225 -0.091738 -0.625786 100.000000
1.037874 -0.103895 -0.623110 98.000000
1.032385 -0.115912 -0.620361 100.000000
1.086443 -0.135251 -0.653414 67.000000
1.318928 -0.180316 -0.793968 98.000000
1.465681 -0.218310 -0.883083 35.000000
1.560642 -0.251731 -0.941562 32.000000
1.574938 -0.273369 -0.951002 14.000000
1.605676 -0.298615 -0.970932 16.000000
1.614963 -0.320491 -0.977954 23.000000
1.607016 -0.339123 -0.974935 17.000000
1.607541 -0.359413 -0.976669 22.000000
1.611823 -0.380794 -0.981123 21.000000
1.611946 -0.401161 -0.982611 20.000000
1.594976 -0.417328 -0.974214 22.000000
1.615273 -0.443394 -0.988586 10.000000
1.606266 -0.461674 -0.985038 13.000000
1.605124 -0.482392 -0.986864 29.000000
1.608186 -0.504262 -0.990745 18.000000
1.610715 -0.526391 -0.994913 21.000000
1.608921 -0.547269 -0.996423 23.000000
1.602849 -0.566748 -0.995280 19.000000
1.596597 -0.586106 -0.994138 21.000000
1.590164 -0.605345 -0.992876 10.000000
1.587630 -0.626108 -0.994009 18.000000
1.592583 -0.650357 -1.000466 21.000000
1.581555 -0.667805 -0.996438 15.000000
1.574104 -0.687008 -0.995165 18.000000
1.574362 -0.709708 -0.998900 20.000000
1.558656 -0.725172 -0.992439 16.000000
1.558472 -0.747821 -0.995978 19.000000
1.542543 -0.762851 -0.989411 10.000000
1.545776 -0.787415 -0.995239 13.000000
1.544979 -0.810122 -0.998498 22.000000
1.540029 -0.830831 -0.999137 21.000000
1.538278 -0.853926 -1.002612 18.000000
1.532908 -0.874558 -1.003105 21.000000
1.526933 -0.895529 -1.003899 16.000000
1.524389 -0.918715 -1.007085 21.000000
1.525386 -0.944188 -1.012649 9.000000
1.514950 -0.962859 -1.010700 11.000000
1.511691 -0.986105 -1.013648 18.000000
1.508140 -1.009341 -1.016450 17.000000
1.489897 -1.022808 -1.009416 19.000000
1.503847 -1.058474 -1.024299 22.000000
1.499502 -1.081898 -1.026841 20.000000
1.494854 -1.105236 -1.029297 19.000000
1.461475 -1.107982 -1.012720 9.000000
1.470406 -1.141747 -1.024693 10.000000
1.474713 -1.173616 -1.034517 20.000000
1.452045 -1.183150 -1.024693 12.000000
1.462472 -1.220824 -1.039107 25.000000
1.449625 -1.238439 -1.036260 16.000000
1.455768 -1.273755 -1.048035 13.000000
1.451498 -1.300555 -1.052612 20.000000
1.427435 -1.309540 -1.042798 10.000000
1.416279 -1.330214 -1.042476 10.000000
1.423994 -1.369102 -1.056221 20.000000
1.405878 -1.383575 -1.050930 12.000000
1.400139 -1.410301 -1.055031 17.000000
1.394059 -1.437122 -1.059023 14.000000
1.384592 -1.460685 -1.060644 13.000000
1.395908 -1.506995 -1.078367 20.000000
1.370774 -1.514345 -1.068159 9.000000
1.360402 -1.537870 -1.069472 10.000000
1.355551 -1.567973 -1.075292 18.000000
1.354924 -1.605657 -1.086003 15.000000
1.346304 -1.632618 -1.089332 18.000000
1.334528 -1.656108 -1.090262 16.000000
1.321362 -1.680102 -1.091455 19.000000
1.319859 -1.717567 -1.101316 23.000000
1.297828 -1.730906 -1.095646 10.000000
1.292815 -1.764900 -1.102979 10.000000
1.283318 -1.795966 -1.108364 10.000000
1.279907 -1.833801 -1.117706 10.000000
1.277015 -1.876107 -1.129486 16.000000
1.257520 -1.891812 -1.125231 11.000000
1.255910 -1.938087 -1.138979 16.000000
1.240592 -1.961154 -1.138905 15.000000
1.225812 -1.988641 -1.141467 10.000000
1.228975 -2.046914 -1.161319 15.000000
1.215212 -2.078496 -1.165823 23.000000
0.752043 1.291656 -0.710678 24.000000
0.766286 1.281807 -0.713305 10.000000
0.761566 1.241019 -0.698578 21.000000
0.777717 1.234924 -0.703213 20.000000
0.787983 1.221452 -0.703753 17.000000
0.811363 1.226250 -0.714963 25.000000
0.811387 1.197575 -0.706684 18.000000
0.773479 1.113330 -0.665003 18.000000
0.757206 1.063187 -0.642912 19.000000
0.784102 1.075501 -0.658525 14.000000
0.769263 1.029523 -0.638367 26.000000
0.777274 1.016466 -0.638368 17.000000
0.785863 1.002953 -0.638049 28.000000
0.785210 0.979272 -0.631238 23.000000
0.793311 0.965747 -0.630829 24.000000
0.806349 0.959377 -0.635140 36.000000
0.813562 0.946008 -0.634930 22.000000
0.827144 0.938925 -0.638956 26.000000
0.822197 0.912153 -0.629524 23.000000
0.828911 0.898735 -0.629131 25.000000
0.817135 0.865880 -0.614916 35.000000
0.829460 0.858932 -0.619017 36.000000
0.835578 0.845515 -0.618474 30.000000
0.835201 0.825820 -0.613249 52.000000
0.840912 0.812391 -0.612587 34.000000
0.846475 0.798920 -0.611871 36.000000
0.848600 0.782450 -0.608811 13.000000
0.847232 0.763064 -0.603310 24.000000
0.838958 0.737930 -0.593085 56.000000
0.843679 0.724669 -0.592163 30.000000
0.848220 0.711376 -0.591154 48.000000
0.859021 0.703905 -0.595085 53.000000
0.870228 0.695966 -0.598759 38.000000
0.867119 0.677299 -0.593147 37.000000
0.853605 0.650545 -0.580103 26.000000
0.864020 0.642781 -0.583864 33.000000
0.867604 0.629472 -0.582598 54.000000
0.874269 0.618898 -0.583901 52.000000
0.877286 0.605757 -0.582768 89.000000
0.865554 0.582834 -0.571976 59.000000
0.886784 0.581663 -0.582549 48.000000
0.874610 0.559049 -0.571598 84.000000
0.873218 0.543753 -0.567850 35.000000
0.878847 0.533282 -0.569105 61.000000
0.873328 0.515854 -0.562795 95.000000
0.878992 0.505164 -0.563716 66.000000
0.884514 0.494402 -0.564636 79.000000
0.893553 0.485796 -0.568137 78.000000
0.891205 0.470770 -0.564035 95.000000
0.888416 0.456036 -0.560130 93.000000
0.881571 0.439441 -0.553689 49.000000
0.901947 0.436374 -0.564401 53.000000
0.879056 0.412477 -0.548040 81.000000
0.903289 0.410836 -0.561094 57.000000
0.883854 0.389354 -0.547073 72.000000
0.884088 0.376910 -0.545250 57.000000
0.896240 0.369466 -0.550831 74.000000
0.896082 0.357071 -0.549174 91.000000
0.895992 0.344604 -0.547239 53.000000
0.887421 0.329282 -0.540476 64.000000
0.899088 0.321527 -0.546106 91.000000
0.906648 0.312063 -0.549162 95.000000
0.910020 0.301137 -0.549735 98.000000
0.925689 0.294048 -0.557710 98.000000
0.924584 0.281710 -0.555867 100.000000
0.923521 0.269302 -0.553780 98.000000
0.926366 0.258192 -0.554323 95.000000
0.929076 0.247047 -0.554831 71.000000
0.923325 0.233743 -0.550269 87.000000
0.921634 0.221620 -0.548168 80.000000
0.928125 0.211554 -0.551175 98.000000
0.926212 0.199431 -0.548970 83.000000
0.932523 0.189197 -0.551880 95.000000
0.926008 0.176367 -0.547229 95.000000
0.923647 0.164465 -0.545016 95.000000
0.899815 0.149132 -0.530204 86.000000
0.897153 0.137659 -0.527884 95.000000
0.898563 0.126892 -0.528204 100.000000
0.904129 0.116678 -0.530977 95.000000
0.896771 0.104825 -0.526136 98.000000
0.902183 0.094528 -0.528813 98.000000
0.903177 0.083698 -0.528909 100.000000
0.912620 0.073561 -0.534141 95.000000
0.965029 0.066172 -0.564546 90.000000
1.026034 0.057997 -0.599939 98.000000
1.035278 0.046069 -0.605054 98.000000
1.061648 0.034496 -0.620143 79.000000
1.048961 0.021543 -0.612728 95.000000
1.070696 0.009120 -0.625374 100.000000
1.066416 -0.003694 -0.622852 96.000000
1.074975 -0.016604 -0.627819 100.000000
1.066152 -0.029247 -0.622626 100.000000
1.078682 -0.042534 -0.630188 103.000000
1.069523 -0.055022 -0.625071 100.000000
1.064532 -0.067539 -0.622400 82.000000
1.046551 -0.079015 -0.612135 95.000000
1.050001 -0.091887 -0.614356 100.000000
1.053183 -0.104937 -0.616762 98.000000
1.565005 -0.231989 -0.919635 33.000000
1.613548 -0.258975 -0.949384 25.000000
1.644694 -0.284246 -0.969005 10.000000
1.628755 -0.301615 -0.960948 17.000000
1.629668 -0.321973 -0.962754 17.000000
1.630387 -0.342374 -0.964497 19.000000
1.630676 -0.362935 -0.966472 17.000000
1.618359 -0.380391 -0.960527 16.000000
1.626692 -0.402968 -0.967323 18.000000
1.634779 -0.425789 -0.973988 18.000000
1.621719 -0.443083 -0.968105 10.000000
1.625258 -0.464886 -0.972084 14.000000
1.619962 -0.484525 -0.971310 13.000000
1.614725 -0.503865 -0.970180 13.000000
1.617383 -0.526008 -0.974198 15.000000
1.615632 -0.546839 -0.975664 13.000000
1.605480 -0.564828 -0.972104 13.000000
1.607479 -0.587068 -0.975862 10.000000
1.588855 -0.601750 -0.967178 9.000000
1.610377 -0.632138 -0.983461 18.000000
1.611633 -0.654663 -0.986938 16.000000
1.600298 -0.672509 -0.983314 15.000000
1.600794 -0.695276 -0.986958 16.000000
1.573220 -0.705701 -0.973323 10.000000
1.581238 -0.732056 -0.981750 15.000000
1.584980 -0.756732 -0.987638 15.000000
1.584565 -0.779645 -0.990932 9.000000
1.591665 -0.806629 -0.999034 18.000000
1.575187 -0.821688 -0.992410 13.000000
1.562086 -0.838812 -0.988485 16.000000
1.556929 -0.859633 -0.989057 11.000000
1.547365 -0.878575 -0.987442 13.000000
1.548886 -0.904007 -0.993031 16.000000
1.535123 -0.920587 -0.988862 10.000000
1.536639 -0.945759 -0.993915 9.000000
1.541084 -0.973730 -1.001660 10.000000
1.530420 -0.992456 -0.999692 10.000000
1.526361 -1.016234 -1.002777 10.000000
1.511701 -1.032192 -0.998278 10.000000
1.500566 -1.050454 -0.996051 10.000000
1.503526 -1.078774 -1.003357 10.000000
1.491320 -1.097339 -1.001365 10.000000
1.472599 -1.110028 -0.994243 9.000000
1.501950 -1.160430 -1.020547 10.000000
1.482674 -1.173047 -1.013258 10.000000
1.493627 -1.210682 -1.027463 12.000000
1.477457 -1.225761 -1.022385 10.000000
1.467282 -1.246807 -1.022274 10.000000
1.466846 -1.276441 -1.029169 10.000000
1.456048 -1.297375 -1.028951 10.000000
1.461467 -1.333170 -1.040290 9.000000
1.443634 -1.348018 -1.035241 10.000000
1.428866 -1.365780 -1.032450 10.000000
1.429882 -1.398777 -1.041134 10.000000
1.430358 -1.431958 -1.049755 10.000000
1.414841 -1.449492 -1.046693 10.000000
1.414598 -1.482831 -1.055075 10.000000
1.404698 -1.506643 -1.056473 10.000000
1.394518 -1.530393 -1.057773 9.000000
1.387018 -1.557405 -1.061312 10.000000
1.378158 -1.584997 -1.065097 10.000000
1.369939 -1.612017 -1.068409 13.000000
1.352870 -1.628724 -1.064865 10.000000
1.362653 -1.680588 -1.084155 10.000000
1.350412 -1.704218 -1.084927 11.000000
1.336758 -1.728433 -1.085967 10.000000
1.326695 -1.755466 -1.088822 10.000000
1.325624 -1.797514 -1.100773 9.000000
1.314651 -1.824626 -1.103429 9.000000
1.302067 -1.852394 -1.106268 10.000000
1.286464 -1.876345 -1.106952 10.000000
1.281953 -1.914453 -1.115781 10.000000
1.270631 -1.945865 -1.120561 15.000000
1.272285 -1.995586 -1.135620 20.000000
1.245333 -2.004184 -1.127224 16.000000
1.227745 -2.027870 -1.127449 14.000000
1.205235 -2.043652 -1.123203 16.000000
0.732014 1.280293 -0.682323 22.000000
0.752985 1.282501 -0.691174 20.000000
0.767148 1.272692 -0.693727 25.000000
0.776399 1.255082 -0.691984 10.000000
0.774707 1.222607 -0.681934 24.000000
0.778283 1.197440 -0.675772 29.000000
0.803969 1.206248 -0.688865 21.000000
0.809654 1.184736 -0.684756 32.000000
0.783114 1.119375 -0.654906 18.000000
0.771876 1.076391 -0.637517 23.000000
0.775011 1.056038 -0.633321 21.000000
0.797548 1.060516 -0.644052 13.000000
0.792836 1.028936 -0.632937 31.000000
0.789693 1.001601 -0.624153 26.000000
0.806470 0.998530 -0.630425 34.000000
0.808374 0.978253 -0.625885 30.000000
0.818651 0.968322 -0.627958 30.000000
0.817723 0.944375 -0.620828 46.000000
0.824719 0.931022 -0.620554 30.000000
0.837605 0.924196 -0.624702 32.000000
0.823636 0.887358 -0.608402 36.000000
0.823842 0.867557 -0.603466 29.000000
0.833124 0.857415 -0.605225 40.000000
0.842244 0.847192 -0.606983 43.000000
0.844969 0.830601 -0.604117 42.000000
0.850688 0.817126 -0.603504 95.000000
0.856260 0.803610 -0.602838 60.000000
0.868197 0.796059 -0.606699 59.000000
0.860266 0.770566 -0.596759 28.000000
0.848592 0.742435 -0.584422 39.000000
0.849908 0.726207 -0.581243 77.000000
0.861233 0.718550 -0.584900 51.000000
0.875979 0.713530 -0.590886 84.000000
0.876482 0.697510 -0.587757 78.000000
0.884126 0.686701 -0.589031 65.000000
0.881119 0.667763 -0.583229 73.000000
0.870412 0.643977 -0.572948 23.000000
0.877515 0.633248 -0.574069 57.000000
0.880635 0.620090 -0.572992 98.000000
0.883589 0.606944 -0.571904 85.000000
0.893704 0.598719 -0.575486 98.000000
0.893062 0.582807 -0.571692 95.000000
0.895586 0.569624 -0.570470 95.000000
0.871795 0.540227 -0.552564 95.000000
0.896458 0.540998 -0.565475 33.000000
0.883385 0.518967 -0.554555 98.000000
0.884939 0.506226 -0.553308 98.000000
0.890497 0.495464 -0.554193 95.000000
0.888190 0.480418 -0.550258 100.000000
0.889360 0.467742 -0.548879 98.000000
0.894531 0.456875 -0.549648 98.000000
0.903281 0.448061 -0.552960 95.000000
0.915950 0.441018 -0.558654 52.000000
0.912756 0.426266 -0.554680 95.000000
0.897377 0.406219 -0.543411 98.000000
0.889748 0.390133 -0.536877 95.000000
0.877874 0.372525 -0.527869 100.000000
0.889990 0.365234 -0.533350 95.000000
0.881794 0.349658 -0.526673 98.000000
0.885470 0.339096 -0.527401 98.000000
0.893176 0.330014 -0.530497 65.000000
0.909177 0.323562 -0.538269 98.000000
0.904357 0.309840 -0.534000 98.000000
0.911844 0.300311 -0.536975 100.000000
0.910774 0.288153 -0.535236 103.000000
0.913881 0.277192 -0.535704 98.000000
0.921109 0.267380 -0.538553 103.000000
0.915529 0.254038 -0.534189 98.000000
0.918191 0.243094 -0.534688 95.000000
0.925009 0.233149 -0.537575 100.000000
0.923280 0.221074 -0.535520 100.000000
0.921396 0.209033 -0.533394 98.000000
0.927837 0.198953 -0.536318 98.000000
0.925733 0.186948 -0.534090 98.000000
0.931962 0.176699 -0.536950 100.000000
0.929541 0.164796 -0.534785 98.000000
0.931296 0.153671 -0.535017 95.000000
0.915657 0.139918 -0.525545 95.000000
0.908572 0.127754 -0.520771 98.000000
0.909892 0.116904 -0.521029 100.000000
0.906766 0.105551 -0.518752 103.000000
0.907887 0.094688 -0.518912 100.000000
0.939210 0.086653 -0.536308 115.000000
1.039673 0.083459 -0.593372 98.000000
1.083832 0.074005 -0.618286 34.000000
1.071580 0.060340 -0.611017 95.000000
1.076523 0.047719 -0.613529 95.000000
1.077015 0.034890 -0.613529 95.000000
1.081624 0.022113 -0.616117 95.000000
1.077432 0.009158 -0.613680 95.000000
1.077469 -0.003671 -0.613680 86.000000
1.077394 -0.016537 -0.613605 95.000000
1.085892 -0.029640 -0.618401 95.000000
1.085472 -0.042572 -0.618401 84.000000
1.080598 -0.055320 -0.615851 87.000000
1.084290 -0.068474 -0.618172 95.000000
1.053151 -0.079126 -0.600677 57.000000
1.052298 -0.091659 -0.600381 84.000000
1.652833 -0.203784 -0.945403 24.000000
1.659232 -0.224646 -0.949811 20.000000
1.669496 -0.246407 -0.956916 25.000000
1.675424 -0.267673 -0.961134 26.000000
1.668101 -0.286930 -0.958195 19.000000
1.669176 -0.307603 -0.960063 11.000000
1.661512 -0.326699 -0.956889 23.000000
1.683282 -0.351929 -0.971226 22.000000
1.666730 -0.369115 -0.962953 19.000000
1.675326 -0.392071 -0.969659 23.000000
1.662466 -0.409995 -0.964030 21.000000
1.657909 -0.429844 -0.963191 19.000000
1.649025 -0.448489 -0.959843 13.000000
1.639926 -0.466914 -0.956320 16.000000
1.638796 -0.487906 -0.958048 21.000000
1.645853 -0.511410 -0.964536 22.000000
1.640369 -0.530938 -0.963210 18.000000
1.634522 -0.550587 -0.962186 19.000000
1.624312 -0.568672 -0.958668 17.000000
1.626031 -0.591257 -0.962688 17.000000
1.619626 -0.610653 -0.961419 15.000000
1.613040 -0.629989 -0.960029 13.000000
1.622192 -0.655945 -0.968628 24.000000
1.614868 -0.675476 -0.967407 20.000000
1.623434 -0.701834 -0.975848 19.000000
1.611668 -0.719529 -0.972080 21.000000
1.599817 -0.737065 -0.968257 17.000000
1.591720 -0.756204 -0.966724 18.000000
1.599257 -0.782995 -0.974794 14.000000
1.594688 -0.804051 -0.975518 12.000000
1.593475 -0.827474 -0.978876 23.000000
1.584550 -0.846446 -0.977067 18.000000
1.567424 -0.861434 -0.970798 13.000000
1.580764 -0.893355 -0.983471 22.000000
1.563764 -0.907717 -0.976639 14.000000
1.576412 -0.940121 -0.989115 10.000000
1.569860 -0.961446 -0.989637 10.000000
1.559272 -0.980325 -0.987724 10.000000
1.559735 -1.006312 -0.992822 15.000000
1.544559 -1.023019 -0.988797 15.000000
1.537123 -1.044020 -0.989031 15.000000
1.544003 -1.075075 -0.998567 16.000000
1.518043 -1.083332 -0.986873 12.000000
1.523715 -1.114998 -0.996611 12.000000
1.511857 -1.133176 -0.994201 10.000000
1.499217 -1.151680 -0.992116 10.000000
1.521191 -1.197456 -1.013083 17.000000
1.508522 -1.215593 -1.010416 13.000000
1.498474 -1.236821 -1.010389 12.000000
1.498400 -1.266595 -1.017188 17.000000
1.487797 -1.287780 -1.016988 12.000000
1.473670 -1.305895 -1.014487 13.000000
1.472584 -1.335830 -1.020987 10.000000
1.457988 -1.353768 -1.018259 10.000000
1.462628 -1.389911 -1.029162 21.000000
1.463537 -1.423213 -1.037656 14.000000
1.451254 -1.444180 -1.036980 14.000000
1.441962 -1.468129 -1.038474 21.000000
1.435415 -1.495312 -1.042117 13.000000
1.437768 -1.532291 -1.052437 17.000000
1.420413 -1.550291 -1.049568 10.000000
1.403847 -1.567503 -1.046269 10.000000
1.407796 -1.608099 -1.058431 22.000000
1.392586 -1.629194 -1.057660 18.000000
1.404072 -1.680479 -1.076212 21.000000
1.392032 -1.704413 -1.076959 20.000000
1.372966 -1.721909 -1.073669 17.000000
1.363092 -1.749151 -1.076482 20.000000
1.348984 -1.773468 -1.077450 10.000000
1.364103 -1.837407 -1.102103 10.000000
1.352899 -1.864866 -1.104557 23.000000
1.332081 -1.881942 -1.100892 19.000000
1.327921 -1.920290 -1.109638 29.000000
1.304094 -1.933347 -1.103633 29.000000
1.282678 -1.949802 -1.099775 30.000000
1.258660 -1.962212 -1.093715 32.000000
1.243274 -1.985057 -1.093624 19.000000
1.216618 -1.993173 -1.085385 20.000000
1.201495 -2.020355 -1.087677 30.000000
1.194981 -2.063198 -1.098209 22.000000
0.732921 1.270882 -0.663103 30.000000
0.749195 1.265366 -0.667676 29.000000
0.770131 1.267419 -0.676364 30.000000
0.756642 1.215520 -0.656138 21.000000
0.769956 1.205859 -0.658493 25.000000
0.793070 1.211242 -0.669240 34.000000
0.798776 1.189822 -0.665261 29.000000
0.818722 1.191285 -0.674107 31.000000
0.790141 1.121640 -0.642469 24.000000
0.786595 1.089595 -0.631832 27.000000
0.792506 1.072760 -0.629873 31.000000
0.777079 1.026654 -0.610478 14.000000
0.799495 1.031097 -0.620987 29.000000
0.804604 1.014327 -0.618835 48.000000
0.815858 1.004123 -0.620674 32.000000
0.823489 0.990762 -0.620606 44.000000
0.831569 0.976904 -0.620219 36.000000
0.838878 0.963380 -0.620080 36.000000
0.846634 0.949451 -0.619624 52.000000
0.841517 0.922580 -0.610543 24.000000
0.839025 0.899188 -0.603598 56.000000
0.842903 0.882124 -0.600769 63.000000
0.852241 0.871873 -0.602554 74.000000
0.855203 0.855121 -0.599812 100.000000
0.861148 0.841569 -0.599274 72.000000
0.866902 0.827972 -0.598723 82.000000
0.869281 0.811280 -0.595837 86.000000
0.864805 0.788607 -0.588437 32.000000
0.856654 0.763204 -0.578658 64.000000
0.864928 0.752734 -0.580109 60.000000
0.862893 0.733482 -0.574732 75.000000
0.877695 0.728594 -0.580625 95.000000
0.878745 0.712243 -0.577407 72.000000
0.883006 0.698707 -0.576446 91.000000
0.879745 0.680008 -0.571060 95.000000
0.890771 0.671889 -0.574532 62.000000
0.891006 0.655669 -0.571132 72.000000
0.897921 0.644993 -0.572461 95.000000
0.894160 0.626336 -0.566653 76.000000
0.904428 0.618103 -0.570200 98.000000
0.903647 0.602294 -0.566779 95.000000
0.906660 0.588778 -0.565434 98.000000
0.901727 0.570728 -0.559585 98.000000
0.907832 0.559879 -0.560688 81.000000
0.891111 0.535255 -0.547733 82.000000
0.889287 0.519998 -0.544032 94.000000
0.894904 0.509261 -0.544956 100.000000
0.892721 0.494139 -0.541160 100.000000
0.897902 0.483529 -0.542217 100.000000
0.903190 0.472638 -0.542992 100.000000
0.900297 0.457853 -0.539270 95.000000
0.909317 0.448868 -0.542326 100.000000
0.922039 0.441832 -0.547927 81.000000
0.918758 0.427074 -0.544046 95.000000
0.915291 0.412436 -0.540115 100.000000
0.915676 0.399682 -0.538474 98.000000
0.899741 0.380106 -0.527325 98.000000
0.895731 0.365973 -0.523178 98.000000
0.891513 0.351968 -0.519021 98.000000
0.895205 0.341357 -0.519753 98.000000
0.919582 0.338161 -0.532184 98.000000
0.919016 0.325703 -0.530475 100.000000
0.926660 0.316146 -0.533443 103.000000
0.930029 0.305087 -0.534021 103.000000
0.929110 0.292642 -0.532135 103.000000
0.936494 0.282765 -0.535008 100.000000
0.930995 0.269202 -0.530817 98.000000
0.929736 0.256873 -0.528784 98.000000
0.932422 0.245795 -0.529288 85.000000
0.935040 0.234683 -0.529724 95.000000
0.937524 0.223538 -0.530127 100.000000
0.939941 0.212326 -0.530496 98.000000
0.937941 0.200200 -0.528352 100.000000
0.940013 0.189039 -0.528787 100.000000
0.937683 0.177065 -0.526738 98.000000
0.935236 0.165127 -0.524653 98.000000
0.924037 0.151873 -0.517661 64.000000
0.921345 0.140178 -0.515437 98.000000
0.931439 0.130471 -0.520572 103.000000
0.924205 0.118239 -0.515859 103.000000
0.925407 0.107254 -0.516054 105.000000
1.290167 0.103114 -0.717824 29.000000
1.251903 0.085133 -0.696217 98.000000
1.104327 0.061922 -0.613854 98.000000
1.083108 0.047832 -0.601760 100.000000
1.088007 0.035107 -0.604187 100.000000
1.083903 0.022100 -0.601874 94.000000
1.092796 0.009270 -0.606804 95.000000
1.092834 -0.003700 -0.606804 98.000000
1.092758 -0.016670 -0.606728 91.000000
1.092567 -0.029678 -0.606575 95.000000
1.096516 -0.042819 -0.608963 95.000000
1.095980 -0.055841 -0.608886 100.000000
1.090927 -0.068588 -0.606346 95.000000
1.064000 -0.079564 -0.591570 74.000000
1.193733 -0.103561 -0.664221 89.000000
1.634730 -0.181012 -0.910682 29.000000
1.684771 -0.206800 -0.939332 25.000000
1.678008 -0.226285 -0.936675 24.000000
1.688516 -0.248094 -0.943341 21.000000
1.681337 -0.267521 -0.940507 23.000000
1.678310 -0.287464 -0.940032 10.000000
1.700942 -0.312150 -0.953928 20.000000
1.706102 -0.334024 -0.958031 24.000000
1.693890 -0.352472 -0.952422 21.000000
1.694191 -0.373607 -0.954228 22.000000
1.689961 -0.393788 -0.953564 22.000000
1.668584 -0.409729 -0.943214 18.000000
1.681018 -0.433910 -0.951993 22.000000
1.659372 -0.449266 -0.941420 10.000000
1.654228 -0.469125 -0.940762 16.000000
1.653411 -0.489991 -0.942022 20.000000
1.660474 -0.513611 -0.948367 22.000000
1.654794 -0.533370 -0.947400 21.000000
1.661363 -0.557319 -0.953543 22.000000
1.651127 -0.575599 -0.950060 18.000000
1.661403 -0.601197 -0.958381 24.000000
1.629899 -0.611862 -0.943110 10.000000
1.643809 -0.639167 -0.953672 18.000000
1.636650 -0.658870 -0.952510 21.000000
1.633370 -0.680142 -0.953719 19.000000
1.638020 -0.704869 -0.959539 24.000000
1.622183 -0.720881 -0.953448 16.000000
1.626329 -0.745700 -0.959120 19.000000
1.622199 -0.766975 -0.959992 18.000000
1.605947 -0.782426 -0.953668 10.000000
1.612884 -0.809750 -0.961776 16.000000
1.608131 -0.830873 -0.962376 22.000000
1.610508 -0.856489 -0.967969 20.000000
1.605248 -0.877640 -0.968354 20.000000
1.595520 -0.896971 -0.966775 22.000000
1.585665 -0.916111 -0.965069 15.000000
1.602197 -0.950937 -0.979588 22.000000
1.580448 -0.963232 -0.970822 10.000000
1.588703 -0.993923 -0.980498 15.000000
1.596575 -1.024938 -0.990063 22.000000
1.584950 -1.044399 -0.988365 18.000000
1.573652 -1.063339 -0.986210 21.000000
1.562223 -1.082082 -0.983990 20.000000
1.550076 -1.101086 -0.982096 18.000000
1.545509 -1.124800 -0.984323 18.000000
1.547237 -1.154203 -0.991427 9.000000
1.537926 -1.175713 -0.991587 20.000000
1.525447 -1.193967 -0.988998 18.000000
1.522668 -1.220847 -0.993547 13.000000
1.519571 -1.247782 -0.998064 18.000000
1.512673 -1.271962 -1.000157 13.000000
1.512213 -1.301931 -1.006664 17.000000
1.504660 -1.326186 -1.008633 17.000000
1.490204 -1.344410 -1.006030 10.000000
1.495329 -1.380566 -1.016696 18.000000
1.486770 -1.404834 -1.018445 20.000000
1.474858 -1.425869 -1.017809 20.000000
1.472230 -1.456298 -1.023737 23.000000
1.456510 -1.473993 -1.020776 15.000000
1.459429 -1.510917 -1.030962 21.000000
1.448526 -1.535590 -1.032571 20.000000
1.447338 -1.569611 -1.040367 10.000000
1.439631 -1.597029 -1.043656 20.000000
1.430611 -1.625034 -1.047197 21.000000
1.419314 -1.649036 -1.048087 22.000000
1.406615 -1.673626 -1.049319 26.000000
1.406186 -1.711412 -1.058704 19.000000
1.398305 -1.743029 -1.064081 26.000000
1.382815 -1.763352 -1.062522 24.000000
1.376955 -1.798558 -1.069793 18.000000
1.365051 -1.826631 -1.072661 26.000000
1.345979 -1.843011 -1.068739 29.000000
1.333412 -1.870847 -1.071542 35.000000
1.304912 -1.876388 -1.061510 38.000000
1.282905 -1.888322 -1.055413 33.000000
1.264614 -1.908149 -1.053743 33.000000
1.260892 -1.950636 -1.064557 33.000000
1.236946 -1.962694 -1.058583 24.000000
1.216791 -1.977479 -1.054303 24.000000
1.197344 -1.996717 -1.052394 28.000000
1.179878 -2.019718 -1.052521 32.000000
0.717412 1.266595 -0.639629 26.000000
0.730270 1.257860 -0.642298 21.000000
0.748730 1.256348 -0.648730 29.000000
0.767217 1.254619 -0.655242 23.000000
0.763948 1.217828 -0.643353 16.000000
0.774747 1.204331 -0.643610 26.000000
0.790384 1.198313 -0.647967 24.000000
0.808607 1.195860 -0.654354 31.000000
0.823434 1.189880 -0.658942 17.000000
0.841797 1.186865 -0.665283 14.000000
0.830792 1.143187 -0.648755 26.000000
0.829762 1.114535 -0.640426 19.000000
0.805553 1.057618 -0.615409 18.000000
0.811644 1.040320 -0.613118 33.000000
0.825260 1.034092 -0.617363 33.000000
0.828070 1.013193 -0.612917 37.000000
0.833507 0.995890 -0.610471 34.000000
0.846826 0.989253 -0.614619 48.000000
0.854834 0.975264 -0.614237 52.000000
0.853025 0.951480 -0.607619 33.000000
0.866093 0.944485 -0.611673 32.000000
0.864276 0.920502 -0.604681 36.000000
0.858368 0.893826 -0.595688 71.000000
0.864695 0.880207 -0.595278 94.000000
0.871371 0.866205 -0.594605 76.000000
0.874167 0.849397 -0.591903 73.000000
0.879964 0.835716 -0.591367 55.000000
0.882319 0.818934 -0.588581 79.000000
0.881136 0.799173 -0.583529 81.000000
0.869564 0.770645 -0.571779 32.000000
0.877903 0.760054 -0.573241 66.000000
0.882702 0.746490 -0.572406 67.000000
0.887320 0.732891 -0.571560 85.000000
0.888313 0.716487 -0.568435 93.000000
0.885591 0.697368 -0.563016 65.000000
0.893205 0.686602 -0.564247 82.000000
0.900703 0.675720 -0.565439 83.000000
0.907778 0.664991 -0.566823 42.000000
0.907822 0.648727 -0.563431 98.000000
0.918347 0.640445 -0.566987 91.000000
0.918020 0.624210 -0.563495 95.000000
0.913529 0.605879 -0.557944 98.000000
0.912506 0.590081 -0.554562 95.000000
0.922825 0.581322 -0.557732 95.000000
0.921447 0.565601 -0.554255 95.000000
0.916077 0.547705 -0.548437 58.000000
0.898923 0.523265 -0.535691 100.000000
0.908466 0.514636 -0.538912 100.000000
0.910135 0.501592 -0.537512 98.000000
0.907772 0.486437 -0.533767 98.000000
0.912870 0.475675 -0.534794 98.000000
0.918074 0.464666 -0.535537 100.000000
0.926937 0.455718 -0.538770 95.000000
0.939986 0.448334 -0.544112 54.000000
0.928674 0.429706 -0.535661 100.000000
0.941336 0.422263 -0.541116 95.000000
0.925554 0.402208 -0.530270 100.000000
0.925790 0.389429 -0.528637 95.000000
0.934113 0.380012 -0.531627 95.000000
0.905298 0.355902 -0.513544 100.000000
0.933988 0.354470 -0.528136 95.000000
0.929414 0.340361 -0.524145 84.000000
0.937305 0.330688 -0.527000 98.000000
0.940807 0.319530 -0.527618 98.000000
0.944206 0.308338 -0.528168 103.000000
0.947536 0.297112 -0.528717 105.000000
0.946504 0.284546 -0.526812 103.000000
0.949443 0.273369 -0.527461 100.000000
0.948165 0.260852 -0.525481 98.000000
0.946657 0.248503 -0.523632 52.000000
0.953541 0.238360 -0.526433 98.000000
0.947519 0.224993 -0.522117 98.000000
0.954211 0.214697 -0.524852 100.000000
0.952206 0.202433 -0.522791 100.000000
0.950113 0.190237 -0.520660 103.000000
0.947766 0.178178 -0.518661 98.000000
0.953940 0.167712 -0.521365 92.000000
0.920966 0.150712 -0.502665 85.000000
0.926935 0.140438 -0.505264 98.000000
0.937082 0.130701 -0.510303 100.000000
0.934127 0.119023 -0.508061 115.000000
1.103295 0.035465 -0.597090 98.000000
1.099167 0.022316 -0.594826 98.000000
1.099319 0.009308 -0.594864 95.000000
1.103755 -0.003715 -0.597243 95.000000
1.099281 -0.016708 -0.594788 95.000000
1.103487 -0.029835 -0.597014 95.000000
1.103066 -0.042857 -0.597014 95.000000
1.102529 -0.055917 -0.596937 95.000000
1.115009 -0.069802 -0.603917 81.000000
1.494529 -0.129093 -0.810406 42.000000
1.620105 -0.159210 -0.878818 26.000000
1.683905 -0.185638 -0.914093 24.000000
1.708059 -0.208757 -0.927921 23.000000
1.709916 -0.229568 -0.930055 23.000000
1.707404 -0.249785 -0.929457 23.000000
1.700244 -0.269314 -0.926668 18.000000
1.714564 -0.292381 -0.935606 10.000000
1.719974 -0.314215 -0.939737 21.000000
1.716521 -0.334569 -0.939010 18.000000
1.717019 -0.355817 -0.940890 24.000000
1.713011 -0.376162 -0.940282 19.000000
1.708759 -0.396506 -0.939614 19.000000
1.717234 -0.419870 -0.945962 25.000000
1.708374 -0.439087 -0.942749 16.000000
1.677999 -0.452400 -0.927646 10.000000
1.681381 -0.474758 -0.931630 20.000000
1.684771 -0.497075 -0.935242 20.000000
1.674965 -0.515756 -0.931983 19.000000
1.677680 -0.538324 -0.935765 19.000000
1.684344 -0.562368 -0.941697 18.000000
1.669861 -0.579407 -0.935913 18.000000
1.671585 -0.602362 -0.939673 16.000000
1.685793 -0.629851 -0.950056 10.000000
1.658152 -0.641927 -0.937342 19.000000
1.655082 -0.663324 -0.938566 14.000000
1.660030 -0.688148 -0.944314 18.000000
1.652411 -0.707848 -0.943013 18.000000
1.648718 -0.729279 -0.943970 15.000000
1.656894 -0.756201 -0.951805 22.000000
1.656701 -0.779606 -0.954924 13.000000
1.639899 -0.795648 -0.949045 10.000000
1.639308 -0.818992 -0.951962 21.000000
1.634054 -0.840685 -0.952877 15.000000
1.632998 -0.864043 -0.955640 19.000000
1.627316 -0.885718 -0.956410 20.000000
1.609759 -0.900847 -0.950176 16.000000
1.626802 -0.935553 -0.964529 25.000000
1.616563 -0.954999 -0.962726 16.000000
1.613744 -0.978870 -0.965413 10.000000
1.606850 -1.000439 -0.965809 20.000000
1.606829 -1.027158 -0.970994 18.000000
1.610640 -1.056006 -0.977959 23.000000
1.595534 -1.072633 -0.973525 18.000000
1.594521 -1.099569 -0.978447 20.000000
1.571793 -1.110711 -0.969447 17.000000
1.563047 -1.132339 -0.969719 13.000000
1.586954 -1.177367 -0.989671 10.000000
1.566748 -1.191174 -0.983112 16.000000
1.567712 -1.221041 -0.989813 19.000000
1.557731 -1.242803 -0.989802 22.000000
1.540613 -1.258709 -0.985206 15.000000
1.533669 -1.283026 -0.987262 15.000000
1.529804 -1.310223 -0.991437 20.000000
1.525679 -1.337530 -0.995509 15.000000
1.517813 -1.361875 -0.997281 14.000000
1.509609 -1.386174 -0.999031 19.000000
1.501205 -1.410424 -1.000617 21.000000
1.492459 -1.434692 -1.002179 23.000000
1.505915 -1.480940 -1.018853 21.000000
1.498695 -1.509138 -1.022705 22.000000
1.479421 -1.523836 -1.017520 21.000000
1.469320 -1.548062 -1.018737 16.000000
1.473413 -1.589429 -1.030957 19.000000
1.453533 -1.603659 -1.025520 15.000000
1.469492 -1.658206 -1.045706 18.000000
1.456871 -1.683217 -1.046896 26.000000
1.436229 -1.697103 -1.041322 17.000000
1.431707 -1.732322 -1.048748 25.000000
1.420950 -1.760617 -1.051817 30.000000
1.405334 -1.781082 -1.050186 35.000000
1.388345 -1.802074 -1.048923 45.000000
1.358605 -1.804067 -1.036756 30.000000
1.344047 -1.828154 -1.037502 31.000000
1.323794 -1.844829 -1.034000 36.000000
1.295552 -1.850085 -1.024302 29.000000
1.286774 -1.880493 -1.028519 35.000000
1.263566 -1.892722 -1.022883 32.000000
1.237798 -1.900758 -1.015067 27.000000
1.224289 -1.927719 -1.017456 31.000000
1.217593 -1.966294 -1.025882 23.000000
1.200702 -1.989336 -1.026061 29.000000
1.178765 -2.004374 -1.022186 31.000000
1.165142 -2.030324 -1.023856 29.000000
0.723865 1.269263 -0.626965 21.000000
0.730735 1.248157 -0.623405 18.000000
0.753741 1.254661 -0.633707 16.000000
0.772230 1.252976 -0.640080 19.000000
0.756469 1.196800 -0.618415 10.000000
0.784424 1.210377 -0.632682 20.000000
0.786611 1.185706 -0.627116 21.000000
0.812421 1.194740 -0.639464 10.000000
0.851611 1.222052 -0.661939 10.000000
0.875555 1.226271 -0.672377 9.000000
0.907857 1.241124 -0.688902 10.000000
0.917878 1.226572 -0.689370 10.000000
0.826030 1.077713 -0.613406 9.000000
0.843475 1.074600 -0.619492 26.000000
0.846053 1.053839 -0.615427 18.000000
0.840328 1.022248 -0.604859 23.000000
0.845754 1.004815 -0.602510 34.000000
0.859212 0.998114 -0.606586 20.000000
0.870230 0.987450 -0.608311 32.000000
0.865402 0.960162 -0.599780 21.000000
0.869909 0.942758 -0.597212 15.000000
0.876732 0.929013 -0.596952 36.000000
0.883913 0.914871 -0.596379 30.000000
0.874481 0.884972 -0.585407 38.000000
0.877452 0.868080 -0.582816 35.000000
0.880659 0.850927 -0.579994 31.000000
0.892998 0.843401 -0.583752 59.000000
0.898688 0.829590 -0.583178 34.000000
0.900840 0.812714 -0.580433 26.000000
0.902820 0.795915 -0.577625 52.000000
0.904549 0.779117 -0.574754 31.000000
0.916404 0.771098 -0.578344 42.000000
0.921249 0.757160 -0.577544 46.000000
0.915428 0.734779 -0.570181 34.000000
0.898627 0.704298 -0.556168 52.000000
0.906301 0.693407 -0.557369 35.000000
0.910261 0.679752 -0.556371 36.000000
0.914046 0.666068 -0.555326 28.000000
0.924699 0.657863 -0.558881 37.000000
0.920868 0.638962 -0.553322 52.000000
0.927620 0.628052 -0.554543 49.000000
0.927086 0.611864 -0.551128 46.000000
0.933557 0.600814 -0.552301 85.000000
0.932635 0.584745 -0.548748 52.000000
0.931270 0.568971 -0.545366 50.000000
0.933497 0.555552 -0.544169 33.000000
0.939467 0.544429 -0.545133 75.000000
0.925874 0.522223 -0.534861 95.000000
0.927626 0.508999 -0.533518 80.000000
0.925248 0.493695 -0.529876 95.000000
0.922706 0.478508 -0.526184 92.000000
0.927719 0.467593 -0.527144 68.000000
0.940846 0.460383 -0.532386 95.000000
0.949927 0.450999 -0.535372 25.000000
0.954717 0.439763 -0.536200 82.000000
0.951232 0.424825 -0.532477 95.000000
0.951682 0.411739 -0.530948 77.000000
0.943816 0.395277 -0.524849 69.000000
0.952184 0.385717 -0.527801 88.000000
0.948063 0.371161 -0.523860 65.000000
0.952082 0.359874 -0.524419 95.000000
0.960170 0.350040 -0.527270 31.000000
0.951283 0.334286 -0.521051 98.000000
0.950610 0.321606 -0.519377 98.000000
0.949974 0.308887 -0.517456 95.000000
0.953236 0.297626 -0.518005 98.000000
0.960679 0.287604 -0.520790 100.000000
0.963679 0.276293 -0.521411 95.000000
0.966680 0.264844 -0.521790 98.000000
0.960859 0.251221 -0.517686 74.000000
0.955024 0.237664 -0.513368 98.000000
0.957531 0.226349 -0.513775 95.000000
0.968584 0.216973 -0.518779 98.000000
0.962138 0.203755 -0.514622 98.000000
0.964340 0.192339 -0.514893 98.000000
0.966338 0.180992 -0.515265 100.000000
0.959512 0.168048 -0.510959 95.000000
0.965661 0.157448 -0.513551 82.000000
0.936674 0.141391 -0.497513 98.000000
1.603775 0.146242 -0.847793 55.000000
1.653900 0.131149 -0.873528 23.000000
1.663986 0.112290 -0.878474 33.000000
1.559080 0.086774 -0.822711 42.000000
1.140954 0.023109 -0.601499 98.000000
1.127843 0.009533 -0.594543 100.000000
1.119035 -0.003706 -0.589880 100.000000
1.118958 -0.016909 -0.589803 95.000000
1.118727 -0.030073 -0.589687 95.000000
1.109500 -0.042934 -0.584987 95.000000
1.113343 -0.056217 -0.587241 72.000000
1.631114 -0.140297 -0.861542 18.000000
1.704345 -0.166880 -0.900890 24.000000
1.702396 -0.186957 -0.900536 20.000000
1.726691 -0.210184 -0.914078 22.000000
1.724352 -0.230513 -0.913538 23.000000
1.747999 -0.254672 -0.927181 20.000000
1.740703 -0.274621 -0.924432 21.000000
1.742033 -0.295889 -0.926207 18.000000
1.721314 -0.313235 -0.916318 10.000000
1.735275 -0.336863 -0.924867 19.000000
1.731439 -0.357381 -0.924380 13.000000
1.736263 -0.379548 -0.928096 19.000000
1.732041 -0.400045 -0.927423 18.000000
1.727575 -0.420482 -0.926627 15.000000
1.731395 -0.443118 -0.930634 20.000000
1.726537 -0.463472 -0.929711 15.000000
1.682929 -0.473141 -0.908227 10.000000
1.699111 -0.499115 -0.918657 18.000000
1.693570 -0.519207 -0.917744 16.000000
1.696308 -0.541879 -0.921365 16.000000
1.677484 -0.557866 -0.913743 13.000000
1.688209 -0.583408 -0.921761 18.000000
1.690258 -0.606284 -0.925114 13.000000
1.691811 -0.629419 -0.928703 10.000000
1.693110 -0.652690 -0.932219 10.000000
1.673431 -0.667790 -0.924252 16.000000
1.666077 -0.687627 -0.923016 12.000000
1.679013 -0.716074 -0.933098 15.000000
1.683421 -0.741290 -0.938539 16.000000
1.663185 -0.755612 -0.930283 10.000000
1.671136 -0.782757 -0.937842 13.000000
1.654324 -0.798841 -0.932054 10.000000
1.645397 -0.818581 -0.930734 9.000000
1.644604 -0.841948 -0.933484 13.000000
1.651054 -0.869855 -0.941036 10.000000
1.664984 -0.902268 -0.952926 15.000000
1.647214 -0.917716 -0.946821 10.000000
1.621651 -0.928407 -0.936188 10.000000
1.630786 -0.958940 -0.945580 12.000000
1.620330 -0.978304 -0.943772 10.000000
1.586911 -0.983325 -0.928477 9.000000
1.624901 -1.033729 -0.955847 13.000000
1.602553 -1.045543 -0.947093 10.000000
1.609453 -1.077297 -0.956404 10.000000
1.590520 -1.091206 -0.949811 10.000000
1.589327 -1.118046 -0.954521 10.000000
1.599293 -1.152496 -0.965403 10.000000
1.590179 -1.174322 -0.965588 10.000000
1.569986 -1.188032 -0.959061 9.000000
1.578214 -1.223412 -0.970031 12.000000
1.557751 -1.236718 -0.963435 10.000000
1.572075 -1.278122 -0.978539 13.000000
1.547748 -1.288290 -0.969628 10.000000
1.540560 -1.312621 -0.971500 10.000000
1.543237 -1.345873 -0.979824 11.000000
1.548822 -1.382330 -0.990106 10.000000
1.523938 -1.391655 -0.980999 9.000000
1.531987 -1.431379 -0.993264 13.000000
1.519821 -1.452770 -0.992567 10.000000
1.516364 -1.484017 -0.998600 10.000000
1.503676 -1.505254 -0.997789 10.000000
1.484446 -1.519870 -0.992660 10.000000
1.486187 -1.557796 -1.002678 12.000000
1.488153 -1.595309 -1.012187 10.000000
1.482545 -1.627003 -1.017718 9.000000
1.483504 -1.664887 -1.026937 17.000000
1.473874 -1.693376 -1.030197 20.000000
1.456010 -1.710789 -1.026729 29.000000
1.442832 -1.735652 -1.027708 33.000000
1.420738 -1.749827 -1.022463 29.000000
1.388219 -1.748750 -1.008546 32.000000
1.382897 -1.783816 -1.015590 26.000000
1.357676 -1.793534 -1.008177 10.000000
1.352600 -1.827910 -1.014602 32.000000
1.327112 -1.837144 -1.007122 23.000000
1.301635 -1.845942 -0.999593 26.000000
1.286470 -1.869536 -1.000159 28.000000
1.265960 -1.885430 -0.996602 25.000000
1.246660 -1.900264 -0.992666 26.000000
1.230866 -1.923352 -0.992945 21.000000
1.212170 -1.942442 -0.991284 10.000000
1.193314 -1.961365 -0.989532 21.000000
1.171875 -1.976166 -0.985718 18.000000
1.159409 -2.006664 -0.989758 23.000000
0.702781 1.256693 -0.600282 31.000000
0.718740 1.251838 -0.604546 23.000000
0.732352 1.242811 -0.606886 31.000000
0.741102 1.225711 -0.605286 32.000000
0.768895 1.239926 -0.619237 24.000000
0.750259 1.179893 -0.596069 23.000000
0.758041 1.162868 -0.594314 18.000000
0.780875 1.168698 -0.604333 29.000000
0.809136 1.181711 -0.618325 23.000000
0.858924 1.224241 -0.648309 11.000000
0.899011 1.250823 -0.670503 23.000000
0.960677 1.306596 -0.709069 13.000000
1.007985 1.338601 -0.735507 10.000000
1.003114 1.300729 -0.723796 10.000000
0.955012 1.209345 -0.681600 10.000000
0.855495 1.059388 -0.604858 33.000000
0.838037 1.013599 -0.586318 35.000000
0.849199 1.003271 -0.588120 27.000000
0.850660 0.982819 -0.583951 52.000000
0.858509 0.968926 -0.583549 34.000000
0.863091 0.951561 -0.581117 41.000000
0.857552 0.924587 -0.572631 21.000000
0.886577 0.933819 -0.586633 25.000000
0.880585 0.906927 -0.578007 67.000000
0.883726 0.890001 -0.575576 44.000000
0.890385 0.875908 -0.574959 52.000000
