x y z intensity
0.962842 -0.295276 -0.652478 77.000000
1.516377 -0.526346 -1.035205 33.000000
1.601374 -0.577936 -1.096422 28.000000
1.642587 -0.615230 -1.127254 23.000000
1.647482 -0.640100 -1.134018 17.000000
1.683396 -0.677712 -1.162272 24.000000
1.668253 -0.695187 -1.155307 21.000000
1.679618 -0.724349 -1.167514 24.000000
1.660247 -0.739861 -1.157734 17.000000
1.659560 -0.764040 -1.161653 16.000000
1.655181 -0.786201 -1.162349 18.000000
1.661614 -0.814233 -1.171458 14.000000
1.648752 -0.832978 -1.167049 10.000000
1.647054 -0.857288 -1.170582 20.000000
1.652530 -0.885716 -1.179287 21.000000
1.650281 -0.910289 -1.182574 28.000000
1.640367 -0.930727 -1.180470 23.000000
1.648636 -0.961647 -1.191536 20.000000
1.645549 -0.986336 -1.194487 20.000000
1.627213 -1.002571 -1.187279 18.000000
1.634462 -1.033984 -1.197902 10.000000
1.626504 -1.056782 -1.198378 23.000000
1.618216 -1.079531 -1.198774 19.000000
1.620985 -1.108958 -1.206453 23.000000
1.608745 -1.129287 -1.204062 21.000000
1.603220 -1.154392 -1.206742 20.000000
1.594079 -1.176921 -1.206728 24.000000
1.591417 -1.204554 -1.211894 15.000000
1.595276 -1.237545 -1.221988 11.000000
1.588583 -1.262751 -1.224273 17.000000
1.577511 -1.285709 -1.224392 18.000000
1.573616 -1.313596 -1.228989 23.000000
1.566064 -1.338721 -1.230981 21.000000
1.544514 -1.352981 -1.223081 18.000000
1.549426 -1.389388 -1.235036 20.000000
1.552858 -1.426649 -1.247430 15.000000
1.540968 -1.448816 -1.246380 17.000000
1.527966 -1.471436 -1.245765 13.000000
1.520817 -1.499970 -1.250114 14.000000
1.526544 -1.540255 -1.263962 23.000000
1.518560 -1.569032 -1.268048 21.000000
1.504272 -1.591442 -1.267007 19.000000
1.510330 -1.636132 -1.283431 20.000000
1.498255 -1.661788 -1.284646 16.000000
1.497357 -1.700387 -1.295760 20.000000
1.484464 -1.726091 -1.296807 13.000000
1.474146 -1.754951 -1.300131 22.000000
1.474497 -1.797247 -1.313244 28.000000
1.460472 -1.822871 -1.313992 30.000000
1.446302 -1.848390 -1.314544 44.000000
1.415830 -1.852899 -1.300452 60.000000
1.395948 -1.870988 -1.296052 54.000000
1.373409 -1.885214 -1.289151 71.000000
1.344328 -1.892718 -1.277933 24.000000
1.329188 -1.917151 -1.278128 35.000000
1.308975 -1.934036 -1.273501 34.000000
1.282138 -1.944153 -1.264508 33.000000
1.256836 -1.953171 -1.255063 34.000000
1.243953 -1.984934 -1.260269 33.000000
1.216112 -1.989723 -1.248319 30.000000
1.155395 1.946269 -1.185415 21.000000
1.189472 1.953897 -1.203909 19.000000
1.216169 1.945300 -1.212763 29.000000
1.248434 1.948129 -1.229005 27.000000
1.267838 1.927653 -1.230809 25.000000
1.275714 1.893021 -1.223468 26.000000
1.305557 1.891151 -1.237376 17.000000
1.329366 1.877217 -1.243657 14.000000
1.307883 1.803232 -1.209865 14.000000
1.334843 1.797015 -1.221149 10.000000
1.325926 1.740896 -1.198389 12.000000
1.325568 1.699658 -1.185482 9.000000
1.343661 1.682692 -1.189385 10.000000
1.367138 1.672270 -1.197989 10.000000
1.359770 1.624635 -1.179864 9.000000
1.382915 1.613871 -1.188370 9.000000
1.388728 1.583075 -1.182147 9.000000
1.399932 1.558758 -1.180775 9.000000
1.396194 1.518426 -1.166918 10.000000
1.403671 1.491136 -1.162839 9.000000
1.416899 1.470041 -1.163525 10.000000
1.429843 1.448808 -1.164199 10.000000
1.430176 1.415308 -1.154832 9.000000
1.458144 1.409084 -1.167786 10.000000
1.453831 1.373184 -1.156198 9.000000
1.456199 1.342845 -1.148983 10.000000
1.473456 1.327637 -1.154644 13.000000
1.481610 1.303094 -1.152262 10.000000
1.485531 1.276252 -1.147747 10.000000
1.499732 1.257270 -1.150240 10.000000
1.502966 1.230382 -1.145461 10.000000
1.489893 1.189630 -1.127441 10.000000
0.882348 0.671101 -0.659645 22.000000
0.865379 0.642169 -0.643203 35.000000
0.847983 0.613723 -0.626605 44.000000
0.833596 0.588282 -0.612468 22.000000
0.875281 0.602139 -0.639451 21.000000
0.935164 0.626920 -0.679451 21.000000
0.981385 0.640933 -0.709166 10.000000
0.984468 0.626555 -0.708119 10.000000
0.955028 0.591726 -0.683344 9.000000
0.950284 0.573312 -0.676898 9.000000
0.971389 0.570007 -0.688400 9.000000
0.925560 0.528412 -0.653114 10.000000
0.912582 0.506628 -0.641174 27.000000
0.914255 0.493317 -0.639636 74.000000
0.919542 0.481998 -0.640716 63.000000
0.928545 0.472534 -0.644314 78.000000
0.918423 0.453456 -0.634714 46.000000
0.915688 0.438388 -0.630322 55.000000
0.928204 0.430583 -0.636442 87.000000
0.932691 0.419183 -0.637435 68.000000
0.933435 0.405908 -0.635522 90.000000
0.949478 0.399376 -0.644393 82.000000
0.945856 0.384469 -0.639936 91.000000
0.949974 0.372848 -0.640745 95.000000
0.942107 0.356622 -0.633495 30.000000
0.949932 0.346451 -0.636849 98.000000
0.953724 0.334708 -0.637469 95.000000
0.957189 0.323038 -0.638308 93.000000
0.960763 0.311222 -0.638819 100.000000
0.960011 0.298190 -0.636836 98.000000
0.963171 0.286424 -0.637490 98.000000
0.974341 0.276892 -0.643433 100.000000
0.973235 0.263813 -0.641262 74.000000
0.959779 0.247636 -0.630960 95.000000
0.966420 0.236915 -0.634293 98.000000
0.969049 0.224995 -0.634617 95.000000
0.967274 0.212244 -0.632394 98.000000
0.977748 0.202117 -0.638247 98.000000
0.979918 0.190147 -0.638608 98.000000
0.977836 0.177353 -0.636238 95.000000
0.971299 0.164031 -0.631310 64.000000
0.977278 0.152756 -0.634187 100.000000
0.987187 0.142013 -0.639946 100.000000
0.988669 0.129935 -0.640199 100.000000
0.990043 0.117856 -0.640416 100.000000
0.987126 0.105295 -0.637858 103.000000
0.992322 0.093627 -0.640886 100.000000
0.997453 0.081856 -0.643809 100.000000
0.985812 0.068776 -0.635657 78.000000
0.982296 0.056486 -0.633060 98.000000
0.991160 0.044869 -0.638722 98.000000
0.987462 0.032631 -0.635980 100.000000
0.987713 0.020583 -0.636124 100.000000
0.987820 0.008534 -0.636159 103.000000
0.987892 -0.003550 -0.636159 98.000000
0.996227 -0.015731 -0.641501 100.000000
0.987641 -0.027682 -0.635944 95.000000
1.016617 -0.040914 -0.654887 98.000000
1.012048 -0.053101 -0.651887 98.000000
1.007190 -0.065186 -0.649072 95.000000
1.002118 -0.077167 -0.646404 88.000000
1.005469 -0.089758 -0.648816 98.000000
1.004516 -0.102026 -0.648486 98.000000
1.003271 -0.114294 -0.648340 95.000000
1.006128 -0.127090 -0.650784 98.000000
1.000561 -0.138794 -0.647790 98.000000
0.999023 -0.150989 -0.647424 98.000000
0.997229 -0.163220 -0.647205 86.000000
0.995471 -0.175378 -0.646728 65.000000
0.993494 -0.187573 -0.646362 98.000000
0.991370 -0.199695 -0.645996 98.000000
0.993294 -0.212699 -0.648210 98.000000
0.982717 -0.222968 -0.642283 98.000000
0.984265 -0.236023 -0.644641 95.000000
0.981738 -0.247998 -0.643982 98.000000
0.982997 -0.261130 -0.646187 73.000000
0.951625 -0.265221 -0.626883 35.000000
1.512982 -0.502084 -1.006008 36.000000
1.611606 -0.556388 -1.073974 25.000000
1.645169 -0.590549 -1.099489 28.000000
1.662420 -0.619588 -1.114247 20.000000
1.667369 -0.644629 -1.120873 16.000000
1.687891 -0.676073 -1.138026 10.000000
1.692246 -0.701631 -1.144402 20.000000
1.672966 -0.717313 -1.134753 12.000000
1.695896 -0.751827 -1.154580 14.000000
1.699414 -0.777802 -1.160626 18.000000
1.683001 -0.795185 -1.153813 12.000000
1.697113 -0.827148 -1.167925 18.000000
1.672760 -0.840442 -1.155658 10.000000
1.667275 -0.863010 -1.156468 10.000000
1.684102 -0.897559 -1.172910 22.000000
1.670589 -0.916290 -1.168246 13.000000
1.675560 -0.945135 -1.176567 18.000000
1.669067 -0.967852 -1.176968 14.000000
1.643428 -0.979932 -1.164639 10.000000
1.647549 -1.009027 -1.172692 12.000000
1.636238 -1.029511 -1.170623 10.000000
1.643390 -1.061122 -1.180992 9.000000
1.635175 -1.083920 -1.181340 13.000000
1.616067 -1.099435 -1.173885 10.000000
1.639135 -1.144095 -1.197140 12.000000
1.630111 -1.166930 -1.197215 13.000000
1.613892 -1.184625 -1.192020 10.000000
1.618200 -1.217531 -1.202079 12.000000
1.605048 -1.237511 -1.199348 10.000000
1.598511 -1.262685 -1.201554 9.000000
1.600894 -1.296528 -1.211702 14.000000
1.596997 -1.324556 -1.216225 10.000000
1.591965 -1.353200 -1.221152 15.000000
1.587342 -1.381280 -1.225451 13.000000
1.578341 -1.407099 -1.227574 10.000000
1.573085 -1.435325 -1.231652 12.000000
1.560259 -1.458177 -1.231146 10.000000
1.551331 -1.483278 -1.232439 9.000000
1.553546 -1.521057 -1.244167 15.000000
1.552142 -1.556080 -1.253264 11.000000
1.544102 -1.585033 -1.257200 13.000000
1.526705 -1.604527 -1.253704 11.000000
1.523977 -1.639740 -1.262412 10.000000
1.514885 -1.668717 -1.266073 11.000000
1.508321 -1.700866 -1.272052 10.000000
1.501316 -1.733150 -1.277893 9.000000
1.499514 -1.772080 -1.288446 21.000000
1.491544 -1.804531 -1.294070 26.000000
1.477700 -1.830123 -1.294729 42.000000
1.447174 -1.835034 -1.280856 34.000000
1.419539 -1.842901 -1.269360 33.000000
1.398512 -1.861502 -1.265559 45.000000
1.376017 -1.875667 -1.258813 30.000000
1.353596 -1.889443 -1.252002 18.000000
1.329643 -1.903717 -1.245610 28.000000
1.314509 -1.927812 -1.245736 25.000000
1.289275 -1.937088 -1.236443 29.000000
1.255377 -1.935516 -1.220570 25.000000
1.239799 -1.959003 -1.220609 25.000000
1.219894 -1.979244 -1.218693 27.000000
1.201430 -1.998585 -1.216279 19.000000
1.167871 1.950714 -1.165609 19.000000
1.197523 1.950817 -1.179213 29.000000
1.226393 1.946057 -1.190271 28.000000
1.237079 1.915422 -1.185472 33.000000
1.263387 1.906340 -1.194100 28.000000
1.283229 1.890278 -1.198509 31.000000
1.299353 1.865932 -1.197786 34.000000
1.321526 1.852982 -1.204359 22.000000
1.334531 1.824766 -1.201094 26.000000
1.348462 1.800751 -1.200526 31.000000
1.359483 1.773138 -1.197487 27.000000
1.384884 1.762114 -1.205784 34.000000
1.392572 1.730852 -1.200161 23.000000
1.399812 1.699559 -1.194477 21.000000
1.409440 1.671753 -1.191124 21.000000
1.424431 1.650574 -1.192372 10.000000
1.415986 1.602963 -1.174354 10.000000
1.421440 1.572025 -1.168199 10.000000
1.426465 1.541089 -1.161914 10.000000
1.443164 1.522998 -1.165210 17.000000
1.450448 1.495356 -1.161130 10.000000
1.460529 1.470749 -1.159378 17.000000
1.473439 1.449137 -1.160047 16.000000
1.476639 1.418405 -1.153198 10.000000
1.466802 1.375863 -1.136460 10.000000
1.490659 1.366633 -1.147103 10.000000
1.499155 1.341892 -1.144925 14.000000
1.507451 1.317173 -1.142582 18.000000
1.508039 1.287335 -1.135736 10.000000
1.498947 1.248734 -1.120743 13.000000
1.505410 1.224727 -1.118564 19.000000
0.872197 0.659523 -0.635974 29.000000
0.875786 0.646150 -0.634883 50.000000
0.833668 0.599975 -0.600919 33.000000
0.857782 0.602012 -0.614805 23.000000
0.899876 0.615668 -0.641418 32.000000
0.963846 0.642700 -0.683295 10.000000
0.999738 0.649430 -0.704969 10.000000
0.992299 0.627763 -0.696038 9.000000
0.998839 0.615641 -0.697496 10.000000
1.012955 0.607605 -0.703781 24.000000
0.989720 0.577870 -0.684652 12.000000
0.925232 0.525282 -0.636877 23.000000
0.927041 0.511819 -0.635440 35.000000
0.936282 0.502463 -0.639110 95.000000
0.934061 0.486963 -0.635007 95.000000
0.939316 0.475476 -0.636021 55.000000
0.944421 0.463878 -0.636959 46.000000
0.945629 0.450403 -0.635267 82.000000
0.958286 0.442283 -0.641320 69.000000
0.951450 0.425220 -0.634312 83.000000
0.951963 0.411909 -0.632676 53.000000
0.956523 0.400118 -0.633344 88.000000
0.960787 0.388438 -0.634234 95.000000
0.964903 0.376684 -0.635050 62.000000
0.968945 0.364856 -0.635791 81.000000
0.968871 0.351501 -0.633876 95.000000
0.976694 0.341014 -0.637163 95.000000
0.972149 0.326440 -0.632728 100.000000
0.979802 0.315793 -0.635870 95.000000
0.975000 0.301355 -0.631311 98.000000
0.970034 0.287041 -0.626704 98.000000
0.977174 0.276358 -0.629920 89.000000
0.976027 0.263290 -0.627793 65.000000
0.978859 0.251342 -0.628265 85.000000
0.985744 0.240364 -0.631306 95.000000
0.992358 0.229358 -0.634534 95.000000
0.978304 0.213580 -0.624210 98.000000
0.988882 0.203369 -0.629972 95.000000
0.991025 0.191312 -0.630335 95.000000
0.988778 0.178538 -0.628229 81.000000
0.986514 0.165757 -0.625831 84.000000
0.988351 0.153730 -0.626011 100.000000
0.985741 0.141102 -0.623717 91.000000
0.991412 0.129675 -0.626659 98.000000
0.988573 0.117113 -0.624219 95.000000
0.989828 0.105064 -0.624362 98.000000
0.990833 0.093052 -0.624685 98.000000
0.995949 0.081348 -0.627559 92.000000
0.992661 0.068919 -0.624864 81.000000
0.993378 0.056871 -0.624972 95.000000
0.993845 0.044823 -0.625223 95.000000
0.990080 0.032599 -0.622527 76.000000
1.003026 0.020830 -0.630652 96.000000
0.998938 0.008607 -0.628027 96.000000
0.986275 -0.003520 -0.620044 95.000000
0.998902 -0.015701 -0.627955 98.000000
1.007186 -0.028072 -0.633132 103.000000
1.002556 -0.040141 -0.630471 98.000000
1.014844 -0.052954 -0.638159 100.000000
0.988866 -0.063663 -0.622098 40.000000
1.004861 -0.076990 -0.632769 98.000000
1.004026 -0.089192 -0.632514 100.000000
1.003082 -0.101358 -0.632187 98.000000
0.993464 -0.112606 -0.626695 100.000000
0.996372 -0.125197 -0.629097 98.000000
0.994962 -0.137312 -0.628808 100.000000
0.993479 -0.149391 -0.628410 100.000000
0.995891 -0.162151 -0.630880 36.000000
0.985650 -0.172852 -0.625291 98.000000
0.988018 -0.185554 -0.627398 95.000000
0.985957 -0.197560 -0.626964 95.000000
0.987902 -0.210414 -0.629173 98.000000
0.985469 -0.222508 -0.628846 95.000000
0.987202 -0.235441 -0.630905 100.000000
0.980384 -0.246440 -0.627830 95.000000
0.989947 -0.261645 -0.635265 41.000000
1.701250 -0.516377 -1.098704 23.000000
1.720041 -0.544686 -1.113181 17.000000
1.713830 -0.565778 -1.112211 17.000000
1.723925 -0.592079 -1.121201 20.000000
1.733379 -0.618904 -1.130493 22.000000
1.718530 -0.637100 -1.124013 19.000000
1.691608 -0.650379 -1.109581 10.000000
1.716183 -0.683632 -1.128948 16.000000
1.728515 -0.712646 -1.140380 20.000000
1.716500 -0.732290 -1.136509 15.000000
1.712542 -0.754884 -1.137372 18.000000
1.696273 -0.772394 -1.130715 18.000000
1.707045 -0.802314 -1.142135 21.000000
1.705796 -0.826975 -1.145624 13.000000
1.673691 -0.836445 -1.128374 9.000000
1.683601 -0.866721 -1.139464 16.000000
1.681734 -0.891374 -1.142723 15.000000
1.690875 -0.922171 -1.153536 24.000000
1.684616 -0.944893 -1.153976 22.000000
1.688853 -0.974421 -1.162433 16.000000
1.693180 -1.003762 -1.170368 21.000000
1.685601 -1.026965 -1.170963 16.000000
1.649204 -1.031442 -1.150622 9.000000
1.652249 -1.061166 -1.158647 13.000000
1.651282 -1.088668 -1.164029 14.000000
1.660735 -1.123547 -1.176904 14.000000
1.648389 -1.144052 -1.174491 12.000000
1.642937 -1.169424 -1.177049 13.000000
1.658180 -1.210041 -1.194603 17.000000
1.645061 -1.230408 -1.191849 11.000000
1.594009 -1.221667 -1.161558 8.000000
1.617592 -1.271141 -1.186703 14.000000
1.614169 -1.299154 -1.191207 10.000000
1.623747 -1.338235 -1.205544 18.000000
1.608649 -1.358660 -1.202879 15.000000
1.610729 -1.392480 -1.211990 13.000000
1.595177 -1.412743 -1.209149 12.000000
1.592369 -1.444477 -1.216080 14.000000
1.593258 -1.478665 -1.224810 9.000000
1.583208 -1.504697 -1.226585 16.000000
1.572949 -1.530583 -1.228258 13.000000
1.577719 -1.571883 -1.242004 19.000000
1.563581 -1.594770 -1.241009 17.000000
1.570400 -1.639614 -1.256874 15.000000
1.570450 -1.678516 -1.267719 21.000000
1.546272 -1.691674 -1.259219 13.000000
1.571821 -1.760141 -1.291394 10.000000
1.544117 -1.769918 -1.280274 31.000000
1.533566 -1.799217 -1.283431 34.000000
1.491757 -1.791386 -1.260303 36.000000
1.466953 -1.803237 -1.251518 37.000000
1.442214 -1.814626 -1.242604 34.000000
1.426992 -1.840378 -1.243623 41.000000
1.402003 -1.851225 -1.234658 35.000000
1.408701 -1.904249 -1.253796 24.000000
1.366406 -1.893955 -1.231135 29.000000
1.351445 -1.918274 -1.231351 25.000000
1.329852 -1.935904 -1.227307 33.000000
1.302141 -1.941511 -1.215857 26.000000
1.282698 -1.962275 -1.214055 25.000000
1.259763 -1.974642 -1.207092 32.000000
1.235220 -1.987429 -1.200547 24.000000
1.225896 -2.022120 -1.207260 18.000000
1.156169 1.966663 -1.139282 34.000000
1.191896 1.974210 -1.156858 29.000000
1.200619 1.940031 -1.150093 33.000000
1.222217 1.924047 -1.154070 32.000000
1.236359 1.896706 -1.151248 31.000000
1.263387 1.892234 -1.162413 52.000000
1.276976 1.864537 -1.159387 33.000000
1.301537 1.855692 -1.168153 45.000000
1.317051 1.831439 -1.167293 32.000000
1.328384 1.804056 -1.164484 23.000000
1.331332 1.766099 -1.154684 45.000000
1.351205 1.748662 -1.158186 35.000000
1.366886 1.728213 -1.159665 46.000000
1.390762 1.717834 -1.168137 65.000000
1.418602 1.709951 -1.178522 33.000000
1.422434 1.675248 -1.170531 34.000000
1.437399 1.654063 -1.171821 25.000000
1.437503 1.616188 -1.161195 10.000000
1.448883 1.591623 -1.159898 21.000000
1.465970 1.573417 -1.163255 18.000000
1.461607 1.532727 -1.149913 17.000000
1.475088 1.511198 -1.150757 21.000000
1.494556 1.495733 -1.156312 18.000000
1.504468 1.470776 -1.154590 22.000000
1.498334 1.430707 -1.140711 15.000000
1.497920 1.396945 -1.131509 9.000000
1.519597 1.383981 -1.139214 21.000000
1.517693 1.350810 -1.130216 16.000000
1.529155 1.328860 -1.130476 18.000000
1.533830 1.301135 -1.125699 19.000000
1.520622 1.260100 -1.109067 15.000000
1.531197 1.238214 -1.108964 24.000000
0.889531 0.668750 -0.632383 30.000000
0.889636 0.652635 -0.628876 71.000000
0.818953 0.586089 -0.575646 30.000000
0.892839 0.623134 -0.624130 27.000000
0.921045 0.626775 -0.640343 34.000000
0.996423 0.660857 -0.689031 10.000000
0.999947 0.646210 -0.687836 10.000000
1.003334 0.631484 -0.686589 10.000000
0.984424 0.603251 -0.670230 9.000000
0.998119 0.595703 -0.676646 10.000000
0.944928 0.548651 -0.637403 18.000000
0.931892 0.526493 -0.626017 32.000000
0.945320 0.519066 -0.631981 95.000000
0.954617 0.509576 -0.635620 95.000000
0.952405 0.493927 -0.631619 95.000000
0.957724 0.482263 -0.632607 95.000000
0.955158 0.466743 -0.628505 32.000000
0.960208 0.455022 -0.629410 72.000000
0.969053 0.445020 -0.632791 80.000000
0.966080 0.429644 -0.628476 77.000000
0.966602 0.416234 -0.626930 98.000000
0.971200 0.404308 -0.627603 83.000000
0.975462 0.392532 -0.628500 78.000000
0.979836 0.380495 -0.629061 72.000000
0.979894 0.367065 -0.627275 35.000000
0.983841 0.355114 -0.627983 98.000000
0.975312 0.339017 -0.621144 98.000000
0.987150 0.329816 -0.626892 95.000000
0.994824 0.319036 -0.629993 98.000000
0.985902 0.303236 -0.622946 98.000000
1.001377 0.294873 -0.631371 100.000000
1.000573 0.281466 -0.629154 95.000000
0.991186 0.265979 -0.621936 48.000000
1.002179 0.256121 -0.627820 95.000000
1.009101 0.244943 -0.630823 78.000000
0.999280 0.229797 -0.623364 95.000000
1.005834 0.218583 -0.626476 98.000000
1.003967 0.205554 -0.624353 95.000000
1.001936 0.192554 -0.622116 98.000000
0.999777 0.179655 -0.619840 81.000000
0.993320 0.166118 -0.614919 54.000000
0.986580 0.152784 -0.610101 98.000000
0.992482 0.141389 -0.612852 98.000000
0.993952 0.129376 -0.613139 100.000000
0.999550 0.117863 -0.615964 103.000000
1.000666 0.105764 -0.616324 98.000000
1.001819 0.093664 -0.616432 98.000000
1.002719 0.081528 -0.616648 95.000000
1.003655 0.069393 -0.616612 59.000000
0.999976 0.057014 -0.614322 98.000000
1.000586 0.044930 -0.614358 82.000000
1.001052 0.032810 -0.614358 95.000000
1.005564 0.020778 -0.617080 100.000000
1.027015 0.008826 -0.630191 98.000000
1.001482 -0.003514 -0.614501 100.000000
1.009933 -0.015767 -0.619659 96.000000
1.022534 -0.028345 -0.627356 100.000000
1.030649 -0.041025 -0.632584 103.000000
1.025839 -0.053285 -0.629933 100.000000
1.025360 -0.065678 -0.629565 95.000000
1.007474 -0.076775 -0.619152 92.000000
1.010854 -0.089337 -0.621474 103.000000
1.009800 -0.101576 -0.621365 100.000000
1.008711 -0.113741 -0.621002 100.000000
1.007440 -0.125944 -0.620748 100.000000
1.006024 -0.138146 -0.620421 100.000000
1.004353 -0.150348 -0.620276 100.000000
1.002755 -0.162441 -0.619840 100.000000
1.000867 -0.174607 -0.619550 89.000000
1.003103 -0.187521 -0.621824 100.000000
1.001024 -0.199665 -0.621387 100.000000
0.998799 -0.211736 -0.620949 98.000000
1.000671 -0.224744 -0.622998 100.000000
0.998108 -0.236902 -0.622632 98.000000
1.007877 -0.252136 -0.629970 95.000000
1.714424 -0.495417 -1.078196 23.000000
1.754097 -0.529710 -1.105462 21.000000
1.764756 -0.556084 -1.114475 24.000000
1.766635 -0.580247 -1.118641 24.000000
1.747912 -0.597544 -1.109791 21.000000
1.757762 -0.624330 -1.118497 25.000000
1.746834 -0.644219 -1.114602 20.000000
1.775893 -0.679209 -1.136296 16.000000
1.748164 -0.693063 -1.122402 20.000000
1.744586 -0.715813 -1.123357 21.000000
1.740503 -0.738861 -1.124640 24.000000
1.736518 -0.761602 -1.125379 21.000000
1.728040 -0.782866 -1.123899 21.000000
1.727089 -0.807575 -1.127441 24.000000
1.745316 -0.841759 -1.143608 22.000000
1.747619 -0.868798 -1.149435 15.000000
1.699780 -0.870372 -1.122236 14.000000
1.701763 -0.897090 -1.127862 18.000000
1.714794 -0.930126 -1.141035 23.000000
1.711852 -0.955509 -1.144352 17.000000
1.724087 -0.989124 -1.157230 23.000000
1.709273 -1.008195 -1.152823 21.000000
1.698558 -1.028786 -1.150442 15.000000
1.701844 -1.058875 -1.158348 14.000000
1.675515 -1.070458 -1.146239 12.000000
1.667374 -1.093356 -1.146490 16.000000
1.662568 -1.118695 -1.149149 17.000000
1.661018 -1.146465 -1.154199 14.000000
1.680438 -1.189412 -1.174079 17.000000
1.667563 -1.209953 -1.171403 15.000000
1.664944 -1.238063 -1.176123 15.000000
1.654357 -1.261518 -1.176255 11.000000
1.633998 -1.276359 -1.168501 12.000000
1.644172 -1.315323 -1.182737 17.000000
1.636179 -1.341343 -1.185044 17.000000
1.628659 -1.366864 -1.186736 16.000000
1.629990 -1.401392 -1.196217 21.000000
1.640701 -1.444855 -1.212692 22.000000
1.615766 -1.455903 -1.202003 15.000000
1.612563 -1.487879 -1.208620 18.000000
1.602576 -1.514004 -1.210374 10.000000
1.611144 -1.558357 -1.226350 20.000000
1.603426 -1.587662 -1.230177 23.000000
1.592265 -1.613838 -1.231578 19.000000
1.602173 -1.662094 -1.249454 23.000000
1.593120 -1.691653 -1.252969 20.000000
1.595710 -1.734080 -1.265825 29.000000
1.571039 -1.747361 -1.257270 33.000000
1.534778 -1.746990 -1.239257 32.000000
1.518918 -1.769399 -1.237742 61.000000
1.497064 -1.784785 -1.231457 44.000000
1.476800 -1.804084 -1.227919 43.000000
1.446518 -1.808586 -1.214529 57.000000
1.424556 -1.823049 -1.208144 35.000000
1.406616 -1.844897 -1.206708 36.000000
1.373803 -1.844569 -1.190983 32.000000
1.372662 -1.886799 -1.202831 23.000000
1.348779 -1.900875 -1.196622 32.000000
1.326254 -1.913927 -1.189950 31.000000
1.307281 -1.934857 -1.188227 32.000000
1.282220 -1.943561 -1.179231 33.000000
1.262890 -1.963963 -1.177420 29.000000
1.236119 -1.972909 -1.168784 30.000000
1.217862 -1.992148 -1.166407 29.000000
1.197850 -2.011925 -1.164412 20.000000
1.126134 1.951068 -1.095479 32.000000
1.166173 1.967000 -1.117088 24.000000
1.178662 1.936285 -1.112239 35.000000
1.204914 1.928327 -1.120589 33.000000
1.217549 1.901920 -1.118265 32.000000
1.241078 1.889666 -1.124414 34.000000
1.255658 1.866755 -1.124105 31.000000
1.271306 1.842973 -1.123382 35.000000
1.295645 1.834366 -1.132011 33.000000
1.305672 1.803027 -1.126588 32.000000
1.303245 1.758088 -1.112497 32.000000
1.333651 1.755340 -1.125034 33.000000
1.352080 1.738648 -1.128811 40.000000
1.366026 1.714171 -1.127635 35.000000
1.386888 1.700613 -1.133616 35.000000
1.410591 1.690090 -1.141914 71.000000
1.423823 1.665109 -1.140476 34.000000
1.441462 1.647395 -1.144094 37.000000
1.459025 1.629455 -1.147561 37.000000
1.467471 1.601429 -1.144038 34.000000
1.484553 1.583148 -1.147410 36.000000
1.489327 1.551896 -1.141332 24.000000
1.505973 1.533319 -1.144602 22.000000
1.519417 1.511408 -1.145366 27.000000
1.526252 1.483212 -1.141391 19.000000
1.526353 1.448967 -1.132566 21.000000
1.532429 1.420956 -1.128284 10.000000
1.538091 1.392967 -1.123967 12.000000
1.543415 1.365006 -1.119543 19.000000
1.545081 1.334207 -1.112620 16.000000
1.558987 1.315475 -1.115671 21.000000
1.563311 1.287602 -1.110940 21.000000
1.546059 1.243856 -1.092063 19.000000
0.913092 0.699838 -0.636913 11.000000
0.899869 0.672696 -0.623598 75.000000
0.878810 0.641117 -0.605555 38.000000
0.853638 0.607544 -0.584949 32.000000
0.924629 0.641890 -0.630198 36.000000
0.971234 0.657395 -0.658421 19.000000
1.021935 0.674287 -0.689165 15.000000
1.029267 0.661724 -0.690494 10.000000
1.025362 0.642145 -0.684395 9.000000
0.998940 0.609125 -0.663388 9.000000
0.990636 0.587936 -0.654655 10.000000
0.936866 0.540964 -0.616117 21.000000
0.946350 0.531769 -0.619774 52.000000
0.967460 0.528417 -0.630620 95.000000
0.965380 0.512606 -0.626770 95.000000
0.966987 0.498890 -0.625355 95.000000
0.968437 0.485191 -0.623856 89.000000
0.969731 0.471472 -0.622348 68.000000
0.974822 0.459656 -0.623260 54.000000
0.979799 0.447764 -0.624096 95.000000
0.984662 0.435796 -0.624894 85.000000
0.985438 0.422050 -0.623179 63.000000
0.989866 0.410167 -0.624087 83.000000
0.986350 0.394848 -0.619730 69.000000
0.990554 0.382911 -0.620555 95.000000
0.994608 0.370899 -0.621306 79.000000
0.990468 0.355933 -0.616962 95.000000
0.994303 0.343907 -0.617632 95.000000
0.998026 0.331844 -0.618228 98.000000
1.009848 0.322327 -0.623859 95.000000
1.017307 0.311388 -0.627111 98.000000
1.016642 0.297816 -0.625022 95.000000
1.019757 0.285541 -0.625623 95.000000
1.014482 0.270970 -0.621095 54.000000
1.017387 0.258721 -0.621579 70.000000
1.015849 0.245462 -0.619662 98.000000
1.018519 0.233152 -0.620033 87.000000
1.016728 0.219970 -0.617998 86.000000
1.019165 0.207636 -0.618257 98.000000
1.021381 0.195340 -0.618626 77.000000
1.019219 0.182250 -0.616400 92.000000
1.004111 0.167183 -0.606676 72.000000
1.005919 0.155068 -0.606857 95.000000
1.003259 0.142350 -0.604656 98.000000
1.004700 0.130251 -0.604944 98.000000
1.010331 0.118616 -0.607725 95.000000
1.007328 0.106016 -0.605341 98.000000
1.008481 0.093844 -0.605449 98.000000
1.009381 0.081708 -0.605665 95.000000
1.010209 0.069573 -0.605845 36.000000
1.015177 0.057644 -0.608520 98.000000
1.015756 0.045385 -0.608557 98.000000
1.016262 0.033162 -0.608557 95.000000
1.016515 0.020939 -0.608665 95.000000
1.016660 0.008679 -0.608737 98.000000
1.020986 -0.003559 -0.611306 95.000000
1.046650 -0.016233 -0.626605 103.000000
1.042175 -0.028736 -0.623926 100.000000
1.041767 -0.041269 -0.623926 98.000000
1.041211 -0.053801 -0.623852 100.000000
1.040581 -0.066334 -0.623703 95.000000
1.031281 -0.078218 -0.618386 98.000000
1.034674 -0.090986 -0.620657 98.000000
1.033603 -0.103467 -0.620546 98.000000
1.023852 -0.114954 -0.615234 98.000000
1.026795 -0.127825 -0.617540 98.000000
1.021106 -0.139600 -0.614685 98.000000
1.023853 -0.152500 -0.616878 103.000000
1.017810 -0.164172 -0.614062 83.000000
1.016089 -0.176367 -0.613550 86.000000
1.014111 -0.188599 -0.613220 100.000000
1.011987 -0.200830 -0.612817 98.000000
1.018057 -0.214837 -0.617629 98.000000
1.011534 -0.226158 -0.614562 98.000000
1.034079 -0.244301 -0.629447 90.000000
1.636035 -0.449094 -1.001292 22.000000
1.759441 -0.505699 -1.078972 10.000000
1.790806 -0.538195 -1.101026 28.000000
1.793271 -0.562297 -1.104769 22.000000
1.799246 -0.588004 -1.111366 25.000000
1.788598 -0.608385 -1.107698 21.000000
1.798120 -0.635793 -1.116533 19.000000
1.774897 -0.651560 -1.105159 24.000000
1.783890 -0.679092 -1.113835 10.000000
1.768500 -0.697437 -1.107251 16.000000
1.788655 -0.730426 -1.123639 21.000000
1.772775 -0.748547 -1.116914 13.000000
1.760458 -0.768342 -1.112981 20.000000
1.771651 -0.798644 -1.124076 21.000000
1.758887 -0.818330 -1.119932 17.000000
1.765487 -0.847155 -1.128276 21.000000
1.740703 -0.860850 -1.116514 10.000000
1.738998 -0.885841 -1.119644 10.000000
1.760200 -0.922975 -1.137592 24.000000
1.754028 -0.946281 -1.137975 22.000000
1.743382 -0.967783 -1.136294 22.000000
1.736792 -0.990878 -1.136523 22.000000
1.725772 -1.012146 -1.134628 17.000000
1.725653 -1.040012 -1.140050 21.000000
1.714208 -1.061065 -1.138001 9.000000
1.717188 -1.091396 -1.145624 11.000000
1.716171 -1.119492 -1.150760 21.000000
1.714784 -1.147640 -1.155723 17.000000
1.709423 -1.173512 -1.158146 18.000000
1.707455 -1.201783 -1.162981 22.000000
1.694473 -1.222570 -1.160355 18.000000
1.695340 -1.253468 -1.167344 22.000000
1.663779 -1.261354 -1.152905 9.000000
1.664153 -1.292188 -1.159711 11.000000
1.666769 -1.326459 -1.169245 21.000000
1.656079 -1.349401 -1.168678 15.000000
1.674766 -1.398040 -1.189945 26.000000
1.673415 -1.429627 -1.196235 21.000000
1.657590 -1.450344 -1.193330 16.000000
1.664472 -1.491382 -1.207058 24.000000
1.648039 -1.511923 -1.203958 10.000000
1.634662 -1.535326 -1.203221 13.000000
1.640136 -1.576912 -1.216540 21.000000
1.638619 -1.612623 -1.224910 17.000000
1.642830 -1.654753 -1.237903 24.000000
1.624863 -1.675056 -1.234358 26.000000
1.621951 -1.711088 -1.242468 32.000000
1.585439 -1.711608 -1.224783 52.000000
1.564051 -1.727864 -1.218767 25.000000
1.539634 -1.740483 -1.210375 32.000000
1.515199 -1.752638 -1.201932 38.000000
1.495286 -1.771993 -1.198507 36.000000
1.479237 -1.793822 -1.196892 36.000000
1.454580 -1.805088 -1.188340 36.000000
1.428723 -1.816611 -1.180136 42.000000
1.404048 -1.827124 -1.171565 53.000000
1.380782 -1.841541 -1.165677 30.000000
1.379882 -1.883761 -1.177261 27.000000
1.358654 -1.901397 -1.173430 29.000000
1.328544 -1.903486 -1.160179 30.000000
1.309759 -1.924213 -1.158447 32.000000
1.284804 -1.932857 -1.149644 31.000000
1.263226 -1.949376 -1.145613 29.000000
1.247790 -1.972534 -1.145514 32.000000
1.221097 -1.980993 -1.137077 21.000000
1.198887 -1.996801 -1.132888 20.000000
1.178869 -2.016336 -1.130957 26.000000
1.142833 1.962848 -1.079973 24.000000
1.173737 1.963372 -1.092584 10.000000
1.181252 1.924924 -1.083553 22.000000
1.197780 1.901935 -1.083035 27.000000
1.219788 1.890793 -1.089401 22.000000
1.240616 1.875000 -1.093216 26.000000
1.257398 1.855869 -1.095141 28.000000
1.283155 1.846948 -1.103200 21.000000
1.293234 1.815821 -1.098032 32.000000
1.312118 1.799744 -1.101976 10.000000
1.310695 1.754135 -1.087670 26.000000
1.328976 1.737944 -1.091475 29.000000
1.351134 1.724376 -1.096997 24.000000
1.366433 1.704143 -1.098489 32.000000
1.382627 1.683159 -1.099445 29.000000
1.408958 1.676350 -1.109800 31.000000
1.420828 1.652136 -1.108861 30.000000
1.451181 1.647295 -1.121015 13.000000
1.456718 1.616097 -1.115352 31.000000
1.470940 1.594846 -1.116422 34.000000
1.490966 1.579908 -1.121993 32.000000
1.517080 1.570983 -1.132180 47.000000
1.530854 1.549059 -1.133100 29.000000
1.541183 1.523872 -1.131618 27.000000
1.548042 1.495538 -1.127716 25.000000
1.541679 1.455068 -1.114397 9.000000
1.557393 1.435991 -1.117321 10.000000
1.569677 1.413738 -1.117760 10.000000
1.578435 1.388358 -1.115843 10.000000
1.576875 1.354441 -1.106781 14.000000
1.571404 1.317888 -1.095165 10.000000
1.581689 1.296079 -1.095713 10.000000
1.568474 1.254390 -1.079187 16.000000
0.909579 0.693204 -0.618143 11.000000
0.909866 0.676888 -0.614844 28.000000
0.860493 0.624312 -0.577822 31.000000
0.888601 0.629044 -0.593473 15.000000
0.942270 0.650628 -0.625936 32.000000
1.003751 0.675892 -0.663300 10.000000
1.029696 0.675402 -0.676431 9.000000
1.036985 0.662839 -0.677717 9.000000
1.010703 0.629365 -0.657256 8.000000
1.009740 0.612708 -0.653865 9.000000
0.997551 0.589230 -0.642848 10.000000
0.954767 0.548712 -0.612312 20.000000
0.964578 0.539154 -0.615746 59.000000
0.974088 0.529580 -0.619342 60.000000
0.979940 0.517643 -0.620195 79.000000
0.977646 0.501839 -0.616388 78.000000
0.971288 0.484162 -0.610038 31.000000
0.984299 0.476217 -0.615934 37.000000
0.977605 0.458718 -0.609480 46.000000
0.986486 0.448676 -0.612773 51.000000
0.991350 0.436707 -0.613609 71.000000
0.996099 0.424663 -0.614331 80.000000
1.004753 0.414200 -0.617523 61.000000
1.005065 0.400499 -0.615965 71.000000
1.009511 0.388265 -0.616573 35.000000
0.997331 0.370065 -0.607416 70.000000
1.005343 0.359526 -0.610646 87.000000
1.001005 0.344540 -0.606314 75.000000
1.012963 0.335202 -0.611922 95.000000
1.024869 0.325553 -0.617465 98.000000
1.032383 0.314556 -0.620676 95.000000
1.031681 0.300842 -0.618638 95.000000
1.030687 0.287267 -0.616746 62.000000
1.033702 0.274867 -0.617312 51.000000
1.032445 0.261367 -0.615300 91.000000
1.035260 0.248943 -0.615751 73.000000
1.037812 0.236556 -0.616314 89.000000
1.036173 0.223108 -0.614145 61.000000
1.042730 0.211556 -0.617102 82.000000
1.040697 0.198210 -0.615005 95.000000
1.030058 0.183413 -0.607806 60.000000
1.014957 0.168215 -0.598051 68.000000
1.016773 0.156013 -0.598268 98.000000
1.014092 0.143207 -0.596116 95.000000
1.024109 0.132162 -0.601439 77.000000
1.021204 0.119370 -0.599140 100.000000
1.026771 0.107582 -0.601840 98.000000
1.023600 0.094857 -0.599431 98.000000
1.028849 0.082929 -0.602168 91.000000
1.021035 0.070012 -0.597310 59.000000
1.026034 0.057997 -0.599939 95.000000
1.026651 0.045685 -0.600012 98.000000
1.027123 0.033374 -0.599975 95.000000
1.027377 0.021100 -0.600120 98.000000
1.053427 0.008973 -0.615287 100.000000
1.053464 -0.003649 -0.615287 100.000000
1.057706 -0.016337 -0.617734 100.000000
1.057520 -0.029010 -0.617584 103.000000
1.052794 -0.041513 -0.615063 100.000000
1.060898 -0.054578 -0.620030 100.000000
1.047292 -0.066445 -0.612320 73.000000
1.046551 -0.079015 -0.612135 95.000000
1.045698 -0.091511 -0.611838 100.000000
1.048884 -0.104509 -0.614244 98.000000
1.043399 -0.116576 -0.611542 98.000000
1.033487 -0.128046 -0.606251 98.000000
1.036336 -0.140984 -0.608434 98.000000
1.039061 -0.154026 -0.610578 98.000000
1.041550 -0.167169 -0.612830 81.000000
1.035390 -0.178943 -0.610021 95.000000
1.033388 -0.191364 -0.609688 95.000000
1.031274 -0.203748 -0.609243 98.000000
1.029050 -0.216096 -0.608761 98.000000
1.047688 -0.233181 -0.620946 49.000000
1.701133 -0.464781 -1.015513 11.000000
1.804453 -0.516143 -1.079262 15.000000
1.798573 -0.537946 -1.078404 15.000000
1.817600 -0.567171 -1.092074 18.000000
1.823682 -0.593101 -1.098458 17.000000
1.812961 -0.613629 -1.094829 16.000000
1.810260 -0.636872 -1.096097 17.000000
1.807393 -0.660079 -1.097225 11.000000
1.808288 -0.684856 -1.100753 10.000000
1.792455 -0.703611 -1.094657 13.000000
1.801000 -0.731586 -1.102904 13.000000
1.804848 -0.758469 -1.109001 18.000000
1.796402 -0.780235 -1.107559 15.000000
1.783777 -0.800151 -1.103591 10.000000
1.790752 -0.829053 -1.111832 16.000000
1.773762 -0.846864 -1.105272 13.000000
1.776278 -0.873972 -1.110823 9.000000
1.790137 -0.907211 -1.123608 13.000000
1.764829 -0.920614 -1.111890 11.000000
1.766004 -0.948312 -1.117524 16.000000
1.759674 -0.971576 -1.117853 14.000000
1.741261 -0.988667 -1.111176 12.000000
1.752886 -1.023071 -1.123821 18.000000
1.737804 -1.042132 -1.119421 11.000000
1.756691 -1.081196 -1.136247 9.000000
1.752242 -1.107150 -1.138907 10.000000
1.736438 -1.126056 -1.134266 10.000000
1.727198 -1.149950 -1.134721 12.000000
1.711086 -1.168332 -1.129945 10.000000
1.705680 -1.194041 -1.132201 10.000000
1.710662 -1.227394 -1.141586 10.000000
1.703860 -1.253730 -1.144078 10.000000
1.694016 -1.276929 -1.143735 9.000000
1.704068 -1.316590 -1.157883 10.000000
1.696953 -1.342578 -1.159697 10.000000
1.699172 -1.377290 -1.168857 15.000000
1.691434 -1.403285 -1.170455 13.000000
1.682663 -1.429825 -1.172333 10.000000
1.680205 -1.462104 -1.178866 12.000000
1.673960 -1.491540 -1.182943 12.000000
1.690332 -1.541944 -1.203199 10.000000
1.670213 -1.559590 -1.197722 10.000000
1.669146 -1.595451 -1.206069 10.000000
1.674009 -1.637593 -1.218889 18.000000
1.665614 -1.667477 -1.222412 29.000000
1.638237 -1.678359 -1.211960 34.000000
1.601779 -1.679040 -1.194683 33.000000
1.580665 -1.695381 -1.188818 28.000000
1.571456 -1.724572 -1.191985 28.000000
1.547059 -1.737106 -1.183771 26.000000
1.521533 -1.749890 -1.175903 28.000000
1.494216 -1.758254 -1.165333 33.000000
1.481307 -1.783350 -1.165960 29.000000
1.452746 -1.791702 -1.155835 32.000000
1.428213 -1.802404 -1.147433 32.000000
1.410718 -1.824063 -1.146051 31.000000
1.391544 -1.841273 -1.142043 32.000000
1.384186 -1.876922 -1.149402 18.000000
1.359260 -1.886539 -1.140871 21.000000
1.335652 -1.900174 -1.134803 28.000000
1.309346 -1.909718 -1.126641 24.000000
1.284457 -1.918192 -1.117961 23.000000
1.265706 -1.938323 -1.116218 27.000000
1.250475 -1.961376 -1.116152 24.000000
1.231046 -1.981192 -1.114292 19.000000
1.197344 -1.977656 -1.099531 15.000000
1.186869 -2.012510 -1.106088 19.000000
1.110408 1.942105 -1.035032 26.000000
1.154729 1.966762 -1.059941 21.000000
1.176450 1.951719 -1.063855 27.000000
1.193177 1.928822 -1.063448 10.000000
1.198375 1.891221 -1.054866 23.000000
1.214220 1.868158 -1.054290 35.000000
1.234757 1.852587 -1.057976 21.000000
1.252672 1.832988 -1.059434 31.000000
1.269006 1.813904 -1.061251 26.000000
1.291710 1.801307 -1.066866 23.000000
1.312992 1.789096 -1.072946 29.000000
1.319334 1.754346 -1.065415 10.000000
1.336025 1.733882 -1.066576 28.000000
1.351376 1.714007 -1.068094 33.000000
1.370435 1.696802 -1.071282 27.000000
1.391089 1.683426 -1.077054 34.000000
1.408775 1.666334 -1.080620 29.000000
1.427352 1.648425 -1.083667 30.000000
1.453641 1.641010 -1.093782 35.000000
1.459053 1.609890 -1.088190 12.000000
1.480113 1.594625 -1.093327 35.000000
1.493981 1.573256 -1.094345 36.000000
1.501489 1.545267 -1.090759 31.000000
1.530495 1.539487 -1.102988 39.000000
1.550169 1.523809 -1.108306 36.000000
1.563340 1.501663 -1.109081 35.000000
1.582783 1.485460 -1.114337 46.000000
1.592240 1.459943 -1.112662 15.000000
1.594801 1.428510 -1.106299 25.000000
1.600297 1.400104 -1.102118 24.000000
1.595263 1.363080 -1.090983 20.000000
1.613535 1.346216 -1.095821 26.000000
1.566456 1.275959 -1.056643 24.000000
0.930461 0.705157 -0.615890 46.000000
0.909492 0.672891 -0.598672 29.000000
0.870352 0.628079 -0.569383 33.000000
0.941991 0.663293 -0.612913 31.000000
0.999947 0.686871 -0.647217 53.000000
1.058526 0.709138 -0.681621 35.000000
1.055437 0.688772 -0.675637 24.000000
1.066528 0.678349 -0.679357 12.000000
1.073841 0.665430 -0.680627 10.000000
1.062190 0.641015 -0.670017 10.000000
0.993334 0.583559 -0.623577 13.000000
0.984113 0.562958 -0.615317 65.000000
0.982617 0.546719 -0.611523 64.000000
0.988594 0.534727 -0.612461 95.000000
0.990335 0.520848 -0.611197 95.000000
0.996094 0.508747 -0.612053 91.000000
0.997536 0.494815 -0.610660 95.000000
1.010703 0.486641 -0.616445 25.000000
0.988158 0.461480 -0.600501 89.000000
0.997086 0.451355 -0.603790 95.000000
0.993953 0.435824 -0.599755 84.000000
0.994656 0.422081 -0.598090 98.000000
0.995171 0.408398 -0.596382 85.000000
0.987447 0.391553 -0.589776 95.000000
0.995643 0.381287 -0.593022 95.000000
1.003799 0.370887 -0.596201 32.000000
1.012025 0.360164 -0.599160 95.000000
1.011724 0.346625 -0.597397 98.000000
1.015463 0.334438 -0.597995 98.000000
1.014743 0.321047 -0.596336 100.000000
1.018206 0.308835 -0.596857 98.000000
1.025781 0.297764 -0.599752 100.000000
1.028921 0.285502 -0.600350 100.000000
1.027700 0.272087 -0.598458 91.000000
1.034827 0.260828 -0.601397 100.000000
1.029161 0.246426 -0.596932 98.000000
1.036039 0.235042 -0.599761 95.000000
1.038497 0.222681 -0.600283 98.000000
1.045183 0.211070 -0.603004 100.000000
1.047388 0.198584 -0.603453 98.000000
1.045198 0.185301 -0.601325 98.000000
1.047172 0.172791 -0.601586 60.000000
1.044623 0.159624 -0.599565 98.000000
1.046365 0.147129 -0.599750 100.000000
1.043573 0.134079 -0.597578 95.000000
1.044940 0.121635 -0.597799 98.000000
1.050555 0.109568 -0.600455 98.000000
1.056070 0.097435 -0.603038 100.000000
1.048337 0.084155 -0.598316 95.000000
1.049149 0.071637 -0.598501 44.000000
1.058564 0.059608 -0.603596 95.000000
1.059160 0.046949 -0.603633 95.000000
1.068330 0.034609 -0.608581 100.000000
1.051217 0.021491 -0.598796 95.000000
1.047020 0.008899 -0.596359 98.000000
1.047057 -0.003567 -0.596359 95.000000
1.068705 -0.016404 -0.608656 95.000000
1.077205 -0.029403 -0.613453 98.000000
1.076788 -0.042231 -0.613453 95.000000
1.071919 -0.054875 -0.610904 95.000000
1.066941 -0.067378 -0.608281 77.000000
1.066153 -0.080103 -0.608093 95.000000
1.069620 -0.093168 -0.610264 95.000000
1.064163 -0.105515 -0.607680 95.000000
1.071604 -0.119202 -0.612432 95.000000
1.074557 -0.132486 -0.614635 95.000000
1.073113 -0.145291 -0.614293 94.000000
1.071404 -0.158133 -0.614103 98.000000
1.065398 -0.170212 -0.611183 95.000000
1.046315 -0.179977 -0.601027 42.000000
1.044305 -0.192449 -0.600655 81.000000
1.042183 -0.204922 -0.600208 95.000000
1.781360 -0.416885 -1.031030 29.000000
1.823214 -0.449638 -1.057244 24.000000
1.830871 -0.474687 -1.063676 24.000000
1.829913 -0.497685 -1.065131 18.000000
1.816081 -0.517068 -1.059045 11.000000
1.839465 -0.547650 -1.075360 24.000000
1.854189 -0.576145 -1.086629 24.000000
1.852163 -0.599489 -1.087574 21.000000
1.841424 -0.620281 -1.083981 21.000000
1.838688 -0.643725 -1.085192 19.000000
1.831339 -0.665910 -1.084239 17.000000
1.832305 -0.690840 -1.087666 17.000000
1.816707 -0.709533 -1.081245 10.000000
1.833077 -0.741218 -1.094550 25.000000
1.828838 -0.764977 -1.095589 21.000000
1.828373 -0.790432 -1.099037 20.000000
1.819625 -0.812371 -1.097510 19.000000
1.806759 -0.832407 -1.093504 15.000000
1.817412 -0.863426 -1.103796 17.000000
1.800149 -0.881351 -1.097243 13.000000
1.790595 -0.902829 -1.095361 10.000000
1.803860 -0.936724 -1.108117 22.000000
1.797632 -0.960271 -1.108457 21.000000
1.783090 -0.979961 -1.104373 18.000000
1.783622 -1.007998 -1.109680 20.000000
1.776832 -1.031396 -1.109709 16.000000
1.769211 -1.055099 -1.110086 12.000000
1.791443 -1.097152 -1.129323 13.000000
1.760709 -1.106970 -1.115325 9.000000
1.778320 -1.147339 -1.131958 18.000000
1.754177 -1.161858 -1.122991 15.000000
1.748888 -1.187852 -1.125287 14.000000
1.754219 -1.221447 -1.134523 16.000000
1.730282 -1.234794 -1.124848 10.000000
1.741389 -1.274284 -1.138984 16.000000
1.742000 -1.305674 -1.145543 10.000000
1.727435 -1.326995 -1.143140 10.000000
1.737013 -1.367346 -1.156816 21.000000
1.719094 -1.385275 -1.151458 13.000000
1.717429 -1.417543 -1.158026 13.000000
1.722143 -1.455725 -1.169076 21.000000
1.712814 -1.482545 -1.170799 16.000000
1.716509 -1.521088 -1.181660 22.000000
1.706485 -1.548009 -1.183158 11.000000
1.705879 -1.583939 -1.191386 10.000000
1.717700 -1.632302 -1.208641 32.000000
1.680831 -1.634520 -1.191719 33.000000
1.656769 -1.648694 -1.183829 35.000000
1.629635 -1.659209 -1.173633 55.000000
1.602468 -1.669336 -1.163397 35.000000
1.584604 -1.688780 -1.159920 53.000000
1.559432 -1.702022 -1.152292 29.000000
1.532284 -1.710913 -1.141992 26.000000
1.522899 -1.739579 -1.144969 60.000000
1.497467 -1.751895 -1.137316 51.000000
1.481757 -1.773456 -1.135757 55.000000
1.454531 -1.780937 -1.125312 44.000000
1.429005 -1.792191 -1.117493 35.000000
1.412860 -1.813014 -1.115785 57.000000
1.381686 -1.816461 -1.103570 29.000000
1.377529 -1.855492 -1.112951 21.000000
1.344957 -1.853918 -1.098073 48.000000
1.319047 -1.863528 -1.090121 30.000000
1.307372 -1.890576 -1.092467 33.000000
1.286402 -1.907119 -1.088662 29.000000
1.275220 -1.938466 -1.093381 33.000000
1.239108 -1.931731 -1.076725 36.000000
1.226440 -1.958180 -1.078816 21.000000
1.204806 -1.973822 -1.074847 23.000000
1.178300 -1.981352 -1.066679 32.000000
1.165391 -2.012109 -1.071016 26.000000
1.126696 1.953685 -1.019366 31.000000
1.155105 1.950936 -1.029420 31.000000
1.178820 1.940006 -1.035294 25.000000
1.176999 1.890810 -1.020659 28.000000
1.190377 1.864297 -1.018051 27.000000
1.220682 1.864326 -1.030084 32.000000
1.231025 1.833681 -1.025259 32.000000
1.257599 1.829874 -1.035463 29.000000
1.269963 1.802768 -1.032616 33.000000
1.289804 1.786643 -1.036034 30.000000
1.310994 1.774600 -1.041959 26.000000
1.308765 1.729101 -1.028174 31.000000
1.330647 1.716117 -1.033545 31.000000
1.348482 1.699970 -1.037142 44.000000
1.370187 1.686367 -1.042387 39.000000
1.387839 1.669746 -1.045917 34.000000
1.406373 1.652168 -1.048932 37.000000
1.429637 1.641816 -1.056756 35.000000
1.447953 1.623796 -1.059710 32.000000
1.449951 1.589626 -1.051979 36.000000
1.457576 1.562093 -1.048586 34.000000
1.478179 1.546960 -1.053555 56.000000
1.497689 1.532188 -1.058900 60.000000
1.510859 1.510713 -1.059668 70.000000
1.533420 1.498556 -1.067108 83.000000
1.546192 1.476756 -1.067871 47.000000
1.562092 1.457865 -1.070715 38.000000
1.587676 1.447785 -1.080298 35.000000
1.599975 1.425439 -1.080762 33.000000
1.615430 1.405884 -1.083472 43.000000
1.630664 1.386108 -1.086108 52.000000
1.607965 1.334807 -1.063723 32.000000
1.556831 1.261848 -1.022964 44.000000
0.940456 0.709365 -0.606577 33.000000
0.919633 0.676735 -0.589481 44.000000
0.905133 0.650173 -0.577059 30.000000
0.974125 0.682350 -0.617329 31.000000
1.036247 0.708191 -0.653306 62.000000
1.069623 0.712920 -0.670882 32.000000
1.085019 0.704603 -0.676667 35.000000
1.081325 0.684399 -0.671038 51.000000
1.088645 0.671390 -0.672361 18.000000
1.061749 0.637750 -0.652618 19.000000
0.977070 0.571328 -0.597734 24.000000
0.990924 0.563903 -0.603428 95.000000
0.993200 0.549756 -0.602069 98.000000
1.002852 0.540046 -0.605593 98.000000
1.004847 0.525835 -0.604108 98.000000
1.006445 0.511836 -0.602852 95.000000
1.004202 0.495706 -0.598917 91.000000
0.993576 0.476112 -0.590439 95.000000
0.998650 0.464211 -0.591354 89.000000
0.999594 0.450423 -0.589863 98.000000
1.000386 0.436657 -0.588289 95.000000
1.005116 0.424623 -0.589083 95.000000
1.005661 0.410888 -0.587386 98.000000
1.006019 0.397175 -0.585684 98.000000
1.010186 0.385201 -0.586510 95.000000
1.018551 0.374555 -0.589459 98.000000
1.026648 0.363849 -0.592603 98.000000
1.026390 0.350170 -0.590854 100.000000
1.034292 0.339290 -0.593889 103.000000
1.033740 0.325597 -0.592060 100.000000
1.045681 0.315733 -0.597386 100.000000
1.040524 0.300873 -0.593266 98.000000
1.039614 0.287230 -0.591277 95.000000
1.046855 0.275960 -0.594246 95.000000
1.049795 0.263485 -0.594736 87.000000
1.061107 0.253005 -0.600007 100.000000
1.059570 0.239349 -0.598014 98.000000
1.053578 0.224882 -0.593492 98.000000
1.051613 0.211481 -0.591565 98.000000
1.053819 0.198995 -0.591976 98.000000
1.060222 0.187195 -0.594768 98.000000
1.062211 0.174583 -0.595068 95.000000
1.059763 0.161237 -0.592873 98.000000
1.065740 0.149283 -0.595631 103.000000
1.054374 0.134893 -0.588516 100.000000
1.064436 0.123367 -0.593584 98.000000
1.057044 0.109790 -0.588923 103.000000
1.066791 0.098058 -0.594070 100.000000
1.063516 0.084999 -0.591719 98.000000
1.073059 0.072971 -0.596757 94.000000
1.082502 0.060698 -0.601722 100.000000
1.070006 0.047253 -0.594481 103.000000
1.070529 0.034543 -0.594481 98.000000
1.075161 0.021921 -0.597020 98.000000
1.079683 0.009158 -0.599522 100.000000
1.075349 -0.003641 -0.597095 98.000000
1.070903 -0.016337 -0.594593 94.000000
1.075086 -0.029203 -0.596870 95.000000
1.083411 -0.042307 -0.601685 98.000000
1.087247 -0.055396 -0.604035 98.000000
1.082200 -0.068040 -0.601495 95.000000
1.081443 -0.080868 -0.601268 95.000000
1.080459 -0.093734 -0.601193 98.000000
1.083790 -0.106992 -0.603275 95.000000
1.086922 -0.120354 -0.605507 100.000000
1.085548 -0.133247 -0.605240 95.000000
1.079648 -0.145594 -0.602667 95.000000
1.082382 -0.159035 -0.604706 98.000000
1.080551 -0.171928 -0.604439 57.000000
1.065662 -0.182529 -0.596884 73.000000
1.063627 -0.195192 -0.596507 95.000000
1.156024 -0.226328 -0.649145 84.000000
1.800918 -0.419643 -1.016172 29.000000
1.847361 -0.453629 -1.044273 24.000000
1.859308 -0.479931 -1.052962 26.000000
1.858328 -0.503132 -1.054294 11.000000
1.856787 -0.526569 -1.055957 15.000000
1.846940 -0.547343 -1.052284 24.000000
1.870129 -0.578461 -1.068111 23.000000
1.867911 -0.602061 -1.069414 24.000000
1.865391 -0.625762 -1.070644 23.000000
1.858555 -0.647910 -1.069414 19.000000
1.868045 -0.675972 -1.077583 24.000000
1.843926 -0.692207 -1.066953 10.000000
1.844673 -0.717270 -1.070206 18.000000
1.857046 -0.747595 -1.080778 22.000000
1.844652 -0.768120 -1.077086 17.000000
1.848334 -0.795371 -1.082739 23.000000
1.839548 -0.817476 -1.081205 15.000000
1.834628 -0.841209 -1.081964 16.000000
1.833444 -0.866852 -1.085004 18.000000
1.835935 -0.894477 -1.090243 9.000000
1.821888 -0.914680 -1.086408 13.000000
1.823856 -0.942332 -1.091476 21.000000
1.824983 -0.970549 -1.096875 18.000000
1.830138 -1.000594 -1.104017 24.000000
1.815193 -1.020466 -1.099882 20.000000
1.803981 -1.042243 -1.097941 18.000000
1.807705 -1.072910 -1.105236 22.000000
1.803525 -1.099190 -1.107852 10.000000
1.799027 -1.125507 -1.110304 13.000000
1.801743 -1.156647 -1.117291 19.000000
1.796030 -1.183490 -1.119994 18.000000
1.783228 -1.204951 -1.117551 22.000000
1.777577 -1.231247 -1.119633 18.000000
1.767377 -1.255444 -1.119773 18.000000
1.771944 -1.289596 -1.128538 22.000000
1.775402 -1.324408 -1.137628 10.000000
1.767731 -1.351395 -1.139755 19.000000
1.763908 -1.380610 -1.143600 22.000000
1.755587 -1.407598 -1.145528 20.000000
1.746990 -1.434525 -1.147434 21.000000
1.758525 -1.478692 -1.162711 19.000000
1.762557 -1.517463 -1.173315 26.000000
1.749292 -1.541802 -1.172620 26.000000
