x y z intensity
1.390723 1.242471 -0.237238 34.000000
1.404263 1.227095 -0.237869 28.000000
1.417172 1.212006 -0.238557 31.000000
1.449446 1.212193 -0.242311 29.000000
1.477999 1.208647 -0.245442 13.000000
1.475666 1.179870 -0.243415 30.000000
1.492421 1.166587 -0.244637 27.000000
1.516889 1.159065 -0.247087 26.000000
1.541083 1.151579 -0.249664 35.000000
1.561642 1.140376 -0.251486 27.000000
1.610344 1.148976 -0.257838 32.000000
1.626892 1.133972 -0.258972 29.000000
1.634819 1.113603 -0.258994 17.000000
1.655190 1.101012 -0.260782 34.000000
1.671340 1.085356 -0.261923 32.000000
1.687304 1.069546 -0.263067 26.000000
1.715541 1.061655 -0.266237 36.000000
1.739760 1.050400 -0.268700 29.000000
1.776772 1.046284 -0.273140 29.000000
1.796540 1.031925 -0.274963 31.000000
1.803377 1.009667 -0.274814 17.000000
1.818672 0.992125 -0.275920 32.000000
1.837949 0.977005 -0.277753 35.000000
1.879332 0.972699 -0.282773 30.000000
1.894182 0.954471 -0.283958 35.000000
1.940099 0.951022 -0.289731 33.000000
1.954817 0.931799 -0.290795 30.000000
1.987233 0.920946 -0.294595 34.000000
2.001666 0.901060 -0.295667 19.000000
2.043045 0.893120 -0.300819 31.000000
2.070973 0.878406 -0.303840 32.000000
2.098654 0.863362 -0.307006 30.000000
2.130961 0.849403 -0.310711 33.000000
2.167737 0.836938 -0.315167 35.000000
2.167400 0.809782 -0.314250 25.000000
2.227350 0.804495 -0.322017 31.000000
2.207819 0.770342 -0.318335 10.000000
2.286454 0.770003 -0.328823 32.000000
2.327686 0.755744 -0.334002 41.000000
2.354664 0.736179 -0.337010 35.000000
2.381467 0.716202 -0.340100 37.000000
2.417682 0.698252 -0.344398 35.000000
2.463235 0.682557 -0.350294 30.000000
2.494497 0.661903 -0.354006 32.000000
2.549506 0.646816 -0.361044 18.000000
2.566022 0.621275 -0.362729 40.000000
2.630530 0.606655 -0.371228 37.000000
2.636933 0.577798 -0.371477 14.000000
2.701283 0.561114 -0.379912 9.000000
2.726588 0.535439 -0.382897 14.000000
2.815033 0.520973 -0.394764 57.000000
2.840109 0.493585 -0.397763 71.000000
2.859926 0.464886 -0.399992 29.000000
2.869733 0.434385 -0.400854 33.000000
2.830149 0.396811 -0.394962 10.000000
2.819551 0.364005 -0.393083 8.000000
2.823317 0.333175 -0.393259 8.000000
2.792260 0.298658 -0.388549 9.000000
2.829886 0.271427 -0.393521 26.000000
2.852428 0.242186 -0.396352 63.000000
2.830202 0.209139 -0.393011 19.000000
2.876786 0.181076 -0.399272 37.000000
2.868670 0.149036 -0.397900 31.000000
2.800809 0.114865 -0.388382 9.000000
2.811832 0.084590 -0.389755 8.000000
2.832419 0.054201 -0.392499 8.000000
2.803054 0.023059 -0.388382 7.000000
2.817998 -0.007640 -0.390441 8.000000
2.788111 -0.038057 -0.386238 8.000000
2.787510 -0.068468 -0.386238 9.000000
2.865757 -0.101777 -0.397126 33.000000
2.839783 -0.131904 -0.393609 29.000000
2.867874 -0.164612 -0.397635 34.000000
2.880751 -0.196955 -0.399514 29.000000
2.834002 -0.224919 -0.393259 10.000000
2.865904 -0.258957 -0.397877 37.000000
2.858050 -0.289752 -0.397015 29.000000
2.854687 -0.320993 -0.396838 32.000000
2.870721 -0.354485 -0.399308 34.000000
2.812715 -0.378584 -0.391612 16.000000
2.832937 -0.412845 -0.394764 10.000000
2.887071 -0.453015 -0.402780 24.000000
2.857517 -0.480418 -0.399099 14.000000
2.896040 -0.519442 -0.404967 37.000000
2.909702 -0.554694 -0.407329 33.000000
2.908353 -0.587429 -0.407645 34.000000
2.906708 -0.620087 -0.407959 35.000000
2.909415 -0.654028 -0.409043 33.000000
2.926356 -0.691415 -0.411978 52.000000
2.894626 -0.717318 -0.408217 29.000000
2.848274 -0.738965 -0.402429 11.000000
2.859242 -0.775239 -0.404774 26.000000
2.850756 -0.806263 -0.404227 10.000000
2.860731 -0.843072 -0.406563 14.000000
2.875136 -0.881473 -0.409477 16.000000
2.870132 -0.914282 -0.409595 10.000000
2.878929 -0.951768 -0.411822 19.000000
2.859096 -0.979839 -0.409918 10.000000
2.848299 -1.010927 -0.409360 9.000000
2.869686 -1.054067 -0.413587 18.000000
2.876636 -1.092265 -0.415605 10.000000
2.855470 -1.119822 -0.413699 14.000000
2.875248 -1.164198 -0.417805 11.000000
2.871689 -1.199156 -0.418469 10.000000
2.867473 -1.234506 -0.419225 11.000000
2.863075 -1.269670 -0.419784 10.000000
2.858108 -1.305129 -0.420532 8.000000
2.884258 -1.355053 -0.425717 16.000000
2.882633 -1.393115 -0.427112 12.000000
2.889448 -1.435784 -0.429722 21.000000
2.891511 -1.475989 -0.431463 24.000000
2.897168 -1.519281 -0.434052 29.000000
2.906840 -1.564596 -0.437083 59.000000
2.889564 -1.596506 -0.436371 55.000000
2.837384 -1.608654 -0.430327 29.000000
2.845729 -1.654225 -0.433339 73.000000
2.818975 -1.680354 -0.431225 36.000000
2.813079 -1.719121 -0.432368 83.000000
2.786105 -1.744098 -0.430056 52.000000
2.762711 -1.771973 -0.428498 36.000000
2.747257 -1.805101 -0.428235 75.000000
2.714987 -1.826944 -0.425491 33.000000
2.679014 -1.844900 -0.421812 21.000000
2.674805 -1.885657 -0.423477 59.000000
2.650037 -1.912162 -0.421830 35.000000
2.632910 -1.944269 -0.421564 53.000000
2.608106 -1.969478 -0.419819 35.000000
2.586386 -1.998137 -0.418813 35.000000
2.564364 -2.026493 -0.417808 64.000000
2.534226 -2.048513 -0.415437 27.000000
2.511669 -2.076283 -0.414434 10.000000
2.530380 -2.139178 -0.420252 28.000000
2.522666 -2.179058 -0.421538 26.000000
2.528418 -2.233014 -0.425415 31.000000
2.518555 -2.274016 -0.426769 28.000000
2.486215 -2.294944 -0.424377 21.000000
2.385151 -2.250805 -0.410099 16.000000
2.264894 -2.183051 -0.392090 10.000000
2.124262 -2.092899 -0.370581 8.000000
2.062785 -2.077460 -0.362718 12.000000
1.943109 -2.000479 -0.344475 10.000000
1.893808 -1.992966 -0.338557 11.000000
1.807715 -1.944616 -0.325967 18.000000
1.719627 -1.890937 -0.312759 10.000000
1.672490 -1.880130 -0.306895 18.000000
1.597345 -1.834061 -0.295558 20.000000
1.590108 -1.866596 -0.296991 10.000000
1.556970 -1.868753 -0.293614 31.000000
1.520879 -1.866483 -0.289582 24.000000
1.509735 -1.894708 -0.290405 32.000000
1.488960 -1.911239 -0.289363 29.000000
1.462093 -1.919572 -0.287139 24.000000
1.455933 -1.955429 -0.289044 29.000000
1.453173 -1.994643 -0.291438 23.000000
1.414127 -1.986221 -0.286871 10.000000
1.403744 -2.017962 -0.288075 29.000000
1.392854 -2.049725 -0.289337 24.000000
1.370468 -2.064877 -0.288195 25.000000
1.347930 -2.079801 -0.287053 23.000000
1.335863 -2.111363 -0.288279 24.000000
1.328420 -2.151305 -0.290553 24.000000
1.312578 -2.178594 -0.291094 20.000000
1.314000 -2.235720 -0.295505 9.000000
0.899670 1.547314 -0.190448 8.000000
0.903751 1.515965 -0.188561 14.000000
0.916653 1.502296 -0.188840 23.000000
0.938237 1.500571 -0.190613 20.000000
0.965259 1.506885 -0.193469 26.000000
0.981628 1.496173 -0.194183 25.000000
1.003377 1.493603 -0.195980 26.000000
1.008295 1.466120 -0.194525 29.000000
1.032774 1.467113 -0.196871 21.000000
1.034169 1.435549 -0.194796 22.000000
1.052708 1.428142 -0.196051 24.000000
1.071170 1.420452 -0.197256 22.000000
1.089555 1.412533 -0.198464 30.000000
1.107971 1.404437 -0.199677 24.000000
1.125646 1.396605 -0.201002 30.000000
1.147115 1.391825 -0.202725 29.000000
1.158979 1.375341 -0.202830 22.000000
1.170705 1.358763 -0.202930 26.000000
1.185413 1.345818 -0.203536 24.000000
1.203389 1.336399 -0.204708 31.000000
1.221281 1.326742 -0.205882 36.000000
1.249298 1.327698 -0.208767 29.000000
1.267134 1.317502 -0.209954 33.000000
1.284372 1.307513 -0.211200 33.000000
1.305655 1.300334 -0.212967 28.000000
1.298463 1.265047 -0.210080 30.000000
1.333791 1.271237 -0.214099 30.000000
1.351236 1.259905 -0.215244 31.000000
1.364916 1.244919 -0.215812 60.000000
1.385893 1.236433 -0.217543 28.000000
1.398905 1.221595 -0.218170 37.000000
1.423529 1.215747 -0.220496 35.000000
1.436760 1.199985 -0.221013 32.000000
1.457510 1.190389 -0.222706 32.000000
1.482104 1.183550 -0.224994 29.000000
1.494927 1.167170 -0.225518 33.000000
1.511230 1.154096 -0.226693 36.000000
1.543688 1.152171 -0.230126 30.000000
1.572223 1.146822 -0.233037 37.000000
1.584724 1.129416 -0.233516 33.000000
1.605134 1.117564 -0.235188 31.000000
1.625185 1.105834 -0.236926 33.000000
1.645479 1.093383 -0.238608 31.000000
1.657321 1.075224 -0.239033 33.000000
1.694142 1.072817 -0.243130 53.000000
1.710015 1.056747 -0.244164 32.000000
1.729700 1.043397 -0.245867 36.000000
1.775288 1.044402 -0.251143 35.000000
1.786559 1.024835 -0.251586 30.000000
1.806113 1.010304 -0.253308 31.000000
1.830130 0.997577 -0.255579 30.000000
1.845344 0.979717 -0.256573 45.000000
1.877920 0.970811 -0.260010 44.000000
1.892688 0.952632 -0.261076 35.000000
1.925266 0.942693 -0.264529 35.000000
1.944245 0.926064 -0.266217 39.000000
1.985765 0.919266 -0.270915 30.000000
2.013826 0.905604 -0.273711 31.000000
2.046204 0.893600 -0.277267 33.000000
2.078659 0.880827 -0.280695 29.000000
2.115566 0.869510 -0.284819 36.000000
2.124922 0.846297 -0.285171 31.000000
2.161699 0.833867 -0.289238 34.000000
2.198567 0.820547 -0.293315 40.000000
2.216633 0.799953 -0.294918 26.000000
2.234627 0.778866 -0.296451 35.000000
2.266435 0.762465 -0.299926 35.000000
2.312277 0.749999 -0.305278 33.000000
2.353424 0.735156 -0.310018 36.000000
2.375565 0.713577 -0.312119 35.000000
2.406949 0.694514 -0.315548 34.000000
2.447813 0.677500 -0.320234 37.000000
2.455000 0.650781 -0.320547 27.000000
2.519655 0.638609 -0.328380 37.000000
2.550478 0.616935 -0.331755 37.000000
2.571517 0.592509 -0.333961 35.000000
2.616614 0.572910 -0.339230 23.000000
2.627486 0.545243 -0.340024 9.000000
2.686805 0.527102 -0.347190 10.000000
2.750894 0.508612 -0.354996 52.000000
2.775778 0.481971 -0.357773 18.000000
2.859226 0.464359 -0.368030 62.000000
2.888559 0.436879 -0.371360 77.000000
2.902966 0.406709 -0.372802 80.000000
2.887528 0.372428 -0.370458 30.000000
2.856988 0.336835 -0.366129 10.000000
2.855508 0.305155 -0.365674 9.000000
2.858689 0.273968 -0.365762 9.000000
2.886137 0.244878 -0.369010 10.000000
2.873794 0.212237 -0.367203 20.000000
2.841359 0.178674 -0.362866 9.000000
2.862924 0.148698 -0.365395 8.000000
2.869291 0.117592 -0.366116 9.000000
2.865481 0.086167 -0.365483 8.000000
2.866275 0.054858 -0.365483 8.000000
2.851749 0.023426 -0.363586 9.000000
2.881595 -0.007802 -0.367380 8.000000
2.861581 -0.039003 -0.364763 9.000000
2.885756 -0.070778 -0.367924 8.000000
2.864952 -0.101602 -0.365307 9.000000
2.903354 -0.134751 -0.370274 49.000000
2.906696 -0.166688 -0.370816 36.000000
2.909674 -0.198734 -0.371358 46.000000
2.927119 -0.232063 -0.373704 66.000000
2.904649 -0.262167 -0.371089 36.000000
2.906534 -0.294338 -0.371540 33.000000
2.898279 -0.325510 -0.370730 11.000000
2.899523 -0.357700 -0.371091 9.000000
2.934807 -0.394623 -0.375949 9.000000
2.935251 -0.427312 -0.376396 9.000000
2.930415 -0.459340 -0.376122 10.000000
2.974224 -0.499492 -0.382134 70.000000
2.988094 -0.535463 -0.384368 85.000000
2.977338 -0.567032 -0.383460 95.000000
2.980724 -0.601345 -0.384341 95.000000
2.978841 -0.634930 -0.384687 95.000000
2.971814 -0.667440 -0.384406 98.000000
2.964412 -0.699669 -0.384031 95.000000
2.942190 -0.728415 -0.381782 72.000000
2.871743 -0.744215 -0.373294 24.000000
2.916111 -0.789778 -0.379696 20.000000
2.917018 -0.824164 -0.380570 23.000000
2.903122 -0.854555 -0.379481 17.000000
2.917346 -0.893559 -0.382217 20.000000
2.921676 -0.929697 -0.383610 18.000000
2.920914 -0.964587 -0.384378 12.000000
2.938482 -1.005921 -0.387525 16.000000
2.917954 -1.034795 -0.385906 15.000000
2.929914 -1.074951 -0.388422 16.000000
2.922652 -1.108768 -0.388559 24.000000
2.942878 -1.153066 -0.392196 16.000000
2.948545 -1.192681 -0.394170 21.000000
2.940116 -1.226575 -0.394099 20.000000
2.944832 -1.266549 -0.396061 20.000000
2.944544 -1.304417 -0.397207 19.000000
2.952760 -1.346899 -0.399669 22.000000
2.973828 -1.396103 -0.403952 33.000000
2.954207 -1.426068 -0.402535 58.000000
2.947363 -1.462857 -0.403146 73.000000
2.935902 -1.496877 -0.402943 95.000000
2.914990 -1.526693 -0.401628 91.000000
2.889353 -1.553959 -0.399711 73.000000
2.850481 -1.573535 -0.395986 40.000000
2.829145 -1.601820 -0.394583 42.000000
2.794286 -1.622831 -0.391478 48.000000
2.789200 -1.661046 -0.392484 95.000000
2.788187 -1.701426 -0.393981 55.000000
2.752576 -1.721420 -0.390787 73.000000
2.737795 -1.754236 -0.390585 80.000000
2.739157 -1.797940 -0.392761 55.000000
2.711077 -1.822412 -0.390768 53.000000
2.658775 -1.828918 -0.385025 36.000000
2.634582 -1.855219 -0.383640 33.000000
2.606027 -1.878330 -0.381570 59.000000
2.605274 -1.921697 -0.383623 35.000000
2.599936 -1.962214 -0.385076 42.000000
2.582847 -1.992975 -0.384660 35.000000
2.572586 -2.030576 -0.385410 26.000000
2.577277 -2.080609 -0.388581 26.000000
2.562037 -2.115124 -0.388726 24.000000
2.553941 -2.156114 -0.390023 26.000000
2.556537 -2.206763 -0.393042 28.000000
2.536708 -2.237233 -0.392477 20.000000
2.537903 -2.288259 -0.395461 13.000000
2.490794 -2.295881 -0.390868 11.000000
2.386075 -2.248205 -0.377252 11.000000
2.293422 -2.208817 -0.365316 10.000000
2.134552 -2.101520 -0.342647 10.000000
2.069438 -2.082604 -0.334836 10.000000
1.992092 -2.047455 -0.324631 17.000000
1.897697 -1.993643 -0.311845 13.000000
1.825014 -1.959813 -0.302414 13.000000
1.739972 -1.909930 -0.290881 16.000000
1.672743 -1.877039 -0.282123 14.000000
1.616288 -1.854060 -0.275084 16.000000
1.579849 -1.852828 -0.271408 20.000000
1.559587 -1.870024 -0.270511 26.000000
1.532893 -1.879295 -0.268439 29.000000
1.507033 -1.887536 -0.266374 26.000000
1.489476 -1.907843 -0.265957 27.000000
1.465653 -1.920091 -0.264446 28.000000
1.459604 -1.955953 -0.266193 26.000000
1.444035 -1.979944 -0.266299 24.000000
1.428216 -2.003762 -0.266398 18.000000
1.409153 -2.023325 -0.265952 24.000000
1.398239 -2.055130 -0.267105 27.000000
1.378637 -2.074453 -0.266569 25.000000
1.353226 -2.085342 -0.265045 24.000000
1.333151 -2.104267 -0.264505 22.000000
1.325831 -2.144167 -0.266590 23.000000
1.311497 -2.170551 -0.267000 21.000000
1.300466 -2.206211 -0.268517 7.000000
0.903987 1.552494 -0.174892 7.000000
0.902933 1.512559 -0.172149 22.000000
0.916757 1.498322 -0.172309 23.000000
0.940899 1.500843 -0.174426 30.000000
0.950900 1.482634 -0.174202 29.000000
0.977923 1.488735 -0.176771 26.000000
0.991316 1.473791 -0.176931 36.000000
1.004455 1.458798 -0.177087 31.000000
1.028860 1.459862 -0.179237 35.000000
1.033051 1.432383 -0.177836 26.000000
1.048544 1.420953 -0.178432 30.000000
1.066924 1.413386 -0.179586 34.000000
1.094403 1.417346 -0.182208 32.000000
1.100536 1.393605 -0.181289 32.000000
1.121875 1.389197 -0.182907 33.000000
1.143273 1.384487 -0.184532 31.000000
1.167881 1.383273 -0.186621 33.000000
1.169879 1.355328 -0.185175 25.000000
1.183942 1.342969 -0.185834 37.000000
1.201883 1.333589 -0.186901 37.000000
1.219739 1.323971 -0.187971 32.000000
1.244328 1.321354 -0.190086 34.000000
1.262146 1.311236 -0.191165 35.000000
1.279818 1.300818 -0.192247 42.000000
1.297512 1.290212 -0.193276 36.000000
1.300858 1.265437 -0.192258 21.000000
1.325364 1.261350 -0.194343 58.000000
1.342253 1.250645 -0.195491 47.000000
1.366846 1.245828 -0.197591 66.000000
1.376701 1.227420 -0.197513 66.000000
1.393808 1.215460 -0.198556 48.000000
1.425945 1.216207 -0.201742 37.000000
1.442936 1.203629 -0.202739 46.000000
1.452177 1.184568 -0.202720 18.000000
1.472835 1.174717 -0.204258 35.000000
1.496967 1.168045 -0.206400 37.000000
1.525482 1.163607 -0.209032 35.000000
1.546115 1.152704 -0.210589 44.000000
1.566641 1.141447 -0.212091 36.000000
1.583068 1.127072 -0.213112 35.000000
1.603459 1.115267 -0.214622 56.000000
1.631773 1.109172 -0.217352 21.000000
1.643768 1.091181 -0.217776 37.000000
1.663921 1.078474 -0.219299 50.000000
1.688209 1.068058 -0.221377 41.000000
1.704030 1.052082 -0.222297 49.000000
1.732246 1.043956 -0.225000 40.000000
1.743549 1.024890 -0.225373 61.000000
1.784781 1.022997 -0.229691 39.000000
1.795899 1.003351 -0.230070 21.000000
1.824158 0.993082 -0.232676 47.000000
1.843524 0.977966 -0.234238 43.000000
1.858513 0.959995 -0.235117 35.000000
1.886612 0.948494 -0.237740 52.000000
1.914515 0.936801 -0.240370 45.000000
1.942606 0.924261 -0.243007 35.000000
1.975130 0.913413 -0.246148 37.000000
2.012011 0.904179 -0.249926 19.000000
2.026320 0.884079 -0.250829 32.000000
2.049551 0.867686 -0.252861 32.000000
2.104734 0.864271 -0.258855 34.000000
2.132492 0.848556 -0.261468 35.000000
2.155421 0.830722 -0.263521 36.000000
2.173671 0.810566 -0.264939 33.000000
2.205658 0.795333 -0.268136 33.000000
2.218848 0.772840 -0.268993 25.000000
2.260034 0.759741 -0.273267 35.000000
2.287139 0.741110 -0.275839 36.000000
2.337643 0.729540 -0.281269 34.000000
2.369178 0.711179 -0.284426 35.000000
2.410262 0.694899 -0.288655 60.000000
2.417583 0.668623 -0.288963 35.000000
2.472764 0.654987 -0.295000 36.000000
2.494124 0.631692 -0.296955 28.000000
2.539465 0.613838 -0.301782 42.000000
2.570168 0.591639 -0.304894 37.000000
2.600666 0.568911 -0.308010 35.000000
2.640762 0.547590 -0.312198 25.000000
2.670931 0.523617 -0.315324 21.000000
2.730174 0.504359 -0.321824 34.000000
2.769717 0.480533 -0.326113 32.000000
2.858155 0.463831 -0.336086 36.000000
2.897334 0.437891 -0.340302 72.000000
2.936355 0.411112 -0.344430 95.000000
2.975116 0.383491 -0.348653 95.000000
2.939713 0.346309 -0.344126 50.000000
2.933383 0.313242 -0.343152 18.000000
2.966309 0.284088 -0.346710 28.000000
2.939455 0.249162 -0.343334 40.000000
2.932087 0.216345 -0.342268 16.000000
2.914519 0.183122 -0.339955 9.000000
2.911354 0.151103 -0.339467 9.000000
2.907825 0.119103 -0.338889 8.000000
2.899059 0.087062 -0.337732 8.000000
2.914757 0.055802 -0.339556 8.000000
2.920082 0.024045 -0.340135 8.000000
2.930104 -0.007922 -0.341202 8.000000
2.924958 -0.039814 -0.340623 8.000000
2.939224 -0.071995 -0.342268 8.000000
2.918377 -0.103359 -0.339866 8.000000
2.917121 -0.135211 -0.339866 10.000000
2.984923 -0.171039 -0.347866 45.000000
2.977947 -0.203219 -0.347105 30.000000
2.921101 -0.231369 -0.340662 8.000000
2.943133 -0.265469 -0.343458 9.000000
2.949928 -0.298518 -0.344430 8.000000
2.976171 -0.333998 -0.347708 9.000000
2.972399 -0.366386 -0.347524 9.000000
2.948569 -0.396128 -0.345036 13.000000
2.993240 -0.435451 -0.350610 33.000000
3.017757 -0.472586 -0.353783 46.000000
3.007603 -0.504702 -0.352926 33.000000
3.021444 -0.540901 -0.355037 95.000000
2.995892 -0.570097 -0.352458 95.000000
2.950662 -0.594756 -0.347496 95.000000
2.987727 -0.636246 -0.352375 98.000000
2.961209 -0.664459 -0.349803 93.000000
2.949010 -0.695483 -0.348952 95.000000
2.922090 -0.722824 -0.346294 68.000000
2.890001 -0.748315 -0.343070 22.000000
2.900928 -0.784960 -0.344984 25.000000
2.944836 -0.831284 -0.350880 17.000000
2.964219 -0.871840 -0.353918 23.000000
2.954633 -0.904015 -0.353539 19.000000
2.973072 -0.945124 -0.356470 15.000000
2.962627 -0.977609 -0.356086 18.000000
2.980098 -1.019357 -0.359005 14.000000
2.954731 -1.046885 -0.356825 9.000000
2.971261 -1.089109 -0.359732 22.000000
2.987081 -1.132138 -0.362629 21.000000
2.965466 -1.160893 -0.360915 24.000000
3.003323 -1.213745 -0.366611 26.000000
2.999263 -1.250001 -0.367137 27.000000
2.999187 -1.288617 -0.368319 31.000000
3.007668 -1.331455 -0.370617 34.000000
2.988600 -1.361820 -0.369351 26.000000
2.991566 -1.402937 -0.370978 98.000000
2.967192 -1.431293 -0.369255 95.000000
2.951612 -1.463262 -0.368547 98.000000
2.926672 -1.491022 -0.366830 95.000000
2.901426 -1.518387 -0.365117 95.000000
2.884935 -1.549559 -0.364413 98.000000
2.859137 -1.576335 -0.362605 58.000000
2.811516 -1.590485 -0.358047 27.000000
2.802557 -1.626220 -0.358552 81.000000
2.780379 -1.654320 -0.357307 66.000000
2.758255 -1.681534 -0.355865 82.000000
2.739807 -1.711685 -0.355171 70.000000
2.720863 -1.741737 -0.354477 57.000000
2.714190 -1.779668 -0.355415 95.000000
2.690435 -1.806590 -0.354075 56.000000
2.617778 -1.798748 -0.346138 29.000000
2.622281 -1.844572 -0.348601 52.000000
2.630245 -1.893641 -0.351588 36.000000
2.621359 -1.931238 -0.352406 32.000000
2.620019 -1.974884 -0.354291 32.000000
2.613912 -2.015729 -0.355526 30.000000
2.647093 -2.086679 -0.361988 32.000000
2.620255 -2.112526 -0.360627 27.000000
2.585504 -2.131652 -0.358104 10.000000
2.592466 -2.185572 -0.361418 17.000000
2.579620 -2.223721 -0.361962 10.000000
2.592464 -2.284817 -0.366292 9.000000
2.600576 -2.343086 -0.370068 10.000000
2.520039 -2.321023 -0.361132 9.000000
2.423002 -2.279475 -0.349526 16.000000
2.290361 -2.202608 -0.332877 13.000000
2.156240 -2.119502 -0.315801 9.000000
2.097964 -2.107819 -0.309694 16.000000
2.005396 -2.059460 -0.298455 18.000000
1.921069 -2.016516 -0.288306 19.000000
1.844766 -1.979238 -0.279155 18.000000
1.762697 -1.933252 -0.269036 21.000000
1.695234 -1.900469 -0.261094 21.000000
1.636047 -1.873245 -0.253983 20.000000
1.573521 -1.841855 -0.246562 17.000000
1.563026 -1.870398 -0.247258 25.000000
1.517356 -1.856629 -0.242412 29.000000
1.509480 -1.888649 -0.243534 32.000000
1.476610 -1.889358 -0.240721 32.000000
1.468100 -1.921278 -0.241828 29.000000
1.453069 -1.945194 -0.241930 30.000000
1.434781 -1.964999 -0.241530 28.000000
1.416182 -1.984644 -0.241127 21.000000
1.391728 -1.995964 -0.239740 27.000000
1.392352 -2.043937 -0.242752 26.000000
1.375570 -2.067314 -0.242815 29.000000
1.344898 -2.069795 -0.240371 26.000000
1.331560 -2.096248 -0.240759 27.000000
1.319208 -2.127557 -0.241768 28.000000
1.298529 -2.146168 -0.241249 26.000000
1.254910 -2.125952 -0.236436 9.000000
0.898168 1.540302 -0.157379 7.000000
0.902052 1.508987 -0.155773 18.000000
0.915825 1.494829 -0.155977 24.000000
0.937288 1.493113 -0.157403 29.000000
0.950799 1.478608 -0.157551 29.000000
0.969535 1.472263 -0.158591 30.000000
0.984660 1.462162 -0.159240 30.000000
1.003313 1.455405 -0.160231 31.000000
1.021946 1.448423 -0.161280 29.000000
1.025933 1.421030 -0.160005 24.000000
1.047264 1.417707 -0.161508 24.000000
1.062605 1.406201 -0.162048 31.000000
1.086972 1.406298 -0.163966 28.000000
1.096049 1.386502 -0.163589 29.000000
1.117314 1.382220 -0.165056 33.000000
1.141809 1.381421 -0.166992 33.000000
1.163232 1.376446 -0.168417 32.000000
1.171582 1.356097 -0.168036 28.000000
1.183008 1.339457 -0.168062 31.000000
1.197525 1.326420 -0.168555 40.000000
1.225435 1.327850 -0.170987 36.000000
1.246055 1.322134 -0.172486 36.000000
1.260424 1.308377 -0.172987 36.000000
1.278118 1.298056 -0.173964 33.000000
1.295722 1.287434 -0.174887 34.000000
1.306154 1.269685 -0.174913 26.000000
1.327161 1.262136 -0.176318 49.000000
1.340862 1.247537 -0.176824 51.000000
1.361755 1.239412 -0.178236 44.000000
1.378965 1.227703 -0.179171 39.000000
1.392269 1.212532 -0.179624 53.000000
1.416824 1.206814 -0.181533 36.000000
1.444839 1.204437 -0.183936 51.000000
1.457875 1.188517 -0.184397 24.000000
1.474686 1.175527 -0.185290 45.000000
1.499240 1.168394 -0.187223 63.000000
1.519863 1.157930 -0.188613 34.000000
1.544374 1.150087 -0.190500 38.000000
1.564880 1.138936 -0.191900 38.000000
1.573171 1.118780 -0.191821 35.000000
1.597267 1.110427 -0.193722 37.000000
1.613435 1.095621 -0.194636 26.000000
1.633631 1.083356 -0.195990 35.000000
1.657882 1.073492 -0.197906 35.000000
1.682129 1.063232 -0.199768 35.000000
1.702072 1.049901 -0.201135 51.000000
1.721759 1.036693 -0.202567 59.000000
1.737268 1.020286 -0.203439 51.000000
1.778548 1.018495 -0.207270 37.000000
1.780862 0.994095 -0.206639 30.000000
1.813409 0.986461 -0.209476 42.000000
1.837105 0.973820 -0.211436 65.000000
1.860890 0.960509 -0.213275 45.000000
1.880122 0.944547 -0.214611 48.000000
1.908195 0.932629 -0.216966 45.000000
1.940691 0.922390 -0.219836 37.000000
1.964058 0.907622 -0.221695 33.000000
1.996503 0.896301 -0.224579 28.000000
2.019849 0.880444 -0.226380 32.000000
2.052080 0.868232 -0.229346 38.000000
2.079851 0.853293 -0.231669 42.000000
2.121376 0.843396 -0.235537 35.000000
2.144265 0.825715 -0.237429 35.000000
2.167058 0.807449 -0.239255 34.000000
2.194358 0.790708 -0.241599 31.000000
2.216965 0.771566 -0.243433 32.000000
2.248820 0.755211 -0.246230 35.000000
2.285214 0.739947 -0.249622 37.000000
2.307343 0.719404 -0.251395 42.000000
2.348325 0.704339 -0.255316 47.000000
2.389297 0.688400 -0.259247 34.000000
2.425381 0.670255 -0.262512 39.000000
2.446906 0.647667 -0.264379 30.000000
2.506848 0.634448 -0.270331 34.000000
2.523260 0.609488 -0.271530 43.000000
2.553943 0.587423 -0.274372 36.000000
2.598998 0.568095 -0.278700 45.000000
2.639124 0.546830 -0.282595 39.000000
2.644913 0.518132 -0.282760 22.000000
2.709051 0.500101 -0.289190 26.000000
2.743689 0.475610 -0.292493 28.000000
2.846899 0.461710 -0.303116 35.000000
2.891012 0.436586 -0.307476 71.000000
2.915286 0.407849 -0.309749 68.000000
2.993506 0.385581 -0.317690 80.000000
3.027211 0.356374 -0.320923 95.000000
3.020970 0.322393 -0.319969 68.000000
3.004528 0.287495 -0.317967 43.000000
2.997582 0.253960 -0.317012 31.000000
3.010085 0.222012 -0.318153 34.000000
2.992457 0.187885 -0.316148 30.000000
2.964504 0.153768 -0.313002 9.000000
2.956116 0.121023 -0.311954 8.000000
2.962175 0.088942 -0.312569 8.000000
2.962994 0.056657 -0.312569 8.000000
2.958476 0.024332 -0.312045 8.000000
2.958567 -0.007899 -0.311954 8.000000
2.963267 -0.040197 -0.312478 8.000000
2.992455 -0.073303 -0.315532 8.000000
2.981598 -0.105560 -0.314484 9.000000
2.990159 -0.138430 -0.315440 21.000000
3.008362 -0.172176 -0.317444 32.000000
3.006328 -0.205002 -0.317351 9.000000
3.008881 -0.238128 -0.317690 7.000000
2.986293 -0.269131 -0.315504 9.000000
3.017888 -0.305112 -0.318980 12.000000
3.014351 -0.337968 -0.318887 27.000000
3.035211 -0.373865 -0.321313 37.000000
3.045774 -0.408882 -0.322692 68.000000
3.046074 -0.442696 -0.323026 70.000000
3.055806 -0.478155 -0.324306 81.000000
3.030874 -0.508085 -0.322032 45.000000
3.034912 -0.542841 -0.322885 95.000000
2.965349 -0.563783 -0.315837 98.000000
2.915268 -0.587178 -0.310880 103.000000
2.957339 -0.629189 -0.315801 95.000000
2.930970 -0.657031 -0.313447 94.000000
2.904236 -0.684448 -0.311096 90.000000
2.911120 -0.719522 -0.312376 85.000000
2.802100 -0.725013 -0.301142 27.000000
2.861320 -0.773556 -0.308022 24.000000
2.991486 -0.843906 -0.322723 19.000000
2.996550 -0.880538 -0.323889 21.000000
3.029677 -0.926107 -0.328142 21.000000
3.009894 -0.956143 -0.326724 17.000000
3.018323 -0.994927 -0.328295 17.000000
3.026130 -1.034220 -0.329957 16.000000
3.028717 -1.072264 -0.331103 10.000000
3.040338 -1.113542 -0.333169 22.000000
3.046725 -1.153766 -0.334816 26.000000
3.048029 -1.192083 -0.335847 32.000000
3.057938 -1.234627 -0.337894 48.000000
3.062647 -1.275560 -0.339423 91.000000
3.048704 -1.308637 -0.338914 95.000000
3.011607 -1.331758 -0.335869 64.000000
2.996859 -1.364587 -0.335263 61.000000
2.977505 -1.394801 -0.334151 95.000000
2.962175 -1.427278 -0.333647 98.000000
2.937525 -1.455137 -0.332034 98.000000
2.917104 -1.484958 -0.331028 98.000000
2.887513 -1.509870 -0.328919 95.000000
2.857972 -1.533796 -0.326716 95.000000
2.836701 -1.562634 -0.325619 61.000000
2.797861 -1.581288 -0.322527 33.000000
2.797729 -1.621826 -0.323929 79.000000
2.767046 -1.644748 -0.321841 77.000000
2.749276 -1.674464 -0.321052 70.000000
2.730815 -1.704476 -0.320459 80.000000
2.716249 -1.736971 -0.320262 75.000000
2.697165 -1.766635 -0.319570 58.000000
2.706612 -1.815502 -0.322323 30.000000
2.678420 -1.839452 -0.320641 29.000000
2.674877 -1.879491 -0.321803 33.000000
2.674425 -1.923190 -0.323444 36.000000
2.661329 -1.958382 -0.323712 31.000000
2.667577 -2.008413 -0.326306 29.000000
2.653347 -2.043564 -0.326559 24.000000
2.642585 -2.081865 -0.327190 16.000000
2.662314 -2.145093 -0.331675 9.000000
2.650250 -2.183624 -0.332281 9.000000
2.634597 -2.218146 -0.332189 9.000000
2.647925 -2.279443 -0.336132 9.000000
2.634068 -2.318230 -0.336708 9.000000
2.645574 -2.380242 -0.340502 9.000000
2.586526 -2.378721 -0.335247 9.000000
2.444299 -2.297849 -0.319229 13.000000
2.336551 -2.245263 -0.307441 10.000000
2.201825 -2.162564 -0.291949 10.000000
2.111331 -2.119585 -0.282086 15.000000
2.025590 -2.078432 -0.272836 14.000000
1.934110 -2.028435 -0.262618 18.000000
1.851566 -1.983209 -0.253390 14.000000
1.786213 -1.955548 -0.246534 22.000000
1.718420 -1.922977 -0.239256 23.000000
1.641689 -1.877985 -0.230639 17.000000
1.601786 -1.873093 -0.227122 13.000000
1.558955 -1.863732 -0.223165 26.000000
1.538552 -1.880709 -0.222421 28.000000
1.508669 -1.885725 -0.220239 32.000000
1.481959 -1.894236 -0.218594 29.000000
1.455272 -1.902393 -0.216882 32.000000
1.443448 -1.930210 -0.217496 30.000000
1.422400 -1.945867 -0.216683 26.000000
1.406920 -1.969406 -0.216763 19.000000
1.391190 -1.992776 -0.216836 26.000000
1.389091 -2.036694 -0.219115 23.000000
1.368093 -2.050969 -0.218134 27.000000
1.345736 -2.065773 -0.217303 24.000000
1.333920 -2.097161 -0.218221 28.000000
1.313705 -2.115860 -0.217743 26.000000
1.290665 -2.130127 -0.216904 23.000000
1.307952 -2.212699 -0.222900 9.000000
0.894726 1.532295 -0.140584 7.000000
0.911348 1.522408 -0.141072 14.000000
0.914777 1.491172 -0.139627 19.000000
0.946865 1.506421 -0.142558 13.000000
0.949663 1.475010 -0.141099 25.000000
0.971102 1.472911 -0.142386 17.000000
0.989012 1.466888 -0.143385 26.000000
0.999222 1.447798 -0.143062 24.000000
1.026397 1.453091 -0.145227 16.000000
1.030463 1.425660 -0.144085 25.000000
1.045868 1.414348 -0.144570 19.000000
1.064225 1.406796 -0.145465 19.000000
1.085502 1.403010 -0.146776 29.000000
1.100712 1.391060 -0.147265 17.000000
1.112625 1.375072 -0.147339 25.000000
1.133874 1.370508 -0.148659 26.000000
1.151963 1.361838 -0.149513 18.000000
1.166712 1.349164 -0.150004 27.000000
1.174698 1.328916 -0.149601 22.000000
1.199113 1.327077 -0.151355 30.000000
1.213520 1.313876 -0.151793 28.000000
1.238023 1.311377 -0.153503 24.000000
1.259137 1.304959 -0.154796 33.000000
1.276798 1.294621 -0.155666 29.000000
1.293867 1.284597 -0.156595 22.000000
1.297054 1.259943 -0.155700 30.000000
1.321567 1.255947 -0.157433 26.000000
1.342546 1.248154 -0.158687 35.000000
1.352394 1.230035 -0.158703 33.000000
1.373165 1.221761 -0.159962 25.000000
1.382695 1.203345 -0.159922 35.000000
1.418479 1.207499 -0.162929 32.000000
1.439260 1.198236 -0.164202 31.000000
1.456146 1.185546 -0.165041 29.000000
1.468975 1.169554 -0.165386 21.000000
1.485618 1.156448 -0.166229 29.000000
1.513638 1.152540 -0.168396 32.000000
1.538155 1.144790 -0.170071 25.000000
1.554578 1.130800 -0.170925 35.000000
1.570888 1.116605 -0.171722 27.000000
1.595265 1.107825 -0.173410 27.000000
1.611407 1.093125 -0.174213 30.000000
1.627432 1.078156 -0.174957 28.000000
1.639095 1.060271 -0.175316 27.000000
1.675783 1.058220 -0.178303 31.000000
1.699734 1.048024 -0.180076 29.000000
1.723855 1.037062 -0.181731 34.000000
1.735074 1.018076 -0.182039 31.000000
1.776363 1.016400 -0.185507 29.000000
1.787338 0.996896 -0.185820 30.000000
1.802437 0.979707 -0.186587 29.000000
1.821673 0.964880 -0.187872 30.000000
1.854223 0.956330 -0.190460 35.000000
1.877866 0.942700 -0.192082 30.000000
1.892450 0.924344 -0.192860 33.000000
1.924942 0.914307 -0.195400 32.000000
1.970768 0.910174 -0.199385 24.000000
1.980615 0.888619 -0.199651 28.000000
2.008386 0.874884 -0.201752 26.000000
2.036129 0.860684 -0.203857 27.000000
2.072914 0.849930 -0.206955 31.000000
2.114434 0.840139 -0.210383 28.000000
2.132792 0.820633 -0.211584 30.000000
2.160210 0.804259 -0.213640 30.000000
2.173442 0.782561 -0.214385 20.000000
2.224188 0.773490 -0.218832 32.000000
2.241783 0.752552 -0.219975 31.000000
2.268847 0.734185 -0.222046 30.000000
2.290927 0.713851 -0.223658 29.000000
2.346189 0.703211 -0.228598 29.000000
2.377616 0.684497 -0.231073 30.000000
2.413688 0.666589 -0.234093 32.000000
2.435187 0.644081 -0.235721 13.000000
2.485494 0.628584 -0.240149 30.000000
2.506691 0.605055 -0.241706 31.000000
2.537351 0.583204 -0.244199 28.000000
2.577539 0.563028 -0.247710 32.000000
2.603022 0.539003 -0.249742 29.000000
2.613611 0.511604 -0.250373 10.000000
2.653266 0.489517 -0.253814 8.000000
2.761394 0.478416 -0.263734 9.000000
2.815600 0.456312 -0.268594 33.000000
2.859787 0.431566 -0.272521 33.000000
2.908678 0.406651 -0.276833 36.000000
2.982029 0.383859 -0.283494 60.000000
3.035429 0.357142 -0.288375 77.000000
3.054026 0.325654 -0.289784 50.000000
3.057321 0.292420 -0.289878 56.000000
3.035533 0.256992 -0.287622 10.000000
3.053041 0.225032 -0.289126 29.000000
3.045357 0.191188 -0.288186 26.000000
3.047322 0.157983 -0.288279 23.000000
3.009029 0.123149 -0.284517 9.000000
2.995303 0.089929 -0.283106 7.000000
3.005991 0.057510 -0.284047 7.000000
3.021384 0.024822 -0.285457 8.000000
3.006544 -0.008018 -0.284047 7.000000
3.021199 -0.040938 -0.285365 10.000000
3.045526 -0.074520 -0.287715 16.000000
3.034549 -0.107320 -0.286682 29.000000
3.068054 -0.141973 -0.289878 50.000000
3.041417 -0.173974 -0.287435 27.000000
3.039362 -0.207032 -0.287342 28.000000
3.036934 -0.240183 -0.287249 16.000000
3.049100 -0.274580 -0.288563 26.000000
3.075625 -0.310708 -0.291189 35.000000
3.072025 -0.344158 -0.291094 31.000000
3.073080 -0.378215 -0.291373 37.000000
3.088544 -0.414270 -0.293151 95.000000
3.069085 -0.445747 -0.291461 72.000000
3.059128 -0.478345 -0.290898 77.000000
3.024355 -0.506628 -0.287810 34.000000
2.979512 -0.532520 -0.283887 20.000000
2.968591 -0.563968 -0.283235 24.000000
2.981813 -0.600222 -0.284821 60.000000
2.955716 -0.628432 -0.282679 58.000000
2.914764 -0.652863 -0.279144 82.000000
2.892903 -0.681208 -0.277566 56.000000
2.875676 -0.710249 -0.276364 42.000000
2.795569 -0.722699 -0.269043 36.000000
2.840382 -0.767427 -0.273875 22.000000
2.966073 -0.835994 -0.286567 13.000000
3.052352 -0.896351 -0.295534 10.000000
3.042504 -0.929405 -0.295144 10.000000
3.046502 -0.966977 -0.296137 13.000000
3.083112 -1.015765 -0.300452 10.000000
3.081392 -1.052312 -0.300974 11.000000
3.088491 -1.092483 -0.302413 20.000000
3.085895 -1.129239 -0.302829 29.000000
3.101449 -1.173345 -0.305175 53.000000
3.093078 -1.208999 -0.305227 62.000000
3.075128 -1.240823 -0.304362 70.000000
3.066209 -1.275865 -0.304311 95.000000
3.024708 -1.297471 -0.301069 49.000000
3.001277 -1.326326 -0.299756 42.000000
2.977633 -1.354882 -0.298345 69.000000
2.958386 -1.384851 -0.297390 58.000000
2.952144 -1.421302 -0.297795 95.000000
2.918631 -1.444696 -0.295486 62.000000
2.893887 -1.471915 -0.294084 87.000000
2.877670 -1.503452 -0.293488 95.000000
2.830634 -1.517919 -0.289746 35.000000
2.822727 -1.553527 -0.290151 40.000000
2.796876 -1.579333 -0.288663 42.000000
2.762317 -1.599859 -0.286384 33.000000
2.761839 -1.640156 -0.287581 63.000000
2.718207 -1.654735 -0.284321 31.000000
2.713042 -1.691696 -0.284970 29.000000
2.736498 -1.748091 -0.288812 29.000000
2.721365 -1.780664 -0.288657 22.000000
2.722523 -1.824219 -0.290265 20.000000
2.731192 -1.873661 -0.292642 22.000000
2.702441 -1.897769 -0.291155 18.000000
2.705767 -1.944649 -0.293075 21.000000
2.664369 -1.959497 -0.290277 10.000000
2.686569 -2.021519 -0.294365 9.000000
2.696524 -2.074346 -0.297020 9.000000
2.701103 -2.125296 -0.299327 8.000000
2.693253 -2.167268 -0.300321 8.000000
2.707891 -2.228252 -0.303789 8.000000
2.725326 -2.293071 -0.307772 8.000000
2.726559 -2.345597 -0.309904 9.000000
2.708261 -2.381922 -0.309989 9.000000
2.689599 -2.418080 -0.309959 8.000000
2.633667 -2.420358 -0.305667 8.000000
2.494589 -2.343323 -0.291631 8.000000
2.393336 -2.298115 -0.281904 9.000000
2.215236 -2.174074 -0.262942 9.000000
2.139541 -2.144458 -0.255776 9.000000
2.056903 -2.107043 -0.247813 10.000000
1.944343 -2.035728 -0.236221 10.000000
1.857463 -1.987765 -0.227528 10.000000
1.798735 -1.967474 -0.222209 12.000000
1.717390 -1.920133 -0.214102 10.000000
1.686562 -1.927500 -0.212154 10.000000
1.600736 -1.870139 -0.203220 10.000000
1.548318 -1.849267 -0.198368 10.000000
1.534397 -1.873817 -0.198520 22.000000
1.495312 -1.867090 -0.195410 21.000000
1.474951 -1.883276 -0.194678 20.000000
1.451340 -1.895286 -0.193614 27.000000
1.433643 -1.914990 -0.193286 21.000000
1.427485 -1.950627 -0.194633 19.000000
1.400446 -1.957987 -0.193094 16.000000
1.390494 -1.989510 -0.193950 17.000000
1.374492 -2.012753 -0.194000 24.000000
1.361979 -2.039289 -0.194365 18.000000
1.342480 -2.058254 -0.194007 20.000000
1.317385 -2.068568 -0.192788 18.000000
1.315918 -2.116623 -0.195160 16.000000
1.295463 -2.135152 -0.194786 17.000000
1.269684 -2.144852 -0.193558 7.000000
0.913870 1.562923 -0.127008 6.000000
0.902612 1.505786 -0.123643 10.000000
0.928405 1.513445 -0.125591 17.000000
0.944810 1.503233 -0.126025 21.000000
0.955707 1.484471 -0.125804 17.000000
0.985475 1.494756 -0.128019 23.000000
0.993319 1.471509 -0.127438 21.000000
1.014905 1.468796 -0.128591 20.000000
1.036560 1.465796 -0.129749 26.000000
1.034841 1.430185 -0.128018 10.000000
1.056277 1.426857 -0.129230 23.000000
1.068694 1.411257 -0.129301 26.000000
1.087023 1.403499 -0.130045 21.000000
1.105275 1.395457 -0.130846 26.000000
1.117226 1.379435 -0.130914 23.000000
1.138525 1.374893 -0.132087 24.000000
1.163103 1.373801 -0.133579 27.000000
1.184502 1.368561 -0.134762 10.000000
1.176165 1.329405 -0.132544 35.000000
1.200593 1.327570 -0.134099 32.000000
1.221768 1.321691 -0.135232 27.000000
1.239514 1.311930 -0.135993 32.000000
1.260637 1.305459 -0.137133 29.000000
1.271298 1.288081 -0.137144 29.000000
1.295878 1.284652 -0.138669 32.000000
1.306205 1.266885 -0.138624 12.000000
1.326690 1.259882 -0.139831 35.000000
1.347715 1.252109 -0.140988 35.000000
1.361284 1.237244 -0.141325 29.000000
1.378410 1.225636 -0.142047 52.000000
1.395496 1.213721 -0.142827 33.000000
1.423817 1.211300 -0.144711 35.000000
1.440809 1.198810 -0.145441 36.000000
1.457700 1.186121 -0.146173 18.000000
1.470528 1.170071 -0.146518 37.000000
1.502913 1.169210 -0.148752 35.000000
1.515561 1.152715 -0.149102 29.000000
1.544094 1.147940 -0.150958 35.000000
1.560554 1.133907 -0.151703 31.000000
1.576901 1.119668 -0.152391 32.000000
1.592837 1.105578 -0.153140 34.000000
1.600701 1.085270 -0.153102 21.000000
1.624891 1.075942 -0.154584 35.000000
1.653267 1.068928 -0.156467 35.000000
1.677484 1.058766 -0.157898 32.000000
1.693205 1.042979 -0.158599 51.000000
1.730099 1.039815 -0.161293 38.000000
1.736985 1.018322 -0.161203 36.000000
1.756674 1.004282 -0.162249 55.000000
1.776035 0.990179 -0.163359 24.000000
1.791060 0.973135 -0.164072 33.000000
1.836846 0.972190 -0.167536 51.000000
1.856141 0.956649 -0.168595 32.000000
1.879798 0.943022 -0.170060 50.000000
1.889972 0.922481 -0.170317 35.000000
1.922399 0.912496 -0.172596 35.000000
1.963781 0.906330 -0.175690 37.000000
1.978063 0.886913 -0.176360 20.000000
1.996760 0.869252 -0.177371 32.000000
2.024457 0.855205 -0.179264 37.000000
2.052054 0.840690 -0.181094 34.000000
2.079544 0.825843 -0.182995 37.000000
2.116289 0.813829 -0.185649 44.000000
2.153059 0.801137 -0.188308 30.000000
2.185015 0.786076 -0.190564 32.000000
2.179285 0.757490 -0.189620 12.000000
2.229929 0.748015 -0.193522 37.000000
2.271113 0.734404 -0.196538 71.000000
2.293133 0.714218 -0.197989 35.000000
2.343743 0.702081 -0.201911 35.000000
2.375178 0.683423 -0.204119 39.000000
2.401657 0.662918 -0.205994 35.000000
2.442397 0.645586 -0.209032 51.000000
2.449283 0.619129 -0.209264 19.000000
2.518829 0.607550 -0.214709 54.000000
2.549538 0.585754 -0.217014 54.000000
2.575259 0.562208 -0.218748 40.000000
2.610427 0.540257 -0.221393 43.000000
2.630811 0.514719 -0.222798 15.000000
2.665630 0.491489 -0.225449 8.000000
2.710137 0.469321 -0.228849 8.000000
2.749451 0.445334 -0.231922 8.000000
2.823120 0.425798 -0.237817 32.000000
2.886795 0.403384 -0.242887 79.000000
2.940409 0.378321 -0.247130 37.000000
2.964198 0.348600 -0.248883 15.000000
3.037126 0.323729 -0.254793 57.000000
3.075213 0.293936 -0.257797 93.000000
3.103065 0.262642 -0.259972 95.000000
3.135551 0.230983 -0.262467 39.000000
3.137861 0.196899 -0.262564 69.000000
3.144763 0.162976 -0.262980 95.000000
3.141424 0.128538 -0.262564 65.000000
3.112698 0.093365 -0.260067 20.000000
3.098611 0.059224 -0.258819 10.000000
3.123998 0.025736 -0.260899 25.000000
3.144024 -0.008377 -0.262564 64.000000
3.108860 -0.042085 -0.259556 51.000000
3.103212 -0.075860 -0.259140 65.000000
3.117200 -0.110135 -0.260292 75.000000
3.115767 -0.144044 -0.260197 86.000000
3.128972 -0.178807 -0.261443 95.000000
3.131831 -0.213217 -0.261763 61.000000
3.124365 -0.246855 -0.261252 32.000000
3.131411 -0.281724 -0.261986 95.000000
3.118222 -0.314807 -0.260964 95.000000
3.119623 -0.349338 -0.261282 95.000000
3.086008 -0.379526 -0.258604 81.000000
3.057030 -0.409732 -0.256437 37.000000
3.027746 -0.439401 -0.254178 27.000000
2.973550 -0.464686 -0.249854 9.000000
2.928981 -0.490361 -0.246363 8.000000
2.894093 -0.516934 -0.243703 9.000000
2.883436 -0.547424 -0.243110 10.000000
2.911520 -0.585669 -0.245817 65.000000
2.895224 -0.615155 -0.244720 58.000000
2.873838 -0.643340 -0.243304 35.000000
2.881176 -0.677966 -0.244267 69.000000
2.854301 -0.704550 -0.242442 39.000000
2.807962 -0.725457 -0.238889 25.000000
2.795069 -0.754708 -0.238212 40.000000
2.906647 -0.818714 -0.248185 19.000000
3.098408 -0.909272 -0.265089 24.000000
3.150381 -0.961907 -0.270105 28.000000
3.154041 -1.000417 -0.270925 35.000000
3.161931 -1.040998 -0.272252 63.000000
3.145696 -1.073738 -0.271539 52.000000
3.129293 -1.105969 -0.270725 35.000000
3.103058 -1.134878 -0.269101 95.000000
3.109159 -1.175616 -0.270419 85.000000
3.068381 -1.198526 -0.267583 95.000000
3.064513 -1.235335 -0.267887 89.000000
3.037051 -1.262878 -0.266373 72.000000
3.009412 -1.290020 -0.264761 95.000000
2.990718 -1.320789 -0.263958 37.000000
2.957957 -1.345068 -0.261851 31.000000
2.947946 -1.378916 -0.261754 95.000000
2.923719 -1.406679 -0.260555 95.000000
2.917257 -1.442885 -0.260957 100.000000
2.883542 -1.465538 -0.258863 95.000000
2.867499 -1.496930 -0.258368 95.000000
2.842176 -1.523416 -0.257177 95.000000
2.812390 -1.547208 -0.255493 36.000000
2.756615 -1.555235 -0.251341 21.000000
2.773978 -1.605243 -0.254017 38.000000
2.769177 -1.642994 -0.254709 31.000000
2.797984 -1.701648 -0.258545 36.000000
2.779237 -1.732124 -0.257944 31.000000
2.785397 -1.778494 -0.259794 32.000000
2.778387 -1.817029 -0.260359 32.000000
2.770793 -1.855634 -0.261022 13.000000
2.738043 -1.877393 -0.259242 8.000000
2.762812 -1.938049 -0.262904 10.000000
2.765829 -1.985552 -0.264608 9.000000
2.764031 -2.030427 -0.265916 9.000000
2.785611 -2.093502 -0.269527 9.000000
2.790238 -2.145169 -0.271472 9.000000
2.805834 -2.206363 -0.274662 9.000000
2.797119 -2.249451 -0.275537 8.000000
2.780211 -2.286216 -0.275531 7.000000
2.758798 -2.319721 -0.275251 8.000000
2.759778 -2.372589 -0.277136 7.000000
2.771274 -2.435577 -0.280142 5.000000
2.714842 -2.439069 -0.276332 4.000000
2.673347 -2.455067 -0.274155 7.000000
2.555583 -2.398863 -0.263882 7.000000
2.375400 -2.277411 -0.246936 9.000000
2.247148 -2.201991 -0.235412 8.000000
2.156138 -2.159407 -0.227670 11.000000
2.062822 -2.111421 -0.219507 10.000000
1.994907 -2.086966 -0.214068 13.000000
1.897179 -2.028491 -0.205254 12.000000
1.817770 -1.986603 -0.198331 12.000000
1.742802 -1.946850 -0.191815 18.000000
1.682109 -1.920703 -0.186875 13.000000
1.609260 -1.878315 -0.180430 10.000000
1.566328 -1.869043 -0.177212 22.000000
1.539635 -1.878267 -0.175892 28.000000
1.497290 -1.867676 -0.172778 31.000000
1.473852 -1.880011 -0.171834 33.000000
1.453387 -1.895944 -0.171176 30.000000
1.432702 -1.911658 -0.170591 32.000000
1.405977 -1.919107 -0.169224 22.000000
1.405414 -1.962705 -0.171042 20.000000
1.375418 -1.965585 -0.169322 32.000000
1.370951 -2.005189 -0.170839 25.000000
1.360184 -2.036568 -0.171568 30.000000
1.332483 -2.042897 -0.170198 27.000000
1.320966 -2.074126 -0.170913 27.000000
1.306299 -2.101128 -0.171196 28.000000
1.287319 -2.118711 -0.170783 23.000000
1.302344 -2.197031 -0.175234 9.000000
0.904347 1.546632 -0.109503 7.000000
0.905715 1.510980 -0.108104 13.000000
0.927260 1.509573 -0.109150 26.000000
0.946277 1.503613 -0.109838 23.000000
0.962519 1.493184 -0.110218 27.000000
0.975957 1.478480 -0.110342 25.000000
0.991937 1.467755 -0.110721 22.000000
1.022003 1.477386 -0.112665 29.000000
1.035105 1.462108 -0.112735 24.000000
1.033318 1.426522 -0.111228 21.000000
1.045752 1.411201 -0.111289 28.000000
1.070103 1.411636 -0.112617 26.000000
1.085378 1.399882 -0.112996 33.000000
1.103591 1.391929 -0.113694 29.000000
1.118638 1.379815 -0.114075 29.000000
1.149498 1.386801 -0.116007 32.000000
1.158029 1.366573 -0.115748 27.000000
1.156485 1.335008 -0.114460 29.000000
1.174215 1.326050 -0.115163 36.000000
1.191918 1.316857 -0.115813 35.000000
1.219757 1.318469 -0.117444 35.000000
1.237467 1.308691 -0.118101 35.000000
1.258558 1.302260 -0.119087 34.000000
1.279694 1.295567 -0.120078 34.000000
1.300818 1.288554 -0.121071 35.000000
1.304015 1.263858 -0.120415 28.000000
1.320853 1.253462 -0.121136 35.000000
1.338098 1.242320 -0.121747 37.000000
1.358999 1.234341 -0.122749 61.000000
1.376092 1.222718 -0.123364 51.000000
1.400620 1.217390 -0.124708 70.000000
1.421447 1.208469 -0.125663 41.000000
1.438408 1.196079 -0.126286 32.000000
1.443656 1.173935 -0.125897 31.000000
1.468062 1.167427 -0.127196 40.000000
1.496493 1.163553 -0.128839 46.000000
1.524961 1.159160 -0.130488 43.000000
1.541504 1.145436 -0.131122 35.000000
1.557994 1.131389 -0.131757 40.000000
1.570245 1.114309 -0.131992 34.000000
1.586360 1.099952 -0.132630 34.000000
1.602418 1.085330 -0.133209 32.000000
1.622461 1.073309 -0.134193 35.000000
1.658963 1.072117 -0.136560 58.000000
1.679002 1.059252 -0.137493 50.000000
1.690419 1.040851 -0.137736 42.000000
1.710266 1.027466 -0.138672 43.000000
1.717010 1.006206 -0.138569 36.000000
1.745230 0.997292 -0.140204 33.000000
1.755992 0.978229 -0.140450 32.000000
1.784041 0.968563 -0.142030 59.000000
1.816519 0.960659 -0.144026 42.000000
1.840195 0.947707 -0.145329 55.000000
1.859307 0.932040 -0.146220 33.000000
1.900547 0.927306 -0.148933 45.000000
1.933040 0.917228 -0.150951 42.000000
1.947453 0.898239 -0.151500 34.000000
1.970752 0.883099 -0.152755 32.000000
1.993987 0.867529 -0.154013 35.000000
2.017085 0.851594 -0.155274 36.000000
2.049273 0.839004 -0.157245 42.000000
2.072054 0.822437 -0.158513 34.000000
2.108853 0.810528 -0.160848 38.000000
2.164237 0.804895 -0.164610 40.000000
2.191628 0.788048 -0.166175 30.000000
2.209530 0.767449 -0.167101 40.000000
2.231802 0.748303 -0.168386 49.000000
2.263596 0.731629 -0.170316 36.000000
2.290431 0.712883 -0.171891 52.000000
2.317174 0.693650 -0.173468 37.000000
2.367636 0.680969 -0.176913 37.000000
2.403717 0.663147 -0.179214 57.000000
2.425277 0.640723 -0.180443 32.000000
2.451371 0.619283 -0.182033 44.000000
2.482188 0.598437 -0.183984 46.000000
2.532259 0.581530 -0.187377 38.000000
2.562821 0.559260 -0.189256 46.000000
2.598062 0.537471 -0.191577 42.000000
2.593956 0.507227 -0.190938 10.000000
2.648337 0.488040 -0.194705 8.000000
2.673101 0.462686 -0.196230 7.000000
2.776454 0.449489 -0.203531 8.000000
2.800912 0.422256 -0.205061 9.000000
2.849783 0.397955 -0.208398 18.000000
2.908328 0.373960 -0.212461 40.000000
2.946855 0.346363 -0.215081 9.000000
3.019910 0.321710 -0.220235 10.000000
3.092660 0.295549 -0.225298 32.000000
3.190114 0.269884 -0.232267 29.000000
3.182910 0.234375 -0.231543 91.000000
3.185351 0.199707 -0.231543 79.000000
3.182324 0.164879 -0.231279 60.000000
3.163954 0.129353 -0.229831 32.000000
3.165214 0.094955 -0.229831 10.000000
3.151128 0.060176 -0.228745 16.000000
3.151514 0.025941 -0.228745 92.000000
3.146720 -0.008377 -0.228287 42.000000
3.186322 -0.043097 -0.231181 65.000000
3.165698 -0.077321 -0.229734 64.000000
3.194534 -0.112774 -0.231807 76.000000
3.193165 -0.147496 -0.231709 78.000000
3.211320 -0.183355 -0.233155 95.000000
3.214130 -0.218632 -0.233418 95.000000
3.176767 -0.250877 -0.230791 62.000000
3.139073 -0.282267 -0.228166 90.000000
3.120909 -0.314903 -0.226987 77.000000
3.087622 -0.345456 -0.224632 22.000000
3.024234 -0.371713 -0.220212 10.000000
3.000267 -0.401974 -0.218585 10.000000
2.985858 -0.433053 -0.217773 9.000000
2.946475 -0.460161 -0.215071 9.000000
2.911853 -0.487251 -0.212822 9.000000
2.876886 -0.513608 -0.210486 9.000000
2.900562 -0.550393 -0.212461 21.000000
2.889530 -0.580936 -0.211922 21.000000
2.839133 -0.602905 -0.208517 10.000000
2.832472 -0.633809 -0.208339 10.000000
2.854585 -0.671298 -0.210218 41.000000
2.837454 -0.699952 -0.209324 71.000000
2.791044 -0.720648 -0.206202 40.000000
2.792737 -0.753586 -0.206738 50.000000
2.923546 -0.823139 -0.216889 35.000000
3.101177 -0.909470 -0.230383 32.000000
3.186495 -0.972196 -0.237290 77.000000
3.190055 -1.011374 -0.238049 95.000000
3.159945 -1.039745 -0.236324 88.000000
3.139105 -1.070620 -0.235311 78.000000
