x y z intensity
2.091984 1.450247 -1.066586 57.000000
2.115287 1.430902 -1.072733 80.000000
2.146141 1.416286 -1.082606 62.000000
2.173087 1.398562 -1.090567 65.000000
2.188324 1.373053 -1.092621 55.000000
2.215001 1.354578 -1.100530 29.000000
2.237624 1.333299 -1.106332 24.000000
2.235789 1.298236 -1.100743 28.000000
2.226002 1.258330 -1.090773 29.000000
2.243774 1.234331 -1.094435 29.000000
2.252811 1.206239 -1.094506 27.000000
2.257557 1.175864 -1.092513 29.000000
2.254097 1.140938 -1.086052 22.000000
2.245663 1.104703 -1.078008 17.000000
2.269982 1.084528 -1.085615 19.000000
2.235806 1.036865 -1.065380 18.000000
2.242848 1.008926 -1.064950 24.000000
2.245316 0.979168 -1.062361 21.000000
2.200990 0.929733 -1.037850 23.000000
1.353708 0.500070 -0.630807 31.000000
1.371986 0.489014 -0.637592 95.000000
1.377227 0.473099 -0.638319 95.000000
1.377975 0.455697 -0.636989 98.000000
1.378498 0.438300 -0.635558 95.000000
1.378846 0.420955 -0.634124 98.000000
1.370142 0.401188 -0.628799 98.000000
1.365569 0.382912 -0.625383 98.000000
1.374150 0.368202 -0.627780 41.000000
1.378088 0.352305 -0.628302 95.000000
1.372857 0.334291 -0.624922 100.000000
1.376440 0.318354 -0.625346 98.000000
1.375275 0.301533 -0.623839 98.000000
1.374089 0.284627 -0.622142 95.000000
1.368116 0.266996 -0.618461 92.000000
1.375356 0.252090 -0.621049 98.000000
1.373561 0.235396 -0.619299 37.000000
1.376074 0.219479 -0.619531 95.000000
1.378355 0.203609 -0.619857 100.000000
1.380495 0.187740 -0.620136 98.000000
1.377871 0.171260 -0.618520 98.000000
1.375142 0.154838 -0.616625 98.000000
1.367627 0.138062 -0.612784 98.000000
1.364502 0.121857 -0.610931 105.000000
1.379395 0.107171 -0.617179 58.000000
2.181327 0.068561 -0.974147 32.000000
2.241251 0.044578 -1.000865 35.000000
2.236986 0.018692 -0.998901 29.000000
2.223364 -0.007059 -0.992786 23.000000
2.209520 -0.032495 -0.986522 18.000000
2.222770 -0.058259 -0.992414 22.000000
2.222027 -0.083896 -0.992340 19.000000
2.216426 -0.109308 -0.990080 21.000000
2.224281 -0.135374 -0.993856 22.000000
2.222643 -0.161063 -0.993782 12.000000
2.197954 -0.184766 -0.983305 19.000000
2.218547 -0.212294 -0.993186 27.000000
2.197999 -0.235885 -0.984602 25.000000
2.208874 -0.262910 -0.990408 24.000000
2.187857 -0.285882 -0.981610 22.000000
2.207304 -0.314308 -0.991250 22.000000
2.212836 -0.341167 -0.994714 28.000000
2.195349 -0.364492 -0.988253 10.000000
2.173264 -0.386630 -0.979620 16.000000
2.178045 -0.413245 -0.982788 22.000000
2.177938 -0.439310 -0.984147 24.000000
2.168424 -0.463568 -0.981604 24.000000
2.172313 -0.490522 -0.984760 24.000000
2.162291 -0.514580 -0.982071 20.000000
2.165604 -0.541569 -0.984995 23.000000
2.146371 -0.563105 -0.978126 10.000000
2.153169 -0.591608 -0.983506 18.000000
2.155489 -0.618930 -0.986490 21.000000
2.148760 -0.643753 -0.985368 21.000000
2.137211 -0.667212 -0.982462 19.000000
2.129750 -0.691984 -0.981492 19.000000
2.143838 -0.723934 -0.990397 24.000000
2.122877 -0.744112 -0.983259 24.000000
2.144859 -0.779569 -0.995985 10.000000
2.106244 -0.792960 -0.980711 18.000000
2.110445 -0.822152 -0.985271 21.000000
2.109756 -0.850154 -0.988125 24.000000
2.083658 -0.867321 -0.978655 20.000000
2.099342 -0.902367 -0.989298 20.000000
2.101974 -0.932265 -0.993805 18.000000
2.108353 -0.964290 -1.000352 22.000000
2.072872 -0.976894 -0.986944 10.000000
2.078666 -1.008901 -0.993244 19.000000
2.063504 -1.030794 -0.989584 21.000000
2.051937 -1.055000 -0.988205 20.000000
2.048654 -1.082966 -0.990374 24.000000
2.032846 -1.104303 -0.986490 19.000000
2.064753 -1.152767 -1.006494 21.000000
2.035922 -1.167764 -0.996950 15.000000
2.031328 -1.195703 -0.998750 10.000000
2.037754 -1.231362 -1.006689 16.000000
2.020270 -1.252679 -1.002852 17.000000
2.006492 -1.276221 -1.000962 17.000000
2.003982 -1.307162 -1.004723 22.000000
2.001149 -1.338135 -1.008460 20.000000
1.982687 -1.358785 -1.004381 17.000000
1.975375 -1.387144 -1.006003 18.000000
1.978953 -1.423528 -1.013364 10.000000
1.963484 -1.446409 -1.011028 14.000000
1.947773 -1.469128 -1.008611 16.000000
1.939220 -1.497337 -1.009924 18.000000
1.944161 -1.537516 -1.019149 23.000000
1.931155 -1.562836 -1.018428 18.000000
1.924393 -1.594638 -1.021811 22.000000
1.910786 -1.619714 -1.020979 20.000000
1.910200 -1.657595 -1.027916 10.000000
1.902936 -1.688735 -1.030632 22.000000
1.911543 -1.736120 -1.043100 27.000000
1.882903 -1.748579 -1.034354 56.000000
1.856818 -1.764419 -1.027925 73.000000
1.823963 -1.773458 -1.017800 37.000000
1.798644 -1.787730 -1.010836 61.000000
1.782157 -1.812288 -1.009933 54.000000
1.775095 -1.846644 -1.014376 35.000000
1.751564 -1.864189 -1.009598 40.000000
1.741542 -1.894356 -1.011645 48.000000
1.711449 -1.904556 -1.003136 69.000000
1.693709 -1.928113 -1.001849 71.000000
1.663500 -1.937516 -0.993300 36.000000
1.651335 -1.967797 -0.995543 74.000000
1.632854 -1.990825 -0.994065 44.000000
1.617045 -2.017312 -0.994370 34.000000
1.595066 -2.036332 -0.990988 31.000000
1.572918 -2.055099 -0.987607 34.000000
1.553485 -2.077354 -0.986002 33.000000
1.530959 -2.095647 -0.982445 34.000000
1.505545 -2.109876 -0.977209 32.000000
1.488074 -2.135225 -0.977174 36.000000
1.467717 -2.156573 -0.975277 32.000000
1.444430 -2.173911 -0.971622 30.000000
1.431262 -2.206643 -0.974919 27.000000
1.403503 -2.220312 -0.969763 29.000000
1.389518 -2.252781 -0.972903 30.000000
1.362914 -2.265195 -0.967313 30.000000
1.340980 -2.285312 -0.965158 27.000000
1.323456 -2.313473 -0.966399 33.000000
1.299095 -2.334108 -0.964463 28.000000
0.597711 1.081046 -0.436120 13.000000
0.646430 1.139428 -0.464620 15.000000
0.668898 1.147561 -0.473026 14.000000
0.717303 1.200173 -0.500136 17.000000
0.754665 1.231776 -0.518990 11.000000
0.797792 1.270577 -0.541369 20.000000
0.855483 1.327778 -0.572219 10.000000
0.885163 1.341156 -0.584629 10.000000
0.915295 1.353959 -0.597063 24.000000
0.935135 1.350792 -0.602684 24.000000
0.936042 1.320598 -0.596233 23.000000
0.939186 1.294256 -0.591401 22.000000
0.953079 1.283121 -0.593482 26.000000
0.952690 1.253181 -0.586780 24.000000
0.963248 1.238155 -0.587027 20.000000
0.939429 1.178708 -0.565917 15.000000
0.946191 1.160303 -0.564209 27.000000
0.952700 1.141891 -0.562527 25.000000
0.955296 1.120399 -0.559190 36.000000
0.967408 1.109056 -0.560921 31.000000
0.976315 1.094084 -0.560865 32.000000
0.975609 1.068747 -0.555376 34.000000
0.980829 1.050338 -0.553391 31.000000
0.963255 1.008377 -0.538771 25.000000
1.732750 1.657389 -0.938593 86.000000
1.767902 1.652692 -0.950165 47.000000
1.798931 1.644936 -0.960272 70.000000
1.834420 1.638999 -0.971857 38.000000
1.841915 1.608034 -0.968673 27.000000
1.855316 1.583828 -0.969475 55.000000
1.897750 1.582541 -0.984593 35.000000
1.918071 1.563557 -0.989046 66.000000
1.949919 1.552266 -0.998681 54.000000
1.970051 1.532581 -1.003004 36.000000
1.993771 1.515289 -1.009204 62.000000
2.014304 1.494321 -1.013054 34.000000
2.034071 1.473678 -1.017242 32.000000
2.068778 1.463402 -1.028964 93.000000
2.095901 1.447174 -1.036873 53.000000
2.107672 1.420166 -1.037166 67.000000
2.126869 1.398163 -1.041153 57.000000
2.157553 1.383309 -1.050838 50.000000
2.184280 1.365473 -1.058483 63.000000
2.214861 1.349598 -1.068054 36.000000
2.249370 1.335544 -1.079559 28.000000
2.263879 1.309203 -1.081373 31.000000
2.270079 1.278157 -1.079359 25.000000
2.295738 1.258741 -1.087177 28.000000
2.276994 1.214453 -1.073458 25.000000
2.289873 1.188267 -1.075420 22.000000
2.286445 1.153088 -1.069249 27.000000
2.286299 1.120576 -1.065238 16.000000
2.260787 1.076289 -1.049527 10.000000
2.293228 1.059777 -1.060780 24.000000
2.287778 1.025645 -1.054531 18.000000
2.294675 0.997328 -1.054084 22.000000
2.271399 0.956348 -1.039860 21.000000
2.234852 0.910859 -1.019760 20.000000
1.384068 0.473875 -0.622743 95.000000
1.389163 0.457863 -0.623423 95.000000
1.389680 0.440412 -0.622091 95.000000
1.394421 0.424353 -0.622672 98.000000
1.390189 0.405622 -0.619224 95.000000
1.398894 0.390853 -0.621865 98.000000
1.394113 0.372377 -0.618504 75.000000
1.398090 0.356326 -0.619031 92.000000
1.397410 0.339096 -0.617585 82.000000
1.392087 0.320937 -0.614018 91.000000
1.390970 0.303964 -0.612611 74.000000
1.394234 0.287881 -0.612895 100.000000
1.397261 0.271846 -0.613321 98.000000
1.395630 0.254891 -0.611720 86.000000
1.393745 0.238134 -0.610210 47.000000
1.391750 0.221340 -0.608463 86.000000
1.389504 0.204651 -0.606855 98.000000
1.396200 0.189299 -0.609119 98.000000
1.393613 0.172667 -0.607368 95.000000
1.390874 0.156093 -0.605523 98.000000
1.401587 0.141002 -0.609728 103.000000
2.204632 0.094459 -0.956334 29.000000
2.260536 0.070863 -0.980268 30.000000
2.256552 0.044819 -0.978505 23.000000
2.270689 0.018958 -0.984547 28.000000
2.257002 -0.007057 -0.978505 22.000000
2.265951 -0.033167 -0.982407 20.000000
2.242643 -0.058573 -0.972240 13.000000
2.273914 -0.085598 -0.986006 22.000000
2.263689 -0.111259 -0.981879 19.000000
2.248594 -0.136431 -0.975841 15.000000
2.247020 -0.162278 -0.975467 12.000000
2.226857 -0.186519 -0.967223 15.000000
2.270384 -0.216512 -0.986780 26.000000
2.249704 -0.240572 -0.978387 23.000000
2.237805 -0.265369 -0.974118 18.000000
2.252939 -0.293438 -0.981601 25.000000
2.240601 -0.318055 -0.977184 23.000000
2.227990 -0.342387 -0.972620 18.000000
2.228549 -0.368760 -0.974150 15.000000
2.201963 -0.390278 -0.963433 15.000000
2.211116 -0.418178 -0.968770 21.000000
2.210983 -0.444429 -0.970073 24.000000
2.196978 -0.468063 -0.965599 20.000000
2.196312 -0.494217 -0.966676 19.000000
2.186308 -0.518428 -0.963957 19.000000
2.180563 -0.543574 -0.963211 19.000000
2.187860 -0.572133 -0.968220 16.000000
2.168251 -0.593641 -0.961346 14.000000
2.179443 -0.623547 -0.968156 17.000000
2.172522 -0.648672 -0.967329 21.000000
2.156516 -0.670989 -0.962431 15.000000
2.162155 -0.700115 -0.967331 18.000000
2.167550 -0.729392 -0.972144 22.000000
2.176891 -0.760337 -0.978745 18.000000
2.172887 -0.786903 -0.979473 12.000000
2.129817 -0.798936 -0.962507 14.000000
2.142389 -0.831920 -0.971183 18.000000
2.159057 -0.866736 -0.981396 26.000000
2.136656 -0.886328 -0.974264 17.000000
2.148035 -0.920067 -0.982653 24.000000
2.133606 -0.943036 -0.979325 20.000000
2.114868 -0.963765 -0.973993 12.000000
2.112683 -0.992064 -0.976391 13.000000
2.122643 -1.026429 -0.984402 15.000000
2.111415 -1.050834 -0.982686 18.000000
2.111968 -1.081709 -0.987044 26.000000
2.100282 -1.105944 -0.985240 18.000000
2.104217 -1.139211 -0.991326 23.000000
2.087927 -1.160994 -0.987440 20.000000
2.070976 -1.182920 -0.983877 16.000000
2.069870 -1.214031 -0.987855 16.000000
2.064332 -1.242797 -0.989833 14.000000
2.058530 -1.271668 -0.991798 18.000000
2.052383 -1.300484 -0.993587 25.000000
2.038124 -1.324196 -0.991585 18.000000
2.031333 -1.352962 -0.993271 21.000000
2.035669 -1.389503 -1.000585 18.000000
2.020489 -1.412963 -0.998312 16.000000
2.023992 -1.449841 -1.005400 13.000000
1.982082 -1.453909 -0.989949 10.000000
1.984290 -1.491218 -0.997247 18.000000
1.975484 -1.519736 -0.998517 21.000000
1.970123 -1.551050 -1.001541 18.000000
1.959970 -1.580034 -1.003018 21.000000
1.957355 -1.614356 -1.007754 22.000000
1.953568 -1.649429 -1.012787 21.000000
1.957063 -1.689990 -1.020951 21.000000
1.938314 -1.712982 -1.018406 16.000000
1.919225 -1.735803 -1.015861 32.000000
1.887224 -1.744962 -1.005604 62.000000
1.844165 -1.744705 -0.990191 36.000000
1.824872 -1.766410 -0.987530 61.000000
1.806327 -1.787117 -0.984453 61.000000
1.776866 -1.798369 -0.976222 36.000000
1.766743 -1.829196 -0.978798 52.000000
1.743496 -1.846592 -0.974180 35.000000
1.739081 -1.884172 -0.980202 68.000000
1.721603 -1.907913 -0.978966 70.000000
1.685246 -1.910610 -0.967072 40.000000
1.667509 -1.933861 -0.965764 75.000000
1.644497 -1.949030 -0.960503 45.000000
1.623374 -1.968240 -0.957343 53.000000
1.604858 -1.990847 -0.955933 52.000000
1.587909 -2.017706 -0.956592 25.000000
1.557428 -2.025122 -0.948029 37.000000
1.541192 -2.050833 -0.948252 34.000000
1.524544 -2.076426 -0.948285 30.000000
1.507649 -2.101898 -0.948376 35.000000
1.482254 -2.115623 -0.943130 35.000000
1.467472 -2.144630 -0.944815 33.000000
1.439128 -2.153941 -0.937867 32.000000
1.431426 -2.194394 -0.944425 21.000000
1.401389 -2.203960 -0.937731 32.000000
1.380244 -2.224390 -0.935773 32.000000
1.366162 -2.256628 -0.938745 30.000000
1.344462 -2.276665 -0.936655 31.000000
1.323139 -2.301448 -0.936558 27.000000
1.303011 -2.325228 -0.936005 29.000000
0.627930 1.128100 -0.443058 10.000000
0.665712 1.165797 -0.462774 10.000000
0.687656 1.174175 -0.471182 10.000000
0.742302 1.234408 -0.500763 10.000000
0.772716 1.253789 -0.514303 10.000000
0.818798 1.296509 -0.537815 10.000000
0.873573 1.350139 -0.566425 10.000000
0.920151 1.386447 -0.588351 10.000000
0.950800 1.399002 -0.600598 18.000000
0.949614 1.364578 -0.592714 24.000000
0.953285 1.338039 -0.588128 14.000000
0.959240 1.315398 -0.585132 19.000000
0.964897 1.292792 -0.582099 13.000000
0.979551 1.280911 -0.583879 15.000000
0.978785 1.250841 -0.577327 13.000000
0.951097 1.188007 -0.555244 9.000000
0.957952 1.169569 -0.553634 22.000000
0.961488 1.147477 -0.550277 17.000000
0.973851 1.136136 -0.552029 21.000000
0.983026 1.121171 -0.551997 29.000000
0.988850 1.102596 -0.550213 20.000000
0.997641 1.087475 -0.550154 25.000000
0.993394 1.058672 -0.542982 21.000000
0.991876 1.033432 -0.537564 10.000000
1.691090 1.647630 -0.894939 35.000000
1.736119 1.653458 -0.911543 36.000000
1.781557 1.658414 -0.928143 35.000000
1.802340 1.641206 -0.932712 29.000000
1.841265 1.638479 -0.945769 41.000000
1.852188 1.610602 -0.944434 20.000000
1.869123 1.589333 -0.947082 30.000000
1.897381 1.576200 -0.954664 35.000000
1.914009 1.554406 -0.957166 29.000000
1.945805 1.543306 -0.966518 32.000000
1.965833 1.523712 -0.970776 33.000000
1.978987 1.497680 -0.970991 23.000000
2.013642 1.488662 -0.982398 33.000000
2.033916 1.467495 -0.986116 23.000000
2.057147 1.449414 -0.992086 33.000000
2.088074 1.436097 -1.001584 36.000000
2.099600 1.409307 -1.001904 32.000000
2.126369 1.392623 -1.009516 35.000000
2.157052 1.377920 -1.018916 41.000000
2.179817 1.357776 -1.024640 31.000000
2.206404 1.339691 -1.032065 35.000000
2.244879 1.328164 -1.045089 24.000000
2.263305 1.304412 -1.048838 32.000000
2.297706 1.289388 -1.059886 35.000000
2.315817 1.264830 -1.063489 22.000000
2.321001 1.233997 -1.061741 21.000000
2.318028 1.198402 -1.055797 22.000000
2.305903 1.159283 -1.046415 11.000000
2.318567 1.132341 -1.047860 15.000000
2.309714 1.095729 -1.040138 9.000000
2.304600 1.061365 -1.034189 12.000000
2.328651 1.040440 -1.041364 20.000000
2.322847 1.006261 -1.035307 10.000000
2.325165 0.975804 -1.032852 13.000000
2.297154 0.933273 -1.017104 17.000000
2.277083 0.894851 -1.005032 10.000000
1.435315 0.471569 -0.625000 91.000000
1.413926 0.446655 -0.614169 95.000000
1.401047 0.425030 -0.607096 80.000000
1.414511 0.411454 -0.611413 95.000000
1.409948 0.392767 -0.608257 93.000000
1.405282 0.374091 -0.604852 63.000000
1.413697 0.359126 -0.607303 90.000000
1.408535 0.340706 -0.603938 56.000000
1.412176 0.324512 -0.604369 69.000000
1.415578 0.308365 -0.604944 87.000000
1.414365 0.291097 -0.603304 71.000000
1.417421 0.274907 -0.603734 95.000000
1.420335 0.258620 -0.604116 79.000000
1.418511 0.241560 -0.602520 76.000000
1.430095 0.226770 -0.606813 95.000000
1.409728 0.206940 -0.597339 95.000000
1.402758 0.189580 -0.593754 82.000000
1.413877 0.174595 -0.597858 98.000000
1.429413 0.159961 -0.603995 110.000000
2.262783 0.148720 -0.953505 28.000000
2.278166 0.123493 -0.959319 27.000000
2.274770 0.097238 -0.957532 25.000000
2.298707 0.071877 -0.967300 22.000000
2.303925 0.045624 -0.969391 24.000000
2.285796 0.019072 -0.961787 23.000000
2.285872 -0.007114 -0.961711 20.000000
2.290329 -0.033368 -0.963574 16.000000
2.285266 -0.059487 -0.961409 18.000000
2.275298 -0.085328 -0.957381 16.000000
2.283450 -0.111860 -0.961106 19.000000
2.286613 -0.138249 -0.962968 20.000000
2.266705 -0.163090 -0.954841 13.000000
2.227998 -0.185975 -0.939051 9.000000
2.271821 -0.215868 -0.958035 21.000000
2.260085 -0.240948 -0.954014 17.000000
2.271189 -0.268450 -0.959214 21.000000
2.272659 -0.295003 -0.960693 24.000000
2.273964 -0.321660 -0.962170 28.000000
2.256564 -0.345705 -0.955996 21.000000
2.243685 -0.369961 -0.951456 13.000000
2.207675 -0.390070 -0.937428 9.000000
2.239644 -0.422195 -0.952180 22.000000
2.221397 -0.445104 -0.945723 16.000000
2.229920 -0.473452 -0.950899 19.000000
2.220215 -0.497920 -0.948071 18.000000
2.214648 -0.523346 -0.947394 18.000000
2.208856 -0.548772 -0.946567 19.000000
2.202838 -0.574048 -0.945664 11.000000
2.191914 -0.598184 -0.943070 9.000000
2.207591 -0.629516 -0.951592 18.000000
2.204966 -0.656239 -0.952671 10.000000
2.215323 -0.687018 -0.959327 17.000000
2.212138 -0.713868 -0.960241 16.000000
2.191162 -0.734787 -0.953369 12.000000
2.187441 -0.761407 -0.954129 13.000000
2.179108 -0.786405 -0.952830 10.000000
2.152989 -0.805077 -0.944236 9.000000
2.178783 -0.843002 -0.958048 18.000000
2.173755 -0.869765 -0.958710 12.000000
2.168381 -0.896549 -0.959367 13.000000
2.137192 -0.912449 -0.948604 10.000000
2.135709 -0.940693 -0.950999 10.000000
2.142195 -0.972886 -0.957073 14.000000
2.123183 -0.993454 -0.951761 10.000000
2.108199 -1.015764 -0.948339 9.000000
2.146620 -1.064987 -0.969533 20.000000
2.122713 -1.083121 -0.962103 11.000000
2.118847 -1.112058 -0.964429 16.000000
2.110962 -1.138353 -0.964405 13.000000
2.102399 -1.165057 -0.964690 12.000000
2.097583 -1.193994 -0.966748 12.000000
2.088420 -1.220537 -0.966858 10.000000
2.067019 -1.239927 -0.961325 9.000000
2.100795 -1.292984 -0.981689 16.000000
2.082767 -1.314729 -0.977899 10.000000
2.072193 -1.341274 -0.977719 13.000000
2.057609 -1.365095 -0.975612 10.000000
2.054241 -1.396600 -0.979005 10.000000
2.050541 -1.428209 -0.982293 16.000000
2.019896 -1.440912 -0.972699 10.000000
2.003711 -1.464579 -0.970747 9.000000
1.999040 -1.495968 -0.973839 10.000000
2.000766 -1.533532 -0.980860 10.000000
2.006346 -1.573660 -0.989234 11.000000
2.003277 -1.608877 -0.994198 13.000000
1.989646 -1.634707 -0.993391 10.000000
1.992881 -1.675975 -1.001805 20.000000
1.964468 -1.689491 -0.993624 10.000000
1.942162 -1.709440 -0.989382 9.000000
1.947527 -1.753981 -0.999315 26.000000
1.874020 -1.725412 -0.967904 26.000000
1.854893 -1.747283 -0.965326 36.000000
1.822210 -1.756005 -0.955682 37.000000
1.792896 -1.767365 -0.947673 30.000000
1.783329 -1.798270 -0.950316 36.000000
1.754805 -1.808247 -0.941927 30.000000
1.731795 -1.825289 -0.937390 13.000000
1.727741 -1.862629 -0.943306 34.000000
1.704246 -1.879252 -0.938677 32.000000
1.686886 -1.902574 -0.937434 36.000000
1.660062 -1.915082 -0.931009 32.000000
1.639215 -1.934363 -0.928043 32.000000
1.624197 -1.960631 -0.928420 42.000000
1.594152 -1.968531 -0.920156 31.000000
1.575769 -1.990723 -0.918732 10.000000
1.562898 -2.020176 -0.920687 30.000000
1.542617 -2.042905 -0.919478 24.000000
1.529006 -2.072116 -0.921210 29.000000
1.490193 -2.066971 -0.907803 23.000000
1.481472 -2.103570 -0.912860 26.000000
1.458894 -2.120732 -0.909528 26.000000
1.436149 -2.137645 -0.906029 22.000000
1.416993 -2.163035 -0.906254 10.000000
1.396291 -2.183485 -0.904389 28.000000
1.388008 -2.223692 -0.910632 22.000000
1.366754 -2.243818 -0.908624 28.000000
1.341218 -2.260532 -0.905316 24.000000
1.319407 -2.280236 -0.903289 19.000000
1.304315 -2.312190 -0.906009 22.000000
1.282419 -2.336498 -0.905803 18.000000
0.620099 1.137431 -0.429978 10.000000
0.641442 1.146657 -0.438096 16.000000
0.678043 1.179776 -0.455576 18.000000
0.707366 1.200386 -0.468571 26.000000
0.754397 1.248806 -0.492858 13.000000
0.793399 1.279744 -0.510655 22.000000
0.839925 1.322364 -0.533602 16.000000
0.887505 1.364064 -0.556711 10.000000
0.946622 1.420567 -0.586427 17.000000
0.957319 1.401084 -0.585095 21.000000
0.964094 1.378294 -0.582379 22.000000
0.959569 1.340116 -0.573004 26.000000
0.965470 1.317457 -0.570085 19.000000
0.971858 1.294310 -0.566921 27.000000
0.965559 1.256770 -0.557300 26.000000
0.978992 1.245439 -0.559197 18.000000
0.980559 1.219316 -0.554363 18.000000
0.990636 1.204178 -0.554512 16.000000
0.982343 1.167391 -0.544565 29.000000
0.973405 1.130899 -0.534492 26.000000
0.988704 1.123015 -0.537877 26.000000
0.997639 1.107971 -0.537830 35.000000
0.996847 1.082433 -0.532667 31.000000
1.005326 1.067358 -0.532537 33.000000
1.727900 1.676080 -0.885554 53.000000
1.752867 1.662261 -0.891443 34.000000
1.783983 1.655136 -0.901059 36.000000
1.805511 1.637298 -0.905096 47.000000
1.819858 1.613005 -0.905652 29.000000
1.841058 1.594690 -0.909619 32.000000
1.861373 1.576690 -0.913912 30.000000
1.889521 1.563700 -0.921254 32.000000
1.917548 1.550298 -0.928699 64.000000
1.955971 1.545745 -0.941712 32.000000
1.950759 1.505588 -0.933042 35.000000
1.974225 1.488862 -0.938923 36.000000
2.005663 1.476697 -0.947975 27.000000
2.051781 1.475417 -0.964432 32.000000
2.071288 1.454574 -0.968448 36.000000
2.083563 1.427455 -0.968477 33.000000
2.114353 1.413810 -0.977717 54.000000
2.137303 1.394543 -0.983391 35.000000
2.164131 1.377434 -0.990799 37.000000
2.186909 1.357342 -0.996339 52.000000
2.213445 1.339229 -1.003617 30.000000
2.231941 1.316020 -1.007292 35.000000
2.262353 1.299426 -1.016333 35.000000
2.280518 1.275467 -1.019860 35.000000
2.306655 1.255781 -1.027035 47.000000
2.328480 1.233375 -1.032318 25.000000
2.337384 1.204643 -1.032391 20.000000
2.362969 1.183738 -1.039346 26.000000
2.350442 1.144478 -1.030168 14.000000
2.346144 1.109257 -1.024198 13.000000
2.345302 1.076532 -1.020300 15.000000
2.344079 1.043928 -1.016301 11.000000
2.359549 1.018817 -1.019577 19.000000
2.353288 0.984474 -1.013626 14.000000
2.359621 0.955672 -1.013118 14.000000
2.369906 0.928496 -1.014288 18.000000
2.340853 0.886353 -0.998782 10.000000
2.332788 0.853244 -0.992757 17.000000
2.289482 0.807771 -0.971448 24.000000
1.433815 0.451522 -0.603891 83.000000
1.425290 0.431030 -0.598887 95.000000
1.421034 0.412087 -0.595691 65.000000
1.425463 0.395732 -0.596178 80.000000
1.434131 0.380664 -0.598633 36.000000
1.442629 0.365396 -0.601042 42.000000
1.446596 0.348792 -0.601385 90.000000
1.450221 0.332285 -0.602022 95.000000
1.444690 0.313714 -0.598660 52.000000
1.434430 0.294321 -0.593368 81.000000
1.442065 0.278855 -0.595681 78.000000
1.435899 0.260706 -0.592307 85.000000
1.388401 0.235737 -0.571948 32.000000
1.390906 0.219827 -0.572180 49.000000
1.384013 0.202621 -0.568784 81.000000
1.404492 0.189289 -0.576598 98.000000
2.296912 0.203270 -0.939601 17.000000
2.349822 0.180887 -0.960511 22.000000
2.346911 0.153789 -0.959011 21.000000
2.330046 0.125969 -0.951460 23.000000
2.335902 0.099557 -0.953579 24.000000
2.336827 0.072819 -0.953579 21.000000
2.305043 0.045517 -0.940589 21.000000
2.319235 0.019341 -0.946332 22.000000
2.328570 -0.007215 -0.950109 21.000000
2.342304 -0.033972 -0.955622 24.000000
2.332584 -0.060524 -0.951614 27.000000
2.331815 -0.087133 -0.951537 29.000000
2.330739 -0.113741 -0.951306 26.000000
2.329354 -0.140427 -0.951229 26.000000
2.290791 -0.164309 -0.935752 10.000000
2.335046 -0.194336 -0.954309 26.000000
2.318823 -0.219663 -0.948574 24.000000
2.339392 -0.248589 -0.957461 35.000000
2.336601 -0.275332 -0.957151 70.000000
2.328830 -0.301403 -0.954880 76.000000
2.325503 -0.328015 -0.954338 80.000000
2.331027 -0.355871 -0.957482 65.000000
2.304130 -0.378754 -0.947615 16.000000
2.281647 -0.401840 -0.939484 21.000000
2.268037 -0.426221 -0.935118 21.000000
2.272415 -0.453873 -0.938110 26.000000
2.262769 -0.478929 -0.935701 24.000000
2.248391 -0.502794 -0.931268 20.000000
2.247444 -0.529338 -0.932154 20.000000
2.245941 -0.556289 -0.933493 22.000000
2.244263 -0.583038 -0.934448 10.000000
2.220027 -0.603728 -0.925989 17.000000
2.248989 -0.639305 -0.940078 23.000000
2.232941 -0.662429 -0.935505 20.000000
2.238965 -0.692125 -0.940094 15.000000
2.244514 -0.721971 -0.944671 18.000000
2.249816 -0.751966 -0.949080 22.000000
2.232855 -0.774575 -0.944201 18.000000
2.197939 -0.790773 -0.932073 9.000000
2.206753 -0.822281 -0.938170 15.000000
2.193367 -0.845907 -0.935161 15.000000
2.209844 -0.881406 -0.945078 17.000000
2.208750 -0.910261 -0.947515 19.000000
2.194434 -0.933773 -0.944341 14.000000
2.201210 -0.966298 -0.950284 19.000000
2.190639 -0.991464 -0.948785 16.000000
2.162966 -1.008607 -0.939957 9.000000
2.181055 -1.047681 -0.951434 18.000000
2.178053 -1.076641 -0.953421 17.000000
2.178555 -1.108063 -0.957458 18.000000
2.174872 -1.137132 -0.959256 20.000000
2.162247 -1.162221 -0.957729 16.000000
2.145302 -1.184896 -0.954306 21.000000
2.120059 -1.202638 -0.947187 10.000000
2.139038 -1.245828 -0.959893 9.000000
2.113337 -1.263201 -0.952698 14.000000
2.103456 -1.289970 -0.952646 10.000000
2.105129 -1.324042 -0.957897 18.000000
2.090734 -1.348115 -0.955945 16.000000
2.103278 -1.390128 -0.966357 11.000000
2.084249 -1.411569 -0.962512 15.000000
2.072296 -1.438577 -0.962402 11.000000
2.079576 -1.478472 -0.970846 9.000000
2.056020 -1.496631 -0.964966 12.000000
2.043001 -1.523499 -0.964744 10.000000
2.041493 -1.558052 -0.969395 15.000000
2.020466 -1.578962 -0.965455 11.000000
2.025512 -1.619496 -0.973490 15.000000
2.025624 -1.657910 -0.979973 22.000000
2.003610 -1.678445 -0.975921 13.000000
2.007167 -1.719384 -0.983575 10.000000
1.998724 -1.752063 -0.986384 18.000000
1.947925 -1.747071 -0.968258 16.000000
1.876754 -1.722146 -0.939744 26.000000
1.824380 -1.711169 -0.919591 32.000000
1.805593 -1.732315 -0.917070 32.000000
1.789914 -1.756587 -0.916264 42.000000
1.754104 -1.760723 -0.905102 29.000000
1.770886 -1.818018 -0.921204 24.000000
1.725087 -1.811297 -0.904877 31.000000
1.698950 -1.824463 -0.898726 31.000000
1.685392 -1.851074 -0.899357 37.000000
1.665260 -1.870556 -0.896516 33.000000
1.654242 -1.900452 -0.898714 35.000000
1.630535 -1.915966 -0.894101 37.000000
1.615868 -1.942035 -0.894506 31.000000
1.615677 -1.986288 -0.903122 30.000000
1.582474 -1.990161 -0.893426 26.000000
1.563904 -2.012146 -0.891953 28.000000
1.542233 -2.030191 -0.888821 30.000000
1.519162 -2.048731 -0.885938 26.000000
1.505479 -2.077760 -0.887711 25.000000
1.480460 -2.091219 -0.882768 32.000000
1.455357 -2.104366 -0.877837 26.000000
1.457877 -2.161172 -0.891037 23.000000
1.426944 -2.166129 -0.882757 23.000000
1.414028 -2.198533 -0.885747 22.000000
1.385574 -2.206848 -0.879097 26.000000
1.358091 -2.219506 -0.874315 20.000000
1.344191 -2.251541 -0.877142 23.000000
1.320227 -2.267067 -0.873513 25.000000
1.296747 -2.287228 -0.871796 17.000000
1.295283 -2.343832 -0.883832 21.000000
0.626593 1.143520 -0.420181 13.000000
0.646514 1.148179 -0.426388 30.000000
0.682466 1.181790 -0.443620 22.000000
0.732097 1.234709 -0.468511 26.000000
0.769812 1.266786 -0.485977 27.000000
0.808292 1.298151 -0.503518 23.000000
0.861269 1.348236 -0.528825 23.000000
0.906689 1.385861 -0.549786 20.000000
0.960988 1.434372 -0.575582 22.000000
0.979835 1.426561 -0.579112 32.000000
0.989532 1.407389 -0.578044 26.000000
0.974048 1.353623 -0.562568 26.000000
0.985634 1.338477 -0.562952 32.000000
0.988539 1.311840 -0.558548 27.000000
0.988855 1.281143 -0.552170 27.000000
1.008390 1.277035 -0.557341 29.000000
1.001240 1.239582 -0.547800 20.000000
0.990424 1.198760 -0.536603 32.000000
0.991077 1.172829 -0.531815 35.000000
1.000585 1.157701 -0.531859 35.000000
1.003615 1.135471 -0.528600 36.000000
1.010115 1.116325 -0.526718 34.000000
1.012525 1.094158 -0.523356 43.000000
1.037256 1.096094 -0.531592 33.000000
1.699103 1.678524 -0.849513 61.000000
1.719895 1.662612 -0.853901 62.000000
1.758483 1.661935 -0.866261 80.000000
1.769609 1.635000 -0.865156 37.000000
1.801386 1.626987 -0.874199 58.000000
1.822627 1.608998 -0.878102 46.000000
1.840219 1.587699 -0.880311 26.000000
1.871231 1.578916 -0.889586 46.000000
1.892107 1.560042 -0.893364 49.000000
1.912809 1.540845 -0.897151 37.000000
1.932778 1.521963 -0.901185 41.000000
1.949488 1.499336 -0.903184 42.000000
1.980403 1.488384 -0.912334 57.000000
2.008103 1.473505 -0.919381 43.000000
2.038985 1.461421 -0.928511 31.000000
2.055067 1.437502 -0.930307 62.000000
2.066545 1.411348 -0.930687 39.000000
2.097786 1.397539 -0.939300 68.000000
2.120581 1.378510 -0.944852 71.000000
2.159056 1.369249 -0.957266 46.000000
2.185663 1.351809 -0.964453 61.000000
2.192223 1.321844 -0.962775 35.000000
2.234733 1.313146 -0.976956 29.000000
2.256968 1.292096 -0.982264 79.000000
2.279136 1.270604 -0.987501 57.000000
2.301062 1.248755 -0.992664 47.000000
2.322915 1.226545 -0.997838 61.000000
2.344521 1.203973 -1.002938 36.000000
2.386514 1.191907 -1.017216 29.000000
2.386889 1.158257 -1.013258 22.000000
2.386870 1.124638 -1.009286 10.000000
2.398767 1.097395 -1.010924 27.000000
2.397693 1.064298 -1.007100 24.000000
2.387580 1.027632 -0.999584 19.000000
2.398884 1.000009 -1.000689 23.000000
2.405267 0.970726 -1.000165 23.000000
2.402668 0.938065 -0.996035 20.000000
2.399452 0.905869 -0.992142 17.000000
2.347862 0.855984 -0.967950 11.000000
2.370379 0.833634 -0.974355 22.000000
2.282070 0.773733 -0.935769 28.000000
1.445309 0.417895 -0.587094 95.000000
1.445305 0.400092 -0.585767 75.000000
1.449580 0.383535 -0.586209 57.000000
1.458123 0.368166 -0.588621 80.000000
1.452964 0.349379 -0.585466 60.000000
1.456686 0.332775 -0.585907 82.000000
1.460213 0.316122 -0.586299 73.000000
1.463593 0.299419 -0.586691 85.000000
1.466727 0.282766 -0.587132 95.000000
1.460558 0.264405 -0.583863 92.000000
1.463333 0.247758 -0.584204 72.000000
1.433793 0.225992 -0.571622 95.000000
2.232666 0.248369 -0.886389 36.000000
2.327726 0.232174 -0.923553 31.000000
2.348635 0.207330 -0.931207 26.000000
2.373906 0.182344 -0.940625 13.000000
2.375781 0.155234 -0.940781 22.000000
2.368057 0.127702 -0.937184 24.000000
2.364656 0.100501 -0.935502 21.000000
2.370314 0.073695 -0.937340 23.000000
2.375585 0.046783 -0.939412 24.000000
2.357299 0.019573 -0.932135 24.000000
2.334128 -0.007200 -0.922943 19.000000
2.375819 -0.034386 -0.939334 24.000000
2.352109 -0.060764 -0.929911 21.000000
2.360554 -0.087902 -0.933509 28.000000
2.354901 -0.114573 -0.931439 25.000000
2.371999 -0.142534 -0.938710 29.000000
2.370283 -0.169512 -0.938554 25.000000
2.349795 -0.194952 -0.930898 24.000000
2.375334 -0.224344 -0.941523 71.000000
2.368203 -0.250859 -0.939219 81.000000
2.369932 -0.278355 -0.940740 87.000000
2.376029 -0.306551 -0.943936 98.000000
2.363435 -0.332210 -0.939722 95.000000
2.373398 -0.361317 -0.944824 95.000000
2.350937 -0.385312 -0.937031 41.000000
2.291641 -0.402451 -0.914459 10.000000
2.314663 -0.433608 -0.924815 23.000000
2.314441 -0.460846 -0.925869 26.000000
2.291038 -0.483382 -0.917950 23.000000
2.281122 -0.508465 -0.915513 22.000000
2.284519 -0.536561 -0.918391 24.000000
2.287639 -0.564787 -0.921186 22.000000
2.290480 -0.593065 -0.923897 22.000000
2.265831 -0.614388 -0.915853 11.000000
2.272433 -0.644039 -0.920531 22.000000
2.283188 -0.675241 -0.926858 22.000000
2.266796 -0.698539 -0.922221 18.000000
2.276938 -0.730017 -0.928450 21.000000
2.268876 -0.755848 -0.927276 20.000000
2.265064 -0.783125 -0.927907 21.000000
2.260748 -0.810660 -0.928691 17.000000
2.212360 -0.821895 -0.911458 10.000000
2.247028 -0.863648 -0.927975 22.000000
2.241916 -0.890960 -0.928590 24.000000
2.236373 -0.918372 -0.929121 17.000000
2.230395 -0.945962 -0.929886 18.000000
2.224298 -0.973175 -0.930249 20.000000
2.196637 -0.990806 -0.921597 12.000000
2.211268 -1.027576 -0.930800 17.000000
2.187235 -1.046933 -0.924184 10.000000
2.200745 -1.084511 -0.933506 20.000000
2.197308 -1.113571 -0.935293 18.000000
2.193296 -1.143142 -0.937309 19.000000
2.180704 -1.168327 -0.935775 19.000000
2.171887 -1.195605 -0.935927 17.000000
2.162778 -1.222817 -0.936072 18.000000
2.145361 -1.245180 -0.932530 15.000000
2.135716 -1.272079 -0.932507 10.000000
2.149751 -1.313641 -0.942912 21.000000
2.135385 -1.338104 -0.941024 20.000000
2.144507 -1.377681 -0.949526 19.000000
2.137311 -1.407240 -0.950934 21.000000
2.113794 -1.426904 -0.945708 15.000000
2.098355 -1.450894 -0.943550 15.000000
2.097394 -1.486146 -0.948564 13.000000
2.047239 -1.485178 -0.930765 9.000000
2.083369 -1.548140 -0.952916 21.000000
2.074221 -1.577451 -0.953906 18.000000
2.064102 -1.607273 -0.955219 14.000000
2.061634 -1.642271 -0.959511 22.000000
2.028831 -1.654274 -0.950459 21.000000
2.043044 -1.704926 -0.963485 21.000000
2.032063 -1.734005 -0.964116 20.000000
2.019997 -1.763681 -0.965076 12.000000
1.986562 -1.774536 -0.955885 20.000000
1.894061 -1.730817 -0.917924 29.000000
1.850935 -1.730177 -0.903754 32.000000
1.801325 -1.722220 -0.886133 39.000000
1.783325 -1.742319 -0.883308 37.000000
1.754270 -1.752825 -0.875811 37.000000
1.748282 -1.786534 -0.879883 36.000000
1.715824 -1.793036 -0.870594 29.000000
1.709221 -1.826566 -0.874545 46.000000
1.689326 -1.846217 -0.871876 38.000000
1.668300 -1.866354 -0.869450 52.000000
1.651192 -1.889160 -0.868336 66.000000
1.627702 -1.904526 -0.863870 46.000000
1.610112 -1.926836 -0.862583 37.000000
1.589289 -1.945309 -0.859666 33.000000
1.568385 -1.963540 -0.856750 23.000000
1.558893 -1.996372 -0.860183 30.000000
1.539152 -2.018833 -0.859092 30.000000
1.517396 -2.036499 -0.855984 31.000000
1.501140 -2.061502 -0.856058 30.000000
1.476389 -2.074795 -0.851272 27.000000
1.454184 -2.091757 -0.848158 34.000000
1.435831 -2.117065 -0.848356 28.000000
1.413214 -2.133514 -0.845066 21.000000
1.405993 -2.173563 -0.851147 30.000000
1.386363 -2.198567 -0.851265 28.000000
1.362993 -2.214425 -0.847843 27.000000
1.339539 -2.230033 -0.844421 28.000000
1.316735 -2.250332 -0.842788 26.000000
1.297539 -2.273651 -0.842339 28.000000
1.273918 -2.293591 -0.840591 21.000000
0.681776 1.270422 -0.448650 6.000000
0.633873 1.149162 -0.410133 10.000000
0.667142 1.179144 -0.425289 20.000000
0.697217 1.199816 -0.437415 25.000000
0.751342 1.261354 -0.464848 24.000000
0.786937 1.289263 -0.480366 19.000000
0.846905 1.352299 -0.509431 28.000000
0.886926 1.382558 -0.526691 21.000000
0.946925 1.439361 -0.554578 18.000000
0.986035 1.463937 -0.570517 24.000000
1.006945 1.460389 -0.575755 30.000000
1.001389 1.417093 -0.565244 30.000000
1.013641 1.401658 -0.565751 26.000000
0.997445 1.347989 -0.550647 26.000000
1.003174 1.325050 -0.547890 29.000000
1.009348 1.301727 -0.544888 24.000000
1.026169 1.293743 -0.548370 32.000000
1.013079 1.248749 -0.535998 23.000000
1.020318 1.229760 -0.534584 29.000000
1.005881 1.185406 -0.522009 31.000000
1.022352 1.176872 -0.525107 28.000000
1.025515 1.154451 -0.521960 35.000000
1.028350 1.132048 -0.518783 41.000000
1.034081 1.113185 -0.517138 35.000000
1.091653 1.149262 -0.541328 35.000000
1.639449 1.650485 -0.799680 54.000000
1.694371 1.667968 -0.819862 54.000000
1.722620 1.658151 -0.826991 60.000000
1.757732 1.654341 -0.837502 65.000000
1.779141 1.637109 -0.841328 81.000000
1.800463 1.619563 -0.845163 37.000000
1.818075 1.598663 -0.847355 58.000000
1.845478 1.587383 -0.854751 34.000000
1.859190 1.562854 -0.855138 35.000000
1.887172 1.550222 -0.862174 69.000000
1.904086 1.528249 -0.864150 35.000000
1.923918 1.509579 -0.868115 35.000000
1.959083 1.501495 -0.878397 54.000000
1.975554 1.478707 -0.880316 42.000000
2.014026 1.472914 -0.892580 53.000000
2.037861 1.454850 -0.897734 37.000000
2.049425 1.429023 -0.898153 36.000000
2.072922 1.410414 -0.903244 82.000000
2.103638 1.397154 -0.911989 58.000000
2.122496 1.375620 -0.915657 57.000000
2.141656 1.353422 -0.918922 64.000000
2.172132 1.338775 -0.927647 38.000000
2.198630 1.321177 -0.934605 49.000000
2.224951 1.303054 -0.941499 33.000000
2.251260 1.284569 -0.948329 43.000000
2.273280 1.263271 -0.953456 59.000000
2.295146 1.241617 -0.958510 58.000000
2.329311 1.226160 -0.968756 70.000000
2.350930 1.203643 -0.973756 81.000000
2.372386 1.180848 -0.978680 40.000000
2.385232 1.153519 -0.980060 30.000000
2.427177 1.140404 -0.993948 16.000000
2.439571 1.112387 -0.995170 17.000000
2.438497 1.079030 -0.991513 26.000000
2.437127 1.045704 -0.987840 20.000000
2.422571 1.006763 -0.978394 20.000000
2.442028 0.982660 -0.983260 24.000000
2.430755 0.946295 -0.975702 20.000000
2.423341 0.911907 -0.969876 15.000000
2.406563 0.874886 -0.960772 15.000000
2.398327 0.841146 -0.954741 18.000000
2.380840 0.804648 -0.945174 26.000000
2.309271 0.751543 -0.914601 29.000000
2.151996 0.673620 -0.850355 37.000000
1.465069 0.404415 -0.575008 95.000000
1.451299 0.382931 -0.568372 27.000000
1.496118 0.376698 -0.584912 76.000000
1.468374 0.352000 -0.572850 63.000000
1.467513 0.334254 -0.571519 63.000000
1.475669 0.318535 -0.573688 90.000000
1.474441 0.300794 -0.572305 66.000000
1.477586 0.284089 -0.572747 65.000000
1.475985 0.266455 -0.571360 70.000000
1.474170 0.248877 -0.569922 34.000000
2.267042 0.277644 -0.872553 34.000000
2.358150 0.261612 -0.906766 31.000000
2.384100 0.237103 -0.915926 26.000000
2.400483 0.211326 -0.921676 19.000000
2.397953 0.183648 -0.920126 11.000000
2.413819 0.157291 -0.925644 22.000000
2.401332 0.129190 -0.920519 21.000000
2.393337 0.101448 -0.916865 19.000000
2.399022 0.074430 -0.918731 21.000000
2.399571 0.047215 -0.918966 21.000000
2.399963 0.019921 -0.919045 19.000000
2.400042 -0.007294 -0.918966 20.000000
2.390547 -0.034453 -0.915312 23.000000
2.394746 -0.061683 -0.916865 27.000000
2.389219 -0.088672 -0.914922 23.000000
2.388047 -0.115859 -0.915000 26.000000
2.400703 -0.143806 -0.920047 32.000000
2.408291 -0.171739 -0.923383 35.000000
2.406319 -0.199034 -0.923068 46.000000
2.408681 -0.226767 -0.924458 92.000000
2.396783 -0.253134 -0.920652 68.000000
2.398509 -0.280920 -0.922121 95.000000
2.390720 -0.307540 -0.919865 85.000000
2.401214 -0.336571 -0.924659 95.000000
2.397334 -0.363892 -0.924263 98.000000
2.379461 -0.388874 -0.918369 36.000000
2.342910 -0.410238 -0.905367 25.000000
2.338327 -0.436801 -0.904668 23.000000
2.324343 -0.461387 -0.900340 18.000000
2.319160 -0.487845 -0.899721 21.000000
2.345690 -0.521247 -0.911515 20.000000
2.349069 -0.549966 -0.914275 23.000000
2.338309 -0.575619 -0.911874 21.000000
2.327494 -0.600932 -0.909163 13.000000
2.307204 -0.623779 -0.903076 12.000000
2.313847 -0.653794 -0.907516 22.000000
2.311041 -0.681391 -0.908417 18.000000
2.312521 -0.710386 -0.910919 24.000000
2.295795 -0.733727 -0.906295 19.000000
2.314434 -0.768589 -0.915741 21.000000
2.305928 -0.794983 -0.914787 22.000000
2.283797 -0.816568 -0.908492 11.000000
2.261848 -0.837457 -0.901894 12.000000
2.274445 -0.871533 -0.909540 21.000000
2.264844 -0.897400 -0.908270 17.000000
2.268014 -0.928434 -0.912233 23.000000
2.249007 -0.950800 -0.907712 18.000000
2.255779 -0.983814 -0.913239 17.000000
2.257954 -1.015056 -0.917007 19.000000
2.246594 -1.040998 -0.915718 10.000000
2.218461 -1.058218 -0.907181 11.000000
2.231975 -1.096053 -0.916194 22.000000
2.228221 -1.125840 -0.918271 19.000000
2.215801 -1.151249 -0.916729 20.000000
2.203056 -1.176576 -0.915268 17.000000
2.210733 -1.213035 -0.922231 18.000000
2.197459 -1.238191 -0.920511 21.000000
2.187924 -1.265617 -0.920501 10.000000
2.178091 -1.292889 -0.920402 10.000000
2.184102 -1.329868 -0.927114 21.000000
2.165587 -1.352197 -0.923504 14.000000
2.170226 -1.389985 -0.930336 20.000000
2.151242 -1.411987 -0.926635 16.000000
2.143777 -1.441611 -0.927929 16.000000
2.143196 -1.477175 -0.932833 21.000000
2.134941 -1.506738 -0.934005 10.000000
2.118173 -1.531467 -0.932057 10.000000
2.120679 -1.569360 -0.938062 16.000000
2.110759 -1.599491 -0.939354 17.000000
2.111629 -1.638379 -0.945634 22.000000
2.090459 -1.659153 -0.941376 20.000000
2.079385 -1.689197 -0.942535 21.000000
2.064379 -1.716221 -0.941851 21.000000
2.070615 -1.761416 -0.951152 10.000000
2.062670 -1.793826 -0.953279 17.000000
2.039440 -1.814364 -0.949163 19.000000
1.918183 -1.745615 -0.899111 19.000000
1.843736 -1.716130 -0.870549 35.000000
1.797558 -1.711281 -0.855080 33.000000
1.772036 -1.725271 -0.849428 35.000000
1.749850 -1.742283 -0.845335 48.000000
1.730893 -1.762276 -0.842866 30.000000
1.731372 -1.802593 -0.849976 35.000000
1.708552 -1.818961 -0.845793 45.000000
1.685646 -1.835012 -0.841539 37.000000
1.662575 -1.850750 -0.837296 45.000000
1.645756 -1.873297 -0.836161 35.000000
1.627576 -1.896479 -0.835339 49.000000
1.613250 -1.922323 -0.835764 52.000000
1.583474 -1.929721 -0.828216 31.000000
1.571679 -1.958808 -0.830033 27.000000
1.553543 -1.980464 -0.828691 30.000000
1.542697 -2.014070 -0.832338 31.000000
1.518256 -2.027785 -0.827770 31.000000
1.493815 -2.041271 -0.823213 27.000000
1.480279 -2.069843 -0.824754 32.000000
1.459573 -2.091378 -0.823514 30.000000
1.429282 -2.096183 -0.815815 24.000000
1.412196 -2.120375 -0.815692 21.000000
1.401251 -2.157248 -0.820349 27.000000
1.383367 -2.181199 -0.820162 28.000000
1.356297 -2.193685 -0.815677 28.000000
1.342874 -2.225455 -0.818298 27.000000
1.321761 -2.244869 -0.816467 27.000000
1.296350 -2.260781 -0.813385 25.000000
1.281677 -2.292198 -0.815903 19.000000
1.276208 -2.345487 -0.826013 10.000000
0.656588 1.184406 -0.410189 10.000000
0.684091 1.201315 -0.420473 10.000000
0.730453 1.251234 -0.442646 10.000000
0.780443 1.304345 -0.466451 18.000000
0.822550 1.339675 -0.484343 11.000000
0.867121 1.378756 -0.504039 16.000000
0.929162 1.440470 -0.532507 14.000000
0.986481 1.493511 -0.558357 10.000000
1.069092 1.580994 -0.597900 23.000000
1.127547 1.626920 -0.622411 67.000000
1.048224 1.477823 -0.572006 22.000000
1.030283 1.419475 -0.555964 27.000000
1.034803 1.391771 -0.551699 18.000000
1.043810 1.372303 -0.550656 21.000000
1.037926 1.334013 -0.541904 17.000000
1.043980 1.310386 -0.538936 14.000000
1.036906 1.272588 -0.530008 25.000000
1.032166 1.238765 -0.522549 15.000000
1.039241 1.219630 -0.521163 23.000000
1.052919 1.207186 -0.522654 28.000000
1.053175 1.180916 -0.518077 17.000000
1.046624 1.147713 -0.510339 29.000000
1.052422 1.128742 -0.508804 26.000000
1.681274 1.686559 -0.792877 35.000000
1.699428 1.667180 -0.795175 29.000000
1.724271 1.654135 -0.800574 38.000000
1.756017 1.647186 -0.809098 35.000000
1.770353 1.623675 -0.809671 35.000000
1.794967 1.609576 -0.815040 52.000000
1.816003 1.591882 -0.818742 23.000000
1.836874 1.573951 -0.822375 28.000000
1.868462 1.564897 -0.830856 32.000000
1.881854 1.540212 -0.831203 28.000000
1.909719 1.527271 -0.838027 34.000000
1.922087 1.502900 -0.838610 30.000000
1.949735 1.489227 -0.845387 29.000000
1.984989 1.480706 -0.855290 43.000000
2.004398 1.461021 -0.859085 20.000000
2.016572 1.435051 -0.859208 31.000000
2.040080 1.417012 -0.864173 34.000000
2.070717 1.404497 -0.872766 31.000000
2.090100 1.383083 -0.876033 57.000000
2.108810 1.361902 -0.879550 32.000000
2.163253 1.363022 -0.897985 35.000000
2.170184 1.332944 -0.896155 40.000000
2.184439 1.308225 -0.897968 20.000000
2.218886 1.295223 -0.908028 31.000000
2.253258 1.281593 -0.918037 43.000000
2.262899 1.253546 -0.918044 32.000000
2.288826 1.234369 -0.924661 35.000000
2.327157 1.221306 -0.936244 42.000000
2.336160 1.192515 -0.936096 32.000000
2.370166 1.176207 -0.945957 38.000000
2.395577 1.155243 -0.952386 24.000000
2.437912 1.141713 -0.965494 27.000000
2.467178 1.121924 -0.973916 21.000000
2.457872 1.084130 -0.966682 12.000000
2.452074 1.048850 -0.961381 18.000000
2.485219 1.029733 -0.970993 18.000000
2.465668 0.989198 -0.960403 10.000000
2.467420 0.957777 -0.958292 21.000000
2.438121 0.914824 -0.944157 9.000000
2.430252 0.880692 -0.938431 10.000000
2.430864 0.849895 -0.936022 16.000000
2.408645 0.811880 -0.925303 10.000000
2.381649 0.772791 -0.912515 19.000000
2.344945 0.731878 -0.896432 23.000000
1.516393 0.399000 -0.574623 32.000000
1.511569 0.379488 -0.571638 46.000000
1.510955 0.361274 -0.570421 47.000000
1.510217 0.343112 -0.569202 58.000000
1.504768 0.323916 -0.566002 67.000000
1.489730 0.303157 -0.559594 57.000000
1.488335 0.285365 -0.558212 84.000000
2.227954 0.323437 -0.831445 32.000000
2.324371 0.310593 -0.866394 29.000000
2.378782 0.290525 -0.885845 26.000000
2.423773 0.268188 -0.901764 21.000000
2.431217 0.241198 -0.903737 25.000000
2.400983 0.210742 -0.891908 10.000000
2.440503 0.186463 -0.906108 16.000000
2.447093 0.159048 -0.908004 18.000000
2.420598 0.129850 -0.897824 17.000000
2.440598 0.103189 -0.904770 18.000000
2.436944 0.075458 -0.903113 21.000000
2.442267 0.047937 -0.905009 20.000000
2.428520 0.020155 -0.899876 18.000000
2.442665 -0.007393 -0.905088 19.000000
2.437817 -0.034991 -0.903192 21.000000
2.432654 -0.062483 -0.901218 19.000000
2.455290 -0.090910 -0.909820 28.000000
2.425991 -0.117296 -0.899402 49.000000
2.433929 -0.145361 -0.902557 63.000000
2.418231 -0.171897 -0.897114 36.000000
2.439547 -0.201198 -0.905471 90.000000
2.432648 -0.228319 -0.903339 77.000000
2.430024 -0.255905 -0.903101 83.000000
2.431741 -0.283955 -0.904436 83.000000
2.414598 -0.309645 -0.898763 66.000000
2.424971 -0.338994 -0.903639 88.000000
2.416589 -0.365692 -0.901272 62.000000
2.412535 -0.393040 -0.900716 34.000000
2.384894 -0.416353 -0.891757 41.000000
2.394166 -0.445936 -0.896228 26.000000
2.393701 -0.473932 -0.897400 21.000000
2.374764 -0.498020 -0.891355 17.000000
2.369163 -0.525078 -0.890882 18.000000
2.367896 -0.552888 -0.891814 18.000000
2.370929 -0.581842 -0.894385 19.000000
2.337141 -0.601716 -0.883359 10.000000
2.330474 -0.628226 -0.882575 13.000000
2.318974 -0.653383 -0.879997 10.000000
2.347823 -0.690204 -0.892845 22.000000
2.322303 -0.711254 -0.884965 12.000000
2.332400 -0.743150 -0.890699 17.000000
2.328593 -0.771180 -0.891532 18.000000
2.311340 -0.794330 -0.886926 14.000000
2.311389 -0.823749 -0.889302 10.000000
2.297898 -0.848326 -0.886565 13.000000
2.288597 -0.874322 -0.885372 12.000000
2.313971 -0.914062 -0.897757 21.000000
2.286541 -0.933105 -0.889687 10.000000
2.297804 -0.968437 -0.897108 14.000000
2.274344 -0.988688 -0.890583 14.000000
2.276212 -1.020438 -0.894440 10.000000
2.269406 -1.048048 -0.894588 10.000000
2.257819 -1.073894 -0.893291 10.000000
2.245909 -1.099660 -0.891914 10.000000
2.263284 -1.140016 -0.902276 18.000000
2.238092 -1.159292 -0.895776 10.000000
2.246155 -1.195834 -0.902582 10.000000
2.253730 -1.232687 -0.909276 16.000000
2.244369 -1.260525 -0.909278 12.000000
2.214198 -1.276598 -0.900880 9.000000
2.208423 -1.306460 -0.902461 11.000000
2.194229 -1.331445 -0.900635 10.000000
2.207329 -1.374221 -0.910626 16.000000
2.180511 -1.391490 -0.903745 10.000000
2.185217 -1.429078 -0.909966 10.000000
2.181038 -1.462113 -0.913121 14.000000
2.173046 -1.491979 -0.914277 10.000000
2.179631 -1.533323 -0.922214 10.000000
2.147253 -1.547400 -0.913794 10.000000
2.142091 -1.579829 -0.916284 10.000000
2.143434 -1.618734 -0.922428 13.000000
2.121838 -1.640455 -0.918728 10.000000
2.119207 -1.675901 -0.922682 14.000000
2.104415 -1.703187 -0.922116 15.000000
2.082003 -1.724344 -0.918239 10.000000
2.124430 -1.800265 -0.943244 10.000000
2.086794 -1.809065 -0.932821 10.000000
2.066867 -1.832995 -0.930331 10.000000
1.955483 -1.773772 -0.886461 10.000000
1.845731 -1.712284 -0.842813 16.000000
1.806370 -1.713844 -0.830967 28.000000
1.780894 -1.727825 -0.825407 35.000000
1.748584 -1.734804 -0.816719 32.000000
1.739734 -1.764904 -0.819050 25.000000
1.727131 -1.791495 -0.819709 30.000000
1.707701 -1.811164 -0.817151 31.000000
1.681669 -1.823607 -0.811483 35.000000
1.655627 -1.835663 -0.805835 31.000000
1.642082 -1.861600 -0.806306 32.000000
1.614764 -1.873828 -0.800836 33.000000
1.591544 -1.888518 -0.796604 28.000000
1.592463 -1.932209 -0.804619 29.000000
1.565779 -1.942852 -0.798841 21.000000
1.561468 -1.983861 -0.805400 25.000000
1.534468 -1.993938 -0.799541 27.000000
1.507466 -2.003721 -0.793623 22.000000
1.493301 -2.033069 -0.795486 24.000000
1.471588 -2.050020 -0.792580 27.000000
1.444232 -2.058835 -0.786608 20.000000
1.442645 -2.107477 -0.795773 23.000000
1.404268 -2.099985 -0.783781 17.000000
1.400277 -2.143804 -0.791045 20.000000
1.381203 -2.168550 -0.791123 24.000000
1.355774 -2.180088 -0.786539 20.000000
1.343587 -2.216596 -0.790885 23.000000
1.317746 -2.227695 -0.786124 17.000000
1.296529 -2.246783 -0.784352 17.000000
1.282949 -2.283117 -0.788499 19.000000
1.263347 -2.306125 -0.788031 9.000000
0.748992 1.379182 -0.458247 6.000000
0.686461 1.232237 -0.413707 9.000000
0.705042 1.232219 -0.418147 15.000000
0.756768 1.290352 -0.442559 24.000000
0.798333 1.326382 -0.459837 13.000000
0.832399 1.349890 -0.473146 27.000000
0.885907 1.400557 -0.496382 12.000000
0.937079 1.446735 -0.518500 10.000000
0.995595 1.499272 -0.543437 13.000000
1.277664 1.879677 -0.689133 16.000000
1.338498 1.923932 -0.713586 25.000000
1.265662 1.775544 -0.666299 60.000000
1.135098 1.556386 -0.591008 69.000000
1.051565 1.409368 -0.541645 71.000000
