x y z intensity
2.346003 -0.428225 0.643129 81.000000
2.326961 -0.451622 0.638848 73.000000
2.269922 -0.466772 0.624097 23.000000
2.217540 -0.481718 0.610593 10.000000
2.198041 -0.503085 0.606196 9.000000
2.211262 -0.531974 0.610814 24.000000
2.205369 -0.556553 0.610311 61.000000
2.189850 -0.578664 0.607218 26.000000
2.169443 -0.599068 0.602765 79.000000
2.186036 -0.629859 0.608586 66.000000
2.146680 -0.644358 0.598904 55.000000
2.181028 -0.681323 0.609943 30.000000
2.201093 -0.714378 0.616876 26.000000
2.266459 -0.763618 0.636802 32.000000
2.294492 -0.801595 0.646403 23.000000
2.344660 -0.848531 0.662322 10.000000
2.412228 -0.903406 0.683329 23.000000
2.582592 -0.999970 0.733649 9.000000
2.567087 -1.026940 0.731321 9.000000
2.546892 -1.051703 0.727721 9.000000
2.530876 -1.077988 0.725402 9.000000
2.501446 -1.098257 0.719182 9.000000
2.484798 -1.124282 0.716962 8.000000
2.490027 -1.159990 0.720834 8.000000
2.446671 -1.173173 0.710923 10.000000
2.407885 -1.187386 0.702049 10.000000
2.407618 -1.220880 0.704822 10.000000
2.368337 -1.234369 0.696149 10.000000
2.346497 -1.255829 0.692200 10.000000
2.353855 -1.293752 0.697307 13.000000
2.322681 -1.310575 0.691104 10.000000
2.266329 -1.312216 0.677323 8.000000
2.293507 -1.362198 0.688582 13.000000
2.232971 -1.360135 0.673517 14.000000
2.218057 -1.385019 0.672198 25.000000
2.170179 -1.388853 0.660941 31.000000
2.150868 -1.410388 0.658321 34.000000
2.115285 -1.420864 0.650678 66.000000
2.095722 -1.441635 0.648079 39.000000
2.075979 -1.462156 0.645405 23.000000
2.087588 -1.505105 0.652488 52.000000
2.070573 -1.528845 0.651191 34.000000
2.077089 -1.569391 0.656992 36.000000
2.067718 -1.598347 0.657794 36.000000
2.054169 -1.624301 0.657367 31.000000
2.039647 -1.650753 0.657181 35.000000
2.014259 -1.667186 0.653024 28.000000
1.977648 -1.673720 0.645255 15.000000
1.970568 -1.705083 0.647078 34.000000
1.969563 -1.743620 0.651531 29.000000
1.939910 -1.755599 0.646116 32.000000
1.916691 -1.774425 0.643275 34.000000
1.911672 -1.808872 0.646156 27.000000
1.885254 -1.823126 0.641794 31.000000
1.857995 -1.837718 0.637775 25.000000
1.824625 -1.844343 0.631078 12.000000
1.814145 -1.875518 0.632820 31.000000
1.804092 -1.906018 0.634296 29.000000
1.792738 -1.937238 0.635997 28.000000
1.781815 -1.967686 0.637428 35.000000
1.737341 -1.962445 0.627364 29.000000
1.726087 -1.992389 0.628705 33.000000
1.700696 -2.008277 0.625564 24.000000
1.679398 -2.026851 0.623335 10.000000
1.653799 -2.042139 0.620206 24.000000
1.643223 -2.076191 0.622808 23.000000
1.615265 -2.086339 0.618202 24.000000
1.615608 -2.135765 0.625229 26.000000
1.593117 -2.153305 0.622879 23.000000
1.566345 -2.167401 0.619568 11.000000
1.519829 -2.153400 0.608394 9.000000
1.494443 -2.165817 0.604880 10.000000
1.342405 -1.992883 0.550277 10.000000
1.259840 -1.913678 0.522453 9.000000
1.183270 -1.841876 0.497260 10.000000
1.118826 -1.785124 0.476653 10.000000
1.067064 -1.743106 0.460391 10.000000
0.995182 -1.667281 0.435616 10.000000
0.939909 -1.615372 0.417562 10.000000
0.998025 1.792154 0.472353 9.000000
1.020228 1.784691 0.475407 18.000000
1.031325 1.760815 0.474073 28.000000
1.048253 1.744558 0.474791 25.000000
1.065025 1.728168 0.475501 28.000000
1.088162 1.724692 0.479827 32.000000
1.101930 1.703798 0.479382 25.000000
1.114312 1.683531 0.479046 32.000000
1.135659 1.674575 0.481978 31.000000
1.148582 1.653385 0.481366 23.000000
1.157443 1.628798 0.479822 32.000000
1.178301 1.619308 0.482687 30.000000
1.198177 1.610130 0.485686 31.000000
1.215948 1.596266 0.487387 35.000000
1.230543 1.578319 0.487842 28.000000
1.259248 1.579868 0.494419 36.000000
1.270566 1.557806 0.493621 28.000000
1.280773 1.536199 0.493060 30.000000
1.294535 1.517732 0.493431 39.000000
1.313778 1.507029 0.496329 35.000000
1.340125 1.502678 0.501463 48.000000
1.349485 1.480564 0.500747 36.000000
1.365870 1.464998 0.502260 41.000000
1.381372 1.449811 0.503898 44.000000
1.400194 1.437844 0.506761 33.000000
1.416113 1.421672 0.508151 33.000000
1.417383 1.392296 0.504805 76.000000
1.446814 1.389328 0.511120 42.000000
1.440414 1.353256 0.505206 71.000000
1.469183 1.350240 0.511668 49.000000
1.487748 1.336503 0.514233 73.000000
1.502053 1.319803 0.515683 79.000000
1.512498 1.299822 0.515880 57.000000
1.533864 1.289075 0.519774 30.000000
1.570642 1.289813 0.528525 58.000000
1.569394 1.260073 0.524888 51.000000
1.586720 1.245413 0.527486 50.000000
1.600146 1.227597 0.528822 48.000000
1.617250 1.212491 0.531366 62.000000
1.630708 1.193803 0.532450 58.000000
1.639660 1.172685 0.532449 31.000000
1.683956 1.176376 0.543896 36.000000
1.692675 1.154652 0.543781 55.000000
1.701140 1.132888 0.543724 52.000000
1.725555 1.121617 0.548751 70.000000
1.741789 1.104769 0.551146 54.000000
1.753713 1.085092 0.552254 56.000000
1.777844 1.072835 0.557249 80.000000
1.801678 1.060498 0.562393 33.000000
1.821549 1.044953 0.565986 39.000000
1.845540 1.031441 0.570959 64.000000
1.873658 1.019818 0.577117 40.000000
1.901570 1.008019 0.583565 77.000000
1.908239 0.984370 0.583139 42.000000
1.923007 0.965281 0.585606 43.000000
1.950829 0.951965 0.591751 67.000000
1.947918 0.924066 0.588829 33.000000
1.975465 0.910107 0.594924 32.000000
2.002844 0.895892 0.601173 53.000000
2.038963 0.885056 0.610085 37.000000
2.057276 0.866006 0.613650 42.000000
2.075457 0.846616 0.617223 37.000000
2.093505 0.826955 0.620733 37.000000
2.111416 0.806881 0.624179 62.000000
2.120075 0.783265 0.624966 40.000000
2.132986 0.761053 0.627087 58.000000
2.150273 0.740309 0.630476 92.000000
2.162696 0.717843 0.632678 66.000000
2.184112 0.698210 0.637490 79.000000
2.205479 0.677906 0.642092 95.000000
2.217261 0.654639 0.644165 35.000000
2.214951 0.627258 0.642137 10.000000
2.230957 0.604980 0.645410 9.000000
2.260635 0.586195 0.652873 9.000000
2.290295 0.566667 0.660202 9.000000
2.296202 0.541171 0.660800 9.000000
2.334844 0.522890 0.670847 9.000000
2.354507 0.499802 0.675430 9.000000
2.397528 0.481056 0.686702 9.000000
2.440481 0.461468 0.697989 10.000000
2.464319 0.437592 0.703955 29.000000
2.540058 0.421969 0.724670 77.000000
2.558817 0.395767 0.729226 95.000000
2.577212 0.369246 0.733622 90.000000
2.604947 0.343666 0.740819 80.000000
2.627640 0.316895 0.746582 95.000000
2.645179 0.289174 0.751076 72.000000
2.696105 0.264336 0.764830 74.000000
2.751497 0.238846 0.780124 9.000000
2.758747 0.208553 0.781834 10.000000
2.794463 0.179921 0.791440 37.000000
2.839480 0.151051 0.803860 98.000000
2.850537 0.119802 0.806761 95.000000
2.813152 0.086854 0.796056 95.000000
2.775474 0.054675 0.785257 95.000000
2.751860 0.023566 0.778540 93.000000
2.703836 -0.007032 0.764929 38.000000
2.669904 -0.036669 0.755402 11.000000
2.616406 -0.065161 0.740347 9.000000
2.591536 -0.093430 0.733460 9.000000
2.561549 -0.120937 0.725132 9.000000
2.531266 -0.147801 0.716809 9.000000
2.505498 -0.174435 0.710008 9.000000
2.465060 -0.199213 0.698813 9.000000
2.443620 -0.224899 0.693219 9.000000
2.484051 -0.256586 0.705294 36.000000
2.471559 -0.283129 0.702182 73.000000
2.454002 -0.308858 0.697793 73.000000
2.398107 -0.329035 0.682553 49.000000
2.389586 -0.355037 0.680890 60.000000
2.376099 -0.380173 0.677795 40.000000
2.357595 -0.404207 0.673349 77.000000
2.324713 -0.425175 0.664771 54.000000
2.305743 -0.448341 0.660337 65.000000
2.248820 -0.463418 0.645016 20.000000
2.210727 -0.481288 0.635048 10.000000
2.191343 -0.502658 0.630496 10.000000
2.185785 -0.527028 0.629926 16.000000
2.212545 -0.559664 0.638861 37.000000
2.197087 -0.581717 0.635518 35.000000
2.153476 -0.595930 0.624180 47.000000
2.146892 -0.619932 0.623542 78.000000
2.158473 -0.649341 0.628204 38.000000
2.155857 -0.674917 0.629045 28.000000
2.180480 -0.709322 0.637635 27.000000
2.245741 -0.758165 0.658242 27.000000
2.282807 -0.799159 0.670855 24.000000
2.323749 -0.842737 0.684772 23.000000
2.382107 -0.894045 0.703989 22.000000
2.565475 -0.995608 0.760363 9.000000
2.576865 -1.033154 0.765967 9.000000
2.534262 -1.048903 0.755616 9.000000
2.527235 -1.079013 0.755814 9.000000
2.502168 -1.101279 0.750711 9.000000
2.485664 -1.127060 0.748178 9.000000
2.451293 -1.144838 0.740627 8.000000
2.417059 -1.161529 0.732753 9.000000
2.425784 -1.199367 0.738316 12.000000
2.399785 -1.219688 0.733005 10.000000
2.369141 -1.237658 0.726567 11.000000
2.338692 -1.254738 0.719978 10.000000
2.333298 -1.285664 0.721333 18.000000
2.285454 -1.292764 0.709717 19.000000
2.233602 -1.296601 0.696669 22.000000
2.240387 -1.333521 0.701697 49.000000
2.188544 -1.335927 0.688705 81.000000
2.173878 -1.360477 0.687328 74.000000
2.146692 -1.376960 0.682075 64.000000
2.139619 -1.406276 0.683284 63.000000
2.144212 -1.443625 0.688261 35.000000
2.156223 -1.486828 0.695777 32.000000
2.128086 -1.502532 0.690363 10.000000
2.123390 -1.534796 0.692635 28.000000
2.102137 -1.556151 0.690036 41.000000
2.081278 -1.576675 0.687112 35.000000
2.067879 -1.602874 0.686734 35.000000
2.042880 -1.619813 0.682468 35.000000
2.021523 -1.639465 0.679478 32.000000
2.021667 -1.678067 0.684218 34.000000
1.984992 -1.684862 0.676112 32.000000
1.970340 -1.710035 0.675559 34.000000
1.944593 -1.725486 0.671168 44.000000
1.932343 -1.754201 0.672023 32.000000
1.909877 -1.772290 0.668888 35.000000
1.894264 -1.796721 0.668157 34.000000
1.877591 -1.821725 0.667667 31.000000
1.844217 -1.828841 0.660676 33.000000
1.813563 -1.839588 0.655189 27.000000
1.813993 -1.880447 0.660509 34.000000
1.790515 -1.896906 0.657149 40.000000
1.779201 -1.928039 0.658914 34.000000
1.755396 -1.943921 0.655554 36.000000
1.736853 -1.967663 0.654787 33.000000
1.722229 -1.993994 0.654971 32.000000
1.703154 -2.017339 0.654185 33.000000
1.663190 -2.013560 0.644671 17.000000
1.652978 -2.047635 0.647396 29.000000
1.637246 -2.073286 0.647378 30.000000
1.608318 -2.084272 0.642930 26.000000
1.588003 -2.106511 0.641962 28.000000
1.571565 -2.131650 0.641915 27.000000
1.561981 -2.169334 0.645538 22.000000
1.513968 -2.150511 0.632498 10.000000
1.470830 -2.139797 0.622115 9.000000
1.352194 -2.015233 0.579283 10.000000
1.267010 -1.932297 0.549175 10.000000
1.190420 -1.860724 0.522956 11.000000
1.119370 -1.791137 0.497866 18.000000
1.061438 -1.741571 0.478804 14.000000
0.997360 -1.678380 0.456461 16.000000
0.945651 -1.630235 0.438635 10.000000
0.901158 -1.594397 0.424503 7.000000
1.001606 1.807430 0.495258 8.000000
1.009625 1.774503 0.491418 25.000000
1.024398 1.754253 0.490992 21.000000
1.045071 1.747069 0.494340 25.000000
1.059362 1.726513 0.493889 25.000000
1.072202 1.706518 0.493610 26.000000
1.096330 1.702143 0.497834 34.000000
1.109816 1.681188 0.497283 26.000000
1.132790 1.676883 0.501716 30.000000
1.137564 1.643700 0.497523 26.000000
1.166001 1.646899 0.504321 29.000000
1.169985 1.613684 0.500016 31.000000
1.195582 1.612323 0.505624 29.000000
1.210465 1.594565 0.506167 32.000000
1.224257 1.577250 0.506827 32.000000
1.241733 1.562980 0.508462 28.000000
1.264312 1.556669 0.512825 34.000000
1.262922 1.519665 0.507012 25.000000
1.285254 1.512913 0.511311 33.000000
1.305196 1.501615 0.514126 52.000000
1.330768 1.497920 0.519648 35.000000
1.350574 1.486024 0.522486 39.000000
1.356464 1.460319 0.520469 59.000000
1.372684 1.444540 0.521915 33.000000
1.398130 1.439607 0.527425 48.000000
1.403237 1.413610 0.525310 25.000000
1.429285 1.407502 0.530528 49.000000
1.423412 1.371363 0.524481 59.000000
1.445110 1.362015 0.528613 52.000000
1.460224 1.345207 0.529930 71.000000
1.503352 1.354704 0.541843 62.000000
1.510620 1.331376 0.540784 35.000000
1.528593 1.317539 0.543548 60.000000
1.535815 1.293589 0.542217 21.000000
1.545992 1.273255 0.542370 37.000000
1.571008 1.264856 0.547694 62.000000
1.580803 1.244141 0.547783 41.000000
1.594228 1.226325 0.549120 66.000000
1.607463 1.208318 0.550456 51.000000
1.624393 1.193037 0.553115 46.000000
1.637277 1.174604 0.554391 57.000000
1.677601 1.175468 0.564972 24.000000
1.686399 1.153811 0.564872 46.000000
1.706899 1.140078 0.568771 76.000000
1.723285 1.123338 0.571279 62.000000
1.731405 1.101271 0.571111 61.000000
1.751550 1.086719 0.574903 76.000000
1.763306 1.066865 0.576013 37.000000
1.770783 1.044435 0.575775 71.000000
1.823523 1.048757 0.590526 29.000000
1.830793 1.025734 0.590173 43.000000
1.867250 1.018807 0.599306 81.000000
1.886607 1.002482 0.603237 57.000000
1.910336 0.987771 0.608268 71.000000
1.920839 0.966354 0.609428 60.000000
1.935732 0.946709 0.611680 50.000000
1.950124 0.927104 0.614141 52.000000
1.973155 0.911297 0.619279 28.000000
1.991653 0.893161 0.622989 47.000000
2.018845 0.878528 0.629456 63.000000
2.045994 0.863289 0.635870 36.000000
2.068645 0.845764 0.640922 57.000000
2.086664 0.826100 0.644605 57.000000
2.099987 0.804304 0.646771 56.000000
2.108628 0.780738 0.647556 53.000000
2.103342 0.752319 0.644328 36.000000
2.134206 0.736526 0.651973 78.000000
2.146580 0.714161 0.654223 35.000000
2.186287 0.700268 0.664602 26.000000
2.184548 0.672934 0.662620 32.000000
2.214761 0.655269 0.670241 39.000000
2.207876 0.626529 0.666790 10.000000
2.242237 0.609505 0.675898 9.000000
2.253456 0.585529 0.677887 8.000000
2.273576 0.563833 0.682825 9.000000
2.293546 0.541751 0.687622 9.000000
2.318047 0.520258 0.693828 9.000000
2.365807 0.503339 0.706981 9.000000
2.361704 0.474915 0.704635 9.000000
2.394970 0.453848 0.713677 10.000000
2.475359 0.440558 0.736635 44.000000
2.527325 0.420773 0.751182 83.000000
2.545948 0.394622 0.755812 90.000000
2.569040 0.368916 0.761937 95.000000
2.587188 0.342075 0.766411 95.000000
2.609807 0.315491 0.772548 69.000000
2.641678 0.289359 0.781260 95.000000
2.649410 0.260326 0.783009 52.000000
2.656899 0.231101 0.784675 9.000000
2.764409 0.209377 0.815899 11.000000
2.785671 0.179744 0.821812 51.000000
2.797026 0.149083 0.824814 95.000000
2.846371 0.119913 0.839210 98.000000
2.785229 0.086171 0.821021 87.000000
2.761963 0.054492 0.813955 86.000000
2.733627 0.023396 0.805563 84.000000
2.709734 -0.007069 0.798583 50.000000
2.637543 -0.036339 0.777298 10.000000
2.603394 -0.064958 0.767405 9.000000
2.583394 -0.093348 0.761670 9.000000
2.543916 -0.120402 0.750122 9.000000
2.518517 -0.147440 0.742978 9.000000
2.492828 -0.173863 0.735677 9.000000
2.452515 -0.198590 0.724303 8.000000
2.455021 -0.226428 0.725479 10.000000
2.471518 -0.255854 0.730888 37.000000
2.468515 -0.283439 0.730651 82.000000
2.408241 -0.303742 0.713261 72.000000
2.400014 -0.330035 0.711697 84.000000
2.377334 -0.354024 0.705601 66.000000
2.373282 -0.380551 0.705296 39.000000
2.326445 -0.399765 0.692175 35.000000
2.322016 -0.425665 0.691725 73.000000
2.293736 -0.446976 0.684175 74.000000
2.251086 -0.464850 0.672570 28.000000
2.208387 -0.481809 0.660834 10.000000
2.188965 -0.503234 0.656125 13.000000
2.188061 -0.528784 0.656955 26.000000
2.196223 -0.556654 0.660509 54.000000
2.157479 -0.572594 0.650217 35.000000
2.151235 -0.596576 0.649436 72.000000
2.126188 -0.615290 0.643217 53.000000
2.123962 -0.640382 0.643977 81.000000
2.153569 -0.675568 0.654411 30.000000
2.187060 -0.713135 0.666358 29.000000
2.233834 -0.755949 0.682153 30.000000
2.261703 -0.793697 0.692582 22.000000
2.293658 -0.833593 0.704066 20.000000
2.360882 -0.888004 0.726826 29.000000
2.516720 -0.978886 0.777021 9.000000
2.546045 -1.023140 0.788506 9.000000
2.525841 -1.047948 0.784615 9.000000
2.501037 -1.070491 0.779355 9.000000
2.484893 -1.096446 0.776858 9.000000
2.481663 -1.128100 0.778396 9.000000
2.443161 -1.143469 0.768875 9.000000
2.409000 -1.160256 0.760750 10.000000
2.378866 -1.178862 0.754266 11.000000
2.335976 -1.190025 0.743371 24.000000
2.309967 -1.209609 0.738121 28.000000
2.284105 -1.228409 0.732637 36.000000
2.253603 -1.244845 0.725976 69.000000
2.243993 -1.272607 0.726106 43.000000
2.209448 -1.285286 0.717793 46.000000
2.228343 -1.329817 0.727291 71.000000
2.217728 -1.357416 0.727322 50.000000
2.214969 -1.390062 0.729954 52.000000
2.207742 -1.420130 0.731229 38.000000
2.192108 -1.444912 0.729733 34.000000
2.180134 -1.472224 0.729572 35.000000
2.167935 -1.499459 0.729322 25.000000
2.151492 -1.523747 0.727736 10.000000
2.138618 -1.550699 0.727394 26.000000
2.098414 -1.557456 0.717776 36.000000
2.062176 -1.566277 0.709434 34.000000
2.052667 -1.595304 0.710349 32.000000
2.023904 -1.609243 0.704678 32.000000
2.013806 -1.637905 0.705501 34.000000
2.007122 -1.669657 0.707619 26.000000
1.966249 -1.673916 0.698220 27.000000
1.958968 -1.705303 0.700247 34.000000
1.940498 -1.727140 0.698277 31.000000
1.914636 -1.742229 0.693718 34.000000
1.891472 -1.760857 0.690710 29.000000
1.886451 -1.795241 0.693900 34.000000
1.863577 -1.812762 0.690560 35.000000
1.846726 -1.837597 0.689952 24.000000
1.820126 -1.851100 0.685262 30.000000
1.800297 -1.871257 0.683131 35.000000
1.782634 -1.895429 0.682515 34.000000
1.768826 -1.922168 0.682828 49.000000
1.740849 -1.935244 0.678329 34.000000
1.710570 -1.943555 0.672260 32.000000
1.701482 -1.977907 0.675230 37.000000
1.692898 -2.011393 0.677921 27.000000
1.655063 -2.012082 0.669545 20.000000
1.642746 -2.041628 0.670884 24.000000
1.628945 -2.071875 0.672446 27.000000
1.595215 -2.074356 0.665030 29.000000
1.580795 -2.104274 0.666487 24.000000
1.567201 -2.133312 0.667670 31.000000
1.532066 -2.135547 0.660546 21.000000
1.520712 -2.168221 0.662838 9.000000
1.422546 -2.077552 0.627843 9.000000
1.346712 -2.012416 0.601212 10.000000
1.279209 -1.958860 0.578597 10.000000
1.189541 -1.867112 0.545369 11.000000
1.118607 -1.797595 0.519320 10.000000
1.068346 -1.760671 0.503086 15.000000
0.995492 -1.680296 0.475020 14.000000
0.950055 -1.645474 0.460172 10.000000
1.008665 1.826201 0.519456 6.000000
1.006248 1.776929 0.510833 10.000000
1.025969 1.764980 0.512824 18.000000
1.034356 1.736885 0.510179 24.000000
1.056162 1.728868 0.513379 19.000000
1.072724 1.712260 0.514124 26.000000
1.090667 1.700298 0.516223 22.000000
1.106841 1.683398 0.516953 20.000000
1.121721 1.667067 0.517800 25.000000
1.148454 1.665851 0.523393 10.000000
1.157562 1.641104 0.521726 21.000000
1.170070 1.619709 0.521039 23.000000
1.187085 1.606664 0.523056 19.000000
1.204919 1.592737 0.524821 30.000000
1.215766 1.571603 0.524223 23.000000
1.239202 1.564946 0.528476 26.000000
1.249632 1.543570 0.527861 28.000000
1.279081 1.543839 0.534708 11.000000
1.282870 1.514785 0.531435 33.000000
1.293415 1.492498 0.530472 29.000000
1.312405 1.481633 0.533583 24.000000
1.337826 1.477602 0.539315 35.000000
1.357553 1.465576 0.542200 28.000000
1.366523 1.443282 0.541341 32.000000
1.388570 1.434875 0.545674 32.000000
1.407945 1.422067 0.548512 17.000000
1.419651 1.402847 0.548896 35.000000
1.434685 1.386801 0.550539 32.000000
1.450099 1.370124 0.551992 35.000000
1.447065 1.337413 0.546885 43.000000
1.490004 1.346902 0.559173 34.000000
1.504511 1.330040 0.560764 36.000000
1.504763 1.299952 0.556708 35.000000
1.526044 1.289150 0.560924 22.000000
1.539976 1.271862 0.562380 35.000000
1.549910 1.251425 0.562478 30.000000
1.570981 1.239824 0.566655 32.000000
1.591992 1.227926 0.570783 36.000000
1.605259 1.209812 0.572122 33.000000
1.622206 1.194485 0.574834 36.000000
1.646828 1.184492 0.580301 31.000000
1.659706 1.165819 0.581589 24.000000
1.668364 1.144234 0.581496 40.000000
1.696732 1.135975 0.588253 35.000000
1.696989 1.108832 0.585324 35.000000
1.712758 1.092483 0.588067 43.000000
1.757251 1.093284 0.600372 35.000000
1.769154 1.073291 0.601556 37.000000
1.784993 1.055610 0.604006 36.000000
1.796199 1.035703 0.605325 24.000000
1.824207 1.024669 0.611994 36.000000
1.843535 1.008852 0.616004 32.000000
1.867265 0.994632 0.621233 35.000000
1.894862 0.982536 0.628090 43.000000
1.918437 0.967422 0.633281 34.000000
1.928760 0.945889 0.634375 36.000000
1.938945 0.924219 0.635469 33.000000
1.948789 0.902412 0.636494 24.000000
1.980354 0.890295 0.644635 35.000000
1.998678 0.871870 0.648453 35.000000
2.034531 0.860577 0.657918 35.000000
2.052683 0.841279 0.661691 35.000000
2.070632 0.821640 0.665472 32.000000
2.092917 0.803447 0.670622 42.000000
2.096925 0.778357 0.670115 35.000000
2.127875 0.762780 0.678082 23.000000
2.131416 0.737375 0.677580 69.000000
2.143791 0.714957 0.679883 12.000000
2.137895 0.686368 0.676134 9.000000
2.154342 0.665147 0.679808 9.000000
2.193435 0.650671 0.690786 16.000000
2.246471 0.639115 0.705908 53.000000
2.257939 0.615055 0.708026 32.000000
2.218123 0.577773 0.694278 8.000000
2.289197 0.569083 0.715247 10.000000
2.299871 0.544458 0.717376 8.000000
2.315010 0.520779 0.720811 8.000000
2.334570 0.497736 0.725703 8.000000
2.363346 0.476268 0.733436 8.000000
2.377743 0.451598 0.736964 9.000000
2.453079 0.437479 0.759288 32.000000
2.490710 0.415481 0.769973 17.000000
2.523414 0.392010 0.779293 53.000000
2.560620 0.368586 0.790004 81.000000
2.569240 0.340487 0.791878 35.000000
2.596530 0.314498 0.799517 74.000000
2.623550 0.287977 0.807078 35.000000
2.636014 0.259603 0.810340 32.000000
2.643397 0.230516 0.812226 9.000000
2.764947 0.209924 0.848990 9.000000
2.767071 0.178949 0.849255 33.000000
2.816580 0.150435 0.864078 95.000000
2.827573 0.119329 0.867188 81.000000
2.809545 0.087120 0.861508 79.000000
2.752998 0.054492 0.843926 59.000000
2.719889 0.023355 0.833843 33.000000
2.705635 -0.007082 0.829447 48.000000
2.614643 -0.036141 0.801520 9.000000
2.575827 -0.064398 0.789797 8.000000
2.579700 -0.093439 0.791180 9.000000
2.535570 -0.120240 0.777832 8.000000
2.510250 -0.147279 0.770347 8.000000
2.484719 -0.173704 0.762866 8.000000
2.439765 -0.198047 0.749531 6.000000
2.423218 -0.223992 0.744829 9.000000
2.444433 -0.253565 0.751832 31.000000
2.446203 -0.281483 0.753137 43.000000
2.433494 -0.307709 0.749899 62.000000
2.377943 -0.327768 0.733513 38.000000
2.364731 -0.352936 0.730133 52.000000
2.346675 -0.377057 0.725297 59.000000
2.295297 -0.395182 0.710332 10.000000
2.304950 -0.423486 0.714259 47.000000
2.262685 -0.441873 0.702083 30.000000
2.238947 -0.463369 0.695819 26.000000
2.238442 -0.489481 0.696836 55.000000
2.214386 -0.510254 0.690437 35.000000
2.185411 -0.529338 0.682596 51.000000
2.188877 -0.556150 0.684852 60.000000
2.145759 -0.570725 0.672607 19.000000
2.143998 -0.596079 0.673489 52.000000
2.118943 -0.614728 0.667063 47.000000
2.107678 -0.636908 0.664774 36.000000
2.127988 -0.669107 0.672733 27.000000
2.152375 -0.703481 0.682262 23.000000
2.217199 -0.752124 0.704519 24.000000
2.245054 -0.789606 0.715059 22.000000
2.258755 -0.822981 0.721487 9.000000
2.348389 -0.885353 0.752067 22.000000
2.481367 -0.967333 0.797061 9.000000
2.555107 -1.029255 0.823246 8.000000
2.517158 -1.046819 0.813527 9.000000
2.501207 -1.073147 0.810970 8.000000
2.458740 -1.087571 0.799778 9.000000
2.390058 -1.089294 0.780074 10.000000
2.343384 -1.099676 0.767450 9.000000
2.339988 -1.130049 0.769052 32.000000
2.323288 -1.154050 0.766312 37.000000
2.293328 -1.171574 0.759581 48.000000
2.280627 -1.197139 0.758188 62.000000
2.271494 -1.225227 0.758451 33.000000
2.266589 -1.255161 0.759705 31.000000
2.265096 -1.287819 0.762682 28.000000
2.259468 -1.317843 0.763911 11.000000
2.265427 -1.355698 0.769577 32.000000
2.242305 -1.376188 0.765357 30.000000
2.227003 -1.401524 0.763852 30.000000
2.215988 -1.428710 0.763487 35.000000
2.176193 -1.437870 0.753651 26.000000
2.176198 -1.473084 0.757617 29.000000
2.144210 -1.486671 0.750503 24.000000
2.131724 -1.513647 0.750225 8.000000
2.115122 -1.537554 0.748564 21.000000
2.078986 -1.547026 0.740039 26.000000
2.061961 -1.570384 0.738230 31.000000
2.044772 -1.593577 0.736503 31.000000
2.027336 -1.616441 0.734693 25.000000
2.024567 -1.651387 0.738240 32.000000
1.995502 -1.664841 0.732349 24.000000
1.955403 -1.668424 0.722256 10.000000
1.947461 -1.700413 0.724675 29.000000
1.925350 -1.719001 0.721362 26.000000
1.928047 -1.759995 0.727370 27.000000
1.891332 -1.765063 0.718611 31.000000
1.885443 -1.800169 0.722148 24.000000
1.855614 -1.811120 0.716009 29.000000
1.832663 -1.828320 0.712548 21.000000
1.798598 -1.835685 0.705369 10.000000
1.785510 -1.862655 0.705730 32.000000
1.782010 -1.900085 0.710101 24.000000
1.747627 -1.906376 0.702797 26.000000
1.736847 -1.936455 0.704427 29.000000
1.716204 -1.955701 0.702042 23.000000
1.697388 -1.979105 0.701285 29.000000
1.676294 -1.997891 0.698895 21.000000
1.657027 -2.020908 0.697961 10.000000
1.632459 -2.035465 0.694199 22.000000
1.603755 -2.046643 0.689411 19.000000
1.596703 -2.083477 0.693250 22.000000
1.587909 -2.121226 0.697375 22.000000
1.562642 -2.134799 0.693432 18.000000
1.544481 -2.160699 0.693622 21.000000
1.527155 -2.185638 0.693458 9.000000
1.426407 -2.091330 0.655905 8.000000
1.347991 -2.022370 0.627040 9.000000
1.262029 -1.940489 0.594947 9.000000
1.184462 -1.864398 0.565199 9.000000
1.133035 -1.828682 0.548293 10.000000
1.057511 -1.750499 0.519193 9.000000
0.989972 -1.678578 0.492440 10.000000
0.917897 -1.637262 0.470227 6.000000
0.972317 1.769018 0.521632 8.000000
0.995521 1.766505 0.526435 24.000000
1.010304 1.746302 0.526022 25.000000
1.027241 1.730181 0.526855 23.000000
1.040243 1.710365 0.526533 26.000000
1.064375 1.706250 0.531108 28.000000
1.077009 1.686107 0.530766 28.000000
1.095771 1.673410 0.532724 29.000000
1.121400 1.673128 0.538748 24.000000
1.118110 1.628049 0.530285 25.000000
1.143536 1.627292 0.536312 32.000000
1.158760 1.609921 0.536891 30.000000
1.169971 1.589169 0.536276 32.000000
1.193440 1.583080 0.540780 28.000000
1.207178 1.565840 0.541466 29.000000
1.227556 1.555423 0.544542 32.000000
1.243987 1.541626 0.546549 28.000000
1.263359 1.531358 0.549828 33.000000
1.283504 1.520203 0.552864 35.000000
1.293343 1.498417 0.552131 35.000000
1.299653 1.473036 0.549968 41.000000
1.328992 1.472075 0.556995 32.000000
1.351173 1.464123 0.561530 39.000000
1.356872 1.438400 0.559280 34.000000
1.382885 1.432853 0.564942 32.000000
1.384726 1.403557 0.561235 43.000000
1.406569 1.394624 0.565670 34.000000
1.415193 1.371463 0.564426 42.000000
1.433383 1.358753 0.567496 42.000000
1.447932 1.342511 0.569126 35.000000
1.462419 1.326080 0.570757 62.000000
1.487433 1.319082 0.576502 62.000000
1.494393 1.295861 0.575289 34.000000
1.512514 1.281487 0.578008 36.000000
1.530074 1.267344 0.580924 33.000000
1.547448 1.252992 0.583784 34.000000
1.572284 1.244318 0.589535 65.000000
1.581948 1.223461 0.589524 36.000000
1.595183 1.205454 0.590924 37.000000
1.612083 1.190167 0.593744 49.000000
1.621144 1.168995 0.593660 32.000000
1.649092 1.161964 0.600896 35.000000
1.681483 1.156718 0.609333 46.000000
1.690052 1.134872 0.609200 46.000000
1.710450 1.120862 0.613304 62.000000
1.718599 1.098736 0.613103 36.000000
1.742420 1.087098 0.618861 42.000000
1.754268 1.067198 0.619974 47.000000
1.770036 1.049608 0.622534 34.000000
1.781190 1.029727 0.623912 44.000000
1.792410 1.009387 0.624962 39.000000
1.824204 1.000747 0.633424 36.000000
1.843260 0.984744 0.637603 45.000000
1.883762 0.979109 0.648765 37.000000
1.902795 0.962218 0.652912 58.000000
1.925940 0.947109 0.658400 66.000000
1.927456 0.921269 0.656559 32.000000
1.959016 0.909573 0.665006 32.000000
1.977521 0.891360 0.668988 36.000000
2.000281 0.874727 0.674385 35.000000
2.009695 0.852133 0.675361 35.000000
2.027665 0.833030 0.679227 39.000000
2.041138 0.811822 0.681549 36.000000
2.067524 0.795801 0.688538 55.000000
2.076162 0.772366 0.689316 37.000000
2.106836 0.757144 0.697746 53.000000
2.123870 0.736584 0.701584 71.000000
2.095567 0.700618 0.690515 14.000000
2.125695 0.684333 0.698829 10.000000
2.128493 0.658928 0.698049 9.000000
2.167557 0.644431 0.709235 27.000000
2.215715 0.631756 0.723365 87.000000
2.236226 0.610689 0.728674 36.000000
2.274980 0.594058 0.739921 53.000000
2.304435 0.574247 0.748109 54.000000
2.324433 0.551562 0.753304 63.000000
2.348925 0.529612 0.759935 47.000000
2.354550 0.503181 0.760397 32.000000
2.387905 0.482415 0.770133 22.000000
2.407022 0.458268 0.775204 21.000000
2.439960 0.436243 0.784808 34.000000
2.454043 0.410361 0.788225 66.000000
2.481812 0.386469 0.796338 76.000000
2.509417 0.362048 0.804380 56.000000
2.546301 0.338191 0.815293 71.000000
2.568760 0.311867 0.821675 87.000000
2.590855 0.285118 0.828145 52.000000
2.608086 0.257393 0.833023 43.000000
2.672394 0.233495 0.852970 8.000000
2.688966 0.204598 0.857861 10.000000
2.719566 0.176306 0.867217 36.000000
2.749857 0.147287 0.876490 78.000000
2.775068 0.117426 0.884250 95.000000
2.747653 0.085314 0.875326 73.000000
2.729304 0.054121 0.869258 89.000000
2.701158 0.023273 0.860328 59.000000
2.667896 -0.007007 0.849707 46.000000
2.629530 -0.036387 0.837484 12.000000
2.590923 -0.064995 0.825347 9.000000
2.585249 -0.093875 0.823747 9.000000
2.517464 -0.119706 0.802347 9.000000
2.530279 -0.148797 0.806816 9.000000
2.490471 -0.174544 0.794443 9.000000
2.440982 -0.198585 0.779047 9.000000
2.400674 -0.222440 0.766690 9.000000
2.436041 -0.253329 0.778576 36.000000
2.428406 -0.280077 0.776670 50.000000
2.382649 -0.301926 0.762814 42.000000
2.346220 -0.324124 0.751916 30.000000
2.318937 -0.346913 0.743901 22.000000
2.305698 -0.371373 0.740428 10.000000
2.287420 -0.394811 0.735523 10.000000
2.245459 -0.413541 0.723002 9.000000
2.231498 -0.436852 0.719474 10.000000
2.235957 -0.463827 0.721906 27.000000
2.216796 -0.485834 0.716949 92.000000
2.211349 -0.510747 0.716440 95.000000
2.196416 -0.533337 0.712852 77.000000
2.162757 -0.550865 0.703185 37.000000
2.142863 -0.571387 0.697968 45.000000
2.127358 -0.592809 0.694260 62.000000
2.125369 -0.618020 0.695122 75.000000
2.109370 -0.639184 0.691491 75.000000
2.111350 -0.665669 0.693777 30.000000
2.167469 -0.710188 0.713907 33.000000
2.186774 -0.743695 0.721982 29.000000
2.232590 -0.787185 0.738975 22.000000
2.291219 -0.836722 0.760309 27.000000
2.322052 -0.877722 0.772827 27.000000
2.437051 -0.952327 0.813270 16.000000
2.466282 -0.995845 0.825607 21.000000
2.450910 -1.021799 0.823022 33.000000
2.413216 -1.038048 0.813049 57.000000
2.397435 -1.063218 0.810482 77.000000
2.394398 -1.094164 0.812173 46.000000
2.386699 -1.123019 0.812384 55.000000
2.344208 -1.135223 0.800751 35.000000
2.348932 -1.170026 0.805288 60.000000
2.365901 -1.211584 0.814199 37.000000
2.348096 -1.236250 0.811464 37.000000
2.343044 -1.266968 0.812943 36.000000
2.316730 -1.286180 0.806959 32.000000
2.306600 -1.314839 0.807060 33.000000
2.279897 -1.333253 0.801097 28.000000
2.252763 -1.351809 0.795319 30.000000
2.245920 -1.382292 0.796788 33.000000
2.218892 -1.399601 0.790693 30.000000
2.195297 -1.419570 0.786308 30.000000
2.171650 -1.439106 0.781851 33.000000
2.155713 -1.463677 0.780273 30.000000
2.163124 -1.504494 0.787201 27.000000
2.123672 -1.511655 0.776621 10.000000
2.106987 -1.535645 0.774961 12.000000
2.090137 -1.559468 0.773135 32.000000
2.053901 -1.568492 0.764302 30.000000
2.032933 -1.588732 0.761078 29.000000
2.011783 -1.608640 0.757778 34.000000
1.990453 -1.628218 0.754486 29.000000
1.972705 -1.650627 0.752605 28.000000
1.950330 -1.670324 0.749487 24.000000
1.924903 -1.685957 0.744733 24.000000
1.913676 -1.713917 0.745486 31.000000
1.887979 -1.728981 0.740585 29.000000
1.876206 -1.756693 0.741323 28.000000
1.864128 -1.784319 0.741882 31.000000
1.840537 -1.802506 0.738619 26.000000
1.827867 -1.829919 0.739159 23.000000
1.794639 -1.836603 0.731463 24.000000
1.787231 -1.871294 0.734890 24.000000
1.763834 -1.887645 0.731230 32.000000
1.733773 -1.896655 0.724782 24.000000
1.715713 -1.920370 0.724098 24.000000
1.704646 -1.950348 0.725696 27.000000
1.690054 -1.976550 0.725922 26.000000
1.670895 -1.999857 0.725037 21.000000
1.631303 -1.995964 0.714547 13.000000
1.625043 -2.032910 0.718671 20.000000
1.620104 -2.074493 0.724323 24.000000
1.580548 -2.069412 0.713727 20.000000
1.565964 -2.099303 0.715289 21.000000
1.546602 -2.120601 0.713950 19.000000
1.522861 -2.138447 0.711543 19.000000
1.522346 -2.186993 0.719227 10.000000
1.481555 -2.180717 0.708910 9.000000
1.351629 -2.036091 0.654350 9.000000
1.281655 -1.978777 0.628765 9.000000
1.193632 -1.886744 0.592868 9.000000
1.139491 -1.847151 0.574062 9.000000
1.072703 -1.780994 0.547473 10.000000
1.003854 -1.710043 0.520007 10.000000
0.958353 -1.675549 0.504108 9.000000
0.895959 -1.605850 0.478015 7.000000
0.980240 1.792406 0.547274 9.000000
0.988362 1.759611 0.542974 27.000000
1.004386 1.744202 0.544029 27.000000
1.021338 1.728086 0.544819 35.000000
1.039365 1.716533 0.547168 30.000000
1.055927 1.700059 0.547879 32.000000
1.068610 1.680018 0.547507 34.000000
1.089896 1.671325 0.550855 30.000000
1.107521 1.659007 0.553065 34.000000
1.109648 1.622014 0.547042 29.000000
1.134928 1.621335 0.553197 29.000000
1.149246 1.604565 0.553978 35.000000
1.169985 1.594808 0.557273 34.000000
1.189680 1.585486 0.560704 35.000000
1.204352 1.567590 0.561224 36.000000
1.220972 1.553981 0.563294 35.000000
1.235268 1.535811 0.563737 36.000000
1.257639 1.529283 0.568499 31.000000
1.276950 1.518690 0.571833 38.000000
1.271909 1.478143 0.563875 58.000000
1.287645 1.463771 0.565796 42.000000
1.309614 1.456289 0.570450 53.000000
1.319364 1.433787 0.569327 59.000000
1.337953 1.422351 0.572592 50.000000
1.349843 1.403679 0.572982 50.000000
1.378345 1.401993 0.580441 31.000000
1.393297 1.386353 0.582193 53.000000
1.415684 1.376644 0.586542 63.000000
1.426986 1.357248 0.586874 37.000000
1.441598 1.340943 0.588567 73.000000
1.466650 1.334243 0.594506 74.000000
1.473898 1.311138 0.593268 62.000000
1.498878 1.303714 0.599235 70.000000
1.509291 1.283516 0.599370 28.000000
1.523188 1.266270 0.600949 40.000000
1.548034 1.257948 0.606831 63.000000
1.565395 1.243170 0.609817 66.000000
1.575140 1.222380 0.609822 67.000000
1.584565 1.201484 0.609756 42.000000
1.597642 1.183330 0.611216 33.000000
1.618206 1.170650 0.615494 53.000000
1.642668 1.160358 0.621260 26.000000
1.674983 1.155093 0.630004 52.000000
1.679282 1.131038 0.628599 45.000000
1.703543 1.119624 0.634284 36.000000
1.715793 1.100078 0.635522 50.000000
1.731501 1.083323 0.638447 40.000000
1.747395 1.065954 0.641117 35.000000
1.766918 1.051194 0.645553 53.000000
1.794932 1.040440 0.652606 24.000000
1.789476 1.010814 0.647921 36.000000
1.813057 0.997188 0.653490 63.000000
1.853134 0.992479 0.665309 41.000000
1.859540 0.969348 0.665009 62.000000
1.895446 0.961266 0.675234 52.000000
1.905790 0.939760 0.676391 35.000000
1.924453 0.922305 0.680586 52.000000
1.938683 0.902508 0.683133 21.000000
1.965769 0.888360 0.690255 31.000000
1.975377 0.866103 0.691292 41.000000
2.002234 0.851087 0.698373 34.000000
2.020241 0.831979 0.702339 37.000000
2.029066 0.809287 0.703390 35.000000
2.051140 0.791384 0.708833 35.000000
2.072903 0.773250 0.714429 62.000000
2.081133 0.749906 0.715423 32.000000
2.116108 0.735794 0.725588 53.000000
2.092376 0.701282 0.715654 18.000000
2.108932 0.680555 0.719521 10.000000
2.125338 0.659553 0.723395 10.000000
2.173416 0.647709 0.737961 30.000000
2.207682 0.631166 0.748128 74.000000
2.228142 0.610096 0.753591 65.000000
2.262182 0.592178 0.763645 33.000000
2.291542 0.572411 0.772088 42.000000
2.320724 0.552050 0.780545 65.000000
2.340526 0.528995 0.785749 53.000000
2.355365 0.504633 0.789635 52.000000
2.383984 0.482812 0.798047 68.000000
2.365732 0.451562 0.790795 30.000000
2.407933 0.431577 0.803744 10.000000
2.412491 0.404387 0.804216 10.000000
2.477739 0.386799 0.825081 25.000000
2.495868 0.360882 0.830174 31.000000
2.537254 0.337780 0.843092 54.000000
2.564360 0.312109 0.851411 62.000000
2.591197 0.285826 0.859488 73.000000
2.589404 0.256206 0.858424 35.000000
2.577806 0.225780 0.853891 9.000000
2.698402 0.205870 0.893408 10.000000
2.709965 0.176044 0.896805 35.000000
2.754378 0.147874 0.911093 85.000000
2.765282 0.117248 0.914407 95.000000
2.747458 0.085521 0.908310 71.000000
2.710281 0.053845 0.895760 61.000000
2.686893 0.023146 0.888089 67.000000
2.634759 -0.006944 0.870829 53.000000
2.610771 -0.036255 0.862900 10.000000
2.572300 -0.064673 0.850349 9.000000
2.533436 -0.092238 0.837716 9.000000
2.518069 -0.119997 0.832847 10.000000
2.507132 -0.147796 0.829630 13.000000
2.500620 -0.175635 0.827820 18.000000
2.451284 -0.199893 0.811904 10.000000
2.453640 -0.227918 0.813313 37.000000
2.389710 -0.249078 0.792478 19.000000
2.367909 -0.273842 0.786060 10.000000
2.336580 -0.296831 0.776211 9.000000
2.300246 -0.318533 0.764958 9.000000
2.277878 -0.341608 0.758331 9.000000
2.274029 -0.367139 0.757812 9.000000
2.227764 -0.385457 0.743459 8.000000
2.209393 -0.407928 0.738341 9.000000
2.218830 -0.435500 0.742515 9.000000
2.223266 -0.462421 0.745052 26.000000
2.218160 -0.487365 0.744395 81.000000
2.189545 -0.506951 0.736103 56.000000
2.179298 -0.530438 0.734043 95.000000
2.159578 -0.551470 0.728733 45.000000
2.135129 -0.570820 0.721809 30.000000
2.124236 -0.593452 0.719548 81.000000
2.117722 -0.617241 0.718699 62.000000
2.097207 -0.636956 0.713419 39.000000
2.117305 -0.669189 0.721992 27.000000
2.141520 -0.703449 0.732018 26.000000
2.178724 -0.742883 0.746649 31.000000
2.215372 -0.783182 0.761096 23.000000
2.273786 -0.832593 0.783196 26.000000
2.313641 -0.876611 0.799011 51.000000
2.370340 -0.928838 0.821162 85.000000
2.413157 -0.976798 0.838328 91.000000
2.419873 -1.011349 0.843366 37.000000
2.408607 -1.038674 0.842273 35.000000
2.414575 -1.073653 0.847201 37.000000
2.428694 -1.112738 0.855076 28.000000
2.416368 -1.140130 0.853792 23.000000
2.416725 -1.173594 0.856981 32.000000
2.403816 -1.200789 0.855604 31.000000
2.369455 -1.216927 0.846569 36.000000
2.351934 -1.241315 0.843522 32.000000
2.321633 -1.258622 0.835954 30.000000
2.311681 -1.287401 0.836192 36.000000
2.293568 -1.310864 0.832995 29.000000
2.262489 -1.327415 0.825638 23.000000
2.256229 -1.357595 0.826871 33.000000
2.237092 -1.380779 0.823944 30.000000
2.205995 -1.395544 0.816126 35.000000
2.186549 -1.417987 0.813135 32.000000
2.162852 -1.437612 0.808496 31.000000
2.143465 -1.458915 0.805104 35.000000
2.111637 -1.472348 0.797529 22.000000
2.110903 -1.507385 0.801707 10.000000
2.105819 -1.539874 0.804387 19.000000
2.081172 -1.558057 0.799697 31.000000
2.045101 -1.567094 0.790455 34.000000
2.012781 -1.578403 0.782793 31.000000
2.002934 -1.607247 0.783835 31.000000
1.985235 -1.629862 0.781869 34.000000
1.960045 -1.646160 0.776997 23.000000
1.945715 -1.671483 0.776405 28.000000
1.920203 -1.687083 0.771471 32.000000
1.894747 -1.702358 0.766471 30.000000
1.890264 -1.736667 0.770107 35.000000
1.860897 -1.748093 0.763683 28.000000
1.855770 -1.782352 0.767201 30.000000
1.835613 -1.803902 0.765235 34.000000
1.809266 -1.817756 0.760099 24.000000
1.793019 -1.841518 0.759230 24.000000
1.769836 -1.858165 0.755446 30.000000
1.753025 -1.881512 0.754486 29.000000
1.735073 -1.905426 0.753763 34.000000
1.717781 -1.928430 0.752704 28.000000
1.693939 -1.943937 0.748847 32.000000
1.672061 -1.963685 0.746553 32.000000
1.663383 -1.997051 0.749554 25.000000
1.632898 -2.004447 0.742853 18.000000
1.613398 -2.027254 0.741849 21.000000
1.600627 -2.056566 0.743331 21.000000
1.571732 -2.067517 0.738199 26.000000
1.555554 -2.092708 0.738204 21.000000
1.537637 -2.118691 0.738438 24.000000
1.531937 -2.159348 0.743729 27.000000
1.520000 -2.192128 0.746263 12.000000
1.492786 -2.205891 0.742301 9.000000
1.355154 -2.049618 0.681935 9.000000
1.279955 -1.984494 0.652800 10.000000
1.194784 -1.896726 0.617011 10.000000
1.123093 -1.828454 0.588232 10.000000
1.069148 -1.783031 0.567358 11.000000
1.002905 -1.716373 0.540335 12.000000
0.956177 -1.677185 0.522339 10.000000
0.967136 1.777515 0.561273 9.000000
0.983438 1.762222 0.562366 16.000000
1.000735 1.746153 0.563257 30.000000
1.017812 1.730013 0.564072 26.000000
1.030914 1.710191 0.563773 29.000000
1.041253 1.686198 0.562024 35.000000
1.065259 1.681875 0.566837 27.000000
1.085563 1.673779 0.570549 34.000000
1.098922 1.652794 0.569879 26.000000
1.119018 1.644288 0.573470 27.000000
1.129096 1.619140 0.571321 35.000000
1.146217 1.606284 0.573516 34.000000
1.158425 1.584862 0.572722 32.000000
1.180898 1.579443 0.577655 35.000000
1.203470 1.573642 0.582609 30.000000
1.212183 1.548010 0.580254 35.000000
1.225577 1.530442 0.580960 30.000000
1.244839 1.520233 0.584445 28.000000
1.252561 1.494453 0.581970 36.000000
1.274692 1.487443 0.586827 33.000000
1.281078 1.462160 0.584505 77.000000
1.306271 1.458236 0.590758 36.000000
1.319326 1.439231 0.590995 54.000000
1.334766 1.424227 0.592925 62.000000
1.369808 1.429695 0.603539 32.000000
1.368430 1.396951 0.598060 32.000000
1.380710 1.377411 0.598217 59.000000
1.395465 1.361598 0.599960 36.000000
1.417070 1.352257 0.604652 67.000000
1.438568 1.342571 0.609362 49.000000
1.449563 1.322881 0.609576 49.000000
1.467423 1.309440 0.612757 77.000000
1.485164 1.295793 0.615883 37.000000
1.495524 1.275681 0.616026 30.000000
1.520345 1.267683 0.622095 37.000000
1.534087 1.250205 0.623678 36.000000
1.551367 1.235571 0.626704 65.000000
1.564824 1.217734 0.628228 36.000000
1.581821 1.202655 0.631201 36.000000
1.598307 1.187743 0.634437 62.000000
1.615109 1.172172 0.637361 34.000000
1.627896 1.153567 0.638704 31.000000
1.656152 1.145668 0.646157 40.000000
1.684062 1.137737 0.653896 48.000000
1.692533 1.115702 0.653665 77.000000
1.704754 1.096201 0.654900 43.000000
1.720419 1.079489 0.657936 53.000000
1.748438 1.069608 0.665283 77.000000
1.759882 1.049878 0.666664 34.000000
1.758734 1.022783 0.663395 30.000000
1.786509 1.011841 0.670715 62.000000
1.797385 0.991604 0.671968 35.000000
1.820554 0.977980 0.677895 47.000000
1.868925 0.977144 0.693208 58.000000
1.892124 0.962330 0.699120 82.000000
1.881211 0.930320 0.692446 71.000000
1.908308 0.917166 0.699801 32.000000
1.913943 0.893381 0.699319 28.000000
1.945198 0.881447 0.708206 41.000000
1.976462 0.868816 0.717116 35.000000
1.989990 0.848390 0.719875 47.000000
2.012327 0.831139 0.725522 36.000000
2.025555 0.810208 0.728226 35.000000
2.038822 0.788827 0.730653 51.000000
2.056074 0.769076 0.734812 35.000000
2.077716 0.750666 0.740569 32.000000
2.103583 0.733371 0.747858 82.000000
2.120456 0.712508 0.751904 57.000000
2.137108 0.691443 0.755886 42.000000
2.139889 0.665950 0.755229 31.000000
2.165191 0.647054 0.762344 36.000000
2.194800 0.629124 0.771218 95.000000
2.210628 0.606846 0.775230 38.000000
2.253699 0.591502 0.788795 36.000000
2.269192 0.568278 0.792679 61.000000
2.293721 0.546967 0.799706 38.000000
2.340976 0.530549 0.814932 67.000000
2.355958 0.506002 0.818690 73.000000
2.370595 0.481246 0.822531 51.000000
2.380312 0.455391 0.824687 38.000000
2.375684 0.426920 0.822166 9.000000
2.403611 0.403915 0.830620 9.000000
2.426477 0.379731 0.837626 9.000000
2.439882 0.353688 0.841251 9.000000
2.457609 0.327980 0.846495 10.000000
2.503317 0.305392 0.861522 13.000000
2.539325 0.280811 0.873248 17.000000
2.561123 0.254004 0.880049 26.000000
2.568326 0.225531 0.882082 10.000000
2.660359 0.203359 0.912920 16.000000
2.700102 0.175870 0.926131 40.000000
2.734913 0.147188 0.937730 91.000000
2.750504 0.116958 0.942855 81.000000
2.718475 0.084843 0.931690 73.000000
2.705077 0.053939 0.926829 91.000000
2.667588 0.023064 0.913953 49.000000
2.639295 -0.006982 0.904315 35.000000
2.606017 -0.036237 0.892886 30.000000
2.591243 -0.065306 0.888025 36.000000
2.557235 -0.093282 0.876599 76.000000
2.527813 -0.120819 0.866714 68.000000
2.521621 -0.149030 0.864768 83.000000
2.515110 -0.177054 0.862986 54.000000
2.446988 -0.200121 0.840239 35.000000
2.421139 -0.225487 0.831830 74.000000
2.380908 -0.248846 0.818575 16.000000
2.349854 -0.272369 0.808563 9.000000
2.313946 -0.294660 0.796792 10.000000
2.305875 -0.320112 0.794876 9.000000
2.278874 -0.342570 0.786426 9.000000
2.275010 -0.368282 0.785980 9.000000
2.238208 -0.388257 0.774316 9.000000
2.201309 -0.407423 0.762447 9.000000
2.210695 -0.434992 0.766774 10.000000
2.210463 -0.460798 0.767803 23.000000
2.200599 -0.484817 0.765757 95.000000
2.190685 -0.508442 0.763496 95.000000
2.161960 -0.527617 0.754886 66.000000
2.160666 -0.553175 0.755845 86.000000
2.127111 -0.570181 0.745578 37.000000
2.116235 -0.592815 0.743196 71.000000
2.100628 -0.613946 0.739217 52.000000
2.084656 -0.634943 0.735385 9.000000
2.190626 -0.694168 0.774390 10.000000
2.182929 -0.718886 0.773576 28.000000
2.148103 -0.734331 0.763129 31.000000
2.126587 -0.753773 0.757477 28.000000
2.055934 -0.754867 0.734282 36.000000
2.034389 -0.772938 0.728534 90.000000
2.034531 -0.799519 0.730934 95.000000
2.135668 -0.866978 0.769386 89.000000
2.261638 -0.948075 0.817516 92.000000
2.386295 -1.031765 0.865114 66.000000
2.444178 -1.089686 0.889167 34.000000
2.462316 -1.131266 0.898896 34.000000
2.424114 -1.146967 0.888158 27.000000
2.419976 -1.178539 0.889917 36.000000
2.398509 -1.201625 0.885313 37.000000
2.359987 -1.215647 0.874461 35.000000
2.342398 -1.240038 0.871364 37.000000
2.316339 -1.259624 0.865070 35.000000
2.302620 -1.285707 0.863461 33.000000
2.292261 -1.314409 0.863660 35.000000
2.249328 -1.323326 0.851111 24.000000
2.238991 -1.350998 0.850899 32.000000
2.215881 -1.371589 0.846299 33.000000
2.192965 -1.391327 0.841378 29.000000
2.177468 -1.416404 0.839795 31.000000
2.145885 -1.430673 0.831989 28.000000
2.130503 -1.454657 0.830086 30.000000
2.133881 -1.492615 0.835991 35.000000
2.101871 -1.505811 0.828138 11.000000
2.104418 -1.543926 0.833924 16.000000
2.057465 -1.544376 0.819608 31.000000
2.025294 -1.556163 0.811737 30.000000
2.011865 -1.582174 0.811285 34.000000
1.990780 -1.602046 0.807893 32.000000
1.973114 -1.624701 0.805848 30.000000
1.966228 -1.656330 0.808385 32.000000
1.919138 -1.653703 0.794280 21.000000
1.911811 -1.684965 0.796730 29.000000
1.893396 -1.706639 0.794530 34.000000
1.878247 -1.731305 0.793896 32.000000
1.866340 -1.759081 0.794569 36.000000
1.836929 -1.770276 0.787930 27.000000
1.831315 -1.804389 0.791452 28.000000
1.800776 -1.815633 0.785079 31.000000
1.761127 -1.815370 0.773853 20.000000
1.764557 -1.859512 0.781721 32.000000
1.744437 -1.879386 0.779268 31.000000
1.723173 -1.899751 0.777059 27.000000
1.705903 -1.922715 0.775969 33.000000
1.678977 -1.934657 0.770548 30.000000
1.670640 -1.968120 0.773678 29.000000
1.648434 -1.987612 0.771375 26.000000
1.615057 -1.991229 0.763038 12.000000
1.611707 -2.031804 0.768871 25.000000
1.585904 -2.046918 0.764978 24.000000
1.566965 -2.068456 0.763588 23.000000
1.550635 -2.093669 0.763594 26.000000
1.529917 -2.115703 0.762510 23.000000
1.512964 -2.140727 0.762397 26.000000
1.488886 -2.158390 0.759814 16.000000
1.500965 -2.226839 0.774835 9.000000
1.359718 -2.067748 0.711331 10.000000
1.288513 -2.006145 0.682363 10.000000
1.207256 -1.927553 0.648340 10.000000
1.136716 -1.858975 0.618368 10.000000
1.065366 -1.784861 0.587263 10.000000
1.009031 -1.734976 0.564709 10.000000
0.951531 -1.679848 0.540961 10.000000
0.931458 -1.686279 0.537354 6.000000
0.963207 1.779370 0.580404 8.000000
0.977300 1.759856 0.580204 13.000000
0.989917 1.735449 0.578271 21.000000
1.015341 1.736584 0.584935 18.000000
1.024899 1.707848 0.581567 29.000000
1.042819 1.696133 0.584037 20.000000
1.064375 1.687651 0.587602 27.000000
1.074281 1.663381 0.585760 29.000000
1.095518 1.654459 0.589263 20.000000
1.110328 1.637985 0.590171 20.000000
1.119405 1.613449 0.588136 20.000000
1.140196 1.603964 0.591640 27.000000
1.154376 1.587048 0.592453 31.000000
1.171143 1.573848 0.594643 23.000000
1.185885 1.556030 0.595127 29.000000
1.202361 1.542487 0.597311 30.000000
1.230694 1.543709 0.605296 21.000000
1.238896 1.517918 0.602838 30.000000
1.258098 1.507385 0.606378 28.000000
1.274153 1.493023 0.608448 33.000000
1.290082 1.478411 0.610517 36.000000
1.300342 1.455927 0.609294 29.000000
1.322317 1.448058 0.614280 34.000000
1.344380 1.439917 0.619223 32.000000
1.359820 1.424477 0.621176 26.000000
1.361752 1.395203 0.617032 33.000000
1.366694 1.369420 0.614365 31.000000
1.392270 1.363188 0.620465 35.000000
1.406998 1.347211 0.622275 38.000000
1.425015 1.334302 0.625610 32.000000
1.439404 1.317911 0.627362 60.000000
1.450123 1.298158 0.627517 30.000000
1.492804 1.306561 0.641509 30.000000
1.488923 1.273858 0.635452 30.000000
1.499107 1.253645 0.635540 28.000000
1.523188 1.245929 0.642074 33.000000
1.544194 1.234238 0.646699 34.000000
1.561396 1.219325 0.649781 29.000000
1.574694 1.201318 0.651308 36.000000
1.595417 1.188795 0.655902 32.000000
1.600273 1.165241 0.654489 29.000000
1.620735 1.152224 0.659035 29.000000
1.641127 1.138902 0.663530 30.000000
1.664984 1.128320 0.669875 36.000000
1.681362 1.111656 0.672752 33.000000
1.701133 1.097797 0.677482 32.000000
1.713186 1.078120 0.678720 33.000000
1.716640 1.053680 0.676968 29.000000
1.740383 1.041134 0.682987 31.000000
1.751550 1.021346 0.684358 27.000000
1.766575 1.003767 0.687267 34.000000
1.789805 0.990549 0.693391 32.000000
1.833759 0.988147 0.707574 36.000000
1.848625 0.969398 0.710394 32.000000
1.863271 0.950486 0.713219 34.000000
