x y z intensity
2.092607 0.426903 -0.812246 19.000000
2.115426 0.406723 -0.819989 17.000000
2.128913 0.384326 -0.824111 18.000000
2.105299 0.355427 -0.813920 10.000000
2.118294 0.332960 -0.817902 17.000000
2.126419 0.309540 -0.820035 23.000000
2.129648 0.285394 -0.820456 21.000000
2.137232 0.261746 -0.822591 21.000000
2.130691 0.236378 -0.819303 23.000000
2.133142 0.212145 -0.819513 21.000000
2.130661 0.187572 -0.818077 17.000000
2.132549 0.163322 -0.818286 10.000000
2.134226 0.139072 -0.818426 22.000000
2.135554 0.114891 -0.818636 24.000000
2.132076 0.090374 -0.816779 22.000000
2.137650 0.066321 -0.818636 21.000000
2.138139 0.042071 -0.818846 21.000000
2.143158 0.017790 -0.820703 21.000000
2.143228 -0.006514 -0.820633 18.000000
2.152426 -0.031021 -0.824139 25.000000
2.138000 -0.055070 -0.818566 24.000000
2.160563 -0.080186 -0.827361 21.000000
2.159503 -0.104771 -0.827432 21.000000
2.158302 -0.129286 -0.827149 22.000000
2.142773 -0.152805 -0.821579 10.000000
2.145673 -0.177475 -0.823084 11.000000
2.152933 -0.202690 -0.826301 18.000000
2.155246 -0.227625 -0.827874 17.000000
2.166545 -0.253752 -0.832941 22.000000
2.172961 -0.279528 -0.836079 25.000000
2.183763 -0.306091 -0.840923 29.000000
2.184854 -0.331640 -0.842344 41.000000
2.181173 -0.356468 -0.841838 32.000000
2.177203 -0.381223 -0.841333 52.000000
2.154569 -0.402474 -0.833574 87.000000
2.173054 -0.431356 -0.841738 62.000000
2.177357 -0.458016 -0.844708 95.000000
2.176836 -0.483725 -0.845901 77.000000
2.176076 -0.509465 -0.846945 92.000000
2.170314 -0.534264 -0.846361 94.000000
2.159950 -0.557674 -0.843717 35.000000
2.135631 -0.577393 -0.835920 32.000000
2.129279 -0.601643 -0.835126 23.000000
2.140517 -0.631114 -0.841388 14.000000
2.151495 -0.660920 -0.847489 21.000000
2.130855 -0.681013 -0.841183 15.000000
2.136742 -0.709581 -0.845434 17.000000
2.155445 -0.743103 -0.855089 23.000000
2.129486 -0.761394 -0.847107 10.000000
2.134481 -0.790299 -0.851108 12.000000
2.130105 -0.816224 -0.851819 22.000000
2.121113 -0.840450 -0.850630 16.000000
2.142255 -0.876953 -0.861651 25.000000
2.136772 -0.903351 -0.862413 20.000000
2.126878 -0.927596 -0.861053 14.000000
2.129661 -0.957383 -0.864904 19.000000
2.127457 -0.985794 -0.867157 10.000000
2.112618 -1.007731 -0.863900 13.000000
2.114059 -1.038148 -0.867791 20.000000
2.110946 -1.066586 -0.869941 16.000000
2.120005 -1.101477 -0.877096 18.000000
2.107811 -1.125709 -0.875698 17.000000
2.124280 -1.165598 -0.886166 13.000000
2.123801 -1.196687 -0.889655 17.000000
2.102521 -1.216215 -0.884570 10.000000
2.089189 -1.240118 -0.882835 10.000000
2.095774 -1.276087 -0.889621 19.000000
2.093800 -1.307373 -0.892891 14.000000
2.094981 -1.341792 -0.898080 18.000000
2.096183 -1.375849 -0.902918 16.000000
2.100824 -1.412726 -0.909336 13.000000
2.092813 -1.442450 -0.910904 16.000000
2.081087 -1.468730 -0.910444 10.000000
2.072375 -1.498354 -0.911905 10.000000
2.071449 -1.532929 -0.916285 18.000000
2.065689 -1.565338 -0.919296 15.000000
2.074386 -1.609483 -0.928957 18.000000
2.075685 -1.647428 -0.934723 17.000000
2.050098 -1.665405 -0.929260 17.000000
2.042610 -1.698123 -0.931919 16.000000
2.052641 -1.746126 -0.942896 10.000000
2.034170 -1.769041 -0.940108 10.000000
2.039440 -1.814364 -0.949163 17.000000
2.016013 -1.834644 -0.944968 17.000000
2.037450 -1.896437 -0.962014 24.000000
2.009841 -1.913375 -0.956060 14.000000
2.026152 -1.972681 -0.971239 24.000000
2.001265 -1.992611 -0.966791 49.000000
1.982901 -2.018852 -0.965582 32.000000
1.957631 -2.038159 -0.961052 35.000000
1.922527 -2.046762 -0.951717 35.000000
1.903563 -2.072238 -0.950331 35.000000
1.900085 -2.115143 -0.956909 57.000000
1.886675 -2.147525 -0.958565 34.000000
1.877734 -2.187969 -0.963730 56.000000
1.848071 -2.202132 -0.957416 36.000000
1.830327 -2.230552 -0.957329 30.000000
1.812334 -2.258739 -0.957127 27.000000
1.799765 -2.294349 -0.960031 29.000000
1.782480 -2.327119 -0.961709 30.000000
1.768925 -2.362578 -0.964438 32.000000
1.743720 -2.382761 -0.960932 28.000000
1.729298 -2.418041 -0.963497 32.000000
1.704650 -2.442542 -0.961791 28.000000
1.692077 -2.481597 -0.965814 26.000000
1.657680 -2.488964 -0.957485 17.000000
1.645173 -2.532769 -0.963151 25.000000
1.628391 -2.567537 -0.965431 26.000000
1.604492 -2.595117 -0.964941 27.000000
1.594201 -2.641963 -0.971448 24.000000
1.585628 -2.693020 -0.979462 26.000000
1.557520 -2.716250 -0.977253 23.000000
1.538013 -2.750638 -0.979083 18.000000
1.538755 -2.828011 -0.995944 10.000000
0.766909 1.419302 -0.486402 8.000000
0.777233 1.402035 -0.485560 13.000000
0.790610 1.388371 -0.485945 20.000000
0.805186 1.379248 -0.487933 14.000000
0.829528 1.386380 -0.495788 24.000000
0.837551 1.364107 -0.493176 18.000000
0.856950 1.362583 -0.498126 25.000000
0.874810 1.356208 -0.501358 22.000000
0.902301 1.366065 -0.510711 11.000000
0.895364 1.324082 -0.500742 19.000000
0.910188 1.313296 -0.502428 19.000000
0.929609 1.310596 -0.507279 17.000000
0.935094 1.288328 -0.504598 25.000000
0.963731 1.296183 -0.513807 21.000000
0.980374 1.288904 -0.517191 24.000000
0.996994 1.281404 -0.520533 18.000000
1.026184 1.288050 -0.529749 18.000000
1.021878 1.254144 -0.522327 29.000000
1.035211 1.242419 -0.524091 20.000000
1.054660 1.237725 -0.528896 23.000000
1.077914 1.235843 -0.535062 28.000000
1.094290 1.227018 -0.538302 18.000000
1.117039 1.224929 -0.544673 31.000000
1.143092 1.225988 -0.552640 27.000000
1.159564 1.216227 -0.555880 21.000000
1.162698 1.192691 -0.552776 28.000000
1.175552 1.179248 -0.554383 22.000000
1.195016 1.172340 -0.559157 27.000000
1.221359 1.171679 -0.567073 34.000000
1.244421 1.167297 -0.573376 23.000000
1.264039 1.159310 -0.578108 34.000000
1.283631 1.151052 -0.582858 30.000000
1.303249 1.142410 -0.587568 24.000000
1.312053 1.124251 -0.587411 25.000000
1.331506 1.115179 -0.592085 22.000000
1.350981 1.105716 -0.596720 26.000000
1.377805 1.101880 -0.604611 28.000000
1.396866 1.092224 -0.609455 27.000000
1.408768 1.076031 -0.610828 29.000000
1.439496 1.073794 -0.620248 28.000000
1.481346 1.079764 -0.634905 24.000000
1.473945 1.048902 -0.628009 29.000000
1.508728 1.047942 -0.639093 23.000000
1.531549 1.038798 -0.645518 28.000000
1.554782 1.028847 -0.651663 35.000000
1.581607 1.021427 -0.659663 27.000000
1.604479 1.010950 -0.666033 32.000000
1.635676 1.004645 -0.675435 30.000000
1.658556 0.993282 -0.681790 24.000000
1.665182 0.972012 -0.681438 28.000000
1.704282 0.969351 -0.694370 29.000000
1.714692 0.949863 -0.695640 29.000000
1.770523 0.954847 -0.715272 32.000000
1.797499 0.943339 -0.723156 29.000000
1.816081 0.927036 -0.727701 29.000000
1.842994 0.914595 -0.735557 29.000000
1.869822 0.901703 -0.743367 23.000000
1.905152 0.892213 -0.754503 27.000000
1.927483 0.876503 -0.760872 27.000000
1.962854 0.865785 -0.771991 26.000000
2.010960 0.860168 -0.788434 26.000000
2.050740 0.849709 -0.801239 28.000000
2.072906 0.831627 -0.807419 24.000000
2.108045 0.818278 -0.818719 21.000000
2.099248 0.787673 -0.812929 10.000000
2.085598 0.755793 -0.805344 10.000000
2.107044 0.736679 -0.811333 17.000000
2.105895 0.709832 -0.808999 12.000000
2.113546 0.685798 -0.809793 18.000000
2.120763 0.661908 -0.810731 17.000000
2.109842 0.632409 -0.804734 12.000000
2.116569 0.608506 -0.805521 18.000000
2.118483 0.583215 -0.804518 10.000000
2.106606 0.554299 -0.798279 10.000000
2.126213 0.533798 -0.804081 17.000000
2.113511 0.505347 -0.797901 10.000000
2.132610 0.484516 -0.803782 18.000000
2.124109 0.457235 -0.798960 16.000000
2.138038 0.435086 -0.803121 16.000000
2.142650 0.410820 -0.803618 18.000000
2.123822 0.382397 -0.795538 10.000000
2.137215 0.359739 -0.799279 13.000000
2.131753 0.334106 -0.796240 13.000000
2.144406 0.311309 -0.800266 17.000000
2.147719 0.286988 -0.800548 16.000000
2.146025 0.262098 -0.799167 16.000000
2.148768 0.237759 -0.799448 16.000000
2.151230 0.213421 -0.799659 20.000000
2.144068 0.188192 -0.796470 10.000000
2.164661 0.165387 -0.803694 19.000000
2.161677 0.140498 -0.802099 20.000000
2.167769 0.116287 -0.804047 21.000000
2.164215 0.091503 -0.802310 18.000000
2.174504 0.067332 -0.805854 24.000000
2.161008 0.042417 -0.800785 17.000000
2.165977 0.017976 -0.802592 19.000000
2.175425 -0.006584 -0.806067 19.000000
2.165907 -0.031089 -0.802451 18.000000
2.160797 -0.055501 -0.800504 14.000000
2.169465 -0.080327 -0.803906 18.000000
2.187139 -0.105748 -0.810851 21.000000
2.185856 -0.130546 -0.810566 21.000000
2.156295 -0.153277 -0.799941 10.000000
2.191854 -0.180770 -0.813536 18.000000
2.180511 -0.204655 -0.809711 16.000000
2.187488 -0.230364 -0.812964 21.000000
2.198816 -0.256757 -0.817804 31.000000
2.200588 -0.282201 -0.819104 33.000000
2.215922 -0.309770 -0.825739 67.000000
2.203224 -0.333405 -0.821697 37.000000
2.208789 -0.359846 -0.824648 29.000000
2.190774 -0.382463 -0.819172 95.000000
2.191193 -0.408131 -0.820248 45.000000
2.200364 -0.435653 -0.824918 78.000000
2.200216 -0.461415 -0.825839 74.000000
2.195027 -0.486484 -0.825401 71.000000
2.194189 -0.512329 -0.826392 67.000000
2.202228 -0.540442 -0.830746 66.000000
2.187091 -0.563085 -0.826645 33.000000
2.167250 -0.584225 -0.820760 38.000000
2.156239 -0.607532 -0.818242 17.000000
2.167568 -0.637213 -0.824297 18.000000
2.169579 -0.664479 -0.826766 10.000000
2.171236 -0.691800 -0.829153 13.000000
2.176923 -0.720950 -0.833463 19.000000
2.155769 -0.740865 -0.827229 10.000000
2.156411 -0.768517 -0.829674 9.000000
2.147939 -0.792965 -0.828708 13.000000
2.148030 -0.820621 -0.830993 13.000000
2.169622 -0.857041 -0.841753 22.000000
2.142816 -0.874453 -0.833763 10.000000
2.150398 -0.906311 -0.839558 15.000000
2.149190 -0.934282 -0.841576 16.000000
2.160254 -0.968453 -0.848874 10.000000
2.141191 -0.988836 -0.844046 9.000000
2.134511 -1.015245 -0.844505 10.000000
2.157088 -1.056171 -0.856641 10.000000
2.149699 -1.082803 -0.856995 16.000000
2.129325 -1.102952 -0.852243 10.000000
2.138006 -1.138257 -0.859124 10.000000
2.158618 -1.180665 -0.870903 15.000000
2.141604 -1.202809 -0.867644 10.000000
2.132493 -1.229491 -0.867637 9.000000
2.123171 -1.256027 -0.867623 10.000000
2.101458 -1.275153 -0.862556 10.000000
2.119196 -1.319352 -0.874267 12.000000
2.124804 -1.355941 -0.880657 10.000000
2.114089 -1.382562 -0.880347 10.000000
2.122197 -1.422668 -0.888486 10.000000
2.106842 -1.446525 -0.886422 10.000000
2.117797 -1.489825 -0.896052 9.000000
2.112744 -1.522531 -0.899108 10.000000
2.096433 -1.546156 -0.896754 10.000000
2.105697 -1.590235 -0.906188 10.000000
2.091900 -1.617309 -0.905765 10.000000
2.093227 -1.655356 -0.911371 10.000000
2.071303 -1.676389 -0.907607 10.000000
2.060126 -1.706225 -0.908590 10.000000
2.102752 -1.781895 -0.933619 9.000000
2.061738 -1.787344 -0.921621 9.000000
2.059777 -1.826707 -0.927139 10.000000
2.074849 -1.882045 -0.940572 14.000000
2.050812 -1.902538 -0.936459 10.000000
2.054101 -1.948886 -0.944928 12.000000
2.043091 -1.982208 -0.946930 25.000000
2.014746 -1.998869 -0.941036 31.000000
2.006361 -2.035388 -0.944575 29.000000
1.957854 -2.030817 -0.929213 27.000000
1.922794 -2.039288 -0.920074 29.000000
1.920067 -2.082126 -0.926521 34.000000
1.888052 -2.093362 -0.918962 28.000000
1.887451 -2.139771 -0.926788 32.000000
1.863190 -2.162109 -0.924042 33.000000
1.833802 -2.175981 -0.917859 27.000000
1.837690 -2.229754 -0.928524 31.000000
1.801841 -2.235763 -0.919277 18.000000
1.797162 -2.283311 -0.926970 22.000000
1.781494 -2.314932 -0.928255 27.000000
1.753934 -2.331326 -0.923379 23.000000
1.736069 -2.363587 -0.924809 24.000000
1.713607 -2.387169 -0.922928 25.000000
1.690875 -2.410439 -0.920943 18.000000
1.682637 -2.458066 -0.928154 22.000000
1.656453 -2.477109 -0.924536 15.000000
1.645848 -2.519769 -0.929773 22.000000
1.619961 -2.543411 -0.927879 23.000000
1.598147 -2.569824 -0.927149 18.000000
1.584044 -2.613293 -0.932428 20.000000
1.583244 -2.676529 -0.944511 18.000000
1.550094 -2.686190 -0.937749 15.000000
1.538601 -2.738071 -0.945623 17.000000
1.525681 -2.784992 -0.951666 9.000000
0.771897 1.421359 -0.472261 6.000000
0.779857 1.399889 -0.469993 9.000000
0.805081 1.407061 -0.477479 15.000000
0.805278 1.373066 -0.470928 23.000000
0.837879 1.392085 -0.482616 14.000000
0.832399 1.349890 -0.473146 24.000000
0.844940 1.335791 -0.473428 18.000000
0.887622 1.370379 -0.491134 17.000000
0.908215 1.367687 -0.495742 23.000000
0.903779 1.329624 -0.487471 10.000000
0.906901 1.303562 -0.483491 24.000000
0.929817 1.304402 -0.489496 22.000000
0.957651 1.313080 -0.498618 19.000000
0.971555 1.302133 -0.500433 28.000000
0.986133 1.290512 -0.501990 19.000000
1.011539 1.294304 -0.509680 26.000000
1.019331 1.275298 -0.508491 24.000000
1.066821 1.303767 -0.526408 10.000000
1.043979 1.247687 -0.510230 29.000000
1.060348 1.239343 -0.513449 22.000000
1.095524 1.252355 -0.525662 26.000000
1.103225 1.232206 -0.524079 35.000000
1.122843 1.226634 -0.528751 26.000000
1.145708 1.224180 -0.534961 32.000000
1.162106 1.214515 -0.538097 28.000000
1.181799 1.207962 -0.542770 13.000000
1.194799 1.194420 -0.544341 41.000000
1.201426 1.173579 -0.542621 29.000000
1.224347 1.169646 -0.548808 29.000000
1.257797 1.175053 -0.559549 51.000000
1.277521 1.166993 -0.564196 31.000000
1.286585 1.149164 -0.564086 34.000000
1.299048 1.134375 -0.565581 32.000000
1.322182 1.128671 -0.571652 21.000000
1.338058 1.116467 -0.574669 32.000000
1.353384 1.104517 -0.577808 29.000000
1.380242 1.100742 -0.585507 33.000000
1.399704 1.090624 -0.589968 36.000000
1.415348 1.077404 -0.592861 26.000000
1.438495 1.069527 -0.598931 34.000000
1.465142 1.064524 -0.606784 33.000000
1.492263 1.058532 -0.614375 21.000000
1.503807 1.041333 -0.615612 38.000000
1.530579 1.034926 -0.623419 32.000000
1.545839 1.019860 -0.626211 27.000000
1.580585 1.017761 -0.637214 52.000000
1.599750 1.004501 -0.641581 30.000000
1.634683 1.001253 -0.652526 32.000000
1.661937 0.992045 -0.660094 34.000000
1.672546 0.973197 -0.661342 21.000000
1.687083 0.956496 -0.664210 36.000000
1.713903 0.946497 -0.671954 33.000000
1.740731 0.935933 -0.679658 34.000000
1.788506 0.935822 -0.695400 46.000000
1.815388 0.924004 -0.703098 34.000000
1.829619 0.905383 -0.705850 30.000000
1.877695 0.902981 -0.721631 42.000000
1.870333 0.873520 -0.716086 18.000000
1.935722 0.877533 -0.738419 32.000000
1.970925 0.867107 -0.749517 35.000000
1.984731 0.846415 -0.752067 31.000000
2.041716 0.843794 -0.771312 37.000000
2.068385 0.827455 -0.778768 31.000000
2.103649 0.814269 -0.789762 29.000000
2.121167 0.793726 -0.794019 24.000000
2.142973 0.774513 -0.800013 11.000000
2.142320 0.747012 -0.797581 23.000000
2.154864 0.724221 -0.800048 29.000000
2.140080 0.692689 -0.792768 18.000000
2.152006 0.669708 -0.795159 22.000000
2.154565 0.644069 -0.794369 24.000000
2.156875 0.618387 -0.793503 22.000000
2.154394 0.591487 -0.790964 21.000000
2.137895 0.561060 -0.783265 10.000000
2.171333 0.543667 -0.793938 22.000000
2.172548 0.517931 -0.792772 23.000000
2.164188 0.490290 -0.788474 21.000000
2.178574 0.467832 -0.792399 23.000000
2.183554 0.443149 -0.792977 26.000000
2.174367 0.415739 -0.788377 22.000000
2.178741 0.391212 -0.789023 20.000000
2.155034 0.361863 -0.779233 9.000000
2.177468 0.340417 -0.786379 23.000000
2.195020 0.317804 -0.791780 26.000000
2.188920 0.291765 -0.788918 24.000000
2.196599 0.267574 -0.790959 28.000000
2.190037 0.241727 -0.787879 25.000000
2.192536 0.216947 -0.788093 24.000000
2.199511 0.192578 -0.789920 24.000000
2.154504 0.164169 -0.773288 9.000000
2.203161 0.142841 -0.790278 28.000000
2.185719 0.117002 -0.783822 25.000000
2.201034 0.092834 -0.788879 29.000000
2.211301 0.068274 -0.792322 30.000000
2.211874 0.043317 -0.792465 26.000000
2.212233 0.018359 -0.792537 25.000000
2.221719 -0.006698 -0.795909 26.000000
2.188628 -0.031290 -0.783964 21.000000
2.192908 -0.056103 -0.785436 25.000000
2.182717 -0.080571 -0.781995 20.000000
2.191130 -0.105663 -0.785294 20.000000
2.208647 -0.131528 -0.791748 24.000000
2.197678 -0.155748 -0.788236 20.000000
2.177124 -0.179055 -0.781216 10.000000
2.184446 -0.204501 -0.784441 36.000000
2.200758 -0.231142 -0.790887 63.000000
2.193500 -0.255482 -0.788847 73.000000
2.195308 -0.280769 -0.790099 83.000000
2.192152 -0.305511 -0.789596 69.000000
2.230622 -0.336651 -0.804351 95.000000
2.236192 -0.363304 -0.807196 67.000000
2.190245 -0.381354 -0.791732 24.000000
2.204594 -0.409426 -0.797788 37.000000
2.200018 -0.434338 -0.797280 28.000000
2.227434 -0.465931 -0.808415 78.000000
2.226876 -0.492079 -0.809424 78.000000
2.216894 -0.516121 -0.807014 38.000000
2.233961 -0.546781 -0.814773 71.000000
2.227930 -0.572024 -0.814103 39.000000
2.171523 -0.583731 -0.795024 28.000000
2.183201 -0.613360 -0.800884 48.000000
2.190023 -0.641926 -0.804993 20.000000
2.187517 -0.667970 -0.805694 21.000000
2.207013 -0.701407 -0.814912 24.000000
2.181453 -0.720215 -0.807233 16.000000
2.200280 -0.754139 -0.816275 20.000000
2.200822 -0.782124 -0.818605 13.000000
2.152353 -0.792375 -0.802683 10.000000
2.187786 -0.833428 -0.818140 23.000000
2.178628 -0.858101 -0.817004 19.000000
2.195331 -0.893605 -0.825892 23.000000
2.185603 -0.918270 -0.824666 21.000000
2.188415 -0.948801 -0.828516 14.000000
2.195342 -0.981092 -0.833602 16.000000
2.197344 -1.011953 -0.837344 13.000000
2.160553 -1.024724 -0.826296 9.000000
2.191756 -1.070013 -0.841366 23.000000
2.184170 -1.096937 -0.841577 15.000000
2.172101 -1.121708 -0.840157 12.000000
2.176504 -1.155190 -0.845226 16.000000
2.168017 -1.182019 -0.845255 10.000000
2.171628 -1.215797 -0.850127 15.000000
2.158385 -1.240277 -0.848522 11.000000
2.148979 -1.267000 -0.848446 9.000000
2.187488 -1.323550 -0.867892 21.000000
2.160995 -1.340697 -0.861186 13.000000
2.166065 -1.378240 -0.867633 13.000000
2.167054 -1.412905 -0.872120 14.000000
2.143428 -1.432466 -0.867266 10.000000
2.147631 -1.469842 -0.873143 14.000000
2.154588 -1.510803 -0.880822 10.000000
2.118561 -1.521614 -0.871040 9.000000
2.155792 -1.584615 -0.890975 19.000000
2.138322 -1.609314 -0.888995 12.000000
2.135547 -1.645342 -0.893220 12.000000
2.132344 -1.681542 -0.897416 12.000000
2.121232 -1.711858 -0.898364 10.000000
2.110430 -1.741377 -0.898945 16.000000
2.113054 -1.783849 -0.906000 10.000000
2.122293 -1.832767 -0.916113 9.000000
2.120033 -1.872721 -0.921426 20.000000
2.110191 -1.906344 -0.923608 16.000000
2.092880 -1.933570 -0.922593 18.000000
2.095978 -1.980300 -0.930786 18.000000
2.067587 -1.997451 -0.925041 23.000000
2.028078 -2.004954 -0.915007 32.000000
1.976089 -1.997516 -0.898558 32.000000
1.937920 -2.002815 -0.888265 27.000000
1.929331 -2.038618 -0.891553 77.000000
1.897597 -2.049873 -0.884240 35.000000
1.888313 -2.085562 -0.887395 52.000000
1.867887 -2.111281 -0.886374 35.000000
1.851406 -2.139599 -0.886478 31.000000
1.843839 -2.178718 -0.890941 64.000000
1.817436 -2.195844 -0.886354 28.000000
1.789655 -2.213447 -0.882141 25.000000
1.780826 -2.252374 -0.886424 33.000000
1.756799 -2.272366 -0.883214 26.000000
1.754257 -2.323615 -0.892090 33.000000
1.732286 -2.347163 -0.890297 29.000000
1.715738 -2.378256 -0.891308 27.000000
1.697252 -2.410198 -0.892662 30.000000
1.668878 -2.425335 -0.887741 22.000000
1.661868 -2.471922 -0.894429 22.000000
1.636687 -2.495574 -0.892635 30.000000
1.625864 -2.538132 -0.897680 26.000000
1.604880 -2.569525 -0.898586 29.000000
1.580278 -2.591653 -0.896338 23.000000
1.563458 -2.631010 -0.900011 22.000000
1.545341 -2.665138 -0.901833 26.000000
1.519988 -2.691817 -0.901203 16.000000
1.533178 -2.784731 -0.922452 9.000000
0.763003 1.397972 -0.449862 7.000000
0.770652 1.376693 -0.447687 13.000000
0.778828 1.354877 -0.445278 23.000000
0.803725 1.362065 -0.452465 23.000000
0.817932 1.352978 -0.454323 23.000000
0.842256 1.360028 -0.461676 24.000000
0.849673 1.337755 -0.459178 24.000000
0.871625 1.340160 -0.465182 22.000000
0.899875 1.349710 -0.473817 26.000000
0.887015 1.299868 -0.461550 21.000000
0.904278 1.293239 -0.464514 24.000000
0.923463 1.290746 -0.469105 30.000000
0.954857 1.302985 -0.479203 26.000000
0.968587 1.292135 -0.480900 23.000000
0.993924 1.296337 -0.488377 24.000000
1.011346 1.288293 -0.491322 28.000000
1.028016 1.280545 -0.494486 29.000000
1.023352 1.246678 -0.487533 21.000000
1.037287 1.234542 -0.488973 28.000000
1.047283 1.219138 -0.489111 35.000000
1.085498 1.235935 -0.502437 31.000000
1.105061 1.230714 -0.506942 32.000000
1.125255 1.224659 -0.511306 33.000000
1.148184 1.222309 -0.517320 30.000000
1.164561 1.212632 -0.520352 32.000000
1.170868 1.192551 -0.518944 25.000000
1.184219 1.178719 -0.520279 30.000000
1.217394 1.185182 -0.530719 53.000000
1.233561 1.174566 -0.533681 50.000000
1.249690 1.163708 -0.536705 39.000000
1.262254 1.149395 -0.538125 34.000000
1.285335 1.144485 -0.544067 47.000000
1.304864 1.136037 -0.548521 36.000000
1.320789 1.124170 -0.551421 24.000000
1.332952 1.109007 -0.552809 32.000000
1.356090 1.102747 -0.558710 35.000000
1.371746 1.090142 -0.561580 34.000000
1.398633 1.086097 -0.568989 35.000000
1.433188 1.087292 -0.579435 50.000000
1.448430 1.074092 -0.582472 34.000000
1.471670 1.065807 -0.588365 35.000000
1.479445 1.046157 -0.588045 29.000000
1.494752 1.031824 -0.590755 34.000000
1.513535 1.020352 -0.595254 51.000000
1.548491 1.018620 -0.605685 36.000000
1.583674 1.016224 -0.616152 37.000000
1.606508 1.005902 -0.622159 46.000000
1.633744 0.997354 -0.629503 35.000000
1.656623 0.986193 -0.635490 35.000000
1.683580 0.976953 -0.643002 32.000000
1.690145 0.955286 -0.642433 43.000000
1.717010 0.945282 -0.649913 37.000000
1.735520 0.930293 -0.654200 37.000000
1.753874 0.915051 -0.658498 37.000000
1.810262 0.918747 -0.676979 52.000000
1.841386 0.908668 -0.686011 42.000000
1.863991 0.893941 -0.691828 34.000000
1.912313 0.890733 -0.707127 33.000000
1.921955 0.869005 -0.708146 42.000000
1.957366 0.858563 -0.718657 35.000000
1.988251 0.845815 -0.727738 35.000000
2.019337 0.832158 -0.736632 35.000000
2.063397 0.823484 -0.750489 35.000000
2.112110 0.815290 -0.765766 37.000000
2.129663 0.794751 -0.769995 29.000000
2.169341 0.781893 -0.782116 27.000000
2.177663 0.757371 -0.783082 29.000000
2.172298 0.728260 -0.779070 28.000000
2.180127 0.703593 -0.779883 29.000000
2.169433 0.673462 -0.774390 26.000000
2.185754 0.651556 -0.778278 27.000000
2.183569 0.624390 -0.775854 25.000000
2.176545 0.595959 -0.771806 19.000000
2.201183 0.576149 -0.778939 17.000000
2.184330 0.545538 -0.771495 23.000000
2.181010 0.518654 -0.768760 22.000000
2.204886 0.498306 -0.775977 26.000000
2.196339 0.470318 -0.771542 24.000000
2.205974 0.446541 -0.773747 26.000000
2.210695 0.421628 -0.774183 26.000000
2.201093 0.394215 -0.769953 18.000000
2.214603 0.370949 -0.773499 22.000000
2.199835 0.343030 -0.767416 22.000000
2.208107 0.318911 -0.769405 26.000000
2.206806 0.293369 -0.768135 25.000000
2.209825 0.268502 -0.768494 26.000000
2.212556 0.243636 -0.768782 26.000000
2.219774 0.219089 -0.770702 29.000000
2.217299 0.193687 -0.769357 23.000000
2.242871 0.170467 -0.777596 23.000000
2.244614 0.145191 -0.777742 31.000000
2.245994 0.119915 -0.777960 26.000000
2.247156 0.094639 -0.778177 33.000000
2.233932 0.068854 -0.773345 26.000000
2.229857 0.043573 -0.771638 25.000000
2.230145 0.018437 -0.771710 24.000000
2.225492 -0.006612 -0.770075 16.000000
2.201725 -0.031358 -0.761829 19.000000
2.205951 -0.056294 -0.763393 21.000000
2.209889 -0.081337 -0.764956 25.000000
2.223121 -0.106869 -0.769644 28.000000
2.231261 -0.132512 -0.772623 32.000000
2.234460 -0.157961 -0.774040 29.000000
2.213667 -0.181586 -0.767436 63.000000
2.221071 -0.207350 -0.770342 62.000000
2.228095 -0.233398 -0.773317 92.000000
2.253589 -0.261694 -0.782739 95.000000
2.255348 -0.287634 -0.783930 91.000000
2.247436 -0.312451 -0.782007 82.000000
2.243921 -0.337720 -0.781567 51.000000
2.212111 -0.358451 -0.771291 19.000000
2.194086 -0.380977 -0.766051 10.000000
2.189845 -0.405628 -0.765404 10.000000
2.199237 -0.433020 -0.769773 9.000000
2.231500 -0.465481 -0.782176 31.000000
2.249373 -0.495798 -0.789770 67.000000
2.239266 -0.519994 -0.787407 64.000000
2.247269 -0.548573 -0.791670 51.000000
2.264066 -0.579811 -0.799087 24.000000
2.207387 -0.591811 -0.780556 62.000000
2.210015 -0.619201 -0.782974 64.000000
2.230463 -0.651960 -0.791761 27.000000
2.218668 -0.675829 -0.789401 23.000000
2.220366 -0.703511 -0.791647 21.000000
2.217056 -0.730067 -0.792429 22.000000
2.217968 -0.758180 -0.794737 20.000000
2.218512 -0.786269 -0.796962 10.000000
2.205420 -0.809663 -0.794299 18.000000
2.200993 -0.836094 -0.794839 20.000000
2.213715 -0.869783 -0.801916 22.000000
2.208607 -0.896383 -0.802286 24.000000
2.220562 -0.930563 -0.809253 17.000000
2.223461 -0.961088 -0.812706 19.000000
2.212857 -0.986195 -0.811537 18.000000
2.210559 -1.015182 -0.813539 10.000000
2.225089 -1.052397 -0.821787 18.000000
2.222057 -1.081654 -0.823682 21.000000
2.201727 -1.102527 -0.819174 19.000000
2.219143 -1.142599 -0.828777 21.000000
2.198232 -1.163121 -0.824187 13.000000
2.218885 -1.206043 -0.835228 21.000000
2.218173 -1.237906 -0.838305 21.000000
2.200257 -1.260933 -0.835434 10.000000
2.190662 -1.288029 -0.835284 12.000000
2.201114 -1.327322 -0.842836 19.000000
2.190379 -1.355000 -0.842905 16.000000
2.195812 -1.392206 -0.848761 21.000000
2.180288 -1.417329 -0.847176 13.000000
2.184382 -1.455384 -0.853235 18.000000
2.180502 -1.487769 -0.855839 18.000000
2.179670 -1.523568 -0.860216 10.000000
2.158912 -1.545620 -0.856804 10.000000
2.164915 -1.587111 -0.864124 18.000000
2.167003 -1.625404 -0.869527 15.000000
2.160449 -1.658762 -0.872104 17.000000
2.172168 -1.706918 -0.882178 15.000000
2.153406 -1.731610 -0.880054 14.000000
2.156458 -1.774202 -0.886922 15.000000
2.140701 -1.801772 -0.886197 10.000000
2.149902 -1.850932 -0.895914 11.000000
2.147552 -1.891022 -0.901062 21.000000
2.141133 -1.928144 -0.904581 19.000000
2.123630 -1.955615 -0.903586 22.000000
2.126629 -2.002522 -0.911426 18.000000
2.098085 -2.019899 -0.905841 29.000000
2.045487 -2.013482 -0.889908 35.000000
1.989088 -2.003517 -0.872847 32.000000
1.964116 -2.022453 -0.868669 35.000000
1.932364 -2.034204 -0.861565 71.000000
1.903910 -2.048964 -0.855952 66.000000
1.884006 -2.074731 -0.854911 59.000000
1.855387 -2.088769 -0.849231 46.000000
1.854901 -2.134908 -0.856524 62.000000
1.838195 -2.163035 -0.856527 52.000000
1.816913 -2.188164 -0.855434 34.000000
1.793529 -2.208557 -0.852443 30.000000
1.769963 -2.228588 -0.849361 32.000000
1.756607 -2.264491 -0.852343 36.000000
1.735415 -2.287928 -0.850661 34.000000
1.719672 -2.318953 -0.851798 34.000000
1.713370 -2.366268 -0.858822 35.000000
1.693731 -2.393245 -0.858380 32.000000
1.672337 -2.421002 -0.858196 32.000000
1.644022 -2.435729 -0.853434 25.000000
1.624679 -2.467001 -0.854521 31.000000
1.606295 -2.497329 -0.855295 33.000000
1.601272 -2.552832 -0.864593 31.000000
1.579410 -2.578923 -0.863704 30.000000
1.557281 -2.604743 -0.862888 31.000000
1.528010 -2.623037 -0.859614 27.000000
1.519922 -2.678808 -0.868457 26.000000
1.508015 -2.725286 -0.874204 10.000000
0.760842 1.387103 -0.431871 8.000000
0.771574 1.369592 -0.430880 14.000000
0.785900 1.360837 -0.432670 22.000000
0.798615 1.347340 -0.432980 18.000000
0.815149 1.342432 -0.436103 21.000000
0.835165 1.340908 -0.440380 20.000000
0.851818 1.335558 -0.443530 24.000000
0.871946 1.333475 -0.447791 26.000000
0.899319 1.343621 -0.456299 19.000000
0.887079 1.293285 -0.444261 15.000000
0.900659 1.283287 -0.445952 28.000000
0.922551 1.284805 -0.451763 20.000000
0.934011 1.270039 -0.451891 26.000000
0.956090 1.270998 -0.457640 24.000000
0.990699 1.286325 -0.468866 28.000000
0.992429 1.260043 -0.464948 30.000000
1.030550 1.278221 -0.477545 20.000000
1.022697 1.240659 -0.469356 21.000000
1.029700 1.221769 -0.468180 30.000000
1.062065 1.231420 -0.478012 29.000000
1.071980 1.215822 -0.478149 37.000000
1.097765 1.217895 -0.485373 33.000000
1.121081 1.215575 -0.491000 33.000000
1.143893 1.213295 -0.496809 34.000000
1.160227 1.203788 -0.499728 26.000000
1.173061 1.190634 -0.501272 22.000000
1.182444 1.173948 -0.501270 33.000000
1.212737 1.176703 -0.509764 46.000000
1.228813 1.166208 -0.512667 51.000000
1.248358 1.158727 -0.516976 45.000000
1.264339 1.147710 -0.519844 56.000000
1.291009 1.146027 -0.527101 57.000000
1.303403 1.131320 -0.528478 32.000000
1.315577 1.116447 -0.529800 25.000000
1.331318 1.104460 -0.532593 35.000000
1.350726 1.095288 -0.536869 36.000000
1.370043 1.085781 -0.541103 50.000000
1.396928 1.081839 -0.548315 31.000000
1.435322 1.086026 -0.559955 32.000000
1.443276 1.066794 -0.559674 34.000000
1.462604 1.055858 -0.563862 31.000000
1.470183 1.036382 -0.563579 25.000000
1.489317 1.024993 -0.567725 35.000000
1.508047 1.013601 -0.572058 46.000000
1.543016 1.012025 -0.582189 39.000000
1.562090 0.999507 -0.586325 36.000000
1.605059 1.002192 -0.599656 45.000000
1.628174 0.991211 -0.605225 52.000000
1.651023 0.980197 -0.611055 32.000000
1.661723 0.961257 -0.612039 27.000000
1.692737 0.954258 -0.620815 45.000000
1.707370 0.937125 -0.623336 40.000000
1.721617 0.920148 -0.625986 36.000000
1.756777 0.913872 -0.636226 35.000000
1.809018 0.915559 -0.652624 36.000000
1.840181 0.905589 -0.661402 61.000000
1.862791 0.890900 -0.666999 34.000000
1.881022 0.873850 -0.671138 21.000000
1.920820 0.866248 -0.682859 36.000000
1.938863 0.848227 -0.686893 30.000000
1.978673 0.839293 -0.698594 36.000000
2.005298 0.824037 -0.705681 33.000000
2.044912 0.813867 -0.717574 32.000000
2.093664 0.805992 -0.732314 47.000000
2.128958 0.792388 -0.742645 31.000000
2.159777 0.776503 -0.751371 30.000000
2.199452 0.763008 -0.763158 34.000000
2.203097 0.736753 -0.762496 29.000000
2.215527 0.713287 -0.764803 33.000000
2.209543 0.684101 -0.760863 27.000000
2.198691 0.653719 -0.755351 23.000000
2.210185 0.630331 -0.757727 26.000000
2.207671 0.602941 -0.755331 18.000000
2.223257 0.580481 -0.759204 10.000000
2.224854 0.554297 -0.758225 22.000000
2.230750 0.529239 -0.758815 22.000000
2.231721 0.502990 -0.757758 22.000000
2.227734 0.476001 -0.755273 24.000000
2.232788 0.450952 -0.755859 21.000000
2.232887 0.424870 -0.754723 22.000000
2.232675 0.398892 -0.753585 16.000000
2.232225 0.372947 -0.752373 11.000000
2.236156 0.347910 -0.752809 24.000000
2.235099 0.322050 -0.751594 24.000000
2.252548 0.298790 -0.756697 26.000000
2.250909 0.272930 -0.755482 28.000000
2.239681 0.245995 -0.750885 23.000000
2.261027 0.222704 -0.757647 26.000000
2.230289 0.194386 -0.746719 20.000000
2.274798 0.172551 -0.761251 17.000000
2.290758 0.147853 -0.766146 26.000000
2.287499 0.121900 -0.764637 26.000000
2.283940 0.095979 -0.763201 25.000000
2.284822 0.070311 -0.763274 28.000000
2.294967 0.044755 -0.766442 26.000000
2.300079 0.019019 -0.768099 27.000000
2.295411 -0.006794 -0.766442 23.000000
2.233541 -0.031694 -0.745784 20.000000
2.256744 -0.057452 -0.753700 27.000000
2.265496 -0.083148 -0.756721 49.000000
2.264475 -0.108603 -0.756503 44.000000
2.258428 -0.133778 -0.754847 39.000000
2.280483 -0.160775 -0.762539 70.000000
2.269189 -0.185669 -0.759082 40.000000
2.276511 -0.212037 -0.762024 76.000000
2.283520 -0.238544 -0.764743 95.000000
2.261938 -0.262061 -0.758203 39.000000
2.268421 -0.288600 -0.760921 33.000000
2.232216 -0.309559 -0.749580 15.000000
2.224045 -0.333932 -0.747568 9.000000
2.225040 -0.359642 -0.748638 9.000000
2.211630 -0.383028 -0.745125 9.000000
2.211966 -0.408718 -0.746194 9.000000
2.230695 -0.438172 -0.753554 10.000000
2.244458 -0.467037 -0.759257 12.000000
2.257844 -0.496318 -0.764876 32.000000
2.243021 -0.519516 -0.761143 15.000000
2.232636 -0.543629 -0.758982 10.000000
2.245056 -0.573439 -0.764511 9.000000
2.257077 -0.603514 -0.770026 31.000000
2.268692 -0.633926 -0.775454 48.000000
2.261804 -0.659355 -0.774622 36.000000
2.227191 -0.676501 -0.764503 17.000000
2.237834 -0.707276 -0.769915 21.000000
2.243537 -0.736900 -0.773757 22.000000
2.257912 -0.769821 -0.780622 17.000000
2.262852 -0.799850 -0.784285 20.000000
2.240754 -0.820377 -0.778630 15.000000
2.249575 -0.852161 -0.783676 19.000000
2.253359 -0.882843 -0.787468 25.000000
2.252545 -0.911575 -0.789315 16.000000
2.255652 -0.942495 -0.792929 21.000000
2.258325 -0.973556 -0.796453 20.000000
2.247596 -0.999037 -0.795348 16.000000
2.253856 -1.032285 -0.800309 17.000000
2.242488 -1.057725 -0.799037 12.000000
2.243727 -1.089161 -0.802359 18.000000
2.248850 -1.122934 -0.807114 22.000000
2.249312 -1.154675 -0.810242 17.000000
2.245096 -1.184399 -0.811830 21.000000
2.248917 -1.218607 -0.816365 21.000000
2.222827 -1.237303 -0.810582 12.000000
2.242482 -1.281064 -0.821072 15.000000
2.224146 -1.304208 -0.818154 10.000000
2.218200 -1.333886 -0.819438 16.000000
2.227715 -1.374175 -0.826985 20.000000
2.216919 -1.401604 -0.826645 14.000000
2.221406 -1.439751 -0.832551 19.000000
2.217406 -1.472907 -0.835348 17.000000
2.229188 -1.516299 -0.843845 14.000000
2.224210 -1.549832 -0.846505 15.000000
2.203250 -1.572280 -0.843198 13.000000
2.205223 -1.611368 -0.848713 18.000000
2.202715 -1.647773 -0.852715 20.000000
2.199780 -1.684350 -0.856689 14.000000
2.218892 -1.738779 -0.869299 19.000000
2.207263 -1.769876 -0.870168 17.000000
2.187932 -1.794807 -0.868001 13.000000
2.186553 -1.834926 -0.873054 16.000000
2.170141 -1.862728 -0.872235 10.000000
2.189430 -1.921896 -0.885864 23.000000
2.189793 -1.965793 -0.892152 21.000000
2.179069 -2.000183 -0.894052 19.000000
2.167758 -2.034529 -0.895833 23.000000
2.131859 -2.045620 -0.887427 26.000000
2.054107 -2.016783 -0.862213 29.000000
1.988322 -1.995679 -0.841051 33.000000
1.956754 -2.007724 -0.834171 32.000000
1.935152 -2.029683 -0.831583 71.000000
1.900200 -2.037259 -0.823237 76.000000
1.867546 -2.048700 -0.816693 39.000000
1.855165 -2.080344 -0.818272 62.000000
1.835978 -2.104706 -0.816928 45.000000
1.818584 -2.133414 -0.817240 43.000000
1.798846 -2.157330 -0.815783 37.000000
1.788049 -2.192303 -0.818485 24.000000
1.769411 -2.220579 -0.818739 36.000000
1.751692 -2.247909 -0.818524 35.000000
1.738092 -2.283569 -0.821312 33.000000
1.716732 -2.306738 -0.819677 37.000000
1.688081 -2.322831 -0.815573 30.000000
1.688470 -2.376989 -0.824724 30.000000
1.663411 -2.395668 -0.821488 30.000000
1.641997 -2.423057 -0.821323 19.000000
1.624367 -2.453379 -0.822113 32.000000
1.599478 -2.476351 -0.820470 29.000000
1.586278 -2.514471 -0.823784 29.000000
1.570755 -2.553545 -0.827328 30.000000
1.556306 -2.591580 -0.830534 31.000000
1.534625 -2.622340 -0.831239 28.000000
1.511916 -2.647734 -0.830406 26.000000
1.519739 -2.732959 -0.848068 9.000000
0.765547 1.388805 -0.417858 6.000000
0.782389 1.384404 -0.420939 10.000000
0.790526 1.362578 -0.418692 10.000000
0.803177 1.349026 -0.418995 18.000000
0.824755 1.352419 -0.424564 11.000000
0.842380 1.346703 -0.427465 17.000000
0.853833 1.333201 -0.427867 12.000000
0.868647 1.323091 -0.429369 12.000000
0.893273 1.329347 -0.436328 19.000000
0.899810 1.306893 -0.433891 10.000000
0.902409 1.281036 -0.430202 24.000000
0.916641 1.270424 -0.431690 18.000000
0.952873 1.291127 -0.443942 16.000000
0.961393 1.272261 -0.442690 24.000000
0.992498 1.284319 -0.452360 16.000000
1.012717 1.280199 -0.456493 19.000000
1.026218 1.268819 -0.458097 18.000000
1.027399 1.242448 -0.454225 9.000000
1.028769 1.215694 -0.450165 26.000000
1.060530 1.225955 -0.459868 23.000000
1.083096 1.224832 -0.465466 24.000000
1.099914 1.215687 -0.468188 31.000000
1.116134 1.206832 -0.471022 21.000000
1.142176 1.208170 -0.478062 21.000000
1.165659 1.205173 -0.483486 26.000000
1.178493 1.192019 -0.484923 10.000000
1.184447 1.171898 -0.483574 34.000000
1.211276 1.171428 -0.490380 30.000000
1.234322 1.167612 -0.496030 32.000000
1.246800 1.153622 -0.497380 36.000000
1.255666 1.136251 -0.497322 24.000000
1.275023 1.128388 -0.501494 27.000000
1.301715 1.126476 -0.508514 28.000000
1.328902 1.123629 -0.515288 13.000000
1.322561 1.093294 -0.509446 32.000000
1.341815 1.084296 -0.513556 28.000000
1.368555 1.080903 -0.520540 26.000000
1.391650 1.074131 -0.526062 31.000000
1.403242 1.058283 -0.527238 23.000000
1.445560 1.065044 -0.539989 24.000000
1.464890 1.054215 -0.544020 33.000000
1.483765 1.043383 -0.548294 11.000000
1.491155 1.023788 -0.547943 31.000000
1.506261 1.009437 -0.550491 30.000000
1.529259 1.000115 -0.555956 29.000000
1.568382 1.000694 -0.567213 35.000000
1.595183 0.993294 -0.574304 29.000000
1.618297 0.982507 -0.579716 27.000000
1.649560 0.976250 -0.588075 33.000000
1.643404 0.948218 -0.583360 10.000000
1.682861 0.945827 -0.594633 41.000000
1.701352 0.931552 -0.598691 32.000000
1.723908 0.919152 -0.604239 28.000000
1.755154 0.910489 -0.612510 35.000000
1.799050 0.907928 -0.625440 32.000000
1.834491 0.900265 -0.635378 32.000000
1.869943 0.891959 -0.645278 35.000000
1.866553 0.864815 -0.641804 16.000000
1.910644 0.859431 -0.654722 29.000000
1.946128 0.849313 -0.664553 33.000000
1.964083 0.831031 -0.668426 25.000000
2.008329 0.823341 -0.681292 33.000000
2.043816 0.811196 -0.691120 32.000000
2.079111 0.798595 -0.701113 24.000000
2.123497 0.788357 -0.713921 29.000000
2.131905 0.764511 -0.714863 11.000000
2.185075 0.756184 -0.730801 29.000000
2.229317 0.743683 -0.743683 30.000000
2.246367 0.721548 -0.747530 22.000000
2.222196 0.686399 -0.737704 21.000000
2.220430 0.658669 -0.735348 21.000000
2.250392 0.640122 -0.743587 16.000000
2.243344 0.611191 -0.739789 20.000000
2.208329 0.575215 -0.726876 9.000000
2.256002 0.560780 -0.741204 15.000000
2.257324 0.534291 -0.740279 16.000000
2.272340 0.510967 -0.743842 16.000000
2.259155 0.481477 -0.738201 13.000000
2.278192 0.458989 -0.743363 18.000000
2.254962 0.428046 -0.734665 16.000000
2.254834 0.401910 -0.733581 16.000000
2.235608 0.372674 -0.726318 9.000000
2.277095 0.353458 -0.739042 21.000000
2.276076 0.327228 -0.737884 19.000000
2.270100 0.300405 -0.735122 18.000000
2.277909 0.275508 -0.736945 18.000000
2.266582 0.248432 -0.732650 18.000000
2.283351 0.224393 -0.737533 18.000000
2.285705 0.198725 -0.737680 21.000000
2.263959 0.171335 -0.730246 9.000000
2.303632 0.148380 -0.742715 22.000000
2.309938 0.122805 -0.744321 22.000000
2.315881 0.097124 -0.746001 22.000000
2.312015 0.070969 -0.744543 24.000000
2.303165 0.044828 -0.741479 21.000000
2.312979 0.019133 -0.744618 26.000000
2.322572 -0.006851 -0.747682 32.000000
2.279592 -0.032306 -0.733746 29.000000
2.288596 -0.058055 -0.736810 41.000000
2.292618 -0.083918 -0.738195 47.000000
2.286834 -0.109358 -0.736443 37.000000
2.299768 -0.135889 -0.740962 48.000000
2.298143 -0.161663 -0.740741 36.000000
2.263086 -0.184654 -0.729737 15.000000
2.284602 -0.212258 -0.737165 33.000000
2.258501 -0.235385 -0.729227 19.000000
2.251151 -0.260095 -0.727335 9.000000
2.238727 -0.284171 -0.723990 9.000000
2.226112 -0.307964 -0.720575 9.000000
2.222655 -0.332883 -0.720143 9.000000
2.247116 -0.362278 -0.728787 9.000000
2.200799 -0.380218 -0.714707 7.000000
2.266830 -0.417784 -0.737048 14.000000
2.294894 -0.449599 -0.747184 25.000000
2.289950 -0.475222 -0.746584 69.000000
2.284630 -0.500994 -0.746060 21.000000
2.265087 -0.523400 -0.740906 9.000000
2.268538 -0.550966 -0.743344 9.000000
2.271716 -0.578740 -0.745703 8.000000
2.269939 -0.605417 -0.746391 9.000000
2.295380 -0.639725 -0.756149 40.000000
2.283708 -0.664181 -0.753952 32.000000
2.299131 -0.696676 -0.760814 23.000000
2.277801 -0.718215 -0.755445 12.000000
2.269927 -0.743748 -0.754604 13.000000
2.279805 -0.775269 -0.759704 15.000000
2.271251 -0.800775 -0.758702 10.000000
2.253584 -0.822855 -0.754700 9.000000
2.293534 -0.866810 -0.770263 19.000000
2.257381 -0.881962 -0.760186 10.000000
2.278586 -0.919890 -0.769640 14.000000
2.281663 -0.951016 -0.773095 16.000000
2.266766 -0.974739 -0.770499 10.000000
2.269128 -1.006024 -0.773859 13.000000
2.284154 -1.043396 -0.781584 10.000000
2.251074 -1.058838 -0.772962 8.000000
2.286749 -1.107007 -0.787983 17.000000
2.274654 -1.132578 -0.786603 10.000000
2.266567 -1.160163 -0.786699 14.000000
2.291690 -1.205970 -0.798742 14.000000
2.261725 -1.222436 -0.791370 10.000000
2.273501 -1.261636 -0.798618 13.000000
2.271933 -1.294468 -0.801687 10.000000
2.245610 -1.312520 -0.795630 8.000000
2.267911 -1.360139 -0.807358 13.000000
2.220216 -1.365743 -0.794182 10.000000
2.258190 -1.423523 -0.811252 11.000000
2.250476 -1.454346 -0.812622 10.000000
2.242392 -1.485095 -0.813895 10.000000
2.253739 -1.529292 -0.822296 10.000000
2.232964 -1.551998 -0.819117 10.000000
2.212508 -1.573837 -0.815599 8.000000
2.233920 -1.627039 -0.828134 14.000000
2.242932 -1.672263 -0.836221 10.000000
2.239812 -1.709198 -0.839974 12.000000
2.228615 -1.740399 -0.840761 10.000000
2.232090 -1.783380 -0.847219 10.000000
2.216341 -1.811514 -0.846546 10.000000
2.222236 -1.858008 -0.854260 10.000000
2.204867 -1.886840 -0.853735 8.000000
2.231310 -1.952750 -0.869723 17.000000
2.210093 -1.977739 -0.867365 10.000000
2.206300 -2.018742 -0.871911 17.000000
2.198461 -2.056578 -0.875022 12.000000
2.144932 -2.051293 -0.859915 18.000000
2.073762 -2.029063 -0.838223 25.000000
1.997474 -1.997922 -0.813596 21.000000
1.952417 -1.996212 -0.801428 10.000000
1.926666 -2.015344 -0.797836 34.000000
1.885364 -2.015692 -0.787043 32.000000
1.866890 -2.040260 -0.785870 36.000000
1.837577 -2.054672 -0.780863 29.000000
1.828305 -2.089617 -0.783673 31.000000
1.805942 -2.109956 -0.781031 37.000000
1.785436 -2.134515 -0.779915 27.000000
1.771830 -2.165541 -0.781215 12.000000
1.751790 -2.188894 -0.779807 28.000000
1.745087 -2.231916 -0.785334 23.000000
1.738966 -2.274269 -0.790356 32.000000
1.702048 -2.278940 -0.782423 29.000000
1.692140 -2.317228 -0.786149 24.000000
1.668975 -2.340766 -0.784742 30.000000
1.647088 -2.363186 -0.782961 20.000000
1.636867 -2.406166 -0.788070 10.000000
1.614236 -2.428313 -0.786243 26.000000
1.602814 -2.471330 -0.791168 21.000000
1.587185 -2.505337 -0.793077 26.000000
1.559172 -2.523793 -0.790173 21.000000
1.550226 -2.570002 -0.795770 23.000000
1.528865 -2.600508 -0.796567 21.000000
1.511842 -2.639293 -0.799783 19.000000
1.514876 -2.710886 -0.812786 9.000000
0.781891 1.411652 -0.409949 8.000000
0.772704 1.360734 -0.399364 12.000000
0.785347 1.347432 -0.399650 21.000000
0.806747 1.351158 -0.405060 18.000000
0.811610 1.325124 -0.401544 26.000000
0.831453 1.323770 -0.405524 21.000000
0.853153 1.326663 -0.410932 24.000000
0.865166 1.312626 -0.411160 29.000000
0.889720 1.318992 -0.417826 19.000000
0.885087 1.280709 -0.410361 21.000000
0.904131 1.278726 -0.414492 19.000000
0.929607 1.283752 -0.421061 20.000000
0.931569 1.257863 -0.417459 29.000000
0.954266 1.258533 -0.422721 22.000000
0.982281 1.266935 -0.430704 31.000000
0.993364 1.251654 -0.430771 24.000000
1.012628 1.248039 -0.434898 24.000000
1.007954 1.213926 -0.428359 26.000000
1.039507 1.224716 -0.437743 20.000000
1.053125 1.212572 -0.439014 30.000000
1.069130 1.204390 -0.441810 36.000000
1.085162 1.195983 -0.444564 25.000000
1.104958 1.190371 -0.448452 35.000000
1.140875 1.202446 -0.459185 29.000000
1.156984 1.193097 -0.461993 27.000000
1.143114 1.152267 -0.452463 29.000000
1.193117 1.176550 -0.468613 24.000000
1.195308 1.153088 -0.465942 35.000000
1.232666 1.162305 -0.476577 35.000000
1.245073 1.148394 -0.477920 28.000000
1.257427 1.134375 -0.479209 36.000000
1.276779 1.126506 -0.483228 31.000000
1.307576 1.127353 -0.491149 35.000000
1.297626 1.094022 -0.484233 28.000000
1.335333 1.100720 -0.495099 25.000000
1.347198 1.085614 -0.496307 34.000000
1.385322 1.091211 -0.507190 33.000000
1.397138 1.075531 -0.508366 25.000000
1.427922 1.074121 -0.516484 35.000000
1.435689 1.055099 -0.516284 27.000000
1.454868 1.044395 -0.520206 28.000000
1.470125 1.030646 -0.522742 32.000000
1.493193 1.022115 -0.528028 29.000000
1.516208 1.013144 -0.533273 35.000000
1.543301 1.006465 -0.539941 33.000000
1.561999 0.994449 -0.544049 28.000000
1.585061 0.984253 -0.549287 40.000000
1.616256 0.978687 -0.557369 32.000000
1.618639 0.955476 -0.555497 27.000000
1.645428 0.946977 -0.562313 33.000000
1.680786 0.942310 -0.571753 31.000000
1.699258 0.928135 -0.575707 32.000000
1.730524 0.920025 -0.583706 36.000000
1.757342 0.909487 -0.590486 33.000000
1.780137 0.895908 -0.595664 33.000000
1.824075 0.892822 -0.608090 33.000000
1.863922 0.886715 -0.619181 29.000000
1.869046 0.863792 -0.618663 26.000000
1.908941 0.856516 -0.629734 29.000000
1.948801 0.848421 -0.640703 29.000000
1.975586 0.833916 -0.647363 29.000000
2.006690 0.820758 -0.655418 30.000000
2.033335 0.805203 -0.662042 31.000000
2.073259 0.794243 -0.673032 32.000000
2.122062 0.786048 -0.687025 26.000000
2.121570 0.758936 -0.684839 28.000000
2.179355 0.752316 -0.701715 35.000000
2.210063 0.735523 -0.709812 32.000000
2.245341 0.719309 -0.719234 32.000000
2.262154 0.696925 -0.722832 31.000000
2.269480 0.671697 -0.723738 26.000000
2.276655 0.646243 -0.724418 30.000000
2.269689 0.616877 -0.720628 19.000000
2.280847 0.592704 -0.722770 14.000000
2.301084 0.570579 -0.727849 22.000000
2.279230 0.538255 -0.719643 16.000000
2.270923 0.509546 -0.715831 23.000000
2.266999 0.482069 -0.713335 16.000000
2.272105 0.456612 -0.713705 17.000000
2.286305 0.433006 -0.717169 21.000000
2.267318 0.403187 -0.710247 10.000000
2.299861 0.382516 -0.719460 18.000000
2.303882 0.356826 -0.719982 22.000000
2.293419 0.329027 -0.715926 18.000000
2.320502 0.306474 -0.723680 24.000000
2.281036 0.275304 -0.710608 21.000000
2.307640 0.252359 -0.718217 21.000000
2.300728 0.225546 -0.715483 24.000000
2.298259 0.199432 -0.714374 12.000000
2.324136 0.175509 -0.721843 20.000000
2.325923 0.149521 -0.721992 21.000000
2.336951 0.123965 -0.725101 26.000000
2.338147 0.097871 -0.725250 23.000000
2.339044 0.071703 -0.725325 27.000000
2.315842 0.045069 -0.717924 37.000000
2.325690 0.019172 -0.720959 68.000000
2.340091 -0.006879 -0.725400 95.000000
2.339942 -0.033047 -0.725250 95.000000
2.339418 -0.059216 -0.725250 98.000000
2.333898 -0.085211 -0.723621 91.000000
2.337624 -0.111554 -0.724876 98.000000
2.341046 -0.137929 -0.726206 95.000000
2.334633 -0.163817 -0.724503 36.000000
2.304125 -0.187585 -0.715557 29.000000
2.278276 -0.211083 -0.707800 9.000000
2.285367 -0.237579 -0.710388 9.000000
2.287323 -0.263667 -0.711644 9.000000
2.293860 -0.290462 -0.714302 9.000000
2.281071 -0.314783 -0.710982 9.000000
2.315343 -0.345952 -0.722334 14.000000
2.335116 -0.375540 -0.729252 23.000000
2.335596 -0.402485 -0.730271 81.000000
2.326430 -0.427732 -0.728270 93.000000
2.326362 -0.454631 -0.729211 88.000000
2.316611 -0.479697 -0.727288 76.000000
2.362610 -0.516840 -0.742910 75.000000
2.305584 -0.531436 -0.726155 10.000000
2.304338 -0.558318 -0.727017 9.000000
2.279674 -0.579340 -0.720403 8.000000
2.301016 -0.612166 -0.728428 9.000000
2.331031 -0.648174 -0.739512 34.000000
2.328443 -0.675603 -0.740278 60.000000
2.316516 -0.700058 -0.737814 28.000000
2.304232 -0.724566 -0.735585 16.000000
2.327969 -0.760859 -0.745078 23.000000
2.315079 -0.785338 -0.742687 16.000000
2.329070 -0.819005 -0.748931 10.000000
2.302031 -0.838672 -0.742344 17.000000
2.310804 -0.870970 -0.747041 12.000000
2.314498 -0.902168 -0.750434 18.000000
2.313400 -0.931641 -0.752372 14.000000
2.303145 -0.957636 -0.751338 14.000000
2.296972 -0.985281 -0.751665 15.000000
2.312497 -1.022629 -0.759177 13.000000
2.309935 -1.052463 -0.760840 9.000000
2.307125 -1.082330 -0.762493 17.000000
2.286644 -1.103897 -0.758333 10.000000
2.300344 -1.142157 -0.765609 18.000000
2.287667 -1.168165 -0.764464 13.000000
2.296129 -1.204818 -0.770192 11.000000
2.295415 -1.237563 -0.773218 20.000000
2.277773 -1.260725 -0.770222 10.000000
2.297206 -1.305447 -0.780225 9.000000
2.287225 -1.333337 -0.780040 12.000000
2.284836 -1.366498 -0.782840 11.000000
2.273767 -1.394836 -0.782808 12.000000
2.282782 -1.435786 -0.789712 10.000000
2.275415 -1.466197 -0.790629 10.000000
2.279264 -1.505068 -0.796076 15.000000
2.274611 -1.538838 -0.798527 10.000000
2.273467 -1.575351 -0.802441 9.000000
2.248318 -1.595369 -0.797903 11.000000
2.250322 -1.634799 -0.802998 10.000000
2.259376 -1.680136 -0.810829 14.000000
2.248605 -1.711351 -0.811622 10.000000
2.260191 -1.760190 -0.820664 10.000000
2.259802 -1.800542 -0.825531 14.000000
2.251360 -1.834967 -0.827532 10.000000
2.249832 -1.875619 -0.832245 9.000000
2.240371 -1.910072 -0.834104 10.000000
2.237020 -1.951756 -0.838942 10.000000
2.240977 -1.999131 -0.846079 17.000000
2.229937 -2.033904 -0.847755 12.000000
2.218497 -2.068629 -0.849408 13.000000
2.174326 -2.074255 -0.839128 21.000000
2.082978 -2.031182 -0.809837 21.000000
2.050806 -2.044203 -0.803339 21.000000
1.957022 -1.995608 -0.773233 27.000000
1.928930 -2.010335 -0.768097 31.000000
1.884223 -2.007160 -0.756355 40.000000
1.858484 -2.025302 -0.752856 35.000000
1.843272 -2.053094 -0.752967 35.000000
1.805444 -2.055306 -0.743876 35.000000
