x y z intensity
2.503752 -2.153920 -0.284579 17.000000
2.461375 -2.164785 -0.281730 10.000000
2.419157 -2.174939 -0.278792 12.000000
2.277865 -2.093374 -0.264372 10.000000
2.138738 -2.009049 -0.250030 9.000000
2.055538 -1.973756 -0.242115 9.000000
1.923664 -1.887920 -0.228333 9.000000
1.858022 -1.862292 -0.222122 9.000000
1.774992 -1.818260 -0.213849 10.000000
1.696568 -1.776307 -0.206119 10.000000
1.636336 -1.751126 -0.200441 10.000000
1.580197 -1.728435 -0.195212 24.000000
1.538011 -1.719577 -0.191739 24.000000
1.542187 -1.762500 -0.193993 25.000000
1.503525 -1.756567 -0.190879 24.000000
1.481139 -1.769031 -0.189761 21.000000
1.461782 -1.785139 -0.189125 24.000000
1.436123 -1.793184 -0.187675 21.000000
1.428859 -1.824424 -0.188594 20.000000
1.411951 -1.843848 -0.188360 27.000000
1.400788 -1.871105 -0.188857 23.000000
1.392166 -1.902364 -0.189818 21.000000
1.368552 -1.913395 -0.188696 17.000000
1.350521 -1.932316 -0.188374 17.000000
1.335140 -1.955128 -0.188446 22.000000
1.320455 -1.977116 -0.188439 18.000000
1.296188 -1.987280 -0.187317 18.000000
1.282576 -2.013911 -0.187694 20.000000
1.284336 -2.065824 -0.190476 13.000000
1.269605 -2.092534 -0.190898 18.000000
1.244290 -2.101955 -0.189687 7.000000
0.966738 1.653340 -0.134355 6.000000
0.964154 1.608453 -0.132073 12.000000
0.996210 1.623978 -0.134763 21.000000
1.013813 1.613020 -0.135229 25.000000
1.020501 1.585113 -0.134333 18.000000
1.043121 1.582193 -0.135507 24.000000
1.051914 1.558312 -0.134955 23.000000
1.068769 1.546749 -0.135415 19.000000
1.088388 1.539086 -0.136236 25.000000
1.110846 1.535226 -0.137421 10.000000
1.109685 1.499002 -0.135764 25.000000
1.131913 1.494740 -0.136949 28.000000
1.166413 1.506002 -0.139543 22.000000
1.179579 1.489269 -0.139643 27.000000
1.195683 1.476305 -0.140108 24.000000
1.214850 1.467065 -0.140942 23.000000
1.224319 1.446106 -0.140610 29.000000
1.262817 1.459045 -0.143672 10.000000
1.258760 1.422762 -0.141852 32.000000
1.280855 1.416322 -0.143064 32.000000
1.299609 1.405898 -0.143848 26.000000
1.325116 1.402532 -0.145385 34.000000
1.340292 1.387947 -0.145798 29.000000
1.362355 1.380340 -0.146967 32.000000
1.387935 1.375912 -0.148519 32.000000
1.399250 1.357128 -0.148498 12.000000
1.420679 1.349138 -0.149738 36.000000
1.442676 1.340333 -0.150922 44.000000
1.453512 1.321069 -0.150900 32.000000
1.475272 1.311762 -0.152029 54.000000
1.497055 1.302051 -0.153222 35.000000
1.518738 1.292053 -0.154358 35.000000
1.544272 1.284894 -0.155885 55.000000
1.558231 1.267922 -0.156254 21.000000
1.548540 1.232144 -0.154291 37.000000
1.593402 1.239608 -0.157709 34.000000
1.618715 1.231172 -0.159250 31.000000
1.652101 1.228236 -0.161517 36.000000
1.669430 1.213017 -0.162287 33.000000
1.690698 1.200469 -0.163389 33.000000
1.703393 1.182314 -0.163770 33.000000
1.724467 1.169183 -0.164940 22.000000
1.741251 1.152992 -0.165654 36.000000
1.766275 1.141994 -0.167162 36.000000
1.803927 1.138573 -0.169800 35.000000
1.820514 1.121399 -0.170524 51.000000
1.845439 1.109136 -0.172046 36.000000
1.857370 1.088899 -0.172375 46.000000
1.882150 1.076017 -0.173838 58.000000
1.915332 1.067841 -0.176172 26.000000
1.926813 1.046893 -0.176508 35.000000
1.964589 1.039800 -0.179187 59.000000
1.984609 1.022861 -0.180264 33.000000
2.013433 1.010062 -0.182149 46.000000
2.024330 0.988060 -0.182425 35.000000
2.057462 0.976606 -0.184722 39.000000
2.095001 0.966891 -0.187430 43.000000
2.109934 0.946040 -0.188118 18.000000
2.147545 0.934894 -0.190765 33.000000
2.166766 0.915321 -0.191865 42.000000
2.204229 0.903033 -0.194523 35.000000
2.241646 0.890218 -0.197260 36.000000
2.279080 0.876431 -0.199930 46.000000
2.302512 0.856747 -0.201380 32.000000
2.335059 0.840056 -0.203650 32.000000
2.353439 0.818024 -0.204773 21.000000
2.390560 0.801898 -0.207462 40.000000
2.432320 0.786533 -0.210488 78.000000
2.488192 0.774971 -0.214831 60.000000
2.510812 0.752128 -0.216304 54.000000
2.537993 0.730270 -0.218111 71.000000
2.574576 0.710648 -0.220825 44.000000
2.577283 0.681240 -0.220576 26.000000
2.608704 0.659427 -0.222885 8.000000
2.688366 0.648443 -0.229161 39.000000
2.714650 0.623689 -0.231069 51.000000
2.760249 0.602593 -0.234462 61.000000
2.829996 0.585699 -0.240015 66.000000
2.875310 0.562555 -0.243505 95.000000
2.900833 0.534856 -0.245342 81.000000
2.911433 0.504180 -0.245847 90.000000
2.921600 0.473217 -0.246443 24.000000
2.887169 0.435458 -0.243213 11.000000
2.926272 0.408900 -0.246209 32.000000
2.900874 0.373234 -0.243807 63.000000
2.914712 0.342780 -0.244728 27.000000
2.898399 0.308942 -0.243155 9.000000
2.906573 0.277817 -0.243660 8.000000
2.909434 0.246253 -0.243749 8.000000
2.901999 0.213778 -0.242917 7.000000
2.914084 0.182857 -0.243839 8.000000
2.925824 0.151630 -0.244671 9.000000
2.882543 0.117945 -0.240926 8.000000
2.908504 0.087240 -0.243007 8.000000
2.924252 0.055891 -0.244255 8.000000
2.914735 0.024012 -0.243423 8.000000
2.864998 -0.007633 -0.239262 9.000000
2.899610 -0.039252 -0.242086 31.000000
2.908950 -0.071111 -0.242917 36.000000
2.873202 -0.101514 -0.239918 21.000000
2.856950 -0.132079 -0.238583 9.000000
2.880246 -0.164593 -0.240661 9.000000
2.913100 -0.198326 -0.243481 8.000000
2.920710 -0.230764 -0.244222 8.000000
2.922981 -0.262972 -0.244548 21.000000
2.929840 -0.295789 -0.245198 32.000000
2.941359 -0.329376 -0.246352 71.000000
2.957425 -0.363713 -0.247828 95.000000
2.953319 -0.395832 -0.247737 84.000000
2.963641 -0.430098 -0.248797 98.000000
2.948934 -0.460840 -0.247786 69.000000
2.909324 -0.487070 -0.244709 37.000000
2.913714 -0.520439 -0.245355 88.000000
2.888332 -0.548354 -0.243523 83.000000
2.872439 -0.577808 -0.242518 85.000000
2.856231 -0.606870 -0.241425 72.000000
2.834937 -0.634632 -0.240011 32.000000
2.944232 -0.692804 -0.249613 23.000000
2.955895 -0.729627 -0.251072 17.000000
2.938228 -0.759113 -0.249971 10.000000
2.944204 -0.794976 -0.250922 22.000000
2.925833 -0.824118 -0.249823 16.000000
2.921493 -0.857354 -0.249953 19.000000
2.940673 -0.897877 -0.252125 22.000000
2.926038 -0.928098 -0.251340 18.000000
2.953660 -0.972429 -0.254319 25.000000
2.971197 -1.014175 -0.256476 16.000000
2.969540 -1.049508 -0.256904 10.000000
2.972008 -1.086949 -0.257736 30.000000
2.973978 -1.124502 -0.258662 32.000000
2.970898 -1.160449 -0.259082 35.000000
2.972070 -1.198070 -0.259806 43.000000
2.963426 -1.232263 -0.259915 67.000000
2.959026 -1.268422 -0.260328 95.000000
2.931450 -1.294614 -0.258727 66.000000
2.903515 -1.320312 -0.257031 34.000000
2.889258 -1.351465 -0.256543 98.000000
2.874316 -1.382910 -0.256152 88.000000
2.836842 -1.403112 -0.253764 95.000000
2.821339 -1.433924 -0.253279 91.000000
2.792387 -1.457720 -0.251600 66.000000
2.771890 -1.485742 -0.250817 95.000000
2.751251 -1.513573 -0.249939 43.000000
2.726227 -1.538090 -0.248571 25.000000
2.696323 -1.560307 -0.246906 95.000000
2.704877 -1.604844 -0.248795 65.000000
2.661705 -1.618767 -0.245953 95.000000
2.639641 -1.645122 -0.244988 95.000000
2.642556 -1.687289 -0.246471 61.000000
2.599002 -1.699713 -0.243549 76.000000
2.605125 -1.744684 -0.245415 33.000000
2.548929 -1.747723 -0.241336 17.000000
2.583250 -1.812090 -0.245817 41.000000
2.587650 -1.857640 -0.247562 29.000000
2.591279 -1.903525 -0.249296 32.000000
2.586354 -1.943752 -0.250248 31.000000
2.592629 -1.993245 -0.252246 29.000000
2.582464 -2.030717 -0.252796 24.000000
2.575680 -2.071369 -0.253724 10.000000
2.595377 -2.134223 -0.257213 8.000000
2.583273 -2.172131 -0.257739 9.000000
2.589654 -2.226334 -0.260052 9.000000
2.542831 -2.234807 -0.257049 9.000000
2.421847 -2.175836 -0.246509 11.000000
2.291440 -2.104343 -0.234990 10.000000
2.170247 -2.037157 -0.224094 14.000000
2.058680 -1.973756 -0.214011 10.000000
1.948003 -1.908858 -0.204073 9.000000
1.877813 -1.880660 -0.198281 18.000000
1.787547 -1.829660 -0.190215 10.000000
1.729608 -1.809424 -0.185600 15.000000
1.648536 -1.762638 -0.178354 16.000000
1.588866 -1.736438 -0.173356 21.000000
1.553223 -1.735074 -0.170949 35.000000
1.517841 -1.733134 -0.168625 33.000000
1.495704 -1.745773 -0.167698 26.000000
1.479844 -1.765844 -0.167427 35.000000
1.460598 -1.781847 -0.166863 33.000000
1.434903 -1.789856 -0.165579 32.000000
1.418467 -1.809363 -0.165376 34.000000
1.407874 -1.836572 -0.165815 30.000000
1.393819 -1.859776 -0.165961 32.000000
1.367659 -1.866804 -0.164612 24.000000
1.367665 -1.909988 -0.166448 18.000000
1.346823 -1.924721 -0.165802 32.000000
1.328724 -1.943428 -0.165577 27.000000
1.318631 -1.974351 -0.166327 29.000000
1.294334 -1.984409 -0.165325 26.000000
1.283453 -2.015226 -0.166060 27.000000
1.266794 -2.037586 -0.166019 27.000000
1.261417 -2.076081 -0.167347 21.000000
1.266733 -2.136956 -0.170443 9.000000
0.964805 1.650028 -0.116824 7.000000
0.964728 1.609429 -0.115148 18.000000
0.976888 1.590367 -0.114992 28.000000
0.991464 1.575415 -0.115083 25.000000
1.011186 1.568682 -0.115791 26.000000
1.028192 1.557611 -0.116247 29.000000
1.045027 1.546311 -0.116647 26.000000
1.073103 1.551256 -0.118298 29.000000
1.089888 1.539489 -0.118702 25.000000
1.088936 1.503303 -0.117215 23.000000
1.099228 1.483365 -0.116980 30.000000
1.130390 1.491165 -0.118961 28.000000
1.140411 1.470862 -0.118725 33.000000
1.165591 1.470127 -0.120082 31.000000
1.178341 1.453457 -0.120163 32.000000
1.203629 1.452107 -0.121470 32.000000
1.222543 1.442705 -0.122197 31.000000
1.228357 1.417975 -0.121573 32.000000
1.237060 1.397022 -0.121326 35.000000
1.258879 1.390837 -0.122319 36.000000
1.294298 1.399042 -0.124621 35.000000
1.319736 1.395695 -0.125952 35.000000
1.345236 1.391948 -0.127289 35.000000
1.360333 1.377206 -0.127644 34.000000
1.385885 1.372819 -0.128989 32.000000
1.393576 1.350661 -0.128685 31.000000
1.404084 1.332447 -0.128769 45.000000
1.418530 1.316995 -0.129065 60.000000
1.443936 1.311487 -0.130421 76.000000
1.473053 1.308871 -0.132056 62.000000
1.502277 1.305748 -0.133759 74.000000
1.520264 1.292480 -0.134399 52.000000
1.534302 1.275818 -0.134705 35.000000
1.528805 1.243175 -0.133322 35.000000
1.553959 1.235734 -0.134638 47.000000
1.587071 1.233978 -0.136637 59.000000
1.596443 1.213496 -0.136605 55.000000
1.649609 1.225765 -0.140317 42.000000
1.662937 1.207597 -0.140632 36.000000
1.676013 1.189366 -0.140883 37.000000
1.697036 1.176693 -0.141883 33.000000
1.718057 1.163652 -0.142822 34.000000
1.738945 1.150367 -0.143828 46.000000
1.784642 1.153338 -0.146906 64.000000
1.801341 1.136434 -0.147511 54.000000
1.817837 1.119307 -0.148118 39.000000
1.838536 1.104526 -0.149072 56.000000
1.854715 1.086904 -0.149682 46.000000
1.875148 1.071532 -0.150641 35.000000
1.891068 1.053478 -0.151254 35.000000
1.915542 1.039955 -0.152499 52.000000
1.948790 1.030609 -0.154514 48.000000
1.977655 1.018499 -0.156184 65.000000
2.001988 1.003563 -0.157440 37.000000
2.030537 0.990730 -0.159120 47.000000
2.068217 0.981370 -0.161507 49.000000
2.078793 0.958818 -0.161717 32.000000
2.120948 0.950402 -0.164397 35.000000
2.140334 0.931201 -0.165317 38.000000
2.164116 0.913669 -0.166592 36.000000
2.192352 0.897583 -0.168224 49.000000
2.225024 0.883154 -0.170215 36.000000
2.281099 0.876730 -0.173985 41.000000
2.313817 0.860525 -0.175987 49.000000
2.337111 0.840360 -0.177206 27.000000
2.364998 0.821449 -0.178859 47.000000
2.387839 0.800621 -0.180159 56.000000
2.424942 0.783779 -0.182455 54.000000
2.457094 0.764756 -0.184398 68.000000
2.474838 0.740847 -0.185271 63.000000
2.525798 0.726458 -0.188731 45.000000
2.562362 0.706915 -0.191043 77.000000
2.584391 0.682759 -0.192281 31.000000
2.644774 0.668142 -0.196394 36.000000
2.661564 0.641684 -0.197280 31.000000
2.721814 0.625061 -0.201404 59.000000
2.757713 0.601790 -0.203648 84.000000
2.778754 0.574852 -0.204901 52.000000
2.868034 0.560820 -0.211112 78.000000
2.908266 0.535940 -0.213815 82.000000
2.913876 0.504361 -0.213906 33.000000
2.978288 0.482165 -0.218327 95.000000
2.973503 0.448275 -0.217697 79.000000
2.963379 0.413818 -0.216705 60.000000
2.977574 0.382864 -0.217520 76.000000
2.981524 0.350438 -0.217611 68.000000
2.960404 0.315371 -0.215895 32.000000
2.938772 0.280842 -0.214087 9.000000
2.971477 0.251387 -0.216348 6.000000
2.964085 0.218262 -0.215624 8.000000
2.961381 0.185665 -0.215263 8.000000
2.948257 0.152751 -0.214268 8.000000
2.984580 0.122019 -0.216801 9.000000
2.975799 0.089273 -0.216077 8.000000
3.006535 0.057415 -0.218249 8.000000
2.986957 0.024587 -0.216801 9.000000
2.922310 -0.007779 -0.212007 10.000000
2.946974 -0.039859 -0.213815 34.000000
2.916431 -0.071233 -0.211645 10.000000
2.915449 -0.102921 -0.211555 9.000000
2.949070 -0.136221 -0.213997 9.000000
2.937486 -0.167720 -0.213274 10.000000
2.955407 -0.201033 -0.214629 20.000000
2.987851 -0.235958 -0.217066 36.000000
2.980133 -0.267975 -0.216614 58.000000
2.986944 -0.301386 -0.217244 69.000000
2.988501 -0.334366 -0.217421 71.000000
2.979687 -0.366237 -0.216968 83.000000
2.970610 -0.398001 -0.216425 95.000000
2.961182 -0.429474 -0.215973 95.000000
2.951402 -0.460931 -0.215430 85.000000
2.911853 -0.487251 -0.212822 56.000000
2.891615 -0.516238 -0.211564 59.000000
2.876064 -0.545744 -0.210666 93.000000
2.855305 -0.574055 -0.209412 76.000000
2.824498 -0.599797 -0.207442 69.000000
2.817872 -0.630542 -0.207265 42.000000
2.903132 -0.682714 -0.213793 18.000000
3.006927 -0.741758 -0.221826 20.000000
2.979367 -0.769273 -0.220115 13.000000
2.985339 -0.805557 -0.220996 17.000000
2.985953 -0.840710 -0.221519 23.000000
2.976747 -0.872979 -0.221140 18.000000
2.981377 -0.909615 -0.222015 21.000000
3.033167 -0.961634 -0.226341 24.000000
3.017818 -0.992980 -0.225695 25.000000
3.021094 -1.030371 -0.226465 26.000000
3.028478 -1.069829 -0.227585 33.000000
3.012002 -1.100937 -0.226938 54.000000
3.032593 -1.146049 -0.229012 98.000000
2.996667 -1.169909 -0.226955 91.000000
2.965466 -1.194637 -0.225156 81.000000
2.956868 -1.228730 -0.225213 95.000000
2.938764 -1.258898 -0.224471 83.000000
2.924973 -1.290881 -0.224178 95.000000
2.888086 -1.312352 -0.222041 88.000000
2.878144 -1.345810 -0.222001 95.000000
2.858875 -1.374849 -0.221265 98.000000
2.826044 -1.396676 -0.219487 93.000000
2.801816 -1.422922 -0.218408 95.000000
2.777302 -1.448685 -0.217332 85.000000
2.756998 -1.476515 -0.216603 68.000000
2.736362 -1.504154 -0.215780 73.000000
2.698113 -1.521609 -0.213677 47.000000
2.685754 -1.553481 -0.213642 62.000000
2.668670 -1.582714 -0.213167 95.000000
2.651301 -1.611756 -0.212787 79.000000
2.642021 -1.645789 -0.212996 79.000000
2.649161 -1.690645 -0.214563 43.000000
2.647697 -1.729821 -0.215442 34.000000
2.632785 -1.761423 -0.215297 30.000000
2.638100 -1.806920 -0.216842 28.000000
2.634682 -1.847131 -0.217703 32.000000
2.626468 -1.884496 -0.218221 31.000000
2.609824 -1.916023 -0.217964 23.000000
2.628619 -1.974406 -0.220820 14.000000
2.618868 -2.012182 -0.221320 10.000000
2.632049 -2.068412 -0.223714 9.000000
2.624874 -2.109581 -0.224533 9.000000
2.628680 -2.160284 -0.226237 9.000000
2.624052 -2.204950 -0.227267 9.000000
2.618758 -2.249824 -0.228287 10.000000
2.601547 -2.284812 -0.228312 9.000000
2.454039 -2.203098 -0.216850 10.000000
2.330581 -2.138744 -0.207412 16.000000
2.183350 -2.048035 -0.195740 10.000000
2.075273 -1.988086 -0.187295 10.000000
1.953655 -1.912933 -0.177689 10.000000
1.904535 -1.905853 -0.174518 18.000000
1.824387 -1.865885 -0.168545 23.000000
1.741871 -1.820777 -0.162205 24.000000
1.667432 -1.781370 -0.156618 21.000000
1.604147 -1.751589 -0.151946 24.000000
1.558405 -1.739218 -0.148892 32.000000
1.526252 -1.741062 -0.147124 36.000000
1.497462 -1.746265 -0.145680 30.000000
1.475192 -1.758621 -0.144873 35.000000
1.456030 -1.774554 -0.144382 34.000000
1.442975 -1.798131 -0.144516 34.000000
1.414134 -1.801933 -0.143017 35.000000
1.403567 -1.829079 -0.143459 35.000000
1.386683 -1.848227 -0.143275 29.000000
1.372451 -1.871253 -0.143326 30.000000
1.360811 -1.898251 -0.143679 23.000000
1.348764 -1.925152 -0.144097 34.000000
1.324959 -1.935623 -0.143217 31.000000
1.309422 -1.958192 -0.143251 32.000000
1.290833 -1.976487 -0.142977 32.000000
1.274693 -1.998833 -0.143074 27.000000
1.255587 -2.016841 -0.142794 33.000000
1.243945 -2.047485 -0.143408 29.000000
1.252222 -2.112411 -0.146318 9.000000
0.963743 1.645953 -0.099382 7.000000
0.958453 1.596872 -0.097382 16.000000
0.975756 1.586343 -0.097724 23.000000
0.990225 1.571419 -0.097802 27.000000
1.007197 1.560577 -0.098199 27.000000
1.032372 1.562004 -0.099335 28.000000
1.049252 1.550674 -0.099678 25.000000
1.066017 1.539173 -0.100021 28.000000
1.088385 1.535704 -0.100900 25.000000
1.090298 1.503530 -0.099902 22.000000
1.100639 1.483591 -0.099704 28.000000
1.128745 1.487474 -0.101124 28.000000
1.141721 1.471146 -0.101138 30.000000
1.154553 1.454771 -0.101208 31.000000
1.176511 1.449866 -0.102094 28.000000
1.198580 1.444653 -0.102927 32.000000
1.214186 1.431515 -0.103271 26.000000
1.226406 1.414490 -0.103283 27.000000
1.235119 1.393571 -0.103074 35.000000
1.270254 1.402224 -0.105021 35.000000
1.284827 1.388865 -0.105368 35.000000
1.310152 1.385636 -0.106493 35.000000
1.318253 1.364117 -0.106226 40.000000
1.354086 1.370931 -0.108197 35.000000
1.379568 1.366628 -0.109335 35.000000
1.394407 1.351492 -0.109632 30.000000
1.390957 1.319004 -0.108516 42.000000
1.408913 1.307106 -0.109092 37.000000
1.430464 1.298366 -0.109895 54.000000
1.455716 1.292601 -0.111044 50.000000
1.492372 1.296293 -0.112994 50.000000
1.513998 1.286382 -0.113869 70.000000
1.531805 1.272933 -0.114398 48.000000
1.545626 1.256129 -0.114703 28.000000
1.555295 1.236037 -0.114658 64.000000
1.572658 1.222035 -0.115190 35.000000
1.597793 1.213864 -0.116301 52.000000
1.634963 1.214176 -0.118286 44.000000
1.652201 1.199178 -0.118826 37.000000
1.677333 1.189743 -0.119949 50.000000
1.690221 1.171386 -0.120200 34.000000
1.711186 1.158437 -0.121036 27.000000
1.727858 1.142428 -0.121519 59.000000
1.765366 1.139802 -0.123533 37.000000
1.786145 1.125788 -0.124313 75.000000
1.806782 1.111462 -0.125160 55.000000
1.831356 1.099780 -0.126305 66.000000
1.847549 1.082254 -0.126796 50.000000
1.872268 1.069453 -0.127881 42.000000
1.870722 1.041734 -0.127255 30.000000
1.895076 1.028386 -0.128342 49.000000
1.923800 1.017018 -0.129730 72.000000
1.970277 1.014338 -0.132314 76.000000
2.003495 1.003974 -0.134009 77.000000
2.036682 0.993056 -0.135710 59.000000
2.069898 0.981510 -0.137344 43.000000
2.085007 0.961047 -0.137854 38.000000
2.113545 0.946465 -0.139265 30.000000
2.128175 0.925658 -0.139778 41.000000
2.156501 0.910219 -0.141124 37.000000
2.193947 0.898018 -0.143147 37.000000
2.222143 0.881461 -0.144498 67.000000
2.240889 0.860847 -0.145248 43.000000
2.306273 0.857274 -0.149098 40.000000
2.343631 0.842276 -0.151064 35.000000
2.343186 0.813495 -0.150611 32.000000
2.370760 0.794509 -0.151976 52.000000
2.412488 0.779410 -0.154254 81.000000
2.435078 0.757580 -0.155321 60.000000
2.471875 0.739653 -0.157303 81.000000
2.518135 0.723782 -0.159897 62.000000
2.549881 0.703178 -0.161581 56.000000
2.581447 0.681812 -0.163187 41.000000
2.632261 0.664644 -0.166099 32.000000
2.639316 0.636006 -0.166182 9.000000
2.675224 0.614067 -0.168182 15.000000
2.730530 0.595581 -0.171326 36.000000
2.766090 0.571994 -0.173334 57.000000
2.840704 0.555255 -0.177710 59.000000
2.885898 0.531601 -0.180251 70.000000
2.925883 0.506153 -0.182487 49.000000
2.995283 0.484741 -0.186567 82.000000
3.010162 0.453665 -0.187274 95.000000
3.019852 0.421591 -0.187674 88.000000
3.019377 0.388138 -0.187367 65.000000
3.023380 0.355281 -0.187460 80.000000
3.017178 0.321274 -0.186938 65.000000
3.025393 0.289000 -0.187246 54.000000
2.978639 0.251899 -0.184263 10.000000
3.011060 0.221650 -0.186108 7.000000
3.023237 0.189502 -0.186724 8.000000
3.035150 0.157138 -0.187339 8.000000
3.031650 0.123945 -0.187031 9.000000
3.002927 0.090021 -0.185186 10.000000
3.028609 0.057888 -0.186724 27.000000
3.034062 0.024956 -0.187031 39.000000
2.979261 -0.007834 -0.183647 33.000000
2.999039 -0.040534 -0.184786 40.000000
3.013364 -0.073546 -0.185709 33.000000
3.002376 -0.105912 -0.185002 24.000000
3.021031 -0.139535 -0.186231 34.000000
3.049261 -0.174067 -0.187982 67.000000
3.052092 -0.207557 -0.188195 35.000000
3.034735 -0.239491 -0.187274 32.000000
3.041977 -0.273428 -0.187795 95.000000
3.013975 -0.303889 -0.186168 88.000000
3.010455 -0.336677 -0.186075 95.000000
2.986845 -0.366938 -0.184665 91.000000
2.962919 -0.396768 -0.183349 34.000000
2.918928 -0.423212 -0.180810 18.000000
2.928941 -0.457174 -0.181546 52.000000
2.879475 -0.481579 -0.178706 29.000000
2.879032 -0.513698 -0.178833 81.000000
2.863503 -0.543133 -0.178134 91.000000
2.832979 -0.569317 -0.176432 60.000000
2.816854 -0.597901 -0.175646 79.000000
2.800423 -0.626274 -0.174862 50.000000
2.842074 -0.668051 -0.177724 16.000000
3.009106 -0.741853 -0.188472 16.000000
3.020191 -0.779533 -0.189495 9.000000
3.021245 -0.814939 -0.189910 18.000000
3.050686 -0.858378 -0.192043 18.000000
3.055558 -0.895630 -0.192755 23.000000
3.083818 -0.940473 -0.194975 30.000000
3.087741 -0.978412 -0.195583 34.000000
3.067465 -1.008864 -0.194783 78.000000
3.075303 -1.048279 -0.195689 77.000000
3.040249 -1.073348 -0.193891 34.000000
3.033108 -1.108082 -0.193993 98.000000
3.011529 -1.137431 -0.193098 98.000000
2.980431 -1.162849 -0.191608 94.000000
2.958359 -1.191495 -0.190717 95.000000
2.945293 -1.223573 -0.190425 95.000000
2.927249 -1.253590 -0.189835 95.000000
2.913620 -1.284937 -0.189543 95.000000
2.876684 -1.306258 -0.187671 86.000000
2.857867 -1.335343 -0.187085 98.000000
2.847708 -1.368557 -0.187091 100.000000
2.814740 -1.390622 -0.185525 95.000000
2.781677 -1.412106 -0.184059 91.000000
2.766132 -1.442337 -0.183678 95.000000
2.750301 -1.472378 -0.183392 95.000000
2.738463 -1.504631 -0.183303 82.000000
2.708894 -1.526985 -0.182139 35.000000
2.687842 -1.553956 -0.181467 68.000000
2.666464 -1.580643 -0.180797 36.000000
2.700604 -1.640163 -0.183807 43.000000
2.695353 -1.677438 -0.184290 42.000000
2.685332 -1.712016 -0.184480 35.000000
2.691522 -1.757596 -0.185822 37.000000
2.709607 -1.811852 -0.188020 29.000000
2.656728 -1.818787 -0.185323 13.000000
2.669452 -1.870540 -0.187124 21.000000
2.657040 -1.905353 -0.187297 10.000000
2.672373 -1.960915 -0.189364 10.000000
2.654784 -1.992889 -0.189243 10.000000
2.676521 -2.055252 -0.191858 9.000000
2.689265 -2.112090 -0.193994 9.000000
2.712765 -2.178869 -0.196861 9.000000
2.696551 -2.214666 -0.196892 9.000000
2.687525 -2.256839 -0.197483 10.000000
2.681684 -2.302275 -0.198347 10.000000
2.630247 -2.308392 -0.195851 9.000000
2.493418 -2.236940 -0.186958 9.000000
2.351106 -2.156098 -0.177554 11.000000
2.210952 -2.072392 -0.168107 10.000000
2.105344 -2.016946 -0.161291 10.000000
1.986930 -1.945454 -0.153410 9.000000
1.923251 -1.924664 -0.149606 16.000000
1.828915 -1.870572 -0.143441 17.000000
1.760129 -1.839894 -0.139142 17.000000
1.692209 -1.807930 -0.134868 22.000000
1.602444 -1.748199 -0.128723 19.000000
1.560048 -1.739504 -0.126398 26.000000
1.531174 -1.745169 -0.125162 36.000000
1.492576 -1.738969 -0.123127 29.000000
1.473666 -1.755078 -0.122706 35.000000
1.457715 -1.774835 -0.122552 35.000000
1.432089 -1.782843 -0.121600 33.000000
1.415815 -1.802214 -0.121446 34.000000
1.402218 -1.825401 -0.121482 33.000000
1.382381 -1.840525 -0.121060 32.000000
1.365288 -1.859462 -0.120900 31.000000
1.362524 -1.898465 -0.121970 26.000000
1.339019 -1.909088 -0.121282 30.000000
1.321106 -1.927601 -0.121042 31.000000
1.308445 -1.954331 -0.121387 31.000000
1.287172 -1.968417 -0.120883 32.000000
1.271130 -1.990705 -0.120892 28.000000
1.252119 -2.008656 -0.120641 29.000000
1.235467 -2.030641 -0.120714 25.000000
1.198021 -2.018240 -0.118690 9.000000
0.971723 1.659643 -0.082832 6.000000
0.963993 1.606121 -0.080967 10.000000
0.970920 1.578516 -0.080386 19.000000
0.987960 1.567873 -0.080669 21.000000
1.004943 1.557061 -0.080952 14.000000
1.030018 1.558581 -0.081892 21.000000
1.038456 1.534870 -0.081519 21.000000
1.057943 1.527598 -0.082022 20.000000
1.088845 1.536395 -0.083412 23.000000
1.096673 1.512356 -0.083034 9.000000
1.110019 1.496360 -0.083096 18.000000
1.120144 1.476222 -0.082877 19.000000
1.157544 1.491616 -0.084729 17.000000
1.158169 1.459365 -0.083893 25.000000
1.186524 1.462187 -0.085023 20.000000
1.189529 1.433867 -0.084405 20.000000
1.221221 1.439879 -0.085768 24.000000
1.259698 1.452914 -0.087650 10.000000
1.239001 1.397992 -0.085374 29.000000
1.270890 1.402918 -0.086746 26.000000
1.289435 1.392703 -0.087265 26.000000
1.294212 1.367672 -0.086806 30.000000
1.336832 1.382184 -0.088883 25.000000
1.351812 1.367556 -0.089118 27.000000
1.370166 1.356266 -0.089585 27.000000
1.388419 1.344721 -0.090054 10.000000
1.384878 1.312309 -0.089123 32.000000
1.428401 1.324319 -0.091228 32.000000
1.446442 1.311964 -0.091641 26.000000
1.441963 1.279520 -0.090704 37.000000
1.485977 1.289927 -0.092825 28.000000
1.511406 1.283332 -0.093713 35.000000
1.532962 1.273115 -0.094429 34.000000
1.535153 1.246866 -0.093961 13.000000
1.544777 1.226961 -0.093904 33.000000
1.585648 1.231469 -0.095752 29.000000
1.602936 1.217129 -0.096236 26.000000
1.632136 1.211448 -0.097378 34.000000
1.653387 1.199428 -0.098044 27.000000
1.670442 1.184218 -0.098471 29.000000
1.687310 1.168794 -0.098899 33.000000
1.699978 1.150293 -0.099088 14.000000
1.720728 1.137174 -0.099759 35.000000
1.753998 1.131934 -0.101158 36.000000
1.774631 1.118060 -0.101834 29.000000
1.794994 1.104260 -0.102512 39.000000
1.824033 1.094901 -0.103679 32.000000
1.840173 1.077469 -0.104118 31.000000
1.877791 1.072259 -0.105713 35.000000
1.889354 1.051711 -0.105911 19.000000
1.891938 1.026335 -0.105619 33.000000
1.907402 1.008018 -0.105996 33.000000
1.962616 1.010039 -0.108585 33.000000
1.991334 0.997538 -0.109771 47.000000
2.024531 0.986769 -0.111140 35.000000
2.057692 0.975374 -0.112511 33.000000
2.086340 0.961328 -0.113708 35.000000
2.105774 0.942667 -0.114344 19.000000
2.125015 0.923738 -0.114980 33.000000
2.153331 0.908350 -0.116114 35.000000
2.181531 0.892418 -0.117251 27.000000
2.209678 0.876085 -0.118390 34.000000
2.246945 0.862931 -0.120029 30.000000
2.279617 0.847212 -0.121423 30.000000
2.330979 0.837590 -0.123743 32.000000
2.311604 0.802336 -0.122395 10.000000
2.362818 0.791489 -0.124796 33.000000
2.399782 0.774961 -0.126373 36.000000
2.427101 0.754848 -0.127530 36.000000
2.468668 0.738459 -0.129362 71.000000
2.510058 0.721264 -0.131277 35.000000
2.551417 0.703340 -0.133115 35.000000
2.587908 0.683249 -0.134785 48.000000
2.595187 0.655115 -0.134867 10.000000
2.606993 0.627986 -0.135201 8.000000
2.652567 0.608568 -0.137298 8.000000
2.712638 0.591497 -0.140154 9.000000
2.762927 0.571156 -0.142509 20.000000
2.827772 0.552559 -0.145623 33.000000
2.877781 0.529972 -0.147984 33.000000
2.883414 0.498676 -0.148074 26.000000
2.967562 0.480049 -0.152209 21.000000
3.021899 0.455246 -0.154737 74.000000
3.051390 0.425826 -0.156095 77.000000
3.055909 0.392686 -0.156095 37.000000
3.094673 0.363530 -0.157961 40.000000
3.063723 0.326218 -0.156189 38.000000
3.081930 0.294315 -0.157043 29.000000
3.075006 0.259889 -0.156537 35.000000
3.062707 0.225407 -0.155777 9.000000
3.094861 0.193968 -0.157297 8.000000
3.076903 0.159296 -0.156284 21.000000
3.078410 0.125874 -0.156378 23.000000
3.099599 0.092957 -0.157297 33.000000
3.080387 0.058842 -0.156284 28.000000
3.090844 0.025502 -0.156790 26.000000
3.105919 -0.008162 -0.157550 35.000000
3.060697 -0.041343 -0.155270 28.000000
3.070120 -0.074886 -0.155683 34.000000
3.079069 -0.108551 -0.156189 33.000000
3.067774 -0.141607 -0.155589 33.000000
3.090918 -0.176343 -0.156854 81.000000
3.083855 -0.209589 -0.156507 48.000000
3.041574 -0.239977 -0.154391 32.000000
3.028831 -0.272087 -0.153793 75.000000
3.005891 -0.302980 -0.152690 27.000000
2.957719 -0.330667 -0.150328 16.000000
2.924252 -0.359117 -0.148724 10.000000
2.880605 -0.385507 -0.146619 9.000000
2.886137 -0.418289 -0.147034 9.000000
2.891283 -0.451106 -0.147448 29.000000
2.851709 -0.476728 -0.145598 24.000000
2.841492 -0.506861 -0.145170 92.000000
2.826035 -0.535781 -0.144580 35.000000
2.820059 -0.566455 -0.144492 56.000000
2.784421 -0.590822 -0.142813 82.000000
2.777811 -0.620915 -0.142639 32.000000
2.795246 -0.656807 -0.143803 17.000000
2.938272 -0.724119 -0.151371 10.000000
3.036604 -0.783467 -0.156674 9.000000
3.095483 -0.834631 -0.160069 19.000000
3.119925 -0.877501 -0.161517 26.000000
3.124598 -0.915482 -0.162065 35.000000
3.114450 -0.949407 -0.161866 55.000000
3.080200 -0.975594 -0.160427 69.000000
3.069439 -1.008963 -0.160230 85.000000
3.048830 -1.039011 -0.159537 41.000000
3.027995 -1.068756 -0.158847 31.000000
3.016221 -1.101624 -0.158650 95.000000
2.990039 -1.129004 -0.157617 74.000000
2.968429 -1.157504 -0.156930 68.000000
2.951043 -1.187765 -0.156392 71.000000
2.933406 -1.217829 -0.155953 63.000000
2.920014 -1.249660 -0.155662 95.000000
2.892525 -1.275253 -0.154734 56.000000
2.851235 -1.294259 -0.152980 27.000000
2.846125 -1.329388 -0.153181 95.000000
2.831440 -1.360197 -0.152893 85.000000
2.807608 -1.386583 -0.152215 95.000000
2.778940 -1.410227 -0.151201 88.000000
2.759087 -1.438102 -0.150674 48.000000
2.738903 -1.465595 -0.150147 35.000000
2.735901 -1.502609 -0.150585 24.000000
2.697647 -1.520010 -0.149097 10.000000
2.745763 -1.586822 -0.152316 32.000000
2.719729 -1.611573 -0.151547 24.000000
2.736202 -1.661772 -0.153169 32.000000
2.735266 -1.701471 -0.153731 25.000000
2.708241 -1.725825 -0.152960 14.000000
2.710119 -1.768909 -0.153754 10.000000
2.723958 -1.820476 -0.155352 9.000000
2.699816 -1.847285 -0.154715 7.000000
2.716446 -1.902354 -0.156537 9.000000
2.707652 -1.940667 -0.156837 8.000000
2.746794 -2.014385 -0.159948 9.000000
2.740608 -2.056137 -0.160572 8.000000
2.745839 -2.107255 -0.161787 8.000000
2.750183 -2.158661 -0.162994 8.000000
2.734368 -2.194714 -0.163032 7.000000
2.748874 -2.256180 -0.164919 7.000000
2.724104 -2.286057 -0.164485 8.000000
2.714170 -2.328617 -0.164972 7.000000
2.654810 -2.328474 -0.162359 8.000000
2.551251 -2.287260 -0.157118 8.000000
2.386198 -2.186664 -0.148019 9.000000
2.245614 -2.103307 -0.140333 9.000000
2.117951 -2.027486 -0.133279 9.000000
1.999341 -1.956103 -0.126807 8.000000
1.921465 -1.921299 -0.122769 10.000000
1.841074 -1.881442 -0.118610 9.000000
1.779035 -1.858089 -0.115517 10.000000
1.700629 -1.815372 -0.111324 15.000000
1.626794 -1.774845 -0.107379 10.000000
1.560762 -1.740361 -0.103975 16.000000
1.522000 -1.734685 -0.102289 22.000000
1.483517 -1.728439 -0.100613 10.000000
1.471085 -1.752093 -0.100705 31.000000
1.448835 -1.764097 -0.100136 26.000000
1.423333 -1.771928 -0.099351 26.000000
1.404101 -1.787272 -0.098934 29.000000
1.393722 -1.814361 -0.099237 23.000000
1.373944 -1.829386 -0.098888 30.000000
1.354027 -1.844202 -0.098538 21.000000
1.345620 -1.874972 -0.098976 13.000000
1.333852 -1.901763 -0.099264 26.000000
1.313134 -1.916096 -0.098909 19.000000
1.303390 -1.946891 -0.099330 27.000000
1.282207 -1.960918 -0.098973 26.000000
1.268947 -1.987361 -0.099174 23.000000
1.255268 -2.013691 -0.099369 24.000000
1.233379 -2.027245 -0.099007 17.000000
1.244424 -2.096354 -0.101270 9.000000
0.957910 1.633778 -0.064481 8.000000
0.949808 1.580423 -0.063005 19.000000
0.972165 1.578516 -0.063517 25.000000
0.983872 1.559421 -0.063399 24.000000
0.998052 1.544470 -0.063452 29.000000
1.017486 1.537688 -0.063850 25.000000
1.036899 1.530733 -0.064249 28.000000
1.059135 1.527598 -0.064823 31.000000
1.078488 1.520093 -0.065168 24.000000
1.080259 1.488093 -0.064519 24.000000
1.093339 1.472290 -0.064568 26.000000
1.115288 1.468264 -0.065088 24.000000
1.143371 1.471886 -0.066022 33.000000
1.153091 1.451540 -0.065838 28.000000
1.175073 1.446673 -0.066420 33.000000
1.203436 1.449243 -0.067305 33.000000
1.215850 1.432261 -0.067356 23.000000
1.224791 1.411403 -0.067169 29.000000
1.236769 1.394254 -0.067217 31.000000
1.261920 1.391870 -0.067930 32.000000
1.280348 1.381708 -0.068283 35.000000
1.305612 1.378613 -0.069000 34.000000
1.317039 1.360701 -0.068992 37.000000
1.331786 1.346301 -0.069223 32.000000
1.371226 1.356266 -0.070679 32.000000
1.367940 1.323931 -0.069938 31.000000
1.385869 1.312367 -0.070296 29.000000
1.411087 1.307341 -0.071024 35.000000
1.428947 1.295246 -0.071327 54.000000
1.439285 1.276264 -0.071318 32.000000
1.475736 1.280165 -0.072608 58.000000
1.504816 1.276927 -0.073532 42.000000
1.533997 1.273237 -0.074459 34.000000
1.520663 1.234391 -0.073273 29.000000
1.545741 1.227022 -0.074014 31.000000
1.570538 1.219762 -0.074759 31.000000
1.599633 1.214661 -0.075633 40.000000
1.608809 1.194140 -0.075628 30.000000
1.621720 1.176518 -0.075750 36.000000
1.667054 1.181829 -0.077449 36.000000
1.679848 1.163605 -0.077574 29.000000
1.696530 1.148058 -0.077888 35.000000
1.733989 1.146006 -0.079219 33.000000
1.758961 1.135154 -0.079918 34.000000
1.771237 1.115910 -0.080046 44.000000
1.791768 1.101772 -0.080556 33.000000
1.816505 1.089955 -0.081260 37.000000
1.845528 1.080188 -0.082157 50.000000
1.852814 1.057531 -0.082095 28.000000
1.881679 1.047051 -0.082996 38.000000
1.901709 1.031229 -0.083513 36.000000
1.917226 1.012817 -0.083838 36.000000
1.950367 1.003384 -0.084938 64.000000
1.983488 0.993268 -0.086041 43.000000
2.021141 0.984787 -0.087273 35.000000
2.054290 0.973443 -0.088381 36.000000
2.069242 0.953177 -0.088715 32.000000
2.102272 0.940838 -0.089758 31.000000
2.130730 0.925941 -0.090678 34.000000
2.149799 0.906622 -0.091140 33.000000
2.173434 0.888852 -0.091869 38.000000
2.196834 0.870780 -0.092527 34.000000
2.234203 0.857633 -0.093847 34.000000
2.271439 0.843732 -0.095097 43.000000
2.266362 0.813949 -0.094582 26.000000
2.322165 0.805836 -0.096694 34.000000
2.373435 0.794891 -0.098540 50.000000
2.391430 0.772122 -0.099010 36.000000
2.428266 0.755081 -0.100268 66.000000
2.450703 0.732969 -0.101016 55.000000
2.477723 0.711846 -0.101884 39.000000
2.514180 0.692803 -0.103148 66.000000
2.545741 0.671857 -0.104136 27.000000
2.562586 0.646640 -0.104612 24.000000
2.598590 0.625810 -0.105880 9.000000
2.619811 0.600916 -0.106556 8.000000
2.660301 0.579961 -0.108025 9.000000
2.710488 0.560120 -0.109894 8.000000
2.750728 0.537408 -0.111282 10.000000
2.825165 0.520111 -0.114147 33.000000
2.806077 0.485147 -0.113155 9.000000
2.929485 0.473851 -0.118010 9.000000
2.973992 0.447899 -0.119691 9.000000
3.033104 0.423159 -0.121878 30.000000
3.092102 0.397236 -0.124065 94.000000
3.125967 0.367122 -0.125354 86.000000
3.104973 0.330544 -0.124359 84.000000
3.128204 0.298683 -0.125155 66.000000
3.116340 0.263349 -0.124558 13.000000
3.143927 0.231368 -0.125553 10.000000
3.141252 0.196875 -0.125450 10.000000
3.158239 0.163427 -0.126048 51.000000
3.159784 0.129138 -0.125951 60.000000
3.181015 0.095352 -0.126747 86.000000
3.176894 0.060751 -0.126548 67.000000
3.152304 0.025996 -0.125553 79.000000
3.162392 -0.008307 -0.125951 95.000000
3.157203 -0.042625 -0.125656 98.000000
3.146539 -0.076712 -0.125258 95.000000
3.135496 -0.110486 -0.124860 95.000000
3.119183 -0.143909 -0.124168 98.000000
3.097514 -0.176627 -0.123374 94.000000
3.040506 -0.206541 -0.121095 27.000000
2.988281 -0.235657 -0.119019 10.000000
2.940842 -0.264045 -0.117233 9.000000
2.957659 -0.298063 -0.117936 9.000000
2.909523 -0.325118 -0.116063 9.000000
2.876105 -0.353119 -0.114786 9.000000
2.877074 -0.384934 -0.114895 10.000000
2.857897 -0.413991 -0.114214 10.000000
2.868032 -0.447346 -0.114806 28.000000
2.823557 -0.471875 -0.113051 16.000000
2.774044 -0.494584 -0.111189 9.000000
2.793080 -0.529357 -0.112088 35.000000
2.791987 -0.560641 -0.112198 64.000000
2.771150 -0.587799 -0.111521 63.000000
2.769451 -0.618823 -0.111544 95.000000
2.786922 -0.654610 -0.112439 24.000000
2.915495 -0.718236 -0.117841 18.000000
3.115543 -0.803526 -0.126076 34.000000
3.169411 -0.854132 -0.128521 76.000000
3.145459 -0.884461 -0.127734 95.000000
3.130885 -0.917185 -0.127439 76.000000
3.092146 -0.942324 -0.126071 95.000000
3.076918 -0.974382 -0.125679 95.000000
3.056681 -1.004579 -0.125192 90.000000
3.059863 -1.042529 -0.125577 95.000000
3.006006 -1.060445 -0.123636 77.000000
2.975551 -1.086205 -0.122667 92.000000
2.954303 -1.114891 -0.122087 95.000000
2.932649 -1.143182 -0.121509 71.000000
2.915517 -1.173136 -0.121124 95.000000
2.888716 -1.198967 -0.120355 95.000000
2.870941 -1.228237 -0.119972 75.000000
2.884926 -1.271513 -0.120931 95.000000
2.848216 -1.292386 -0.119782 73.000000
2.829456 -1.321125 -0.119400 88.000000
2.805953 -1.347507 -0.118828 92.000000
2.786643 -1.375716 -0.118352 35.000000
2.784920 -1.412678 -0.118732 37.000000
2.800392 -1.459070 -0.119869 45.000000
2.806412 -1.501133 -0.120526 32.000000
2.811885 -1.543676 -0.121276 34.000000
2.786133 -1.569238 -0.120605 25.000000
2.764619 -1.597012 -0.120222 21.000000
2.755666 -1.632038 -0.120305 19.000000
2.759123 -1.674932 -0.121046 9.000000
2.783115 -1.731289 -0.122620 9.000000
2.780951 -1.772259 -0.123065 9.000000
2.782435 -1.816127 -0.123795 9.000000
2.833168 -1.893461 -0.126647 9.000000
2.795860 -1.912979 -0.125594 9.000000
2.811693 -1.969087 -0.126947 9.000000
2.777915 -1.990964 -0.126079 9.000000
2.780173 -2.038857 -0.126869 9.000000
2.769737 -2.078069 -0.127104 8.000000
2.770786 -2.126353 -0.127884 6.000000
2.740205 -2.149516 -0.127199 3.000000
2.747774 -2.204201 -0.128336 1.000000
2.692771 -2.208755 -0.126455 2.000000
2.737437 -2.295689 -0.129393 2.000000
2.643954 -2.266824 -0.125816 1.000000
2.604143 -2.282366 -0.124777 4.000000
2.512093 -2.250584 -0.121124 6.000000
2.358496 -2.159765 -0.114551 8.000000
2.258251 -2.113550 -0.110414 9.000000
2.170115 -2.075842 -0.106928 9.000000
2.033036 -1.987541 -0.100888 9.000000
1.940633 -1.938958 -0.097090 10.000000
1.846018 -1.885012 -0.093054 11.000000
1.783907 -1.861697 -0.090624 11.000000
1.705490 -1.819017 -0.087410 10.000000
1.651837 -1.800621 -0.085360 18.000000
1.565456 -1.744079 -0.081583 15.000000
1.539826 -1.753459 -0.080950 16.000000
1.504447 -1.751111 -0.079801 22.000000
1.472482 -1.752093 -0.078831 25.000000
1.453404 -1.767957 -0.078551 28.000000
1.437317 -1.787506 -0.078442 30.000000
1.408579 -1.791200 -0.077651 26.000000
1.392073 -1.810330 -0.077543 29.000000
1.375412 -1.829316 -0.077433 24.000000
1.370292 -1.864265 -0.077996 23.000000
1.338353 -1.862726 -0.077042 20.000000
1.338214 -1.905782 -0.077932 25.000000
1.320350 -1.924337 -0.077743 25.000000
1.310529 -1.955122 -0.078121 21.000000
1.294731 -1.977570 -0.078165 22.000000
1.265219 -1.978868 -0.077310 25.000000
1.251643 -2.005140 -0.077515 22.000000
1.234974 -2.027172 -0.077480 17.000000
1.212940 -2.040508 -0.077190 8.000000
0.960669 1.638495 -0.047488 7.000000
0.937160 1.559452 -0.045656 26.000000
0.961908 1.561945 -0.046200 26.000000
0.978820 1.551417 -0.046368 30.000000
1.000989 1.549118 -0.046733 29.000000
1.017712 1.538138 -0.046902 32.000000
1.034322 1.527046 -0.047071 36.000000
1.056514 1.523944 -0.047439 32.000000
1.072988 1.512396 -0.047609 32.000000
1.077547 1.484497 -0.047208 30.000000
1.090639 1.468725 -0.047247 30.000000
1.121616 1.476675 -0.048062 33.000000
1.134514 1.460443 -0.048045 30.000000
1.150265 1.448079 -0.048158 34.000000
1.175357 1.447128 -0.048719 32.000000
1.191009 1.434322 -0.048833 37.000000
1.206490 1.421288 -0.049004 34.000000
1.215306 1.400534 -0.048855 29.000000
1.233794 1.390970 -0.049100 32.000000
1.265622 1.395975 -0.049932 55.000000
1.280693 1.382168 -0.050047 35.000000
1.299087 1.371761 -0.050295 56.000000
1.313968 1.357572 -0.050411 36.000000
1.332191 1.346706 -0.050660 47.000000
1.360978 1.346192 -0.051370 51.000000
1.364755 1.320862 -0.051083 27.000000
1.386335 1.312775 -0.051469 56.000000
1.400558 1.297620 -0.051585 73.000000
1.418308 1.285647 -0.051837 44.000000
1.443436 1.280050 -0.052361 63.000000
1.464828 1.270757 -0.052751 46.000000
1.497677 1.270881 -0.053491 52.000000
1.519101 1.260895 -0.053883 63.000000
1.517261 1.231660 -0.053457 20.000000
1.550138 1.230551 -0.054261 37.000000
1.571388 1.219701 -0.054657 63.000000
1.584567 1.202514 -0.054718 36.000000
1.605591 1.191162 -0.055115 42.000000
1.634654 1.185320 -0.055789 41.000000
1.643398 1.164491 -0.055713 43.000000
1.668332 1.155070 -0.056251 49.000000
1.697406 1.148058 -0.056931 19.000000
1.722304 1.137741 -0.057410 36.000000
1.730392 1.116190 -0.057397 55.000000
1.759316 1.107920 -0.058018 38.000000
1.762797 1.083516 -0.057865 53.000000
1.808774 1.084813 -0.059048 52.000000
1.829056 1.070093 -0.059392 36.000000
1.853661 1.057596 -0.059943 41.000000
1.860630 1.034904 -0.059867 18.000000
1.889386 1.024150 -0.060495 36.000000
1.909248 1.008215 -0.060908 42.000000
1.942281 0.998880 -0.061680 37.000000
1.984301 0.993336 -0.062736 55.000000
1.990512 0.969536 -0.062662 37.000000
2.046089 0.969233 -0.064146 35.000000
2.070077 0.953247 -0.064709 40.000000
2.103116 0.940979 -0.065489 22.000000
2.117829 0.920038 -0.065702 33.000000
2.146049 0.904752 -0.066342 36.000000
2.160417 0.883321 -0.066555 33.000000
2.193054 0.869011 -0.067340 36.000000
2.221081 0.852335 -0.067983 42.000000
2.258272 0.838661 -0.068840 32.000000
2.267244 0.814096 -0.068914 31.000000
2.299458 0.797795 -0.069703 26.000000
2.336439 0.782349 -0.070637 36.000000
2.387595 0.770740 -0.072003 53.000000
2.400563 0.746334 -0.072223 37.000000
2.442064 0.730261 -0.073228 53.000000
2.473864 0.710545 -0.074025 57.000000
2.495863 0.687653 -0.074535 44.000000
2.532208 0.668193 -0.075399 53.000000
2.553862 0.644356 -0.075911 10.000000
2.565557 0.617783 -0.076055 8.000000
2.606182 0.597728 -0.077145 8.000000
2.641849 0.575787 -0.078010 8.000000
2.682136 0.554138 -0.079103 8.000000
2.727230 0.532703 -0.080258 8.000000
2.767321 0.509342 -0.081354 8.000000
2.831745 0.489578 -0.083088 13.000000
2.945465 0.476336 -0.086267 9.000000
2.960359 0.445850 -0.086647 9.000000
3.034320 0.423252 -0.088672 10.000000
3.083330 0.396058 -0.089974 22.000000
3.127121 0.367218 -0.091132 75.000000
3.180664 0.338477 -0.092578 71.000000
3.209056 0.306280 -0.093301 93.000000
3.187207 0.269336 -0.092578 31.000000
3.214863 0.236501 -0.093301 10.000000
3.197371 0.200312 -0.092723 16.000000
3.219292 0.166624 -0.093301 37.000000
3.230854 0.131994 -0.093591 79.000000
3.232137 0.096947 -0.093591 70.000000
3.228029 0.061706 -0.093446 84.000000
3.223524 0.026573 -0.093301 95.000000
3.183639 -0.008359 -0.092047 95.000000
3.163358 -0.042692 -0.091469 95.000000
3.137700 -0.076469 -0.090746 90.000000
3.126752 -0.110135 -0.090362 95.000000
3.110342 -0.143449 -0.089929 92.000000
3.083682 -0.175774 -0.089207 95.000000
3.031743 -0.205864 -0.087671 10.000000
3.009401 -0.237228 -0.087094 7.000000
2.936946 -0.263689 -0.084985 9.000000
2.928912 -0.295057 -0.084751 9.000000
2.910686 -0.325208 -0.084320 10.000000
2.901970 -0.356163 -0.084087 27.000000
2.897953 -0.387673 -0.083997 35.000000
2.898525 -0.419810 -0.084141 78.000000
2.859219 -0.445894 -0.083047 24.000000
2.780240 -0.464550 -0.080810 7.000000
2.770156 -0.493793 -0.080581 10.000000
2.794122 -0.529357 -0.081353 26.000000
2.773517 -0.556707 -0.080837 66.000000
2.762410 -0.585725 -0.080608 92.000000
2.750980 -0.614637 -0.080380 64.000000
2.778240 -0.652412 -0.081290 29.000000
2.902037 -0.714833 -0.085043 20.000000
3.131241 -0.807368 -0.091912 32.000000
3.156037 -0.850432 -0.092807 95.000000
3.146657 -0.884660 -0.092707 95.000000
3.108098 -0.910261 -0.091758 95.000000
3.088451 -0.941065 -0.091277 95.000000
3.059042 -0.968447 -0.090614 91.000000
3.038867 -0.998437 -0.090234 95.000000
3.032563 -1.032959 -0.090278 82.000000
3.002461 -1.058880 -0.089520 29.000000
2.986102 -1.089728 -0.089282 98.000000
2.931983 -1.106167 -0.087827 71.000000
2.929146 -1.141560 -0.088012 95.000000
2.902758 -1.167637 -0.087401 95.000000
2.880630 -1.195232 -0.087026 81.000000
2.867490 -1.226462 -0.086836 95.000000
2.844917 -1.253472 -0.086463 36.000000
2.822052 -1.280093 -0.085995 21.000000
2.853245 -1.331790 -0.087190 53.000000
2.834128 -1.360581 -0.086956 35.000000
2.832601 -1.397833 -0.087178 36.000000
2.852930 -1.446680 -0.088086 37.000000
2.845975 -1.482156 -0.088165 36.000000
2.851752 -1.524798 -0.088753 35.000000
2.813060 -1.543676 -0.087871 20.000000
2.800468 -1.576594 -0.087812 9.000000
2.830813 -1.634501 -0.089115 10.000000
2.851559 -1.688052 -0.090139 9.000000
2.837319 -1.721601 -0.090072 9.000000
2.835351 -1.762959 -0.090411 9.000000
2.841278 -1.809750 -0.091017 9.000000
2.842359 -1.854258 -0.091485 9.000000
2.855302 -1.907343 -0.092353 9.000000
2.850839 -1.949553 -0.092680 8.000000
2.841719 -1.989150 -0.092871 8.000000
2.811778 -2.014145 -0.092392 7.000000
2.805835 -2.056479 -0.092714 5.000000
2.795211 -2.095955 -0.092793 4.000000
2.792109 -2.141455 -0.093242 3.000000
2.792180 -2.190257 -0.093820 2.000000
2.795420 -2.242485 -0.094526 1.000000
2.759211 -2.263281 -0.093804 1.000000
2.722990 -2.283606 -0.093193 2.000000
2.663778 -2.283835 -0.091692 2.000000
2.612401 -2.289695 -0.090565 3.000000
2.542699 -2.277987 -0.088793 7.000000
2.392356 -2.190732 -0.084076 8.000000
2.280807 -2.134705 -0.080776 10.000000
2.167145 -2.073029 -0.077271 9.000000
2.040792 -1.995224 -0.073274 9.000000
1.962435 -1.960741 -0.071052 11.000000
1.867566 -1.907003 -0.068119 13.000000
1.805207 -1.883903 -0.066349 18.000000
1.719622 -1.834136 -0.063781 16.000000
1.655664 -1.804826 -0.061908 14.000000
1.589257 -1.770619 -0.059921 21.000000
1.533657 -1.746446 -0.058324 20.000000
1.508056 -1.755466 -0.057861 19.000000
1.456822 -1.733449 -0.056404 30.000000
1.434708 -1.745279 -0.056141 30.000000
1.409477 -1.752937 -0.055687 31.000000
1.393478 -1.772041 -0.055604 31.000000
1.374209 -1.787043 -0.055398 27.000000
1.375761 -1.829806 -0.056048 32.000000
1.358804 -1.848649 -0.055890 29.000000
1.338703 -1.863287 -0.055680 20.000000
1.321335 -1.881735 -0.055591 27.000000
1.303667 -1.900106 -0.055501 25.000000
1.288623 -1.922408 -0.055529 26.000000
1.286877 -1.965529 -0.056154 25.000000
1.262813 -1.975159 -0.055820 28.000000
1.249285 -2.001477 -0.055889 25.000000
1.240465 -2.036217 -0.056262 22.000000
1.187688 -1.998047 -0.054634 9.000000
0.960785 1.638843 -0.030383 8.000000
0.937327 1.559730 -0.029215 26.000000
0.962076 1.562225 -0.029512 29.000000
0.978932 1.551753 -0.029624 29.000000
1.001158 1.549399 -0.029842 30.000000
1.015122 1.534307 -0.029873 31.000000
1.031687 1.523188 -0.029929 33.000000
1.056741 1.524227 -0.030286 30.000000
1.067373 1.504524 -0.030179 31.000000
1.074835 1.480732 -0.030046 25.000000
1.090807 1.469004 -0.030102 29.000000
1.118762 1.473033 -0.030487 33.000000
1.134683 1.460782 -0.030600 32.000000
1.147382 1.444447 -0.030574 30.000000
1.169282 1.439708 -0.030853 33.000000
1.194431 1.438453 -0.031159 34.000000
1.209953 1.425384 -0.031216 32.000000
1.212256 1.397098 -0.030995 26.000000
1.230704 1.387570 -0.031136 35.000000
1.259136 1.388912 -0.031528 37.000000
1.274128 1.375122 -0.031586 36.000000
1.292443 1.364847 -0.031785 35.000000
1.307245 1.350676 -0.031842 34.000000
1.332422 1.347053 -0.032154 36.000000
1.357657 1.342969 -0.032467 35.000000
1.368637 1.324628 -0.032440 32.000000
1.379309 1.306250 -0.032413 49.000000
1.400791 1.297912 -0.032700 52.000000
1.414897 1.282582 -0.032758 48.000000
1.443730 1.280345 -0.033160 69.000000
1.457572 1.264560 -0.033219 45.000000
1.486542 1.261537 -0.033623 57.000000
1.504076 1.248425 -0.033769 46.000000
1.513678 1.228807 -0.033742 26.000000
1.546585 1.227745 -0.034235 35.000000
1.567743 1.216939 -0.034469 40.000000
1.584931 1.202818 -0.034616 60.000000
1.597927 1.185449 -0.034677 43.000000
1.618835 1.173828 -0.034851 40.000000
1.627452 1.153238 -0.034825 50.000000
1.652263 1.143997 -0.035148 35.000000
1.677077 1.134304 -0.035472 28.000000
1.710168 1.129790 -0.035973 46.000000
1.730770 1.116504 -0.036211 67.000000
1.738610 1.094917 -0.036123 62.000000
1.758918 1.081151 -0.036362 55.000000
1.804873 1.082500 -0.037130 62.000000
1.825194 1.067892 -0.037371 44.000000
1.841025 1.050425 -0.037460 35.000000
1.869822 1.040089 -0.037878 29.000000
1.881055 1.019648 -0.037944 44.000000
1.905223 1.006145 -0.038210 54.000000
1.942748 0.999147 -0.038808 58.000000
1.971365 0.986894 -0.039231 41.000000
2.004468 0.976374 -0.039676 51.000000
2.033020 0.963089 -0.040100 55.000000
2.066023 0.951434 -0.040546 57.000000
2.071666 0.926898 -0.040526 29.000000
2.099982 0.912352 -0.040953 36.000000
2.137405 0.901152 -0.041489 49.000000
2.151661 0.879751 -0.041650 41.000000
2.188983 0.867458 -0.042187 35.000000
2.212255 0.849043 -0.042456 35.000000
2.249414 0.835400 -0.043066 35.000000
2.267759 0.814316 -0.043246 31.000000
2.285958 0.792955 -0.043499 32.000000
2.327560 0.779250 -0.044128 49.000000
2.359663 0.761604 -0.044578 48.000000
