x y z intensity
1.102185 -0.186404 -0.570510 95.000000
1.095734 -0.198517 -0.567856 91.000000
1.106566 -0.213986 -0.574400 98.000000
1.117344 -0.229609 -0.580664 100.000000
1.180084 -0.256957 -0.614274 103.000000
1.878826 -0.502289 -0.985018 9.000000
1.890357 -0.529187 -0.993250 20.000000
1.910145 -0.558997 -1.005841 19.000000
1.899683 -0.580151 -1.002567 20.000000
1.906065 -0.606553 -1.008232 20.000000
1.890954 -0.626099 -1.002574 14.000000
1.896548 -0.652782 -1.008359 17.000000
1.902116 -0.679490 -1.013717 16.000000
1.281478 -0.491961 -0.686974 95.000000
1.255261 -0.498833 -0.674956 54.000000
1.253916 -0.515326 -0.676267 54.000000
1.256515 -0.533573 -0.679753 77.000000
1.267100 -0.555517 -0.687631 72.000000
1.876665 -0.929283 -1.032964 19.000000
1.874325 -0.955590 -1.035813 15.000000
1.875655 -0.984029 -1.040710 18.000000
1.868803 -1.008344 -1.041183 18.000000
1.873471 -1.039143 -1.048169 18.000000
1.885466 -1.074619 -1.059437 20.000000
1.885460 -1.103689 -1.063941 15.000000
1.819479 -1.093430 -1.031276 8.000000
1.856937 -1.145969 -1.057903 13.000000
1.840774 -1.165393 -1.053506 10.000000
1.847106 -1.199295 -1.062077 13.000000
1.848750 -1.231372 -1.068733 16.000000
1.857316 -1.268743 -1.079684 10.000000
1.858619 -1.300788 -1.085730 15.000000
1.847856 -1.325599 -1.085658 10.000000
1.807707 -1.328953 -1.068304 9.000000
1.825541 -1.375023 -1.085179 14.000000
1.828297 -1.410599 -1.093407 11.000000
1.834145 -1.449171 -1.103721 13.000000
1.835873 -1.485250 -1.111687 13.000000
1.830082 -1.515736 -1.115353 10.000000
1.820488 -1.543302 -1.116707 17.000000
1.793494 -1.556025 -1.107471 10.000000
1.783485 -1.583313 -1.108729 9.000000
1.796613 -1.631874 -1.124679 12.000000
1.795688 -1.668631 -1.131976 10.000000
1.789981 -1.702988 -1.137539 12.000000
1.775059 -1.727325 -1.136387 10.000000
1.774927 -1.768201 -1.145871 10.000000
1.781591 -1.815112 -1.159011 16.000000
1.756008 -1.829526 -1.151294 10.000000
1.779147 -1.897467 -1.176921 9.000000
1.746871 -1.904939 -1.164956 12.000000
1.743848 -1.946605 -1.173874 10.000000
1.749215 -1.998760 -1.188848 11.000000
1.725376 -2.015805 -1.182727 10.000000
1.717602 -2.054344 -1.189239 10.000000
1.729597 -2.117765 -1.209851 14.000000
1.710371 -2.141597 -1.207579 10.000000
1.726214 -2.212977 -1.231781 9.000000
1.699025 -2.230378 -1.225756 9.000000
1.690881 -2.273179 -1.233624 9.000000
1.686287 -2.318954 -1.242828 10.000000
1.666138 -2.347040 -1.242500 9.000000
1.656100 -2.389977 -1.250044 10.000000
1.660824 -2.455952 -1.269214 10.000000
1.646622 -2.495422 -1.274391 9.000000
1.659309 -2.577478 -1.300985 9.000000
1.621363 -2.582200 -1.288322 8.000000
1.610128 -2.629614 -1.296943 9.000000
1.600251 -2.681100 -1.307493 9.000000
1.582620 -2.720778 -1.312051 8.000000
1.573349 -2.776399 -1.324093 9.000000
0.839675 1.488646 -0.694859 28.000000
0.855779 1.478173 -0.697562 32.000000
0.876494 1.475486 -0.704003 26.000000
0.899675 1.476460 -0.712435 29.000000
0.925389 1.481004 -0.722708 27.000000
0.921443 1.438481 -0.710066 18.000000
0.939501 1.430934 -0.714589 30.000000
0.962735 1.430806 -0.722936 26.000000
0.983489 1.426523 -0.729384 28.000000
1.003313 1.422518 -0.736089 31.000000
1.026914 1.421309 -0.744489 24.000000
1.050586 1.419785 -0.752871 32.000000
1.068831 1.410558 -0.757358 25.000000
1.089855 1.404658 -0.763772 21.000000
1.099438 1.384122 -0.762234 32.000000
1.113713 1.371140 -0.764936 32.000000
1.137548 1.368029 -0.773265 37.000000
1.179260 1.385526 -0.793624 33.000000
1.196684 1.375048 -0.798296 30.000000
1.217834 1.367249 -0.804626 38.000000
1.235992 1.355676 -0.808963 29.000000
1.262597 1.354429 -0.819628 19.000000
1.277552 1.338979 -0.821853 36.000000
1.294831 1.327108 -0.826422 36.000000
1.312739 1.314478 -0.830631 40.000000
1.346145 1.318038 -0.845397 37.000000
1.370649 1.311045 -0.853633 34.000000
1.404520 1.313470 -0.868392 41.000000
1.418493 1.296728 -0.870839 32.000000
1.429586 1.276310 -0.870766 17.000000
1.470564 1.283282 -0.889670 37.000000
1.491230 1.271639 -0.896119 32.000000
1.522301 1.268429 -0.908777 36.000000
1.550031 1.261737 -0.919397 41.000000
1.588536 1.262985 -0.936206 33.000000
1.627267 1.263505 -0.953084 37.000000
1.651758 1.252259 -0.961544 32.000000
1.665355 1.232525 -0.963636 18.000000
1.693438 1.223195 -0.974180 35.000000
1.725244 1.215983 -0.986737 28.000000
1.753464 1.205551 -0.997215 24.000000
1.751055 1.174884 -0.991004 28.000000
1.782924 1.166288 -1.003505 21.000000
1.769028 1.127856 -0.990361 25.000000
1.777085 1.104655 -0.990276 18.000000
1.785442 1.080980 -0.989758 10.000000
1.773596 1.046206 -0.978853 19.000000
1.773056 1.018517 -0.974210 19.000000
1.776033 0.993169 -0.971698 18.000000
1.794623 0.976422 -0.977666 24.000000
1.797228 0.950984 -0.975001 22.000000
1.811490 0.931781 -0.978680 26.000000
1.809469 0.904221 -0.973692 19.000000
1.799008 0.872946 -0.964204 10.000000
1.820780 0.857291 -0.972083 19.000000
1.813409 0.828529 -0.964939 16.000000
1.822535 0.806966 -0.966156 17.000000
1.831052 0.785538 -0.967575 21.000000
1.826978 0.758801 -0.962366 18.000000
1.835101 0.737317 -0.963709 20.000000
1.834646 0.712445 -0.960464 16.000000
1.838059 0.689214 -0.959405 10.000000
1.862420 0.673653 -0.969263 25.000000
1.861275 0.648693 -0.965805 22.000000
1.859597 0.624067 -0.962606 23.000000
1.870670 0.603440 -0.965610 25.000000
1.851372 0.573552 -0.953437 23.000000
1.853137 0.550522 -0.952151 28.000000
1.859056 0.528754 -0.953072 20.000000
1.864777 0.506854 -0.953795 10.000000
1.891733 0.490713 -0.965858 24.000000
1.879651 0.464128 -0.957656 18.000000
1.888891 0.443135 -0.960666 24.000000
1.880463 0.418085 -0.954732 25.000000
1.867390 0.392355 -0.946500 22.000000
1.862764 0.368645 -0.942574 26.000000
1.144586 0.185113 -0.576759 58.000000
1.115458 0.167113 -0.561594 98.000000
1.121661 0.154651 -0.564054 98.000000
1.127761 0.142084 -0.566438 100.000000
1.129233 0.128868 -0.566671 100.000000
1.126100 0.115197 -0.564671 98.000000
1.131753 0.102436 -0.567020 103.000000
1.137298 0.089532 -0.569330 95.000000
1.151544 0.077121 -0.576225 71.000000
1.161224 0.064151 -0.580850 98.000000
1.157390 0.050388 -0.578695 100.000000
1.162375 0.036975 -0.580930 95.000000
1.153748 0.023227 -0.576579 95.000000
1.127071 0.009498 -0.563209 100.000000
1.145000 -0.003750 -0.572148 97.000000
1.127033 -0.016880 -0.563132 103.000000
1.126802 -0.030031 -0.562978 103.000000
1.130887 -0.043392 -0.565212 98.000000
1.121411 -0.056147 -0.560629 103.000000
1.129690 -0.069836 -0.564942 100.000000
1.137804 -0.083656 -0.569213 95.000000
1.123418 -0.095823 -0.562401 98.000000
1.126756 -0.109406 -0.564478 100.000000
1.129970 -0.123055 -0.566477 98.000000
1.133057 -0.136807 -0.568435 98.000000
1.131461 -0.150076 -0.568240 100.000000
1.138610 -0.164586 -0.572462 100.000000
1.132422 -0.177148 -0.569766 98.000000
1.139182 -0.191957 -0.574059 31.000000
1.211979 -0.218788 -0.611465 105.000000
1.860632 -0.449179 -0.945790 29.000000
1.911975 -0.485413 -0.973981 23.000000
1.932739 -0.514626 -0.986173 19.000000
1.939985 -0.540902 -0.991916 18.000000
1.942570 -0.566090 -0.995440 20.000000
1.923428 -0.584951 -0.987793 22.000000
1.925629 -0.610153 -0.991104 20.000000
1.922957 -0.634219 -0.992412 23.000000
1.911827 -0.655197 -0.988976 16.000000
1.929943 -0.686686 -1.001049 20.000000
1.922289 -0.709438 -0.999935 16.000000
1.279264 -0.506280 -0.669375 78.000000
1.298730 -0.531489 -0.681548 94.000000
1.829980 -0.849980 -0.972822 23.000000
1.897686 -0.908546 -1.012655 24.000000
1.887639 -0.930922 -1.011159 14.000000
1.889366 -0.959349 -1.016077 18.000000
1.886819 -0.985758 -1.018744 19.000000
1.899863 -1.020753 -1.029943 19.000000
1.888704 -1.043072 -1.028120 20.000000
1.896963 -1.076388 -1.036885 21.000000
1.896954 -1.105469 -1.041323 17.000000
1.904408 -1.139318 -1.049938 16.000000
1.864629 -1.145453 -1.033271 10.000000
1.871431 -1.179298 -1.041707 18.000000
1.869699 -1.208904 -1.046146 18.000000
1.871277 -1.241211 -1.052683 16.000000
1.873016 -1.273193 -1.058655 19.000000
1.877568 -1.308349 -1.067084 16.000000
1.877838 -1.341235 -1.073283 16.000000
1.877723 -1.374241 -1.079370 16.000000
1.840830 -1.380139 -1.064347 10.000000
1.854475 -1.424077 -1.078706 19.000000
1.842486 -1.448888 -1.078202 15.000000
1.840820 -1.482098 -1.083942 14.000000
1.863313 -1.535651 -1.104116 21.000000
1.850099 -1.560542 -1.103354 17.000000
1.833215 -1.582379 -1.100513 14.000000
1.833237 -1.619046 -1.107825 20.000000
1.811584 -1.638196 -1.103144 10.000000
1.827470 -1.690504 -1.120560 16.000000
1.809308 -1.711915 -1.117394 16.000000
1.813097 -1.756055 -1.128850 13.000000
1.807343 -1.790175 -1.133616 19.000000
1.793703 -1.818609 -1.134616 12.000000
1.799820 -1.865919 -1.147306 16.000000
1.788469 -1.897710 -1.150159 14.000000
1.777772 -1.928681 -1.152453 9.000000
1.777807 -1.974014 -1.163168 16.000000
1.768058 -2.009282 -1.167715 13.000000
1.758904 -2.043770 -1.171675 13.000000
1.765914 -2.100154 -1.187952 19.000000
1.751480 -2.132149 -1.190152 11.000000
1.746551 -2.173996 -1.197773 13.000000
1.734007 -2.209579 -1.201750 10.000000
1.718068 -2.241508 -1.203622 9.000000
1.718345 -2.295468 -1.217177 10.000000
1.704025 -2.331159 -1.220783 10.000000
1.699896 -2.381831 -1.232095 10.000000
1.675479 -2.401501 -1.227251 10.000000
1.672694 -2.456174 -1.240223 10.000000
1.666313 -2.507179 -1.251053 10.000000
1.669220 -2.573892 -1.269418 9.000000
1.648671 -2.605876 -1.270370 9.000000
1.634954 -2.649547 -1.276868 10.000000
1.627576 -2.705064 -1.289052 9.000000
1.621664 -2.764896 -1.302780 10.000000
1.600770 -2.800843 -1.305212 10.000000
0.812713 1.469206 -0.662498 26.000000
0.835463 1.471252 -0.670670 26.000000
0.858364 1.472962 -0.678829 26.000000
0.876650 1.466306 -0.683318 29.000000
0.902073 1.471403 -0.693356 26.000000
0.925312 1.472111 -0.701580 29.000000
0.921140 1.429562 -0.689189 25.000000
0.939092 1.422170 -0.693594 21.000000
0.959665 1.418326 -0.699847 32.000000
0.982927 1.417987 -0.708026 27.000000
1.003647 1.413517 -0.714340 28.000000
1.024359 1.408745 -0.720624 32.000000
1.053449 1.414722 -0.732629 24.000000
1.071636 1.405568 -0.737001 29.000000
1.075537 1.377935 -0.731675 30.000000
1.098273 1.376193 -0.740148 31.000000
1.124969 1.377057 -0.750255 38.000000
1.139989 1.363392 -0.752610 32.000000
1.175834 1.373965 -0.768598 33.000000
1.199130 1.370555 -0.777063 37.000000
1.223374 1.366266 -0.785263 29.000000
1.250766 1.364897 -0.795411 32.000000
1.252476 1.336859 -0.790012 24.000000
1.279852 1.334827 -0.800146 34.000000
1.301035 1.325816 -0.806280 62.000000
1.324680 1.320198 -0.814742 35.000000
1.345813 1.310466 -0.820863 41.000000
1.372904 1.307269 -0.831272 36.000000
1.400774 1.302997 -0.841345 36.000000
1.417999 1.289555 -0.845723 47.000000
1.441932 1.281918 -0.854097 20.000000
1.463129 1.270331 -0.860085 27.000000
1.494064 1.267833 -0.872519 46.000000
1.511128 1.253073 -0.876718 32.000000
1.542307 1.249523 -0.889169 34.000000
1.598631 1.265168 -0.915881 39.000000
1.623093 1.254570 -0.924156 31.000000
1.651167 1.246256 -0.934518 32.000000
1.668273 1.229283 -0.938660 26.000000
1.688995 1.214743 -0.944808 35.000000
1.724522 1.210345 -0.959191 44.000000
1.760253 1.205205 -0.973553 27.000000
1.796108 1.199387 -0.987965 27.000000
1.790111 1.165605 -0.979358 25.000000
1.806281 1.147099 -0.983598 21.000000
1.799549 1.113590 -0.974863 26.000000
1.819056 1.097232 -0.981046 10.000000
1.799893 1.057068 -0.965820 18.000000
1.807186 1.033688 -0.965612 25.000000
1.810330 1.008055 -0.963148 16.000000
1.805129 0.978150 -0.956445 21.000000
1.808033 0.952291 -0.953461 17.000000
1.822318 0.933091 -0.957093 18.000000
1.840496 0.915606 -0.962852 22.000000
1.833755 0.886322 -0.956085 9.000000
1.855658 0.870457 -0.963841 16.000000
1.861010 0.846672 -0.962955 22.000000
1.845086 0.813996 -0.951738 17.000000
1.849844 0.790375 -0.950690 20.000000
1.854088 0.766987 -0.949909 22.000000
1.879063 0.752021 -0.959766 21.000000
1.870212 0.723424 -0.952416 20.000000
1.852625 0.691994 -0.940681 10.000000
1.864290 0.671803 -0.943901 13.000000
1.875854 0.651379 -0.946991 21.000000
1.882904 0.629291 -0.947931 19.000000
1.885256 0.605956 -0.946915 20.000000
1.895929 0.585248 -0.950146 24.000000
1.906698 0.564170 -0.952911 24.000000
1.891068 0.535753 -0.942972 24.000000
1.892239 0.512620 -0.941938 10.000000
1.897748 0.490384 -0.942602 18.000000
1.907434 0.469224 -0.945434 24.000000
1.903584 0.444953 -0.941892 17.000000
1.912683 0.423676 -0.944792 18.000000
1.917197 0.401374 -0.945456 22.000000
1.921445 0.378939 -0.946053 20.000000
1.885526 0.349193 -0.927195 23.000000
1.161589 0.173400 -0.568906 95.000000
1.163421 0.159819 -0.569145 98.000000
1.147198 0.144037 -0.560737 100.000000
1.162137 0.132150 -0.567401 95.000000
1.167961 0.119078 -0.569783 98.000000
1.164716 0.105054 -0.567758 95.000000
1.143329 0.089726 -0.557073 95.000000
1.171226 0.078177 -0.570221 78.000000
1.167493 0.064270 -0.568155 89.000000
1.168127 0.050662 -0.568234 95.000000
1.173138 0.037197 -0.570460 98.000000
1.168921 0.023447 -0.568353 74.000000
1.169080 0.009839 -0.568433 98.000000
1.173616 -0.003823 -0.570579 98.000000
1.142062 -0.017014 -0.555237 98.000000
1.137373 -0.030189 -0.552897 98.000000
1.145936 -0.043774 -0.557229 100.000000
1.136408 -0.056672 -0.552781 98.000000
1.140240 -0.070190 -0.554811 98.000000
1.148320 -0.084141 -0.559141 38.000000
1.147422 -0.097500 -0.558867 95.000000
1.150767 -0.111292 -0.560854 95.000000
1.153985 -0.125189 -0.562800 98.000000
1.156956 -0.139190 -0.564863 100.000000
1.213450 -0.160288 -0.592842 105.000000
1.256125 -0.180854 -0.614379 108.000000
1.707009 -0.327478 -0.838956 69.000000
1.765076 -0.359985 -0.868835 29.000000
1.857969 -0.401485 -0.915913 30.000000
1.884272 -0.430139 -0.930386 26.000000
1.932134 -0.464646 -0.955536 24.000000
1.953101 -0.493885 -0.967854 26.000000
1.956290 -0.519047 -0.971431 10.000000
1.963706 -0.545344 -0.976680 12.000000
1.962037 -0.569499 -0.977942 21.000000
1.964173 -0.595132 -0.981496 18.000000
1.953414 -0.616616 -0.978231 22.000000
1.950982 -0.640746 -0.979205 21.000000
1.935286 -0.660671 -0.973933 16.000000
1.944914 -0.689377 -0.981487 19.000000
1.928834 -0.708993 -0.976012 10.000000
1.615833 -0.658549 -0.824762 40.000000
1.758741 -0.740573 -0.900330 36.000000
1.812654 -0.788302 -0.931199 29.000000
1.849531 -0.829746 -0.953066 19.000000
1.910136 -0.883795 -0.987884 21.000000
1.896257 -0.904268 -0.984343 10.000000
1.910953 -0.938193 -0.995207 12.000000
1.929006 -0.974875 -1.008428 23.000000
1.914212 -0.995419 -1.004644 16.000000
1.922943 -1.028848 -1.013802 21.000000
1.919663 -1.055752 -1.016175 16.000000
1.931869 -1.091550 -1.026858 20.000000
1.931860 -1.120844 -1.031131 21.000000
1.911446 -1.139166 -1.025295 10.000000
1.903059 -1.163743 -1.025214 10.000000
1.897797 -1.191126 -1.027510 18.000000
1.896479 -1.220549 -1.031492 14.000000
1.898193 -1.252975 -1.037827 18.000000
1.903151 -1.288237 -1.046124 15.000000
1.911338 -1.326311 -1.056370 18.000000
1.907892 -1.356764 -1.060297 20.000000
1.885547 -1.373906 -1.053828 9.000000
1.866815 -1.393445 -1.049431 10.000000
1.873352 -1.432053 -1.059307 17.000000
1.882885 -1.473750 -1.071091 13.000000
1.888190 -1.513026 -1.080687 19.000000
1.875385 -1.538082 -1.079971 16.000000
1.865695 -1.565997 -1.081274 14.000000
1.869590 -1.605667 -1.090567 21.000000
1.837756 -1.616119 -1.079943 10.000000
1.840866 -1.656036 -1.089083 10.000000
1.839967 -1.693003 -1.095982 16.000000
1.844318 -1.737154 -1.107249 13.000000
1.855554 -1.787293 -1.122010 20.000000
1.825774 -1.799929 -1.113036 13.000000
1.822914 -1.837458 -1.119549 16.000000
1.821606 -1.879184 -1.128415 18.000000
1.813282 -1.914443 -1.133093 10.000000
1.808845 -1.952323 -1.139252 10.000000
1.808806 -1.997922 -1.149628 13.000000
1.789770 -2.023097 -1.148186 13.000000
1.786709 -2.064678 -1.155941 18.000000
1.790770 -2.117784 -1.169902 11.000000
1.787897 -2.164154 -1.179789 18.000000
1.778591 -2.203564 -1.185634 17.000000
1.775842 -2.249438 -1.194792 10.000000
1.751206 -2.270759 -1.190812 9.000000
1.740279 -2.310247 -1.196388 10.000000
1.745199 -2.372129 -1.213231 10.000000
1.722043 -2.396881 -1.210853 10.000000
1.722437 -2.455510 -1.225481 10.000000
1.713958 -2.502924 -1.234222 10.000000
1.694499 -2.535172 -1.235356 10.000000
1.694856 -2.598275 -1.251415 9.000000
1.696577 -2.665663 -1.269082 9.000000
1.672587 -2.693919 -1.267910 9.000000
1.665062 -2.749902 -1.279655 10.000000
1.642374 -2.781972 -1.280218 10.000000
1.642306 -2.854319 -1.298980 9.000000
1.636445 -2.918963 -1.313895 10.000000
0.824360 1.479949 -0.651379 15.000000
0.842572 1.473862 -0.655784 22.000000
0.863118 1.471629 -0.661956 17.000000
0.886127 1.473050 -0.669972 20.000000
0.906837 1.470108 -0.676208 25.000000
0.927605 1.466991 -0.682414 10.000000
0.928196 1.432306 -0.673957 21.000000
0.943596 1.420994 -0.676421 20.000000
0.974617 1.432558 -0.689984 17.000000
0.987387 1.416910 -0.690575 26.000000
1.013495 1.420040 -0.700410 16.000000
1.034344 1.415193 -0.706616 22.000000
1.041355 1.391544 -0.703354 23.000000
1.090209 1.423082 -0.728282 13.000000
1.082766 1.380711 -0.715598 25.000000
1.097802 1.367583 -0.717912 22.000000
1.127344 1.372207 -0.729668 17.000000
1.145260 1.362093 -0.733859 30.000000
1.175130 1.365797 -0.745711 19.000000
1.201431 1.365978 -0.755884 25.000000
1.225662 1.361719 -0.763881 26.000000
1.249939 1.357117 -0.771912 15.000000
1.264038 1.342529 -0.774414 32.000000
1.275551 1.323952 -0.774609 24.000000
1.286868 1.305209 -0.774732 21.000000
1.326736 1.316142 -0.792721 32.000000
1.351143 1.309704 -0.800700 25.000000
1.378284 1.306506 -0.810863 31.000000
1.399460 1.296115 -0.816816 34.000000
1.419948 1.285818 -0.823043 18.000000
1.441080 1.274723 -0.828972 19.000000
1.465049 1.266786 -0.837097 26.000000
1.489017 1.258476 -0.845253 24.000000
1.520773 1.255041 -0.857100 31.000000
1.551997 1.251514 -0.869190 25.000000
1.586997 1.250204 -0.883332 26.000000
1.625791 1.251045 -0.899473 29.000000
1.642917 1.234586 -0.903536 18.000000
1.652588 1.212490 -0.903574 25.000000
1.691670 1.211579 -0.919706 26.000000
1.719779 1.201989 -0.929682 27.000000
1.759304 1.199629 -0.945851 29.000000
1.798939 1.196502 -0.961936 18.000000
1.819664 1.180107 -0.967815 18.000000
1.824777 1.153702 -0.965545 19.000000
1.817556 1.120512 -0.957338 10.000000
1.822019 1.094178 -0.954882 12.000000
1.825740 1.068384 -0.952695 13.000000
1.817692 1.035369 -0.943900 10.000000
1.816736 1.007519 -0.939470 16.000000
1.815498 0.979740 -0.935017 10.000000
1.838445 0.964449 -0.942462 11.000000
1.860905 0.949153 -0.950203 18.000000
1.846672 0.915179 -0.939303 10.000000
1.856556 0.893544 -0.940686 10.000000
1.874473 0.875550 -0.946227 10.000000
1.871218 0.848190 -0.941575 10.000000
1.876299 0.824360 -0.940730 17.000000
1.880791 0.800766 -0.940086 13.000000
1.881182 0.775127 -0.936934 16.000000
1.889385 0.753184 -0.938232 18.000000
1.897451 0.731172 -0.939463 10.000000
1.888233 0.702693 -0.932227 13.000000
1.887214 0.677541 -0.929106 11.000000
1.894565 0.655419 -0.930118 13.000000
1.897344 0.631865 -0.928888 16.000000
1.904208 0.609591 -0.929763 15.000000
1.897604 0.583456 -0.924441 14.000000
1.916791 0.565247 -0.931782 21.000000
1.901047 0.536750 -0.922083 10.000000
1.906768 0.514597 -0.922881 12.000000
1.916676 0.493505 -0.925731 17.000000
1.917612 0.470023 -0.924211 13.000000
1.926945 0.448763 -0.927198 19.000000
1.927192 0.425382 -0.925808 17.000000
1.927286 0.402038 -0.924348 16.000000
1.940414 0.381348 -0.929198 18.000000
1.922300 0.354639 -0.919028 11.000000
1.163248 0.173013 -0.553952 32.000000
1.173955 0.160752 -0.558613 98.000000
1.175674 0.147079 -0.558773 98.000000
1.177233 0.133407 -0.558893 98.000000
1.178592 0.119734 -0.559133 93.000000
1.179832 0.106022 -0.559293 98.000000
1.176364 0.091997 -0.557397 52.000000
1.177320 0.078337 -0.557437 95.000000
1.178116 0.064637 -0.557556 94.000000
1.183270 0.051172 -0.559772 95.000000
1.179231 0.037277 -0.557676 95.000000
1.184069 0.023667 -0.559892 95.000000
1.166149 0.009803 -0.551423 96.000000
1.152628 -0.003696 -0.544972 98.000000
1.152550 -0.017081 -0.544933 103.000000
1.156875 -0.030586 -0.546914 103.000000
1.160963 -0.044195 -0.549011 103.000000
1.155898 -0.057422 -0.546797 100.000000
1.164260 -0.071413 -0.550911 95.000000
1.163354 -0.084916 -0.550872 95.000000
1.166954 -0.098801 -0.552730 98.000000
1.215321 -0.117087 -0.575999 105.000000
1.392058 -0.166835 -0.660907 105.000000
1.493307 -0.196591 -0.709688 103.000000
1.694443 -0.263072 -0.806682 59.000000
1.776170 -0.297030 -0.846819 13.000000
1.853071 -0.331919 -0.884419 26.000000
1.871554 -0.357750 -0.894599 21.000000
1.898623 -0.385772 -0.908821 24.000000
1.934146 -0.416422 -0.927265 17.000000
1.947207 -0.442844 -0.934945 23.000000
1.968857 -0.471718 -0.946778 23.000000
1.963537 -0.494636 -0.946096 19.000000
1.979914 -0.523273 -0.955920 10.000000
1.978488 -0.547518 -0.957137 15.000000
1.985468 -0.574244 -0.962501 12.000000
1.992226 -0.601205 -0.967783 18.000000
1.981317 -0.622957 -0.964556 16.000000
1.948464 -0.637556 -0.951024 10.000000
1.962835 -0.667620 -0.960567 16.000000
1.968280 -0.695026 -0.965820 10.000000
1.977678 -0.724221 -0.973015 9.000000
1.889023 -0.716566 -0.932018 15.000000
1.822030 -0.715264 -0.901446 16.000000
1.860506 -0.755236 -0.923171 24.000000
1.885597 -0.791084 -0.938782 17.000000
1.902041 -0.823759 -0.949768 12.000000
1.917762 -0.857156 -0.960996 15.000000
1.912729 -0.881195 -0.961381 10.000000
1.935861 -0.919131 -0.976555 9.000000
1.954347 -0.955767 -0.989536 11.000000
1.947911 -0.980570 -0.989999 10.000000
1.949299 -1.009585 -0.994507 11.000000
1.937899 -1.032605 -0.993110 10.000000
1.942635 -1.063941 -0.999498 10.000000
1.939088 -1.090956 -1.001749 13.000000
1.938647 -1.120738 -1.006259 10.000000
1.922661 -1.140811 -1.002116 9.000000
1.917746 -1.168290 -1.004480 10.000000
1.924646 -1.202534 -1.012489 10.000000
1.934373 -1.239924 -1.022793 10.000000
1.912998 -1.257698 -1.016739 10.000000
1.910457 -1.287839 -1.020751 10.000000
1.915119 -1.323294 -1.028702 10.000000
1.915453 -1.356394 -1.034595 9.000000
1.922888 -1.394987 -1.044399 9.000000
1.907604 -1.417557 -1.042023 9.000000
1.892161 -1.439889 -1.039568 10.000000
1.905405 -1.484519 -1.053019 10.000000
1.892908 -1.509653 -1.052439 10.000000
1.887215 -1.540431 -1.055745 10.000000
1.887401 -1.577755 -1.063314 11.000000
1.884430 -1.611694 -1.068365 10.000000
1.898245 -1.660839 -1.083240 9.000000
1.879564 -1.683625 -1.080643 9.000000
1.868419 -1.711618 -1.081469 10.000000
1.869387 -1.752864 -1.090525 10.000000
1.860742 -1.784094 -1.093152 10.000000
1.850694 -1.815988 -1.096087 10.000000
1.857475 -1.863487 -1.108177 10.000000
1.849693 -1.898914 -1.112869 9.000000
1.850898 -1.944411 -1.123220 9.000000
1.852488 -1.989367 -1.133045 9.000000
1.849206 -2.031966 -1.141228 10.000000
1.835992 -2.064385 -1.143514 10.000000
1.814458 -2.085463 -1.139591 9.000000
1.818518 -2.138801 -1.153130 10.000000
1.792127 -2.156915 -1.147624 10.000000
1.800556 -2.217814 -1.164689 9.000000
1.807934 -2.279298 -1.181525 9.000000
1.794376 -2.315514 -1.185096 9.000000
1.777508 -2.348016 -1.186749 9.000000
1.776758 -2.402717 -1.199344 9.000000
1.758676 -2.435234 -1.200784 9.000000
1.748281 -2.479040 -1.207536 9.000000
1.742468 -2.530592 -1.217993 9.000000
1.727905 -2.570669 -1.222633 9.000000
1.723034 -2.626419 -1.234623 9.000000
1.712180 -2.674365 -1.242639 8.000000
1.710505 -2.738331 -1.257924 9.000000
1.693025 -2.778644 -1.261994 9.000000
1.689198 -2.843097 -1.276905 9.000000
1.674847 -2.891706 -1.284377 9.000000
1.666556 -2.952477 -1.297109 9.000000
0.831340 1.482497 -0.636535 24.000000
0.856628 1.488585 -0.646069 18.000000
0.879665 1.490309 -0.653947 22.000000
0.895642 1.479639 -0.656488 20.000000
0.916377 1.476738 -0.662534 19.000000
0.929708 1.461730 -0.663301 24.000000
0.948902 1.453863 -0.667302 10.000000
0.961919 1.438576 -0.667999 21.000000
0.969470 1.415432 -0.664956 21.000000
0.992771 1.415196 -0.672811 17.000000
1.018867 1.418381 -0.682411 25.000000
1.036903 1.409828 -0.686641 21.000000
1.054905 1.401094 -0.690825 18.000000
1.078549 1.399429 -0.698642 26.000000
1.125342 1.426634 -0.721252 10.000000
1.099948 1.362552 -0.697671 25.000000
1.123602 1.360059 -0.705484 29.000000
1.146557 1.357705 -0.713567 26.000000
1.164316 1.347480 -0.717598 34.000000
1.197446 1.354312 -0.731012 23.000000
1.221529 1.350218 -0.738854 23.000000
1.248803 1.349180 -0.748555 26.000000
1.275520 1.348150 -0.758544 10.000000
1.287109 1.329468 -0.758728 34.000000
1.308144 1.320596 -0.764607 30.000000
1.338387 1.321682 -0.776539 29.000000
1.362955 1.315158 -0.784265 35.000000
1.380766 1.301998 -0.788185 31.000000
1.404616 1.295266 -0.796275 32.000000
1.436093 1.293839 -0.807810 34.000000
1.453235 1.280136 -0.811981 18.000000
1.463904 1.259634 -0.811966 31.000000
1.491369 1.254426 -0.821847 29.000000
1.522516 1.251555 -0.833717 27.000000
1.557966 1.250558 -0.847193 38.000000
1.592999 1.249316 -0.860986 29.000000
1.624682 1.244637 -0.872875 32.000000
1.649033 1.233818 -0.880811 29.000000
1.662295 1.214404 -0.882793 13.000000
1.694119 1.208189 -0.894581 33.000000
1.726026 1.201397 -0.906412 32.000000
1.765604 1.199112 -0.922181 32.000000
1.801538 1.193527 -0.935877 36.000000
1.829884 1.182209 -0.945709 24.000000
1.850544 1.165497 -0.951438 21.000000
1.867114 1.146059 -0.955110 26.000000
1.851702 1.108003 -0.943136 10.000000
1.863848 1.086083 -0.944717 23.000000
1.863402 1.057670 -0.940556 18.000000
1.859016 1.026753 -0.933933 14.000000
1.873950 1.007325 -0.937649 24.000000
1.881035 0.982998 -0.936907 17.000000
1.891514 0.961050 -0.938464 16.000000
1.889554 0.932889 -0.933944 21.000000
1.883061 0.902968 -0.927235 9.000000
1.901107 0.884788 -0.932694 18.000000
1.910632 0.862586 -0.933955 20.000000
1.903007 0.833130 -0.927343 15.000000
1.920437 0.814408 -0.932605 22.000000
1.929294 0.791884 -0.933651 20.000000
1.929251 0.766132 -0.930884 14.000000
1.928858 0.740507 -0.928036 21.000000
1.932463 0.716458 -0.927160 10.000000
1.914365 0.684761 -0.915941 16.000000
1.938950 0.668449 -0.925186 26.000000
1.928860 0.640118 -0.917847 17.000000
1.944482 0.620361 -0.922852 27.000000
1.933557 0.592533 -0.915696 21.000000
1.940061 0.569973 -0.916373 21.000000
1.954857 0.549878 -0.921386 24.000000
1.929936 0.518941 -0.907728 10.000000
1.948655 0.499894 -0.914741 20.000000
1.949495 0.476355 -0.913546 24.000000
1.959041 0.454639 -0.916225 23.000000
1.972716 0.433933 -0.921116 26.000000
1.963895 0.408323 -0.915565 27.000000
1.963739 0.384637 -0.914093 21.000000
1.972307 0.362700 -0.916642 24.000000
1.944841 0.334361 -0.902489 10.000000
1.161976 0.158534 -0.537369 98.000000
1.163630 0.145070 -0.537526 103.000000
1.165126 0.131606 -0.537802 103.000000
1.166464 0.118142 -0.538038 98.000000
1.136003 0.101800 -0.523593 98.000000
1.168748 0.091097 -0.538314 98.000000
1.174266 0.077855 -0.540440 66.000000
1.179553 0.064508 -0.542645 100.000000
1.180188 0.050861 -0.542725 100.000000
1.180704 0.037213 -0.542725 98.000000
1.180981 0.023566 -0.542844 100.000000
1.181180 0.009879 -0.542883 98.000000
1.185763 -0.003783 -0.544971 100.000000
1.185643 -0.017483 -0.544892 95.000000
1.167276 -0.030745 -0.536423 95.000000
1.166845 -0.044235 -0.536384 98.000000
1.170834 -0.057949 -0.538353 98.000000
1.997350 -0.215146 -0.921013 21.000000
1.999503 -0.238751 -0.922624 23.000000
2.010253 -0.263642 -0.928532 21.000000
1.998258 -0.285630 -0.923893 20.000000
2.008553 -0.310818 -0.929590 20.000000
2.000657 -0.333261 -0.926898 15.000000
1.983415 -0.354070 -0.920258 10.000000
1.992831 -0.379606 -0.925945 20.000000
1.993070 -0.403511 -0.927339 15.000000
2.010812 -0.431337 -0.937023 21.000000
2.006122 -0.454579 -0.936195 24.000000
2.005377 -0.478948 -0.937644 20.000000
2.000192 -0.502035 -0.936676 20.000000
1.999066 -0.526351 -0.937913 16.000000
1.984397 -0.547068 -0.932885 10.000000
2.004658 -0.577602 -0.944290 21.000000
1.993796 -0.599561 -0.941530 17.000000
1.996008 -0.625298 -0.944460 19.000000
1.997671 -0.651306 -0.947661 19.000000
1.973155 -0.668666 -0.938462 14.000000
1.991573 -0.700618 -0.949724 18.000000
2.009581 -0.733099 -0.960815 16.000000
1.997298 -0.754744 -0.957552 10.000000
2.006014 -0.784458 -0.964368 24.000000
1.984820 -0.802516 -0.956807 16.000000
2.009505 -0.839787 -0.972036 20.000000
1.995995 -0.861341 -0.968691 18.000000
1.986771 -0.884293 -0.967093 13.000000
1.993579 -0.915088 -0.973828 16.000000
1.991736 -0.942142 -0.976415 15.000000
1.964923 -0.957298 -0.966780 9.000000
1.987204 -0.996457 -0.981329 20.000000
1.972237 -1.017422 -0.977608 13.000000
1.985023 -1.053459 -0.988278 17.000000
1.977654 -1.078652 -0.988489 18.000000
1.965568 -1.101925 -0.986913 14.000000
1.977532 -1.138312 -0.996973 18.000000
1.960896 -1.159156 -0.993226 10.000000
1.952379 -1.184133 -0.993097 9.000000
1.962598 -1.221548 -1.003217 14.000000
1.949062 -1.244542 -1.001294 10.000000
1.958414 -1.282393 -1.011269 12.000000
1.951875 -1.310469 -1.013125 15.000000
1.948853 -1.341093 -1.016940 10.000000
1.949180 -1.374397 -1.022621 11.000000
1.952767 -1.410665 -1.030154 10.000000
1.911534 -1.414224 -1.014026 9.000000
1.936494 -1.467034 -1.033184 16.000000
1.920542 -1.489592 -1.030686 10.000000
1.933284 -1.534817 -1.043685 13.000000
1.930325 -1.569425 -1.049167 16.000000
1.920521 -1.597732 -1.050323 10.000000
1.924388 -1.637913 -1.059024 12.000000
1.895641 -1.651732 -1.050815 9.000000
1.909024 -1.701241 -1.065125 9.000000
1.907062 -1.739539 -1.072093 16.000000
1.895309 -1.767763 -1.072762 10.000000
1.882308 -1.796659 -1.073751 11.000000
1.895457 -1.851391 -1.089938 13.000000
1.875872 -1.873162 -1.086528 10.000000
1.881051 -1.921832 -1.098684 13.000000
1.888583 -1.974289 -1.112552 9.000000
1.880631 -2.009517 -1.116379 9.000000
1.867902 -2.041985 -1.118737 16.000000
1.857766 -2.078043 -1.122840 10.000000
1.862410 -2.131500 -1.136118 16.000000
1.851107 -2.167681 -1.140007 12.000000
1.843607 -2.206585 -1.145135 10.000000
1.837063 -2.250004 -1.152515 16.000000
1.824154 -2.286287 -1.156052 9.000000
1.810738 -2.322558 -1.159541 9.000000
1.813637 -2.381031 -1.173836 12.000000
1.812758 -2.436146 -1.186187 10.000000
1.789034 -2.461404 -1.183822 13.000000
1.789319 -2.520545 -1.197600 10.000000
1.780608 -2.568626 -1.205951 10.000000
1.771113 -2.616846 -1.214005 10.000000
1.773805 -2.684572 -1.230898 9.000000
1.747955 -2.714402 -1.230253 9.000000
1.728698 -2.751006 -1.232603 9.000000
1.726003 -2.815339 -1.247264 9.000000
1.714947 -2.868050 -1.256385 10.000000
1.714667 -2.941013 -1.274269 9.000000
1.701460 -2.994125 -1.283020 9.000000
0.816679 1.487164 -0.615842 17.000000
0.840628 1.489025 -0.623237 23.000000
0.858866 1.482980 -0.627455 23.000000
0.877136 1.476655 -0.631631 21.000000
0.895324 1.470106 -0.635821 29.000000
0.913486 1.463386 -0.640024 23.000000
0.940217 1.467656 -0.649252 24.000000
0.932813 1.421126 -0.635870 21.000000
0.953268 1.417761 -0.641769 22.000000
0.971071 1.410197 -0.645872 27.000000
0.996983 1.413866 -0.655246 25.000000
1.020434 1.413320 -0.662892 24.000000
1.043960 1.412410 -0.670576 28.000000
1.061981 1.403625 -0.674661 21.000000
1.082824 1.398349 -0.680495 22.000000
1.080537 1.363463 -0.671942 25.000000
1.098157 1.354221 -0.675969 25.000000
1.130676 1.362610 -0.689017 32.000000
1.142448 1.345549 -0.689343 33.000000
1.163127 1.338988 -0.695132 31.000000
1.196206 1.345961 -0.708264 32.000000
1.223307 1.345494 -0.717732 26.000000
1.237268 1.331414 -0.720059 31.000000
1.245363 1.309883 -0.718453 29.000000
1.275859 1.311690 -0.729732 30.000000
1.303265 1.309581 -0.739145 47.000000
1.336783 1.314097 -0.752630 32.000000
1.357897 1.304557 -0.758338 34.000000
1.375587 1.291499 -0.762193 36.000000
1.399428 1.284941 -0.770001 34.000000
1.437701 1.289890 -0.785120 35.000000
1.440813 1.264059 -0.781620 28.000000
1.465379 1.255849 -0.789129 28.000000
1.492798 1.250743 -0.798818 35.000000
1.524567 1.247527 -0.810060 34.000000
1.555877 1.244149 -0.821673 33.000000
1.576972 1.231225 -0.827203 35.000000
1.601137 1.221260 -0.834930 34.000000
1.647565 1.227389 -0.854134 31.000000
1.668133 1.213603 -0.859951 30.000000
1.688751 1.199439 -0.865717 33.000000
1.731950 1.200657 -0.883025 37.000000
1.760193 1.190696 -0.892653 52.000000
1.784604 1.177700 -0.900232 44.000000
1.824464 1.174194 -0.915610 56.000000
1.864562 1.169910 -0.930968 29.000000
1.873325 1.145627 -0.930767 21.000000
1.873911 1.116579 -0.926504 19.000000
1.877744 1.090333 -0.924468 24.000000
1.881692 1.063696 -0.922057 25.000000
1.901367 1.045968 -0.927421 24.000000
1.892199 1.013154 -0.919307 25.000000
1.903031 0.991206 -0.920945 28.000000
1.901638 0.962537 -0.916233 21.000000
1.907784 0.938491 -0.915813 22.000000
1.917886 0.916307 -0.917226 14.000000
1.919380 0.890121 -0.914600 19.000000
1.929017 0.867751 -0.915936 23.000000
1.938372 0.845312 -0.917132 19.000000
1.947517 0.822662 -0.918328 21.000000
1.943439 0.795085 -0.913750 26.000000
1.969154 0.779117 -0.922717 22.000000
1.943161 0.743250 -0.907986 20.000000
1.942463 0.717561 -0.905159 16.000000
1.941490 0.692001 -0.902252 23.000000
1.953237 0.670967 -0.905289 26.000000
1.956116 0.646889 -0.904243 25.000000
1.954326 0.621387 -0.901045 23.000000
1.965403 0.600028 -0.903878 26.000000
1.954208 0.572207 -0.896844 23.000000
1.955847 0.548428 -0.895710 23.000000
1.975064 0.529216 -0.902308 15.000000
1.985156 0.507500 -0.905078 24.000000
1.985977 0.483586 -0.904013 32.000000
1.986706 0.459502 -0.902603 26.000000
1.991470 0.436636 -0.903351 26.000000
1.973854 0.408862 -0.893695 21.000000
1.982647 0.386925 -0.896261 23.000000
1.986626 0.364129 -0.897071 23.000000
1.972524 0.338044 -0.889353 26.000000
1.173910 0.145909 -0.526963 100.000000
1.179990 0.132864 -0.529117 100.000000
1.176795 0.118798 -0.527279 100.000000
1.187117 0.106015 -0.531510 103.000000
1.188192 0.092315 -0.531630 98.000000
1.193744 0.078917 -0.533707 98.000000
1.189944 0.064876 -0.531829 98.000000
1.190581 0.051176 -0.531909 95.000000
1.195623 0.037579 -0.533947 105.000000
1.200507 0.023878 -0.536105 100.000000
1.196102 0.009995 -0.534106 100.000000
1.196143 -0.003798 -0.534106 100.000000
1.200628 -0.017657 -0.536065 95.000000
1.218644 -0.031941 -0.544096 103.000000
2.011378 -0.169082 -0.899836 17.000000
2.032153 -0.194458 -0.909742 24.000000
2.025429 -0.217365 -0.907299 24.000000
2.027447 -0.241316 -0.909060 25.000000
2.020257 -0.263982 -0.906414 20.000000
2.039946 -0.290477 -0.916094 22.000000
2.023164 -0.311924 -0.909453 24.000000
2.042080 -0.339045 -0.919258 10.000000
2.002283 -0.356212 -0.902548 15.000000
2.029848 -0.385127 -0.915918 21.000000
2.025572 -0.408577 -0.915297 21.000000
2.025353 -0.432982 -0.916838 22.000000
2.034034 -0.459298 -0.922075 26.000000
2.024367 -0.481757 -0.919428 18.000000
2.041348 -0.510495 -0.928479 25.000000
2.026882 -0.531757 -0.923673 10.000000
2.020802 -0.555238 -0.923044 18.000000
2.023520 -0.581036 -0.926093 20.000000
2.025973 -0.606967 -0.929062 22.000000
2.027947 -0.633101 -0.932234 20.000000
2.016511 -0.655191 -0.929306 20.000000
2.022325 -0.682902 -0.934261 20.000000
2.040729 -0.715317 -0.945210 22.000000
2.028572 -0.737303 -0.941986 10.000000
2.007581 -0.755815 -0.934772 17.000000
2.020730 -0.787203 -0.943387 21.000000
2.016178 -0.812445 -0.944297 20.000000
2.015897 -0.839116 -0.946829 21.000000
2.031893 -0.873375 -0.957513 21.000000
2.018063 -0.895049 -0.954132 20.000000
2.029029 -0.928010 -0.962715 23.000000
1.998099 -0.941655 -0.951343 10.000000
2.004281 -0.972797 -0.957700 13.000000
2.010066 -1.004100 -0.963957 19.000000
2.006974 -1.031882 -0.966551 18.000000
1.999876 -1.057181 -0.966793 20.000000
2.008597 -1.091131 -0.974722 21.000000
2.004497 -1.119126 -0.977122 23.000000
1.988018 -1.140288 -0.973492 16.000000
2.003556 -1.179356 -0.985095 9.000000
2.006222 -1.212308 -0.991112 14.000000
1.992864 -1.235686 -0.989248 13.000000
1.975383 -1.256435 -0.985444 13.000000
1.988537 -1.297087 -0.996980 18.000000
1.981981 -1.325317 -0.998800 16.000000
1.975076 -1.353569 -1.000526 13.000000
1.979152 -1.389796 -1.007926 15.000000
1.971457 -1.418136 -1.009526 9.000000
1.959765 -1.443669 -1.009113 12.000000
1.958840 -1.477476 -1.014342 16.000000
1.961173 -1.514288 -1.021357 18.000000
1.955043 -1.546121 -1.024853 21.000000
1.949136 -1.577387 -1.027911 16.000000
1.945775 -1.612356 -1.033164 19.000000
1.953169 -1.655642 -1.043625 17.000000
1.938188 -1.681882 -1.042977 10.000000
1.937598 -1.719495 -1.049404 13.000000
1.932134 -1.754822 -1.054336 17.000000
1.927087 -1.789611 -1.058626 20.000000
1.920730 -1.825151 -1.063306 21.000000
1.917158 -1.864072 -1.069805 13.000000
1.920530 -1.908877 -1.079336 21.000000
1.909221 -1.941500 -1.081940 14.000000
1.923288 -2.000810 -1.099061 10.000000
1.894874 -2.016714 -1.092201 13.000000
1.899005 -2.065636 -1.103114 18.000000
1.898152 -2.112326 -1.112569 20.000000
1.887364 -2.148569 -1.116398 20.000000
1.872955 -2.181474 -1.118369 14.000000
1.873112 -2.232075 -1.129246 18.000000
1.863583 -2.272137 -1.134531 14.000000
1.865147 -2.326827 -1.146936 10.000000
1.848434 -2.359793 -1.148402 10.000000
1.839803 -2.403798 -1.155180 12.000000
1.844589 -2.466624 -1.170767 17.000000
1.826116 -2.499672 -1.171854 15.000000
1.820786 -2.551656 -1.181824 12.000000
1.811917 -2.599905 -1.189832 16.000000
1.799732 -2.644416 -1.195896 11.000000
1.797109 -2.704705 -1.208859 10.000000
1.773132 -2.733720 -1.207787 9.000000
1.754379 -2.775391 -1.212204 10.000000
1.766461 -2.863908 -1.236829 11.000000
1.750243 -2.908945 -1.242215 11.000000
1.742799 -2.970095 -1.254363 10.000000
1.727261 -3.019348 -1.261261 10.000000
1.715355 -3.082008 -1.273499 10.000000
0.814439 1.473028 -0.594256 21.000000
0.832453 1.467321 -0.598324 20.000000
0.861028 1.477180 -0.608896 20.000000
0.879119 1.470919 -0.612961 24.000000
0.899698 1.468501 -0.618731 21.000000
0.922838 1.469728 -0.626223 27.000000
0.942050 1.462137 -0.630122 19.000000
0.939515 1.423508 -0.620527 16.000000
0.949487 1.404538 -0.619367 25.000000
0.975212 1.408683 -0.628513 24.000000
0.995732 1.404810 -0.634253 29.000000
1.016304 1.400529 -0.639962 26.000000
1.039722 1.399768 -0.647435 24.000000
1.066106 1.402369 -0.656635 28.000000
1.089764 1.400778 -0.664129 20.000000
1.082385 1.358076 -0.652035 21.000000
1.105861 1.356104 -0.659419 31.000000
1.129458 1.353751 -0.666895 27.000000
1.146355 1.344479 -0.671028 36.000000
1.170103 1.341430 -0.678447 33.000000
1.197074 1.341473 -0.687685 31.000000
1.217937 1.334210 -0.693324 35.000000
1.241959 1.329973 -0.700722 31.000000
1.253198 1.311901 -0.700943 25.000000
1.277278 1.307006 -0.708383 40.000000
1.298103 1.298464 -0.713981 32.000000
1.321617 1.293327 -0.721598 50.000000
1.359283 1.300165 -0.736294 44.000000
1.380323 1.290371 -0.741859 37.000000
1.410994 1.290207 -0.753191 44.000000
1.439101 1.285793 -0.762421 32.000000
1.439215 1.256467 -0.756891 24.000000
1.463049 1.248961 -0.764500 32.000000
1.494657 1.246400 -0.775459 31.000000
1.536616 1.252605 -0.792350 51.000000
1.561388 1.242969 -0.799689 35.000000
1.585561 1.233471 -0.807250 33.000000
1.602401 1.217844 -0.811101 41.000000
1.638251 1.215344 -0.823926 28.000000
1.658781 1.201782 -0.829559 25.000000
1.698137 1.201220 -0.844615 37.000000
1.726261 1.191945 -0.854006 34.000000
1.754474 1.182178 -0.863360 62.000000
1.790437 1.176999 -0.876462 41.000000
1.826521 1.171069 -0.889609 36.000000
1.847031 1.154646 -0.895055 43.000000
1.887172 1.149925 -0.910035 24.000000
1.891696 1.123179 -0.907898 10.000000
1.903898 1.101026 -0.909423 26.000000
1.911858 1.076462 -0.909035 23.000000
1.935383 1.061161 -0.916526 29.000000
1.922613 1.025442 -0.906390 25.000000
1.945778 1.009708 -0.913818 24.000000
1.932149 0.974412 -0.903564 27.000000
1.946667 0.954114 -0.906996 19.000000
1.936034 0.921684 -0.898766 10.000000
1.950081 0.901197 -0.902050 23.000000
1.959751 0.878585 -0.903330 19.000000
1.973505 0.857739 -0.906551 23.000000
1.982698 0.834794 -0.907691 24.000000
1.983218 0.808301 -0.904939 18.000000
1.987449 0.783835 -0.904338 22.000000
1.974507 0.752557 -0.895574 13.000000
1.956576 0.720254 -0.885042 10.000000
1.968516 0.699261 -0.888104 27.000000
1.967292 0.673558 -0.885157 21.000000
1.965797 0.647919 -0.882202 23.000000
1.985884 0.629359 -0.888982 25.000000
1.975063 0.601055 -0.881954 19.000000
1.990398 0.580748 -0.886571 26.000000
2.000950 0.559069 -0.889503 20.000000
1.993492 0.532475 -0.884421 10.000000
1.999179 0.509523 -0.885175 21.000000
1.991198 0.483185 -0.880009 16.000000
2.014275 0.464378 -0.888451 23.000000
2.010176 0.439277 -0.885322 23.000000
2.014893 0.416035 -0.885732 22.000000
2.010253 0.391107 -0.882391 23.000000
2.018921 0.368726 -0.884915 16.000000
1.977489 0.337872 -0.865785 18.000000
1.944823 0.309299 -0.850263 33.000000
1.197778 0.148403 -0.522019 60.000000
1.190223 0.133575 -0.518169 100.000000
1.191577 0.119875 -0.518368 98.000000
1.201952 0.106988 -0.522541 100.000000
1.198501 0.092829 -0.520634 95.000000
1.199381 0.079077 -0.520834 95.000000
1.200220 0.065244 -0.520834 98.000000
1.205443 0.051648 -0.522902 100.000000
1.205925 0.037803 -0.522942 100.000000
1.215419 0.024140 -0.527040 108.000000
1.243145 0.010379 -0.539014 118.000000
1.311997 -0.004102 -0.568806 118.000000
1.559302 -0.040726 -0.675995 98.000000
1.700851 -0.064026 -0.737516 95.000000
1.800870 -0.088511 -0.781131 34.000000
1.895963 -0.115035 -0.822807 25.000000
1.972435 -0.142448 -0.856265 16.000000
2.039380 -0.170816 -0.885793 14.000000
2.055679 -0.196037 -0.893463 24.000000
2.048919 -0.219101 -0.891067 20.000000
2.046384 -0.242669 -0.890792 16.000000
2.052677 -0.267355 -0.894347 22.000000
2.049718 -0.290959 -0.893935 21.000000
2.069172 -0.317981 -0.903289 18.000000
2.065485 -0.341777 -0.902871 10.000000
2.057275 -0.364633 -0.900127 16.000000
2.057692 -0.389161 -0.901549 20.000000
2.057881 -0.413654 -0.902898 21.000000
2.048716 -0.436476 -0.900436 18.000000
2.052879 -0.461942 -0.903546 18.000000
2.056650 -0.487683 -0.906790 20.000000
2.060163 -0.513560 -0.910028 20.000000
2.063347 -0.539573 -0.913118 14.000000
2.044098 -0.559649 -0.906299 17.000000
2.051240 -0.586868 -0.911206 17.000000
2.057947 -0.614462 -0.916314 21.000000
2.046714 -0.636825 -0.913427 18.000000
2.052734 -0.664684 -0.918377 20.000000
2.054157 -0.691235 -0.921287 24.000000
2.059574 -0.719361 -0.925998 15.000000
2.051690 -0.743012 -0.924841 10.000000
2.060835 -0.773059 -0.931333 18.000000
2.065109 -0.801911 -0.936150 18.000000
2.060724 -0.827261 -0.936699 22.000000
2.055786 -0.852782 -0.937390 19.000000
2.054826 -0.880143 -0.940013 22.000000
2.053491 -0.907626 -0.942552 22.000000
2.030945 -0.925520 -0.935342 11.000000
2.033353 -0.954813 -0.939728 12.000000
2.035411 -0.984247 -0.943947 14.000000
2.032908 -1.011762 -0.946148 18.000000
2.038008 -1.043828 -0.952478 21.000000
2.030817 -1.069366 -0.952654 14.000000
2.022973 -1.095226 -0.953051 16.000000
2.023310 -1.125064 -0.956881 19.000000
2.030841 -1.159995 -0.964810 11.000000
2.037965 -1.195317 -0.972628 11.000000
2.032634 -1.223714 -0.974634 14.000000
2.030978 -1.254648 -0.978523 16.000000
2.017200 -1.278190 -0.976555 18.000000
2.018713 -1.311584 -0.982141 13.000000
2.019770 -1.345261 -0.987617 18.000000
2.001231 -1.365996 -0.983658 17.000000
2.001500 -1.399683 -0.988929 10.000000
2.023992 -1.449841 -1.005400 13.000000
1.978342 -1.451166 -0.988081 10.000000
1.987999 -1.494005 -0.999111 14.000000
1.982842 -1.525396 -1.002236 21.000000
1.977420 -1.556794 -1.005251 14.000000
1.981667 -1.597525 -1.014121 15.000000
1.982450 -1.635053 -1.020674 18.000000
1.989087 -1.679419 -1.031201 17.000000
1.981702 -1.711267 -1.033805 18.000000
1.955744 -1.728386 -1.027564 10.000000
1.946840 -1.760779 -1.030477 17.000000
1.959021 -1.811347 -1.043861 22.000000
1.952446 -1.847147 -1.048331 13.000000
1.962156 -1.899296 -1.061821 20.000000
1.938902 -1.918282 -1.056706 15.000000
1.937505 -1.960952 -1.064478 10.000000
1.945038 -2.013794 -1.077576 13.000000
1.916564 -2.029893 -1.070881 10.000000
1.938647 -2.100388 -1.092684 18.000000
1.931326 -2.140332 -1.098222 21.000000
1.907884 -2.163021 -1.094832 15.000000
1.920995 -2.227836 -1.112574 25.000000
1.900978 -2.253007 -1.110306 12.000000
1.897412 -2.300494 -1.118949 17.000000
1.889970 -2.344532 -1.125760 18.000000
1.883469 -2.393265 -1.134644 9.000000
1.874629 -2.437578 -1.141113 17.000000
1.851121 -2.463249 -1.138943 10.000000
1.863331 -2.537853 -1.159015 10.000000
1.849675 -2.578735 -1.163525 14.000000
1.832605 -2.615680 -1.166052 10.000000
1.838984 -2.687574 -1.184009 10.000000
1.820457 -2.724677 -1.186376 10.000000
1.806629 -2.769586 -1.191976 8.000000
1.805392 -2.839336 -1.208068 10.000000
1.792331 -2.888507 -1.215158 10.000000
1.776011 -2.933617 -1.220369 10.000000
1.761461 -2.982797 -1.227168 10.000000
1.764969 -3.069960 -1.249298 10.000000
1.750416 -3.123625 -1.257395 11.000000
0.808703 1.493660 -0.580439 10.000000
0.821139 1.475207 -0.579384 10.000000
0.836828 1.465456 -0.581726 19.000000
0.859570 1.467718 -0.588977 12.000000
0.883461 1.469149 -0.595990 16.000000
0.899025 1.458735 -0.598372 16.000000
0.919573 1.456079 -0.604008 14.000000
0.942742 1.457041 -0.611274 17.000000
0.935791 1.410013 -0.598352 10.000000
0.953448 1.402899 -0.602270 17.000000
0.981895 1.410966 -0.612863 23.000000
0.996989 1.399382 -0.615091 14.000000
1.017460 1.395234 -0.620645 21.000000
1.038038 1.390788 -0.626223 14.000000
1.070938 1.400414 -0.638351 16.000000
1.088826 1.391469 -0.642234 16.000000
1.080259 1.349341 -0.630647 10.000000
1.109677 1.354811 -0.641321 26.000000
1.124248 1.341721 -0.643427 21.000000
1.147863 1.339144 -0.650668 19.000000
1.168503 1.332713 -0.656147 29.000000
1.192253 1.329396 -0.663390 23.000000
1.222506 1.332588 -0.674157 24.000000
1.249754 1.331877 -0.683107 23.000000
1.260914 1.313742 -0.683374 10.000000
1.267954 1.292756 -0.682045 25.000000
1.295319 1.290963 -0.691004 29.000000
1.339478 1.305054 -0.708862 27.000000
1.353699 1.289246 -0.710754 31.000000
1.384895 1.289170 -0.721493 29.000000
1.405273 1.279638 -0.727229 26.000000
1.433257 1.275407 -0.736195 29.000000
1.468370 1.276846 -0.748724 10.000000
1.464028 1.244877 -0.741821 29.000000
1.488493 1.236527 -0.748933 29.000000
1.516011 1.231183 -0.758133 24.000000
1.544231 1.224800 -0.767049 27.000000
1.575611 1.221252 -0.778075 28.000000
1.596556 1.208259 -0.783351 22.000000
1.639359 1.211959 -0.799796 26.000000
1.649019 1.189787 -0.799504 10.000000
1.695911 1.194896 -0.817875 31.000000
1.727929 1.188403 -0.828834 30.000000
1.748380 1.173559 -0.834306 28.000000
1.780397 1.166035 -0.845262 32.000000
1.816465 1.160354 -0.858035 29.000000
1.860531 1.158898 -0.874557 26.000000
1.888936 1.146929 -0.883566 30.000000
1.913339 1.132012 -0.890743 10.000000
1.917578 1.105159 -0.888625 16.000000
1.933633 1.085084 -0.891947 21.000000
1.953589 1.066992 -0.897143 18.000000
1.960775 1.042477 -0.896956 24.000000
1.959825 1.013214 -0.892645 20.000000
1.949875 0.980292 -0.884850 13.000000
1.968909 0.961575 -0.889834 19.000000
1.933131 0.917077 -0.870550 9.000000
1.955546 0.900611 -0.877551 11.000000
1.982100 0.885601 -0.886388 19.000000
1.983125 0.859093 -0.883891 11.000000
1.992389 0.836148 -0.885031 14.000000
1.997153 0.811390 -0.884274 16.000000
1.997290 0.784897 -0.881540 11.000000
2.009896 0.763671 -0.884647 18.000000
1.974795 0.724476 -0.866524 9.000000
1.999930 0.707942 -0.875263 16.000000
2.024919 0.690939 -0.883950 24.000000
2.010319 0.660486 -0.875383 17.000000
2.034997 0.642849 -0.883944 21.000000
1.993288 0.604696 -0.863724 19.000000
2.026431 0.589450 -0.875912 17.000000
2.014846 0.561273 -0.869213 20.000000
2.007545 0.534416 -0.864075 10.000000
2.035544 0.517096 -0.874439 16.000000
2.041029 0.493699 -0.875133 21.000000
2.028316 0.466098 -0.868059 13.000000
2.037711 0.443889 -0.870812 20.000000
2.037951 0.419440 -0.869298 20.000000
2.055941 0.398746 -0.875704 18.000000
2.046553 0.372645 -0.870468 19.000000
2.045929 0.348404 -0.869019 10.000000
2.008509 0.318490 -0.852244 28.000000
1.200340 0.134326 -0.507201 95.000000
1.206326 0.120994 -0.509217 100.000000
1.207570 0.107189 -0.509378 95.000000
1.204058 0.092989 -0.507561 95.000000
1.209577 0.079499 -0.509699 51.000000
1.224227 0.066362 -0.515513 100.000000
1.243295 0.053146 -0.523347 108.000000
1.289856 0.040332 -0.542773 115.000000
1.769590 -0.025781 -0.744492 51.000000
1.856779 -0.048333 -0.781144 31.000000
1.906828 -0.071510 -0.802340 29.000000
1.970396 -0.096525 -0.829341 21.000000
2.010563 -0.121559 -0.846714 23.000000
