x y z intensity
1.798160 1.525847 -0.087866 62.000000
1.806964 1.499803 -0.087709 32.000000
1.834881 1.489456 -0.088413 32.000000
1.854889 1.472426 -0.088817 35.000000
1.878332 1.458810 -0.089410 32.000000
1.906031 1.447320 -0.090119 65.000000
1.917733 1.423439 -0.090150 32.000000
1.937167 1.405367 -0.090485 36.000000
1.960521 1.389877 -0.091083 42.000000
1.967353 1.362756 -0.090850 29.000000
2.002733 1.355268 -0.091946 45.000000
2.025766 1.338843 -0.092549 35.000000
2.048623 1.322089 -0.093079 35.000000
2.058693 1.297012 -0.093036 52.000000
2.085431 1.282347 -0.093759 37.000000
2.099263 1.259618 -0.093909 35.000000
2.130119 1.246759 -0.094826 61.000000
2.134858 1.218514 -0.094592 28.000000
2.161093 1.202529 -0.095320 42.000000
2.187185 1.186033 -0.096050 67.000000
2.217621 1.171507 -0.096974 36.000000
2.225817 1.145093 -0.096934 70.000000
2.282798 1.143153 -0.099025 53.000000
2.304101 1.122657 -0.099491 36.000000
2.338730 1.108227 -0.100619 57.000000
2.341511 1.078596 -0.100388 32.000000
2.380446 1.065331 -0.101635 32.000000
2.405663 1.045418 -0.102379 36.000000
2.416798 1.019222 -0.102459 34.000000
2.446270 1.000431 -0.103401 48.000000
2.480147 0.983079 -0.104460 46.000000
2.500068 0.959690 -0.105015 35.000000
2.529025 0.939413 -0.105881 54.000000
2.529674 0.908515 -0.105571 26.000000
2.572317 0.892644 -0.107111 35.000000
2.596093 0.869462 -0.107784 54.000000
2.605375 0.841199 -0.107867 37.000000
2.652487 0.824803 -0.109527 48.000000
2.690030 0.804548 -0.110880 55.000000
2.717812 0.780824 -0.111756 42.000000
2.759818 0.760491 -0.113226 75.000000
2.743796 0.724127 -0.112238 22.000000
2.814485 0.710204 -0.114895 37.000000
2.841449 0.684297 -0.115775 64.000000
2.858418 0.655646 -0.116261 43.000000
2.909247 0.634232 -0.118134 81.000000
2.940439 0.607639 -0.119217 68.000000
2.951762 0.576684 -0.119415 33.000000
2.938171 0.540916 -0.118713 9.000000
3.002995 0.519193 -0.121095 6.000000
3.037985 0.491401 -0.122380 8.000000
3.057975 0.460547 -0.123071 9.000000
3.102376 0.432823 -0.124661 16.000000
3.171386 0.407422 -0.127246 36.000000
3.190471 0.374697 -0.127941 23.000000
3.209300 0.341650 -0.128538 8.000000
3.267456 0.311979 -0.130726 9.000000
3.330402 0.281438 -0.133114 8.000000
3.417962 0.251535 -0.136497 31.000000
3.465349 0.217187 -0.138393 77.000000
3.502502 0.181241 -0.139787 95.000000
3.524183 0.144031 -0.140476 95.000000
3.540564 0.106129 -0.141073 65.000000
3.531548 0.067533 -0.140675 29.000000
3.546967 0.029251 -0.141272 67.000000
3.552071 -0.009330 -0.141471 77.000000
3.546858 -0.047885 -0.141164 95.000000
3.526122 -0.085966 -0.140368 95.000000
3.494980 -0.123154 -0.139175 95.000000
3.443577 -0.158876 -0.137082 95.000000
3.411755 -0.194546 -0.135890 88.000000
3.389416 -0.230243 -0.134991 95.000000
3.316992 -0.261579 -0.132111 49.000000
3.284189 -0.294873 -0.130920 52.000000
3.245969 -0.327118 -0.129432 30.000000
3.217357 -0.359517 -0.128342 20.000000
3.198427 -0.392693 -0.127650 51.000000
3.184094 -0.426011 -0.127156 79.000000
3.149620 -0.456250 -0.125872 61.000000
3.095104 -0.482764 -0.123896 76.000000
3.074868 -0.513874 -0.123113 48.000000
3.044563 -0.542815 -0.122032 36.000000
2.989430 -0.566570 -0.119967 10.000000
2.958527 -0.594083 -0.118890 9.000000
2.937321 -0.623046 -0.118208 23.000000
2.935228 -0.655865 -0.118221 93.000000
2.913380 -0.684313 -0.117541 63.000000
2.891240 -0.712261 -0.116861 50.000000
2.926868 -0.754865 -0.118441 29.000000
2.966801 -0.799530 -0.120305 25.000000
3.063696 -0.861470 -0.124414 33.000000
3.164447 -0.927017 -0.128806 32.000000
3.216405 -0.980192 -0.131137 95.000000
3.210283 -1.016615 -0.131126 95.000000
3.175341 -1.043577 -0.130052 89.000000
3.182825 -1.084424 -0.130624 65.000000
3.152066 -1.111972 -0.129643 31.000000
3.163283 -1.154735 -0.130406 34.000000
3.150633 -1.188982 -0.130201 34.000000
3.137469 -1.223024 -0.129995 30.000000
3.133370 -1.260795 -0.130175 26.000000
3.133288 -1.300477 -0.130545 16.000000
3.137364 -1.342218 -0.131106 9.000000
3.182106 -1.402493 -0.133389 9.000000
3.171256 -1.438966 -0.133368 9.000000
3.173518 -1.481774 -0.133919 9.000000
3.166267 -1.520542 -0.134087 10.000000
3.162974 -1.561504 -0.134336 9.000000
3.150301 -1.598021 -0.134310 9.000000
3.137148 -1.634528 -0.134284 8.000000
3.132431 -1.675519 -0.134528 6.000000
2.978320 -1.635046 -0.128455 5.000000
2.968973 -1.672220 -0.128520 4.000000
3.024207 -1.746967 -0.131510 2.000000
3.039401 -1.800080 -0.132692 2.000000
2.976948 -1.807163 -0.130602 1.000000
3.012213 -1.873804 -0.132713 2.000000
3.016910 -1.922633 -0.133507 1.000000
2.907958 -1.898057 -0.129379 1.000000
2.999336 -2.004515 -0.134075 1.000000
3.014416 -2.062518 -0.135412 1.000000
2.836250 -1.986284 -0.128055 1.000000
2.980979 -2.136503 -0.135295 1.000000
2.727793 -2.000443 -0.124479 1.000000
2.773734 -2.081068 -0.127287 1.000000
2.675652 -2.053345 -0.123493 1.000000
2.716616 -2.131012 -0.126104 1.000000
2.732184 -2.191694 -0.127608 1.000000
2.677317 -2.196079 -0.125729 1.000000
2.526865 -2.119098 -0.119440 1.000000
2.507394 -2.149743 -0.119318 1.000000
2.540261 -2.226377 -0.121716 1.000000
2.497206 -2.237247 -0.120406 1.000000
2.483791 -2.274503 -0.120636 1.000000
2.491737 -2.332076 -0.121830 1.000000
2.462593 -2.355614 -0.121340 1.000000
2.351033 -2.298422 -0.116668 5.000000
2.131515 -2.129675 -0.106640 8.000000
1.773535 -1.850874 -0.090098 8.000000
1.650805 -1.760692 -0.084608 8.000000
1.520096 -1.657013 -0.078552 9.000000
1.455307 -1.621362 -0.075842 16.000000
1.450800 -1.652081 -0.076270 21.000000
1.419781 -1.652564 -0.075310 24.000000
1.398537 -1.664106 -0.074872 26.000000
1.383590 -1.683033 -0.074778 28.000000
1.359031 -1.690147 -0.074170 26.000000
1.337532 -1.700854 -0.073735 24.000000
1.318967 -1.715258 -0.073470 26.000000
1.303338 -1.733457 -0.073375 22.000000
1.293343 -1.759576 -0.073616 20.000000
1.262542 -1.757213 -0.072678 22.000000
1.275037 -1.815809 -0.074253 24.000000
1.241185 -1.808959 -0.073082 24.000000
1.235403 -1.843044 -0.073643 22.000000
1.218087 -1.860504 -0.073537 21.000000
1.184461 -1.852557 -0.072375 24.000000
1.174904 -1.882203 -0.072762 22.000000
1.162175 -1.907676 -0.072913 18.000000
1.131226 -1.903042 -0.071990 8.000000
1.170499 1.996377 -0.057861 9.000000
1.150853 1.915042 -0.056066 33.000000
1.226629 1.991799 -0.058914 29.000000
1.248195 1.978374 -0.059128 32.000000
1.264122 1.956338 -0.059018 31.000000
1.282482 1.938304 -0.059104 33.000000
1.295004 1.911911 -0.058934 41.000000
1.321355 1.905957 -0.059331 34.000000
1.341958 1.891514 -0.059543 32.000000
1.347668 1.856633 -0.059042 35.000000
1.361809 1.833899 -0.058994 33.000000
1.393706 1.834898 -0.059721 35.000000
1.413543 1.819633 -0.059862 33.000000
1.426951 1.796400 -0.059742 35.000000
1.449503 1.784662 -0.060083 35.000000
1.468805 1.768869 -0.060223 39.000000
1.491131 1.756606 -0.060565 36.000000
1.500297 1.728961 -0.060311 36.000000
1.522342 1.716277 -0.060583 34.000000
1.554331 1.714420 -0.061323 65.000000
1.572841 1.697464 -0.061464 46.000000
1.587772 1.676597 -0.061472 63.000000
1.609437 1.662847 -0.061747 49.000000
1.630967 1.648738 -0.062021 48.000000
1.655915 1.637926 -0.062502 48.000000
1.666438 1.612842 -0.062375 35.000000
1.683926 1.594575 -0.062517 48.000000
1.701201 1.576167 -0.062659 85.000000
1.725670 1.564260 -0.063071 71.000000
1.742594 1.545346 -0.063213 60.000000
1.763079 1.529493 -0.063491 56.000000
1.787304 1.516650 -0.063835 41.000000
1.807538 1.500305 -0.064114 55.000000
1.823817 1.480511 -0.064258 29.000000
1.851554 1.469825 -0.064812 37.000000
1.879349 1.458738 -0.065369 71.000000
1.891129 1.435162 -0.065304 35.000000
1.914667 1.420461 -0.065724 52.000000
1.934071 1.402433 -0.066008 39.000000
1.957397 1.386987 -0.066357 44.000000
1.976521 1.368446 -0.066642 58.000000
1.978927 1.338467 -0.066373 28.000000
2.010049 1.327824 -0.067002 35.000000
2.028591 1.308543 -0.067288 56.000000
2.046897 1.289022 -0.067501 43.000000
2.069371 1.271953 -0.067928 54.000000
2.095949 1.257047 -0.068422 52.000000
2.109454 1.234140 -0.068497 36.000000
2.131493 1.216112 -0.068927 45.000000
2.166367 1.204959 -0.069705 29.000000
2.174991 1.178963 -0.069640 42.000000
2.196519 1.159914 -0.070073 62.000000
2.213401 1.138312 -0.070290 41.000000
2.252450 1.127571 -0.071213 72.000000
2.296053 1.118358 -0.072280 52.000000
2.317095 1.097608 -0.072642 36.000000
2.346995 1.080765 -0.073366 51.000000
2.381402 1.065490 -0.074155 26.000000
2.388288 1.037532 -0.074092 34.000000
2.422364 1.021244 -0.074884 46.000000
2.433360 0.994918 -0.074964 37.000000
2.457893 0.973955 -0.075472 36.000000
2.496384 0.957981 -0.076410 61.000000
2.506588 0.930878 -0.076410 33.000000
2.530659 0.908680 -0.076920 33.000000
2.544985 0.882981 -0.077146 31.000000
2.582879 0.864868 -0.078088 38.000000
2.601622 0.839831 -0.078458 56.000000
2.629643 0.817554 -0.079115 35.000000
2.681482 0.801855 -0.080408 58.000000
2.699634 0.775391 -0.080781 37.000000
2.731958 0.752701 -0.081586 38.000000
2.759334 0.728126 -0.082161 44.000000
2.796164 0.705490 -0.083113 30.000000
2.823084 0.679796 -0.083689 36.000000
2.854622 0.654708 -0.084499 58.000000
2.886013 0.629002 -0.085220 55.000000
2.917068 0.602675 -0.086031 37.000000
2.938149 0.573901 -0.086465 33.000000
2.924612 0.538293 -0.085978 9.000000
2.979488 0.515121 -0.087423 8.000000
3.039207 0.491495 -0.089012 8.000000
3.059203 0.460736 -0.089540 8.000000
3.093719 0.431538 -0.090408 9.000000
3.118030 0.400515 -0.090987 9.000000
3.181721 0.373630 -0.092723 20.000000
3.210483 0.341650 -0.093446 13.000000
3.233932 0.308655 -0.094025 9.000000
3.271867 0.276490 -0.095037 8.000000
3.394297 0.249701 -0.098509 9.000000
3.441787 0.215625 -0.099811 13.000000
3.498796 0.181090 -0.101402 51.000000
3.540456 0.144643 -0.102559 95.000000
3.566840 0.106987 -0.103282 89.000000
3.597803 0.068774 -0.104150 93.000000
3.608347 0.029745 -0.104440 95.000000
3.588466 -0.009422 -0.103752 93.000000
3.563150 -0.048087 -0.103029 95.000000
3.507429 -0.085479 -0.101440 36.000000
3.451415 -0.121570 -0.099745 79.000000
3.429863 -0.158185 -0.099167 91.000000
3.403028 -0.193977 -0.098445 87.000000
3.380792 -0.229566 -0.097765 58.000000
3.303366 -0.260401 -0.095602 21.000000
3.245574 -0.291398 -0.093916 18.000000
3.222301 -0.324613 -0.093241 29.000000
3.223609 -0.360170 -0.093385 59.000000
3.184726 -0.390866 -0.092280 54.000000
3.165456 -0.423458 -0.091751 54.000000
3.111216 -0.450616 -0.090315 78.000000
3.101191 -0.483630 -0.090076 67.000000
3.036575 -0.507380 -0.088260 24.000000
3.030935 -0.540278 -0.088167 47.000000
2.990545 -0.566570 -0.087072 10.000000
2.915623 -0.585231 -0.084979 9.000000
2.928643 -0.620973 -0.085459 24.000000
2.907064 -0.649511 -0.084940 58.000000
2.895014 -0.679834 -0.084707 68.000000
2.887479 -0.711247 -0.084616 55.000000
2.913457 -0.751214 -0.085520 10.000000
2.953356 -0.795817 -0.086847 32.000000
3.045617 -0.856254 -0.089730 29.000000
3.117691 -0.913071 -0.092041 37.000000
3.184068 -0.970200 -0.094103 37.000000
3.197222 -1.012193 -0.094707 41.000000
3.209803 -1.054600 -0.095310 54.000000
3.245457 -1.105476 -0.096615 35.000000
3.233420 -1.140333 -0.096406 23.000000
3.197383 -1.166832 -0.095599 29.000000
3.179822 -1.199670 -0.095251 15.000000
3.175958 -1.237748 -0.095428 10.000000
3.199525 -1.287012 -0.096336 10.000000
3.208394 -1.331228 -0.096928 9.000000
3.216736 -1.375839 -0.097412 9.000000
3.256561 -1.434842 -0.098973 9.000000
3.254463 -1.476237 -0.099172 8.000000
3.220091 -1.503020 -0.098400 10.000000
3.212612 -1.542280 -0.098568 9.000000
3.191158 -1.574774 -0.098213 8.000000
3.231834 -1.638817 -0.099785 6.000000
3.222779 -1.678392 -0.099838 6.000000
3.142657 -1.680341 -0.097807 4.000000
2.988329 -1.639855 -0.093346 5.000000
2.948549 -1.659960 -0.092455 3.000000
2.999623 -1.731971 -0.094429 3.000000
3.053706 -1.807718 -0.096529 2.000000
3.072338 -1.864204 -0.097533 2.000000
2.975420 -1.850051 -0.094877 1.000000
2.967744 -1.890303 -0.095068 1.000000
2.947012 -1.922529 -0.094854 1.000000
2.892708 -1.932330 -0.093563 1.000000
2.948181 -2.063672 -0.096350 1.000000
2.880853 -2.063625 -0.094662 1.000000
2.672800 -1.958974 -0.088318 1.000000
2.667247 -2.000003 -0.088545 1.000000
2.629501 -2.016740 -0.087812 1.000000
2.662402 -2.088457 -0.089460 1.000000
2.713546 -2.176805 -0.091758 1.000000
2.589175 -2.123807 -0.088023 1.000000
2.562139 -2.148709 -0.087688 2.000000
2.530969 -2.169969 -0.087120 1.000000
2.503394 -2.194154 -0.086786 2.000000
2.494302 -2.234628 -0.087103 1.000000
2.477139 -2.268369 -0.087056 1.000000
2.441376 -2.284988 -0.086463 1.000000
2.477769 -2.370162 -0.088346 1.000000
2.369606 -2.316696 -0.085080 5.000000
2.163982 -2.162115 -0.078349 8.000000
2.003961 -2.046279 -0.073094 8.000000
1.794833 -1.873076 -0.065968 8.000000
1.671760 -1.783086 -0.062005 8.000000
1.540781 -1.679593 -0.057612 9.000000
1.462384 -1.629267 -0.055138 13.000000
1.424817 -1.622505 -0.054185 25.000000
1.420114 -1.653096 -0.054487 22.000000
1.392503 -1.656917 -0.053914 32.000000
1.371225 -1.668054 -0.053657 27.000000
1.356230 -1.686715 -0.053583 30.000000
1.337863 -1.701317 -0.053385 28.000000
1.316316 -1.711758 -0.053064 28.000000
1.300665 -1.729925 -0.052989 30.000000
1.284795 -1.747960 -0.052846 27.000000
1.268706 -1.765860 -0.052769 21.000000
1.246651 -1.775376 -0.052449 29.000000
1.227313 -1.788819 -0.052250 22.000000
1.213477 -1.810302 -0.052291 24.000000
1.207474 -1.844252 -0.052689 22.000000
1.187422 -1.857239 -0.052487 29.000000
1.172528 -1.878505 -0.052455 24.000000
1.159848 -1.903884 -0.052606 21.000000
1.093184 -1.839062 -0.050287 8.000000
1.180754 2.014051 -0.037339 8.000000
1.176808 1.958233 -0.036679 26.000000
1.213736 1.970873 -0.037232 31.000000
1.226999 1.944977 -0.037131 29.000000
1.258909 1.948296 -0.037524 33.000000
1.271661 1.922053 -0.037422 34.000000
1.292412 1.908125 -0.037493 35.000000
1.315941 1.898094 -0.037715 31.000000
1.333493 1.879636 -0.037704 31.000000
1.347948 1.856983 -0.037680 29.000000
1.367979 1.842275 -0.037750 32.000000
1.387870 1.827357 -0.037820 36.000000
1.407620 1.812159 -0.037961 34.000000
1.430341 1.800665 -0.038113 34.000000
1.446632 1.781202 -0.038171 35.000000
1.472279 1.773066 -0.038407 38.000000
1.491413 1.756958 -0.038478 31.000000
1.497300 1.725604 -0.038283 33.000000
1.515988 1.709217 -0.038353 36.000000
1.547898 1.707436 -0.038759 42.000000
1.562930 1.686816 -0.038745 44.000000
1.577742 1.666130 -0.038801 39.000000
1.599289 1.652423 -0.038956 37.000000
1.624219 1.642054 -0.039196 44.000000
1.656200 1.638281 -0.039606 35.000000
1.663200 1.609719 -0.039422 37.000000
1.676949 1.588125 -0.039407 52.000000
1.697817 1.573123 -0.039634 61.000000
1.711210 1.551185 -0.039619 51.000000
1.746689 1.549018 -0.040119 86.000000
1.755883 1.523369 -0.040018 52.000000
1.783850 1.513844 -0.040347 62.000000
1.804121 1.497471 -0.040505 48.000000
1.828057 1.484021 -0.040750 34.000000
1.855902 1.473294 -0.041082 43.000000
1.871814 1.452970 -0.041154 40.000000
1.883599 1.429480 -0.041139 51.000000
1.911089 1.417773 -0.041473 59.000000
1.926414 1.396855 -0.041473 42.000000
1.941522 1.375792 -0.041545 41.000000
1.960521 1.357430 -0.041705 37.000000
1.979365 1.338759 -0.041866 34.000000
2.014662 1.330947 -0.042377 50.000000
2.029033 1.308911 -0.042451 60.000000
2.047414 1.289391 -0.042539 58.000000
2.061298 1.267014 -0.042613 61.000000
2.087822 1.252203 -0.042951 64.000000
2.105662 1.231989 -0.043114 44.000000
2.131942 1.216412 -0.043379 51.000000
2.162528 1.202907 -0.043808 35.000000
2.157939 1.169736 -0.043529 61.000000
2.179292 1.150880 -0.043706 55.000000
2.213933 1.138616 -0.044225 67.000000
2.230637 1.116689 -0.044390 48.000000
2.274128 1.107724 -0.045013 62.000000
2.317643 1.097921 -0.045714 62.000000
2.329385 1.072716 -0.045714 49.000000
2.350018 1.051437 -0.045971 35.000000
2.370504 1.029882 -0.046228 47.000000
2.390761 1.007970 -0.046407 52.000000
2.433922 0.995159 -0.047113 61.000000
2.453892 0.972436 -0.047292 38.000000
2.478286 0.951143 -0.047561 40.000000
2.507159 0.931123 -0.048001 49.000000
2.521824 0.905547 -0.048091 31.000000
2.550449 0.884702 -0.048532 36.000000
2.569323 0.860190 -0.048712 62.000000
2.597532 0.838379 -0.049071 57.000000
2.625626 0.816071 -0.049515 72.000000
2.653428 0.793264 -0.049875 54.000000
2.700320 0.775477 -0.050595 54.000000
2.718191 0.748804 -0.050861 37.000000
2.735862 0.721837 -0.051042 32.000000
2.787174 0.703133 -0.051853 41.000000
2.794632 0.672863 -0.051853 62.000000
2.860210 0.655914 -0.053025 76.000000
2.872081 0.625898 -0.053115 53.000000
2.908095 0.600743 -0.053657 52.000000
2.919346 0.570160 -0.053748 30.000000
2.920421 0.537479 -0.053657 9.000000
2.935893 0.507459 -0.053838 8.000000
3.020218 0.488304 -0.055283 8.000000
3.035241 0.457015 -0.055558 8.000000
3.074678 0.428871 -0.056191 9.000000
3.118798 0.400515 -0.056915 9.000000
3.147846 0.369646 -0.057367 20.000000
3.231155 0.343864 -0.058815 56.000000
3.244679 0.309704 -0.058896 34.000000
3.262807 0.275648 -0.059167 9.000000
3.395232 0.249805 -0.061516 9.000000
3.417683 0.214167 -0.061877 9.000000
3.464705 0.179282 -0.062690 26.000000
3.511460 0.143526 -0.063503 71.000000
3.567712 0.106987 -0.064497 95.000000
3.613676 0.069061 -0.065200 95.000000
3.609229 0.029745 -0.065110 100.000000
3.594342 -0.009435 -0.064839 77.000000
3.524032 -0.047548 -0.063577 16.000000
3.478301 -0.084642 -0.062659 10.000000
3.442266 -0.121218 -0.062029 72.000000
3.400740 -0.156804 -0.061308 72.000000
3.373914 -0.192271 -0.060755 34.000000
3.316781 -0.225164 -0.059766 13.000000
3.259322 -0.256866 -0.058778 7.000000
3.236412 -0.290504 -0.058319 9.000000
3.188275 -0.321106 -0.057512 22.000000
3.214465 -0.359060 -0.057951 78.000000
3.155738 -0.387213 -0.056966 57.000000
3.131551 -0.418820 -0.056511 86.000000
3.102089 -0.449183 -0.056064 83.000000
3.097018 -0.482860 -0.055968 55.000000
2.988112 -0.499144 -0.054001 27.000000
3.021844 -0.538524 -0.054714 49.000000
2.947083 -0.558289 -0.053375 10.000000
2.945758 -0.591224 -0.053372 9.000000
2.895142 -0.613806 -0.052573 14.000000
2.907792 -0.649511 -0.052838 71.000000
2.886007 -0.677639 -0.052481 77.000000
2.883351 -0.710052 -0.052570 50.000000
2.889988 -0.745066 -0.052744 24.000000
2.954196 -0.795817 -0.053976 36.000000
2.993451 -0.841374 -0.054763 32.000000
3.070508 -0.899121 -0.056250 33.000000
3.151507 -0.960003 -0.057920 33.000000
3.279065 -1.037837 -0.060364 36.000000
3.277121 -1.076440 -0.060434 37.000000
3.288991 -1.119979 -0.060766 25.000000
3.257725 -1.148960 -0.060311 10.000000
3.282642 -1.197993 -0.060902 9.000000
3.236781 -1.221158 -0.060187 9.000000
3.260635 -1.270630 -0.060776 9.000000
3.288385 -1.322776 -0.061449 10.000000
3.273781 -1.358369 -0.061341 9.000000
3.295622 -1.409581 -0.061924 9.000000
3.307646 -1.457341 -0.062331 9.000000
3.305307 -1.499280 -0.062479 6.000000
3.293331 -1.537176 -0.062454 5.000000
3.285483 -1.577223 -0.062515 6.000000
3.263647 -1.610607 -0.062318 6.000000
3.237067 -1.641410 -0.062036 6.000000
3.192407 -1.662671 -0.061304 3.000000
3.235890 -1.730168 -0.062384 2.000000
2.989057 -1.640272 -0.057860 5.000000
2.923134 -1.645658 -0.056824 5.000000
2.961293 -1.709895 -0.057821 4.000000
3.032847 -1.795418 -0.059381 1.000000
2.953325 -1.792028 -0.058096 1.000000
2.942204 -1.829361 -0.058159 1.000000
2.871514 -1.829065 -0.056944 1.000000
2.826233 -1.843746 -0.056339 1.000000
2.793574 -1.866108 -0.055986 1.000000
2.929877 -2.003700 -0.058936 1.000000
2.752251 -1.926504 -0.055679 1.000000
2.779898 -1.991277 -0.056569 1.000000
2.697498 -1.977111 -0.055124 1.000000
2.739854 -2.054394 -0.056338 1.000000
2.689509 -2.062884 -0.055555 1.000000
2.729893 -2.141429 -0.056760 1.000000
2.702484 -2.167845 -0.056467 1.000000
2.636173 -2.162365 -0.055467 1.000000
2.562649 -2.149220 -0.054205 2.000000
2.531477 -2.170478 -0.053941 2.000000
2.518941 -2.207741 -0.053979 1.000000
2.532049 -2.268500 -0.054681 1.000000
2.459217 -2.252000 -0.053432 1.000000
2.427286 -2.271833 -0.053069 1.000000
2.449391 -2.343040 -0.054003 1.000000
2.345088 -2.292637 -0.052051 3.000000
2.238623 -2.236788 -0.050033 7.000000
2.039290 -2.082435 -0.045992 8.000000
1.840115 -1.920398 -0.041806 8.000000
1.702908 -1.816284 -0.038982 8.000000
1.588444 -1.731519 -0.036647 9.000000
1.455972 -1.622160 -0.033929 9.000000
1.434977 -1.634104 -0.033719 21.000000
1.426895 -1.661013 -0.033818 24.000000
1.386268 -1.649593 -0.033146 26.000000
1.368315 -1.664522 -0.033014 30.000000
1.353362 -1.683149 -0.032959 34.000000
1.335037 -1.697717 -0.032893 30.000000
1.313466 -1.708124 -0.032685 29.000000
1.297859 -1.726260 -0.032629 30.000000
1.285060 -1.748291 -0.032648 24.000000
1.263137 -1.758071 -0.032441 22.000000
1.249722 -1.779799 -0.032458 25.000000
1.221855 -1.780906 -0.032102 24.000000
1.213676 -1.810635 -0.032266 24.000000
1.196722 -1.827857 -0.032207 26.000000
1.190316 -1.861787 -0.032440 25.000000
1.172731 -1.878843 -0.032379 25.000000
1.157451 -1.900023 -0.032389 19.000000
1.103533 -1.856579 -0.031311 9.000000
1.190940 2.031518 -0.016458 8.000000
1.205206 2.005653 -0.016353 17.000000
1.219050 1.979670 -0.016248 27.000000
1.248481 1.979017 -0.016425 21.000000
1.248126 1.931781 -0.016144 27.000000
1.282766 1.938943 -0.016319 24.000000
1.300964 1.920825 -0.016355 23.000000
1.313164 1.894267 -0.016249 32.000000
1.339419 1.888073 -0.016320 20.000000
1.348018 1.857263 -0.016249 25.000000
1.362158 1.834457 -0.016178 28.000000
1.384986 1.823586 -0.016213 22.000000
1.401626 1.804472 -0.016248 29.000000
1.418042 1.785286 -0.016212 22.000000
1.440468 1.773650 -0.016248 27.000000
1.462768 1.761737 -0.016283 31.000000
1.494789 1.761051 -0.016496 21.000000
1.497439 1.725814 -0.016317 29.000000
1.516127 1.709426 -0.016317 27.000000
1.531249 1.689126 -0.016282 27.000000
1.556345 1.679762 -0.016423 32.000000
1.577953 1.666340 -0.016459 26.000000
1.592475 1.645448 -0.016423 29.000000
1.617328 1.635156 -0.016495 33.000000
1.624422 1.606919 -0.016457 19.000000
1.652563 1.599570 -0.016565 30.000000
1.677161 1.588336 -0.016637 28.000000
1.690694 1.566539 -0.016601 29.000000
1.707647 1.548039 -0.016601 37.000000
1.731941 1.535962 -0.016744 30.000000
1.756096 1.523582 -0.016816 35.000000
1.784064 1.514059 -0.016924 37.000000
1.796570 1.491299 -0.016888 28.000000
1.816628 1.474783 -0.016924 30.000000
1.836540 1.457968 -0.016961 30.000000
1.860183 1.443990 -0.017105 29.000000
1.875850 1.423651 -0.017105 34.000000
1.903276 1.412033 -0.017214 29.000000
1.922585 1.394138 -0.017250 35.000000
1.941739 1.376010 -0.017286 33.000000
1.956629 1.354802 -0.017286 26.000000
1.975442 1.336176 -0.017323 33.000000
1.998197 1.320071 -0.017395 30.000000
2.029254 1.309132 -0.017541 32.000000
2.039174 1.284284 -0.017578 39.000000
2.053001 1.261999 -0.017578 32.000000
2.075182 1.244711 -0.017651 33.000000
2.101570 1.229613 -0.017760 36.000000
2.106186 1.201769 -0.017687 23.000000
2.136539 1.188475 -0.017833 34.000000
2.162560 1.172344 -0.017943 35.000000
2.175172 1.148771 -0.017943 32.000000
2.196452 1.129621 -0.018015 40.000000
2.248825 1.125871 -0.018344 31.000000
2.283349 1.112258 -0.018526 35.000000
2.304323 1.091734 -0.018599 36.000000
2.311532 1.064507 -0.018562 26.000000
2.341204 1.047511 -0.018708 32.000000
2.379991 1.034024 -0.018927 32.000000
2.400292 1.012013 -0.019000 31.000000
2.424987 0.991535 -0.019109 32.000000
2.444917 0.968914 -0.019182 33.000000
2.464607 0.945930 -0.019255 33.000000
2.493425 0.926064 -0.019401 35.000000
2.498623 0.897262 -0.019365 17.000000
2.541331 0.881589 -0.019620 37.000000
2.564913 0.858686 -0.019729 34.000000
2.574075 0.830866 -0.019729 32.000000
2.611638 0.811786 -0.019948 39.000000
2.658556 0.794865 -0.020240 34.000000
2.686247 0.771508 -0.020386 33.000000
2.718622 0.748976 -0.020568 39.000000
2.678196 0.706702 -0.020204 10.000000
2.758438 0.695882 -0.020751 34.000000
2.809565 0.676462 -0.020991 34.000000
2.826456 0.648181 -0.021063 32.000000
2.857784 0.622794 -0.021245 36.000000
2.893768 0.597800 -0.021463 35.000000
2.885359 0.563542 -0.021354 20.000000
2.896198 0.533044 -0.021390 8.000000
2.906787 0.502440 -0.021426 5.000000
3.010721 0.486801 -0.022153 8.000000
3.020784 0.454875 -0.022096 7.000000
3.035442 0.423439 -0.022168 7.000000
3.104400 0.398701 -0.022638 8.000000
3.153199 0.370229 -0.022964 12.000000
3.186905 0.339103 -0.023181 30.000000
3.250054 0.310179 -0.023615 38.000000
3.308044 0.279537 -0.023911 11.000000
3.335813 0.245403 -0.024091 29.000000
3.403131 0.213229 -0.024559 20.000000
3.435276 0.177837 -0.024775 18.000000
3.511889 0.143526 -0.025208 62.000000
3.553264 0.106537 -0.025495 48.000000
3.604230 0.068870 -0.025854 81.000000
3.609780 0.029856 -0.025890 95.000000
3.559891 -0.009235 -0.025422 41.000000
3.504572 -0.047171 -0.025030 9.000000
3.453840 -0.084034 -0.024673 9.000000
3.427697 -0.120691 -0.024494 24.000000
3.371292 -0.155422 -0.023998 10.000000
3.334496 -0.189995 -0.023749 8.000000
3.292245 -0.223471 -0.023465 8.000000
3.244768 -0.255688 -0.023046 8.000000
3.207029 -0.287823 -0.022798 7.000000
3.193738 -0.321607 -0.022727 16.000000
3.190016 -0.356286 -0.022629 34.000000
3.166149 -0.388528 -0.022488 37.000000
3.122122 -0.417494 -0.022206 81.000000
3.092670 -0.447845 -0.021935 35.000000
3.072795 -0.479009 -0.021829 42.000000
3.013139 -0.503355 -0.021443 35.000000
3.002623 -0.535109 -0.021315 32.000000
2.952361 -0.559311 -0.021001 10.000000
2.906909 -0.583445 -0.020721 8.000000
2.885721 -0.611823 -0.020526 9.000000
2.893608 -0.646332 -0.020630 58.000000
2.862032 -0.672015 -0.020367 34.000000
2.859440 -0.704165 -0.020401 33.000000
2.851621 -0.735171 -0.020312 29.000000
2.911120 -0.784205 -0.020794 20.000000
2.979485 -0.837411 -0.021346 26.000000
3.037407 -0.889384 -0.021732 24.000000
3.113647 -0.948448 -0.022350 24.000000
3.274823 -1.036538 -0.023481 10.000000
3.263292 -1.071970 -0.023481 8.000000
3.336745 -1.136309 -0.023989 9.000000
3.399601 -1.199063 -0.024534 7.000000
3.391095 -1.237522 -0.024457 7.000000
3.344798 -1.261855 -0.024220 8.000000
3.354236 -1.307153 -0.024280 8.000000
3.358398 -1.350872 -0.024415 9.000000
3.348103 -1.389244 -0.024338 8.000000
3.346627 -1.431317 -0.024438 7.000000
3.417899 -1.505831 -0.024962 6.000000
3.369385 -1.528418 -0.024728 5.000000
3.289244 -1.535283 -0.024150 2.000000
3.263391 -1.566627 -0.024083 3.000000
3.268575 -1.613042 -0.024138 4.000000
3.183998 -1.614497 -0.023642 3.000000
3.246061 -1.690605 -0.024126 1.000000
3.236338 -1.730392 -0.024080 1.000000
2.967453 -1.628453 -0.022210 2.000000
2.945225 -1.658127 -0.022074 5.000000
2.883669 -1.665102 -0.021747 3.000000
2.973042 -1.759975 -0.022458 1.000000
3.009209 -1.825957 -0.022881 1.000000
3.052919 -1.898214 -0.023259 1.000000
3.091113 -1.968953 -0.023600 1.000000
2.931081 -1.957963 -0.022591 1.000000
2.843534 -1.944646 -0.021973 1.000000
2.851043 -2.089736 -0.022439 1.000000
2.864175 -2.147694 -0.022615 1.000000
2.836609 -2.175679 -0.022475 1.000000
2.812716 -2.206445 -0.022475 1.000000
2.690500 -2.206967 -0.021665 1.000000
2.589669 -2.171914 -0.021042 1.000000
2.524191 -2.164172 -0.020599 1.000000
2.496687 -2.188274 -0.020466 1.000000
2.491294 -2.232008 -0.020518 1.000000
2.455834 -2.248929 -0.020426 1.000000
2.522399 -2.360973 -0.021088 1.000000
2.377338 -2.274225 -0.019980 1.000000
2.323837 -2.271965 -0.019737 2.000000
2.316727 -2.314828 -0.019789 5.000000
2.102436 -2.146913 -0.018066 7.000000
1.757777 -1.874795 -0.015372 7.000000
1.622388 -1.768579 -0.014282 8.000000
1.479483 -1.648407 -0.013114 8.000000
1.448306 -1.649331 -0.012928 9.000000
1.420513 -1.653561 -0.012840 20.000000
1.392833 -1.657446 -0.012686 17.000000
1.368446 -1.664719 -0.012561 25.000000
1.344029 -1.671657 -0.012437 24.000000
1.325831 -1.686124 -0.012372 21.000000
1.307502 -1.700394 -0.012372 25.000000
1.291981 -1.718464 -0.012335 18.000000
1.276243 -1.736403 -0.012298 19.000000
1.260285 -1.754209 -0.012261 19.000000
1.249855 -1.779998 -0.012280 17.000000
1.224816 -1.785226 -0.012157 21.000000
1.210959 -1.806681 -0.012213 18.000000
1.207744 -1.844790 -0.012314 19.000000
1.182304 -1.849352 -0.012191 20.000000
1.170151 -1.874804 -0.012207 16.000000
1.152316 -1.891619 -0.012167 18.000000
1.134254 -1.908355 -0.012127 7.000000
1.183354 2.018650 0.004785 9.000000
1.197480 1.992867 0.004825 23.000000
1.221671 1.983998 0.004835 22.000000
1.232404 1.953715 0.004864 26.000000
1.253553 1.940251 0.004935 23.000000
1.277249 1.930674 0.005016 25.000000
1.286945 1.900197 0.005043 27.000000
1.313164 1.894338 0.005135 22.000000
1.330740 1.875909 0.005194 27.000000
1.350955 1.861380 0.005194 25.000000
1.359177 1.830513 0.005219 26.000000
1.384986 1.823656 0.005311 30.000000
1.404694 1.808491 0.005381 25.000000
1.424192 1.793186 0.005451 30.000000
1.449924 1.785364 0.005475 29.000000
1.465962 1.765654 0.005533 26.000000
1.485082 1.749685 0.005603 29.000000
1.497439 1.725883 0.005648 24.000000
1.519445 1.713237 0.005731 30.000000
1.544681 1.704013 0.005756 36.000000
1.563141 1.687167 0.005826 29.000000
1.577953 1.666410 0.005883 33.000000
1.595952 1.649111 0.005953 32.000000
1.613812 1.631671 0.005953 32.000000
1.638641 1.621055 0.006049 34.000000
1.645378 1.592685 0.006080 22.000000
1.666270 1.578093 0.006093 42.000000
1.690694 1.566609 0.006190 57.000000
1.703943 1.544751 0.006247 32.000000
1.735681 1.539351 0.006372 66.000000
1.756096 1.523653 0.006386 62.000000
1.768816 1.501189 0.006443 37.000000
1.788876 1.484983 0.006528 50.000000
1.812746 1.471703 0.006556 18.000000
1.836540 1.458039 0.006655 35.000000
1.852284 1.437930 0.006727 58.000000
1.879833 1.426746 0.006770 36.000000
1.903276 1.412106 0.006871 45.000000
1.914562 1.388340 0.006929 37.000000
1.921415 1.361628 0.006899 35.000000
1.956702 1.354802 0.007045 52.000000
1.946452 1.316640 0.007028 18.000000
1.998197 1.320144 0.007163 43.000000
2.020852 1.303711 0.007266 71.000000
2.026482 1.276291 0.007236 36.000000
2.057334 1.264691 0.007370 63.000000
2.079544 1.247356 0.007475 52.000000
2.088697 1.222112 0.007459 36.000000
2.114871 1.206799 0.007580 44.000000
2.136614 1.188550 0.007611 20.000000
2.153769 1.167653 0.007701 38.000000
2.184014 1.153516 0.007764 70.000000
2.209790 1.136557 0.007887 44.000000
2.239883 1.121394 0.008027 64.000000
2.256457 1.099197 0.008043 58.000000
2.304401 1.091734 0.008249 44.000000
2.320693 1.068768 0.008265 55.000000
2.350410 1.051673 0.008408 23.000000
2.361648 1.026134 0.008408 52.000000
2.377256 1.002380 0.008503 52.000000
2.420359 0.989723 0.008619 37.000000
2.449566 0.970756 0.008765 42.000000
2.473943 0.949513 0.008815 50.000000
2.493506 0.926146 0.008929 35.000000
2.526938 0.907482 0.009013 37.000000
2.508265 0.870119 0.008994 26.000000
2.564995 0.858768 0.009163 61.000000
2.583674 0.833938 0.009280 64.000000
2.616412 0.813354 0.009365 55.000000
2.634689 0.787788 0.009483 60.000000
2.667109 0.766072 0.009570 62.000000
2.699341 0.743665 0.009656 50.000000
2.741129 0.723285 0.009863 62.000000
2.748829 0.693523 0.009863 31.000000
2.770766 0.667186 0.010002 60.000000
2.802177 0.642681 0.010090 65.000000
2.852988 0.621819 0.010337 61.000000
2.874182 0.593843 0.010390 57.000000
2.900171 0.566417 0.010461 28.000000
2.891371 0.532229 0.010497 9.000000
2.941274 0.508492 0.010658 8.000000
3.005878 0.486096 0.010872 8.000000
3.040654 0.457853 0.011073 9.000000
3.070199 0.428275 0.011163 9.000000
3.084564 0.396248 0.011294 8.000000
3.153296 0.370229 0.011530 27.000000
3.216736 0.342376 0.011748 91.000000
3.240199 0.309328 0.011920 52.000000
3.288217 0.277853 0.012085 79.000000
3.350874 0.246504 0.012305 43.000000
3.388266 0.212291 0.012433 67.000000
3.435276 0.177837 0.012703 33.000000
3.452048 0.141076 0.012758 21.000000
3.533382 0.106046 0.013053 87.000000
3.579235 0.068502 0.013329 95.000000
3.589781 0.029690 0.013366 95.000000
3.559891 -0.009235 0.013254 95.000000
3.459578 -0.046566 0.012882 29.000000
3.448947 -0.083913 0.012950 52.000000
3.387827 -0.119283 0.012725 9.000000
3.341427 -0.154041 0.012556 8.000000
3.309537 -0.188573 0.012443 9.000000
3.292346 -0.223471 0.012488 8.000000
3.224930 -0.254117 0.012242 7.000000
3.192089 -0.286482 0.012128 9.000000
3.119118 -0.314093 0.011863 10.000000
3.155331 -0.352401 0.012015 73.000000
3.141336 -0.385387 0.011977 75.000000
3.097343 -0.414181 0.011921 52.000000
3.077826 -0.445696 0.011864 82.000000
3.053035 -0.475929 0.011787 47.000000
3.003369 -0.501708 0.011616 28.000000
2.973089 -0.529846 0.011520 84.000000
2.918065 -0.552796 0.011330 17.000000
2.877586 -0.577541 0.011196 9.000000
2.841790 -0.602490 0.011170 10.000000
2.869210 -0.640882 0.011305 51.000000
2.852386 -0.669730 0.011266 74.000000
2.830400 -0.696992 0.011209 47.000000
2.788769 -0.718945 0.011074 23.000000
2.872498 -0.773892 0.011440 34.000000
2.926538 -0.822529 0.011689 25.000000
3.003818 -0.879548 0.012036 30.000000
3.056252 -0.930965 0.012285 30.000000
3.184253 -1.007871 0.012843 9.000000
3.396403 -1.115660 0.013747 9.000000
3.431404 -1.168545 0.013939 8.000000
3.413856 -1.204052 0.013920 7.000000
3.442872 -1.256377 0.014205 8.000000
3.429003 -1.293622 0.014205 7.000000
3.358895 -1.308969 0.013972 6.000000
3.414062 -1.373374 0.014263 3.000000
3.348213 -1.389244 0.014050 2.000000
3.401904 -1.455023 0.014340 2.000000
3.459078 -1.524089 0.014650 2.000000
3.469672 -1.573857 0.014767 1.000000
3.307367 -1.543742 0.014146 2.000000
3.389600 -1.627214 0.014573 2.000000
3.210288 -1.584277 0.013766 2.000000
3.237511 -1.641631 0.013958 1.000000
3.294840 -1.716011 0.014285 1.000000
2.840339 -1.558696 0.012458 2.000000
2.906014 -1.636153 0.012824 3.000000
2.914081 -1.682603 0.012939 5.000000
2.895597 -1.714232 0.012939 2.000000
2.906726 -1.763708 0.013074 1.000000
3.031689 -1.885014 0.013727 1.000000
3.145935 -2.003873 0.014343 1.000000
2.897821 -1.935851 0.013401 1.000000
2.922056 -1.998272 0.013612 1.000000
2.756655 -1.929679 0.012836 1.000000
2.743629 -1.965385 0.012875 1.000000
2.718070 -1.992196 0.012856 1.000000
2.876176 -2.156693 0.013714 1.000000
2.677917 -2.053963 0.012875 1.000000
2.612190 -2.049062 0.012665 1.000000
2.509321 -2.104543 0.012393 2.000000
2.474846 -2.121965 0.012336 1.000000
2.519247 -2.208047 0.012677 1.000000
2.439159 -2.185399 0.012393 2.000000
2.470584 -2.262436 0.012677 1.000000
2.438441 -2.282388 0.012537 1.000000
2.417081 -2.312243 0.012556 1.000000
2.295236 -2.244002 0.012049 1.000000
2.337949 -2.336032 0.012406 5.000000
2.154910 -2.200591 0.011561 7.000000
1.992480 -2.079492 0.010723 8.000000
1.805654 -1.925940 0.009829 8.000000
1.686607 -1.838585 0.009289 8.000000
1.566315 -1.745153 0.008731 9.000000
1.448306 -1.649331 0.008105 10.000000
1.407480 -1.638457 0.007976 17.000000
1.386400 -1.649790 0.007958 33.000000
1.358921 -1.653132 0.007837 27.000000
1.350295 -1.679451 0.007892 33.000000
1.322740 -1.682194 0.007837 32.000000
1.304454 -1.696496 0.007837 26.000000
1.285972 -1.710537 0.007772 33.000000
1.270321 -1.728346 0.007790 25.000000
1.260285 -1.754209 0.007844 20.000000
1.232616 -1.755512 0.007724 29.000000
1.210672 -1.764612 0.007706 25.000000
1.205391 -1.798374 0.007796 29.000000
1.194050 -1.823941 0.007784 24.000000
1.176918 -1.840926 0.007802 26.000000
1.162209 -1.862079 0.007837 29.000000
1.134108 -1.861795 0.007717 19.000000
1.095935 -1.843883 0.007593 9.000000
1.185739 2.022892 0.025906 8.000000
1.187038 1.975584 0.025605 22.000000
1.211044 1.966827 0.025801 29.000000
1.224331 1.940889 0.025774 26.000000
1.242560 1.923312 0.025858 27.000000
1.263386 1.909754 0.025997 29.000000
1.289609 1.904196 0.026251 29.000000
1.304478 1.881870 0.026277 32.000000
1.327707 1.871691 0.026474 28.000000
1.342005 1.849101 0.026498 23.000000
1.359038 1.830443 0.026580 33.000000
1.378799 1.815623 0.026719 29.000000
1.401487 1.804472 0.026917 32.000000
1.421012 1.789131 0.027056 33.000000
1.443480 1.777531 0.027255 32.000000
1.459435 1.757891 0.027335 32.000000
1.472002 1.734299 0.027354 29.000000
1.487471 1.714415 0.027364 32.000000
1.512671 1.705616 0.027623 38.000000
1.537825 1.696534 0.027884 35.000000
1.556205 1.679692 0.028024 36.000000
1.570937 1.659079 0.028033 35.000000
1.595812 1.649041 0.028295 48.000000
1.617188 1.635086 0.028497 42.000000
1.638430 1.620914 0.028700 33.000000
1.648831 1.596022 0.028645 37.000000
1.669760 1.581461 0.028848 59.000000
1.683219 1.559743 0.028926 62.000000
1.707506 1.548039 0.029122 68.000000
1.731799 1.535962 0.029390 56.000000
1.748402 1.516958 0.029460 61.000000
1.768603 1.501047 0.029666 80.000000
1.781041 1.478525 0.029672 35.000000
1.781552 1.446421 0.029556 33.000000
1.824650 1.448642 0.030078 60.000000
1.840293 1.428661 0.030220 39.000000
1.855723 1.408538 0.030291 52.000000
1.891086 1.403096 0.030760 46.000000
1.877920 1.361853 0.030374 41.000000
1.904884 1.349993 0.030712 71.000000
1.940043 1.343345 0.031113 34.000000
1.958660 1.324972 0.031251 35.000000
1.985536 1.311804 0.031595 76.000000
2.003901 1.292797 0.031734 50.000000
2.022106 1.273553 0.031873 81.000000
2.044336 1.256689 0.032153 57.000000
2.075035 1.244711 0.032495 61.000000
2.097106 1.227088 0.032704 73.000000
2.101622 1.199291 0.032643 33.000000
2.136390 1.188475 0.033129 37.000000
2.149224 1.165195 0.033204 57.000000
2.179443 1.151106 0.033551 48.000000
2.214009 1.138768 0.033967 61.000000
2.230713 1.116841 0.034111 64.000000
2.251733 1.096931 0.034324 55.000000
2.277059 1.078813 0.034607 95.000000
2.306836 1.062416 0.034959 35.000000
2.318231 1.037301 0.035114 33.000000
2.352242 1.022071 0.035538 62.000000
2.367807 0.998416 0.035686 40.000000
2.420120 0.989643 0.036390 43.000000
2.444677 0.968914 0.036679 52.000000
2.469033 0.947641 0.036969 41.000000
2.488576 0.924324 0.037190 53.000000
2.507872 0.900641 0.037330 30.000000
2.536361 0.879950 0.037692 52.000000
2.555266 0.855511 0.037915 80.000000
2.573910 0.830866 0.038138 47.000000
2.601839 0.808818 0.038503 77.000000
2.629647 0.786272 0.038870 72.000000
2.652440 0.761847 0.039166 60.000000
2.674985 0.737025 0.039464 60.000000
2.716699 0.716907 0.039962 30.000000
2.743635 0.692300 0.040332 60.000000
2.755923 0.663588 0.040490 72.000000
2.787295 0.639241 0.040934 65.000000
2.823324 0.615342 0.041364 43.000000
2.883706 0.595866 0.042241 76.000000
2.880184 0.562583 0.042187 25.000000
2.881268 0.530419 0.042115 9.000000
2.886812 0.499033 0.042205 7.000000
2.971052 0.480509 0.043357 9.000000
2.995879 0.451153 0.043737 8.000000
3.069916 0.428275 0.044843 9.000000
3.089238 0.396885 0.045060 9.000000
3.133047 0.367993 0.045734 24.000000
3.186612 0.339201 0.046459 52.000000
3.234924 0.308853 0.047211 89.000000
3.258025 0.275327 0.047501 15.000000
3.340594 0.245872 0.048663 79.000000
3.372986 0.211353 0.049202 73.000000
3.414990 0.176803 0.049785 29.000000
3.446736 0.140872 0.050327 10.000000
3.507965 0.105296 0.051202 33.000000
3.563912 0.068215 0.052004 95.000000
3.569455 0.029525 0.052077 98.000000
3.564565 -0.009248 0.052113 37.000000
3.454262 -0.046498 0.050505 48.000000
3.438530 -0.083669 0.050286 53.000000
3.347546 -0.117876 0.048970 10.000000
3.321043 -0.153018 0.048605 8.000000
3.294260 -0.187720 0.048340 8.000000
3.282068 -0.222794 0.048193 8.000000
3.184762 -0.250974 0.046802 8.000000
3.156940 -0.283354 0.046436 9.000000
3.123806 -0.314594 0.045996 10.000000
3.135166 -0.350181 0.046216 36.000000
3.116235 -0.382343 0.045996 59.000000
3.087147 -0.412855 0.045630 66.000000
3.067645 -0.444168 0.045410 62.000000
3.057692 -0.476699 0.045337 60.000000
3.007928 -0.502438 0.044678 40.000000
2.943281 -0.524491 0.043799 55.000000
2.912881 -0.551775 0.043433 32.000000
2.906728 -0.583354 0.043342 24.000000
2.890431 -0.612769 0.043196 55.000000
2.859182 -0.638702 0.042831 74.000000
2.832650 -0.665069 0.042538 55.000000
2.825279 -0.695796 0.042538 61.000000
2.798188 -0.721353 0.042158 32.000000
2.819126 -0.759496 0.042595 27.000000
2.897382 -0.814320 0.043908 29.000000
2.965148 -0.868214 0.045075 25.000000
3.032048 -0.923584 0.046145 30.000000
3.193480 -1.010786 0.048766 10.000000
3.453073 -1.134274 0.052803 8.000000
3.478397 -1.184550 0.053384 8.000000
3.507821 -1.237200 0.054038 5.000000
3.466019 -1.264834 0.053490 3.000000
3.503509 -1.321744 0.054287 4.000000
3.293350 -1.283444 0.051135 3.000000
3.307046 -1.330347 0.051569 3.000000
3.407912 -1.414042 0.053264 2.000000
3.392372 -1.450865 0.053264 2.000000
3.403832 -1.499784 0.053584 2.000000
3.451111 -1.565480 0.054592 1.000000
3.370455 -1.573235 0.053470 1.000000
3.281088 -1.575171 0.052321 1.000000
3.268242 -1.612930 0.052281 1.000000
3.290685 -1.668653 0.052814 1.000000
3.134874 -1.632758 0.050596 1.000000
3.059288 -1.678860 0.049738 1.000000
2.910167 -1.638402 0.047601 5.000000
2.879137 -1.662500 0.047285 6.000000
2.925403 -1.731854 0.048248 4.000000
2.808110 -1.703953 0.046616 2.000000
2.903994 -1.805707 0.048428 1.000000
2.782965 -1.772763 0.046628 1.000000
2.905892 -1.895750 0.048924 1.000000
2.859830 -1.955830 0.048748 1.000000
2.731875 -1.912272 0.046817 1.000000
2.775938 -1.988575 0.047836 1.000000
2.701632 -1.980270 0.046823 1.000000
2.635960 -1.976517 0.045954 1.000000
2.614240 -2.005176 0.045853 1.000000
2.666956 -2.092162 0.047072 1.000000
2.768779 -2.221242 0.049185 1.000000
2.585923 -2.121249 0.046243 1.000000
2.478376 -2.078641 0.044623 1.000000
2.447980 -2.098986 0.044387 2.000000
2.451367 -2.148627 0.044769 1.000000
2.431512 -2.178527 0.044738 2.000000
2.422347 -2.218437 0.044912 2.000000
2.419986 -2.265101 0.045221 1.000000
2.344623 -2.242920 0.044167 2.000000
2.320064 -2.268371 0.043969 2.000000
2.295307 -2.293425 0.043870 4.000000
2.200195 -2.246840 0.042422 7.000000
2.058023 -2.147905 0.040038 9.000000
1.932014 -2.060729 0.037933 10.000000
1.764187 -1.923170 0.034887 10.000000
1.622941 -1.808262 0.032407 10.000000
1.491057 -1.698104 0.030071 10.000000
1.413864 -1.645910 0.028807 21.000000
1.386268 -1.649659 0.028476 31.000000
1.365140 -1.660725 0.028345 35.000000
1.347096 -1.675423 0.028213 33.000000
1.325700 -1.686059 0.028082 35.000000
1.298229 -1.688438 0.027821 32.000000
1.288846 -1.714403 0.027886 33.000000
1.276111 -1.736338 0.027950 32.000000
1.242652 -1.729715 0.027496 25.000000
1.235358 -1.759472 0.027689 33.000000
1.210542 -1.764481 0.027495 31.000000
1.194125 -1.781696 0.027428 31.000000
1.177487 -1.798709 0.027426 33.000000
1.171399 -1.832435 0.027612 30.000000
1.154133 -1.849221 0.027609 32.000000
1.144379 -1.878742 0.027728 29.000000
1.093315 -1.839454 0.026841 9.000000
1.177941 2.009668 0.046788 8.000000
1.186827 1.975373 0.046497 20.000000
1.200349 1.949589 0.046404 25.000000
1.218787 1.932222 0.046512 30.000000
1.239637 1.918903 0.046791 29.000000
1.263106 1.909475 0.047103 31.000000
1.278186 1.887429 0.047106 27.000000
1.304268 1.881660 0.047522 32.000000
1.321713 1.863326 0.047627 31.000000
1.332988 1.836755 0.047523 27.000000
1.358760 1.830165 0.047941 29.000000
1.375497 1.811363 0.048044 31.000000
1.392010 1.792350 0.048146 30.000000
1.408298 1.773264 0.048247 35.000000
1.446351 1.781132 0.049097 32.000000
1.452840 1.749920 0.048877 32.000000
1.474958 1.737902 0.049193 32.000000
1.483918 1.710432 0.049077 31.000000
1.509076 1.701668 0.049502 33.000000
1.534188 1.692551 0.049929 45.000000
1.545664 1.668481 0.049849 33.000000
1.570589 1.658801 0.050277 38.000000
1.585104 1.637985 0.050376 46.000000
1.616907 1.634875 0.050958 42.000000
1.641702 1.624219 0.051391 36.000000
1.644889 1.592335 0.051156 34.000000
1.654893 1.567430 0.051072 50.000000
1.664537 1.542544 0.051056 71.000000
1.699748 1.541043 0.051758 58.000000
1.731446 1.535680 0.052421 46.000000
1.725395 1.497090 0.051881 69.000000
1.764509 1.497600 0.052774 57.000000
1.772996 1.471857 0.052687 44.000000
1.781202 1.446141 0.052598 30.000000
1.812550 1.439104 0.053269 37.000000
1.828093 1.419252 0.053410 58.000000
1.839442 1.396236 0.053436 55.000000
1.858613 1.379053 0.053693 77.000000
1.873520 1.358706 0.053905 52.000000
1.896371 1.343999 0.054279 49.000000
1.915026 1.326055 0.054538 47.000000
1.958299 1.324755 0.055502 33.000000
1.985101 1.311586 0.055999 66.000000
1.995064 1.287159 0.056026 71.000000
2.013209 1.268079 0.056290 60.000000
2.035453 1.251307 0.056672 64.000000
2.048946 1.229061 0.056818 50.000000
2.083719 1.219292 0.057560 81.000000
2.101178 1.199070 0.057827 51.000000
2.153414 1.197971 0.059052 37.000000
2.144382 1.162589 0.058528 59.000000
2.178991 1.150880 0.059278 75.000000
2.191328 1.127109 0.059428 62.000000
2.230256 1.116689 0.060304 73.000000
2.242287 1.092400 0.060380 78.000000
2.258530 1.070099 0.060654 69.000000
2.297213 1.058079 0.061536 62.000000
2.317688 1.037146 0.061857 32.000000
2.338019 1.015938 0.062256 45.000000
2.371942 1.000201 0.062945 70.000000
2.391882 0.978132 0.063347 62.000000
2.416315 0.957623 0.063794 54.000000
2.459215 0.943897 0.064814 65.000000
2.483404 0.922421 0.065263 63.000000
2.497894 0.897100 0.065549 36.000000
2.507455 0.870119 0.065630 37.000000
2.545211 0.852419 0.066453 70.000000
2.568576 0.829330 0.066989 79.000000
2.586939 0.804366 0.067320 62.000000
2.619483 0.783408 0.068024 85.000000
2.642242 0.759087 0.068481 79.000000
2.684030 0.739681 0.069523 52.000000
2.716013 0.716907 0.070233 37.000000
2.733338 0.689853 0.070569 38.000000
2.750372 0.662418 0.070905 74.000000
2.781813 0.638123 0.071619 70.000000
2.773871 0.604696 0.071329 10.000000
2.814548 0.581615 0.072296 13.000000
2.874651 0.561625 0.073769 29.000000
2.870810 0.528519 0.073606 10.000000
2.876335 0.497419 0.073695 8.000000
2.970409 0.480509 0.075966 8.000000
2.995139 0.451153 0.076564 9.000000
3.039551 0.424130 0.077668 9.000000
3.043954 0.391151 0.077762 9.000000
3.117481 0.366148 0.079535 26.000000
3.175987 0.338143 0.081026 65.000000
3.219303 0.307428 0.082139 81.000000
3.237305 0.273643 0.082520 29.000000
3.324822 0.244772 0.084780 77.000000
3.352309 0.210205 0.085415 81.000000
3.394293 0.175769 0.086536 29.000000
3.435906 0.140569 0.087554 10.000000
3.477239 0.104396 0.088572 31.000000
3.533166 0.067641 0.090079 93.000000
3.533705 0.029235 0.090079 98.000000
3.523817 -0.009144 0.089825 67.000000
3.443528 -0.046364 0.087786 38.000000
3.417808 -0.083183 0.087253 45.000000
3.321854 -0.116996 0.084830 10.000000
3.305353 -0.152328 0.084447 8.000000
3.273594 -0.186582 0.083682 8.000000
3.236483 -0.219747 0.082789 8.000000
3.159165 -0.249011 0.080875 6.000000
3.151284 -0.282810 0.080748 9.000000
3.098269 -0.312089 0.079472 9.000000
3.134395 -0.350085 0.080493 59.000000
3.100681 -0.380516 0.079727 53.000000
3.081527 -0.412193 0.079250 82.000000
3.052143 -0.442019 0.078613 63.000000
3.047153 -0.475159 0.078613 38.000000
2.928398 -0.489260 0.075682 14.000000
2.922959 -0.520983 0.075591 18.000000
2.887602 -0.547123 0.074828 26.000000
2.910905 -0.584247 0.075501 73.000000
2.880021 -0.610696 0.074865 61.000000
2.853678 -0.637523 0.074268 73.000000
2.827162 -0.663927 0.073760 71.000000
2.810009 -0.692121 0.073418 55.000000
2.758850 -0.711369 0.072276 24.000000
2.789545 -0.751605 0.073203 29.000000
2.877492 -0.808910 0.075735 29.000000
2.930909 -0.858380 0.077289 31.000000
2.993120 -0.911930 0.079091 26.000000
3.059335 -0.968545 0.081014 10.000000
3.433301 -1.128033 0.091236 5.000000
3.496538 -1.190997 0.093142 5.000000
3.450461 -1.216910 0.092148 5.000000
3.455840 -1.261182 0.092539 2.000000
3.446703 -1.300344 0.092552 2.000000
3.334618 -1.299564 0.089806 2.000000
3.232197 -1.300175 0.087316 2.000000
3.499458 -1.452016 0.094843 2.000000
3.451327 -1.476194 0.093852 2.000000
3.426021 -1.509520 0.093488 1.000000
3.256542 -1.520042 0.089524 1.000000
3.158757 -1.516430 0.087176 1.000000
3.289985 -1.623657 0.091056 1.000000
3.165185 -1.605019 0.087970 1.000000
3.138660 -1.634744 0.087614 1.000000
3.239738 -1.732301 0.090843 1.000000
3.106851 -1.704993 0.087413 1.000000
2.844221 -1.601313 0.080409 4.000000
2.861213 -1.652097 0.081294 6.000000
2.886172 -1.708626 0.082319 4.000000
2.828874 -1.716618 0.081114 2.000000
2.835555 -1.763061 0.081645 2.000000
2.795109 -1.780416 0.080933 2.000000
2.788143 -1.818960 0.081096 1.000000
2.946846 -1.968639 0.086223 1.000000
2.706796 -1.894767 0.080083 1.000000
2.710298 -1.941583 0.080607 1.000000
2.737405 -2.006457 0.081850 1.000000
2.619360 -1.964220 0.078857 1.000000
2.708926 -2.077785 0.082019 1.000000
2.878810 -2.258348 0.087680 1.000000
2.477883 -2.078247 0.077005 1.000000
2.493123 -2.137636 0.077995 2.000000
2.341859 -2.052679 0.073768 2.000000
2.412400 -2.161450 0.076531 2.000000
2.447750 -2.241669 0.078218 2.000000
2.372040 -2.220291 0.076370 2.000000
