x y z intensity
3.097234 -1.247636 0.997917 24.000000
3.043594 -1.265749 0.983667 26.000000
3.020824 -1.296089 0.979447 26.000000
2.989057 -1.322145 0.972279 27.000000
2.965765 -1.351678 0.967975 26.000000
2.929230 -1.374596 0.959312 10.000000
2.905558 -1.403179 0.954930 29.000000
2.860093 -1.420697 0.943371 25.000000
2.839969 -1.450832 0.940636 29.000000
2.815747 -1.478032 0.936087 30.000000
2.769702 -1.493958 0.924802 24.000000
2.766078 -1.531761 0.927121 29.000000
2.728127 -1.551075 0.918590 26.000000
2.665758 -1.554813 0.901275 9.000000
2.689679 -1.609583 0.913698 29.000000
2.659668 -1.632339 0.907814 24.000000
2.641518 -1.662392 0.906029 10.000000
2.607519 -1.681142 0.898383 21.000000
2.568949 -1.697375 0.889669 23.000000
2.558127 -1.731614 0.890581 28.000000
2.519348 -1.746770 0.881806 22.000000
2.453049 -1.741807 0.863310 10.000000
2.437834 -1.772144 0.862776 31.000000
2.410698 -1.793861 0.858116 23.000000
2.402433 -1.829686 0.860127 30.000000
2.382406 -1.856709 0.858115 30.000000
2.350807 -1.874352 0.851917 25.000000
2.345217 -1.912933 0.855162 32.000000
2.291131 -1.911484 0.840845 19.000000
2.259333 -1.927748 0.834517 10.000000
2.262971 -1.975898 0.842080 29.000000
2.234268 -1.994811 0.837103 24.000000
2.216186 -2.023020 0.836073 26.000000
2.180139 -2.034589 0.828343 29.000000
2.143341 -2.046403 0.820926 20.000000
2.121195 -2.070332 0.818486 27.000000
2.092035 -2.087077 0.813392 21.000000
2.017940 -2.059549 0.791390 10.000000
1.989092 -2.075032 0.786197 35.000000
1.349846 -1.472462 0.542832 25.000000
1.334053 -1.487370 0.541063 46.000000
1.308645 -1.491267 0.535324 31.000000
1.291901 -1.506319 0.533756 44.000000
1.275846 -1.520617 0.531937 39.000000
1.274165 -1.553970 0.536694 28.000000
1.245505 -1.552984 0.529648 51.000000
1.210268 -1.544492 0.520262 36.000000
1.220316 -1.592345 0.529832 36.000000
1.202522 -1.606403 0.528122 51.000000
1.185552 -1.619637 0.526096 34.000000
1.167504 -1.633315 0.524323 42.000000
1.150217 -1.646170 0.522296 29.000000
1.129125 -1.655469 0.519206 24.000000
1.114375 -1.671880 0.518370 34.000000
1.085134 -1.668496 0.511555 30.000000
1.072769 -1.688589 0.511902 26.000000
1.061582 -1.713359 0.513716 27.000000
1.039970 -1.721462 0.510581 23.000000
1.021986 -1.732861 0.508365 29.000000
1.005024 -1.748906 0.507622 20.000000
1.008026 -1.798027 0.516399 9.000000
1.343057 2.443535 0.720527 9.000000
1.359041 2.411554 0.718666 25.000000
1.383413 2.391219 0.720285 28.000000
1.397641 2.354044 0.716827 26.000000
1.414630 2.325931 0.716035 30.000000
1.440488 2.309180 0.718784 28.000000
1.462027 2.288871 0.720508 29.000000
1.484849 2.267592 0.721880 32.000000
1.503268 2.242875 0.722207 18.000000
1.514506 2.205230 0.718283 27.000000
1.543219 2.196054 0.723760 32.000000
1.564748 2.173981 0.724999 32.000000
1.579032 2.144795 0.723776 34.000000
1.599965 2.122329 0.724987 33.000000
1.610552 2.089060 0.722395 32.000000
1.633755 2.070113 0.724732 34.000000
1.664703 2.063004 0.731392 24.000000
1.677324 2.033138 0.729990 34.000000
1.693728 2.006078 0.729566 36.000000
1.711870 1.983306 0.730801 35.000000
1.732871 1.964048 0.733291 49.000000
1.754785 1.943711 0.735449 35.000000
1.778718 1.927409 0.739213 37.000000
1.792656 1.900367 0.738903 58.000000
1.807103 1.872400 0.738245 28.000000
1.837295 1.862280 0.744663 57.000000
1.850389 1.834675 0.744158 52.000000
1.874268 1.816352 0.747520 60.000000
1.886764 1.788529 0.746995 63.000000
1.912961 1.773682 0.751911 57.000000
1.924985 1.745521 0.751288 55.000000
1.954502 1.733286 0.757529 92.000000
1.965924 1.704749 0.756812 35.000000
1.973959 1.672449 0.754350 56.000000
1.992053 1.649997 0.756324 49.000000
2.002360 1.621341 0.755402 34.000000
2.038703 1.613446 0.764421 88.000000
2.052359 1.587272 0.764826 56.000000
2.069530 1.563911 0.766642 58.000000
2.086452 1.540384 0.768458 84.000000
2.095435 1.511003 0.767345 35.000000
2.138728 1.506965 0.779310 62.000000
2.159087 1.485270 0.782406 74.000000
2.171220 1.457977 0.782642 61.000000
2.183127 1.430608 0.782789 72.000000
2.194643 1.403081 0.782930 57.000000
2.213563 1.381045 0.786198 58.000000
2.249062 1.368202 0.794838 81.000000
2.247535 1.332758 0.790474 34.000000
2.274125 1.314698 0.796576 55.000000
2.288449 1.288729 0.797916 59.000000
2.310659 1.267613 0.802337 43.000000
2.336765 1.248394 0.808311 75.000000
2.380158 1.237117 0.819723 52.000000
2.397693 1.212481 0.822728 71.000000
2.414931 1.187578 0.825566 71.000000
2.423333 1.158285 0.825472 32.000000
2.448770 1.136966 0.831258 35.000000
2.461012 1.109292 0.832551 50.000000
2.486127 1.087187 0.838185 36.000000
2.489032 1.055377 0.836443 36.000000
2.522434 1.036297 0.844964 59.000000
2.555859 1.016543 0.853418 46.000000
2.571038 0.989606 0.856220 45.000000
2.572830 0.957134 0.854218 29.000000
2.609961 0.937955 0.864372 36.000000
2.624399 0.910174 0.866926 51.000000
2.647746 0.885230 0.872465 53.000000
2.670745 0.859803 0.878016 49.000000
2.689102 0.832478 0.881903 64.000000
2.707161 0.804858 0.885796 57.000000
2.734092 0.779558 0.892599 70.000000
2.733165 0.746397 0.890601 29.000000
2.796425 0.730222 0.909518 37.000000
2.813447 0.701089 0.913354 42.000000
2.834788 0.672663 0.918700 51.000000
2.851269 0.642875 0.922456 37.000000
2.881410 0.615775 0.930546 56.000000
2.911282 0.588150 0.938930 56.000000
2.926826 0.557232 0.942612 42.000000
2.932644 0.524330 0.943279 22.000000
2.975880 0.497622 0.955836 55.000000
2.990418 0.465669 0.959534 58.000000
3.009413 0.434186 0.964652 53.000000
3.042334 0.404072 0.974117 70.000000
3.060751 0.371599 0.979050 72.000000
3.073976 0.338285 0.982571 43.000000
3.124961 0.308403 0.998113 55.000000
3.156558 0.275798 1.007505 22.000000
3.173550 0.241469 1.012458 37.000000
3.223541 0.208978 1.027925 43.000000
3.239883 0.173534 1.032681 50.000000
3.265346 0.138171 1.040472 52.000000
3.290516 0.102170 1.048267 45.000000
3.329465 0.066022 1.060403 83.000000
3.344290 0.028814 1.065168 39.000000
3.382510 -0.008884 1.077307 36.000000
3.439349 -0.047593 1.095405 47.000000
3.476790 -0.087218 1.107542 57.000000
3.508892 -0.127414 1.118050 64.000000
3.526353 -0.167679 1.123892 46.000000
3.581392 -0.210609 1.141978 59.000000
3.612134 -0.253155 1.152246 60.000000
3.594987 -0.292469 1.147351 32.000000
3.634222 -0.336738 1.160641 45.000000
3.696716 -0.384430 1.181497 44.000000
3.725449 -0.429670 1.191500 36.000000
3.758345 -0.476253 1.203248 42.000000
3.809657 -0.526294 1.220917 43.000000
3.836616 -0.573958 1.230763 47.000000
3.820870 -0.615418 1.226995 35.000000
3.743477 -0.646127 1.203721 27.000000
3.708054 -0.682904 1.193935 30.000000
3.677059 -0.719844 1.185548 32.000000
3.645684 -0.756260 1.177053 31.000000
3.627908 -0.795094 1.173326 35.000000
3.581828 -0.827281 1.160453 33.000000
3.554116 -0.863015 1.153496 32.000000
3.484443 -0.887505 1.132910 32.000000
3.456230 -0.921593 1.125755 24.000000
3.418477 -0.952592 1.115614 29.000000
3.375855 -0.981640 1.104105 31.000000
3.355815 -1.016883 1.100100 29.000000
3.330837 -1.050150 1.094493 30.000000
3.301083 -1.081625 1.087290 32.000000
3.266606 -1.110933 1.078498 31.000000
3.236356 -1.141101 1.071215 32.000000
3.174527 -1.159294 1.053422 24.000000
3.170494 -1.198428 1.055206 30.000000
3.121916 -1.219952 1.041817 32.000000
3.081746 -1.244359 1.031638 28.000000
3.059229 -1.275411 1.027297 33.000000
3.009938 -1.294729 1.014094 30.000000
2.982601 -1.322729 1.008305 32.000000
2.976702 -1.360258 1.009689 28.000000
2.927166 -1.377326 0.996348 26.000000
2.903378 -1.406010 0.991756 29.000000
2.879474 -1.434294 0.987175 33.000000
2.829720 -1.449107 0.973817 28.000000
2.817716 -1.483500 0.973757 36.000000
2.780525 -1.503529 0.964732 32.000000
2.755822 -1.529951 0.959902 32.000000
2.738828 -1.561223 0.958293 32.000000
2.697052 -1.577200 0.947675 26.000000
2.691826 -1.615276 0.950327 30.000000
2.682061 -1.650723 0.951518 32.000000
2.619750 -1.652448 0.933538 11.000000
2.593346 -1.676965 0.928880 18.000000
2.550891 -1.690421 0.918387 33.000000
2.516319 -1.708520 0.910797 27.000000
2.521023 -1.753419 0.917447 28.000000
2.475014 -1.761745 0.905106 26.000000
2.443950 -1.781235 0.898898 28.000000
2.420563 -1.806001 0.895358 29.000000
2.385421 -1.821662 0.887667 29.000000
2.365458 -1.848599 0.885566 29.000000
2.337715 -1.869258 0.880547 32.000000
2.317244 -1.895537 0.878357 27.000000
2.292902 -1.918546 0.874763 29.000000
2.267487 -1.941947 0.871366 25.000000
2.231876 -1.954825 0.863499 25.000000
2.217718 -1.986221 0.863928 30.000000
2.189064 -2.004709 0.858690 29.000000
2.170788 -2.032511 0.857718 29.000000
2.155724 -2.063430 0.857931 33.000000
2.118678 -2.074900 0.850239 25.000000
2.103066 -2.105428 0.850445 25.000000
2.026531 -2.073916 0.825978 23.000000
1.979907 -2.073032 0.814116 26.000000
1.357148 -1.484648 0.567339 27.000000
1.327673 -1.486044 0.560330 28.000000
1.308585 -1.497201 0.557086 36.000000
1.283189 -1.500714 0.551163 34.000000
1.278652 -1.530390 0.554834 31.000000
1.253206 -1.533348 0.548932 30.000000
1.242857 -1.554800 0.549650 34.000000
1.234365 -1.580566 0.551865 36.000000
1.205900 -1.578885 0.544547 34.000000
1.185287 -1.588975 0.541407 33.000000
1.174166 -1.609941 0.542025 34.000000
1.147745 -1.611697 0.536273 32.000000
1.139002 -1.636283 0.538118 28.000000
1.128804 -1.661499 0.540122 24.000000
1.116563 -1.681988 0.540550 26.000000
1.100438 -1.698991 0.539861 26.000000
1.072202 -1.694803 0.532555 24.000000
1.063356 -1.723733 0.535706 21.000000
1.045262 -1.735433 0.533468 26.000000
1.025890 -1.747581 0.531422 21.000000
1.013596 -1.772135 0.533166 19.000000
0.997344 -1.787565 0.532106 9.000000
1.341747 2.453435 0.749106 10.000000
1.345402 2.395259 0.739120 30.000000
1.372902 2.384161 0.743637 29.000000
1.384699 2.342886 0.738649 33.000000
1.409139 2.327223 0.741834 34.000000
1.432499 2.306345 0.743267 33.000000
1.456725 2.290194 0.746360 37.000000
1.479521 2.268804 0.747778 32.000000
1.495420 2.240060 0.746772 30.000000
1.506729 2.202441 0.742798 33.000000
1.529806 2.185450 0.745672 30.000000
1.552884 2.168120 0.748546 35.000000
1.562827 2.130290 0.744387 37.000000
1.585278 2.112698 0.747151 36.000000
1.602873 2.086305 0.746933 51.000000
1.622021 2.064413 0.748317 38.000000
1.642002 2.041505 0.749358 34.000000
1.675834 2.037807 0.757539 42.000000
1.694355 2.015114 0.758751 40.000000
1.701101 1.976926 0.754148 68.000000
1.728489 1.964914 0.759504 65.000000
1.742942 1.938149 0.759202 53.000000
1.771067 1.924664 0.764244 73.000000
1.785033 1.897633 0.763925 53.000000
1.798683 1.870419 0.763505 52.000000
1.828828 1.860205 0.770146 64.000000
1.845269 1.836072 0.771051 60.000000
1.865817 1.814364 0.773039 81.000000
1.881816 1.789850 0.773931 66.000000
1.904593 1.771610 0.777596 76.000000
1.916564 1.743540 0.776878 95.000000
1.921076 1.708934 0.773265 72.000000
1.961183 1.705823 0.784059 71.000000
1.968640 1.674152 0.781787 36.000000
1.979409 1.645540 0.780944 42.000000
2.012073 1.635031 0.788735 82.000000
2.022281 1.606009 0.787802 71.000000
2.047304 1.588800 0.792622 82.000000
2.068315 1.568284 0.795907 89.000000
2.073862 1.536054 0.793405 42.000000
2.094377 1.515124 0.796608 71.000000
2.122593 1.499370 0.802769 40.000000
2.146809 1.480472 0.807469 56.000000
2.162472 1.456478 0.809469 75.000000
2.178301 1.431650 0.811052 38.000000
2.189946 1.404080 0.811146 59.000000
2.216968 1.387058 0.817451 82.000000
2.223957 1.356669 0.815967 42.000000
2.254768 1.341431 0.823792 65.000000
2.277708 1.320282 0.828135 36.000000
2.279402 1.287556 0.825309 36.000000
2.306008 1.268313 0.831167 75.000000
2.323771 1.244537 0.834276 62.000000
2.341330 1.220497 0.837306 65.000000
2.375682 1.204815 0.846313 81.000000
2.384374 1.175754 0.846247 38.000000
2.427045 1.163175 0.858328 55.000000
2.439545 1.135673 0.859621 35.000000
2.443109 1.104077 0.857867 33.000000
2.472492 1.084062 0.865260 59.000000
2.492935 1.059669 0.869527 42.000000
2.522001 1.038615 0.876777 35.000000
2.546279 1.015576 0.882685 48.000000
2.557266 0.986660 0.883740 35.000000
2.567724 0.957832 0.884971 34.000000
2.591347 0.933754 0.890817 36.000000
2.619301 0.910760 0.898127 37.000000
2.647035 0.887182 0.905364 62.000000
2.665581 0.860187 0.909438 78.000000
2.674838 0.830079 0.910426 40.000000
2.697405 0.803865 0.915876 51.000000
2.724179 0.778831 0.923156 63.000000
2.732455 0.748183 0.924156 36.000000
2.781748 0.728186 0.939035 33.000000
2.807945 0.701406 0.946080 37.000000
2.824625 0.671917 0.950026 38.000000
2.850343 0.644222 0.956902 48.000000
2.866391 0.614119 0.960956 36.000000
2.900825 0.587485 0.971061 56.000000
2.897671 0.553097 0.968607 33.000000
2.940951 0.527110 0.981661 32.000000
2.946518 0.493902 0.982237 35.000000
2.975164 0.464452 0.990722 37.000000
2.998802 0.433602 0.997459 44.000000
3.012695 0.401074 1.001074 53.000000
3.054606 0.371777 1.014181 46.000000
3.096221 0.341533 1.027002 55.000000
3.113899 0.308102 1.032302 44.000000
3.117017 0.273008 1.032503 33.000000
3.167072 0.241626 1.048579 37.000000
3.197948 0.207745 1.058292 34.000000
3.233194 0.173580 1.069475 36.000000
3.253831 0.137962 1.075957 43.000000
3.278918 0.102064 1.084010 37.000000
3.298853 0.065538 1.090285 35.000000
3.332508 0.028707 1.101481 44.000000
3.380088 -0.008909 1.117172 48.000000
3.398749 -0.047197 1.123339 54.000000
3.440807 -0.086510 1.137459 36.000000
3.487033 -0.126956 1.153036 52.000000
3.518658 -0.167679 1.163791 53.000000
3.526099 -0.207865 1.166814 41.000000
3.570961 -0.250812 1.182152 36.000000
3.601210 -0.293666 1.192778 30.000000
3.626092 -0.336826 1.201949 44.000000
3.650684 -0.380508 1.210643 39.000000
3.698088 -0.427673 1.227632 37.000000
3.730990 -0.473972 1.239434 36.000000
3.791407 -0.525027 1.260851 55.000000
3.818381 -0.572633 1.271181 36.000000
3.802552 -0.613918 1.267187 33.000000
3.748821 -0.648637 1.251074 29.000000
3.690106 -0.681317 1.233170 26.000000
3.668528 -0.720040 1.227646 32.000000
3.632575 -0.755545 1.217333 32.000000
3.591749 -0.789164 1.205359 29.000000
3.559746 -0.824197 1.196752 31.000000
3.513656 -0.855219 1.183489 32.000000
3.476507 -0.887761 1.173121 29.000000
3.439164 -0.919450 1.162655 22.000000
3.401524 -0.950291 1.152208 26.000000
3.386530 -0.987054 1.149298 30.000000
3.357350 -1.019682 1.142089 32.000000
3.314240 -1.047489 1.130141 29.000000
3.280050 -1.077435 1.121192 34.000000
3.227572 -1.100510 1.106090 27.000000
3.197490 -1.130382 1.098505 26.000000
3.158284 -1.156470 1.087858 18.000000
3.159010 -1.196912 1.090958 29.000000
3.101379 -1.215302 1.074417 29.000000
3.066077 -1.241087 1.065152 32.000000
3.017156 -1.260975 1.051528 26.000000
3.003109 -1.295044 1.050166 31.000000
2.980151 -1.325139 1.045645 32.000000
2.943872 -1.348773 1.036456 26.000000
2.933238 -1.384009 1.036422 18.000000
2.892357 -1.404568 1.025642 28.000000
2.855597 -1.426469 1.016409 29.000000
2.814523 -1.445509 1.005585 35.000000
2.794502 -1.474896 1.002249 28.000000
2.765845 -1.499442 0.995901 30.000000
2.732366 -1.521685 0.988364 35.000000
2.719990 -1.554580 0.987866 28.000000
2.686192 -1.576004 0.980257 21.000000
2.664966 -1.603536 0.976667 31.000000
2.651218 -1.636386 0.976471 29.000000
2.601219 -1.645569 0.962343 18.000000
2.575002 -1.669900 0.957593 15.000000
2.540555 -1.688666 0.949686 29.000000
2.518472 -1.714158 0.945960 32.000000
2.487736 -1.734584 0.939574 26.000000
2.445226 -1.746124 0.928681 23.000000
2.437505 -1.782418 0.931085 32.000000
2.417832 -1.810095 0.929060 33.000000
2.382789 -1.825853 0.920976 35.000000
2.347617 -1.840979 0.913015 32.000000
2.338621 -1.876618 0.915204 33.000000
2.306865 -1.893918 0.908540 32.000000
2.286108 -1.920007 0.906255 25.000000
2.250641 -1.933432 0.898080 24.000000
2.233045 -1.961945 0.897160 30.000000
2.208163 -1.983951 0.893256 32.000000
2.182972 -2.005592 0.889359 33.000000
2.154171 -2.023590 0.884038 29.000000
2.139147 -2.054518 0.884353 32.000000
2.122748 -2.086077 0.884936 35.000000
2.076428 -2.086172 0.872338 25.000000
2.013801 -2.068273 0.852717 25.000000
1.961707 -2.059611 0.837345 43.000000
1.376427 -1.511567 0.597957 61.000000
1.331440 -1.494712 0.583416 36.000000
1.299633 -1.491438 0.574534 37.000000
1.279734 -1.502932 0.571384 70.000000
1.272903 -1.528242 0.573596 36.000000
1.250472 -1.535004 0.568876 32.000000
1.236240 -1.553350 0.568430 46.000000
1.222619 -1.570883 0.567784 33.000000
1.193352 -1.569781 0.560484 52.000000
1.179581 -1.586906 0.559782 35.000000
1.161707 -1.600703 0.557900 33.000000
1.147560 -1.617548 0.557120 37.000000
1.133141 -1.634204 0.556330 29.000000
1.122964 -1.659404 0.558403 27.000000
1.113352 -1.683902 0.560256 31.000000
1.089267 -1.688845 0.555546 28.000000
1.066312 -1.692777 0.550665 31.000000
1.052426 -1.713406 0.551219 26.000000
1.034419 -1.725114 0.548929 29.000000
1.019944 -1.745535 0.549516 29.000000
1.008766 -1.769430 0.551067 21.000000
0.979496 -1.764394 0.543739 9.000000
1.319449 2.425038 0.765737 10.000000
1.349586 2.418324 0.771744 19.000000
1.359851 2.372762 0.765382 30.000000
1.376609 2.339874 0.762918 27.000000
1.396082 2.315969 0.763471 27.000000
1.420350 2.300104 0.766644 37.000000
1.446076 2.283125 0.769474 30.000000
1.470088 2.266660 0.772647 32.000000
1.490063 2.241077 0.772717 29.000000
1.510944 2.220186 0.774323 25.000000
1.524692 2.186430 0.771492 36.000000
1.547811 2.169070 0.774456 33.000000
1.563450 2.138983 0.772965 32.000000
1.580276 2.113609 0.773018 49.000000
1.596856 2.088029 0.773050 29.000000
1.614272 2.061496 0.772728 36.000000
1.627111 2.031859 0.771299 29.000000
1.651690 2.017090 0.775459 27.000000
1.677262 2.001172 0.779296 59.000000
1.692318 1.974771 0.779088 36.000000
1.713363 1.955549 0.781739 52.000000
1.737437 1.939561 0.785752 58.000000
1.762335 1.922502 0.789442 55.000000
1.773145 1.891988 0.787660 71.000000
1.796633 1.875179 0.791599 35.000000
1.806729 1.844385 0.789615 33.000000
1.837563 1.833172 0.796156 92.000000
1.853780 1.808789 0.797005 55.000000
1.869841 1.784319 0.797846 54.000000
1.895976 1.769456 0.803116 76.000000
1.908062 1.741311 0.802386 51.000000
1.941130 1.732148 0.810564 95.000000
1.952649 1.703669 0.809744 56.000000
1.960153 1.672009 0.807413 33.000000
1.978281 1.649515 0.809473 65.000000
1.992464 1.623760 0.810030 47.000000
2.013794 1.603867 0.813510 78.000000
2.031262 1.580713 0.815488 59.000000
2.055988 1.563163 0.820410 42.000000
2.068622 1.537247 0.821125 86.000000
2.089234 1.516270 0.824463 35.000000
2.109660 1.494957 0.827724 34.000000
2.137728 1.478806 0.834046 74.000000
2.149447 1.452147 0.834598 43.000000
2.177250 1.435222 0.840864 88.000000
2.180964 1.402417 0.837841 67.000000
2.203908 1.382858 0.842835 72.000000
2.227129 1.362448 0.847425 81.000000
2.233539 1.332444 0.846090 36.000000
2.251837 1.309544 0.849393 32.000000
2.274490 1.288223 0.853920 87.000000
2.292498 1.264754 0.857070 47.000000
2.322775 1.247768 0.864901 62.000000
2.344574 1.225832 0.869633 83.000000
2.357748 1.199144 0.871162 60.000000
2.366410 1.170267 0.871041 67.000000
2.404639 1.155712 0.881812 34.000000
2.408557 1.124255 0.880041 29.000000
2.450950 1.110623 0.892340 69.000000
2.449944 1.076949 0.888909 36.000000
2.474396 1.054906 0.895108 59.000000
2.494584 1.030323 0.899394 58.000000
2.518734 1.007476 0.905533 47.000000
2.525309 0.977050 0.904995 50.000000
2.557881 0.956777 0.914150 32.000000
2.577081 0.931083 0.918559 31.000000
2.604862 0.908132 0.926071 62.000000
2.628108 0.883088 0.931915 47.000000
2.646587 0.856281 0.936087 52.000000
2.669206 0.830678 0.942041 70.000000
2.682658 0.801695 0.944539 46.000000
2.704796 0.775311 0.950422 59.000000
2.708476 0.743512 0.949817 31.000000
2.771316 0.727355 0.969961 34.000000
2.797445 0.700569 0.977210 56.000000
2.809578 0.669980 0.979559 37.000000
2.839645 0.643565 0.988527 39.000000
2.860475 0.614360 0.994009 62.000000
2.880899 0.584841 0.999592 36.000000
2.901006 0.555007 1.005088 42.000000
2.934668 0.527371 1.015617 29.000000
2.949674 0.495679 1.019324 35.000000
2.964136 0.463872 1.023227 42.000000
2.978436 0.431757 1.026940 48.000000
3.001660 0.400586 1.033887 41.000000
3.029343 0.369564 1.042554 54.000000
3.056595 0.338013 1.051132 50.000000
3.083705 0.305832 1.059618 35.000000
3.081991 0.270637 1.058499 26.000000
3.150922 0.240858 1.081260 34.000000
3.191030 0.207846 1.094518 36.000000
3.221434 0.173372 1.104545 52.000000
3.246729 0.138058 1.112958 37.000000
3.266898 0.101959 1.119649 47.000000
3.291493 0.065632 1.127750 60.000000
3.315567 0.028666 1.135959 47.000000
3.362972 -0.008896 1.152272 63.000000
3.391134 -0.047154 1.161887 54.000000
3.428196 -0.086399 1.174850 46.000000
3.469521 -0.126559 1.189323 61.000000
3.496414 -0.167114 1.198819 55.000000
3.546325 -0.209592 1.216181 59.000000
3.576836 -0.251795 1.227286 35.000000
3.554969 -0.290735 1.220694 19.000000
3.594026 -0.334721 1.234799 45.000000
3.656059 -0.382121 1.256981 37.000000
3.679871 -0.426530 1.266210 40.000000
3.717334 -0.473368 1.280039 52.000000
3.763450 -0.522460 1.297327 37.000000
3.813721 -0.573296 1.316093 61.000000
3.807255 -0.616324 1.315346 34.000000
3.735010 -0.647904 1.292140 20.000000
3.704529 -0.685641 1.283103 31.000000
3.650434 -0.718285 1.266144 31.000000
3.614593 -0.753506 1.255527 32.000000
3.587532 -0.790375 1.248378 33.000000
3.565052 -0.827422 1.242490 35.000000
3.509735 -0.856535 1.225485 34.000000
3.472663 -0.889073 1.214808 33.000000
3.421675 -0.917195 1.199338 15.000000
3.397835 -0.951826 1.193278 31.000000
3.369189 -0.984706 1.185627 31.000000
3.321854 -1.011767 1.171820 27.000000
3.297230 -1.044830 1.165576 34.000000
3.267642 -1.076105 1.157971 31.000000
3.219913 -1.100730 1.143896 32.000000
3.198817 -1.133827 1.139399 30.000000
3.137301 -1.151907 1.120496 18.000000
3.111419 -1.182140 1.114228 31.000000
3.093723 -1.215754 1.111464 33.000000
3.067276 -1.245166 1.105003 32.000000
3.031558 -1.270824 1.095819 35.000000
3.000287 -1.297237 1.087707 33.000000
2.955548 -1.317670 1.075199 30.000000
2.949604 -1.355142 1.076786 32.000000
2.891774 -1.368240 1.059501 21.000000
2.880924 -1.403023 1.059425 32.000000
2.861229 -1.433443 1.056107 35.000000
2.811720 -1.448339 1.041844 32.000000
2.795765 -1.480045 1.040015 35.000000
2.758739 -1.500200 1.030291 34.000000
2.734102 -1.526632 1.025263 32.000000
2.712784 -1.555541 1.022101 33.000000
2.671334 -1.571601 1.010791 22.000000
2.650151 -1.599090 1.007155 32.000000
2.644501 -1.636896 1.010000 32.000000
2.594606 -1.646149 0.995476 16.000000
2.560320 -1.665442 0.987451 14.000000
2.549724 -1.699914 0.988562 26.000000
2.503930 -1.709624 0.975581 29.000000
2.496680 -1.746387 0.978125 35.000000
2.434764 -1.744300 0.959298 20.000000
2.438514 -1.789038 0.966317 32.000000
2.400375 -1.801772 0.956209 33.000000
2.365362 -1.817459 0.948036 30.000000
2.356543 -1.853235 0.950276 35.000000
2.321339 -1.868057 0.942039 30.000000
2.300739 -1.894474 0.939655 31.000000
2.287245 -1.926751 0.940366 33.000000
2.233573 -1.924649 0.924416 19.000000
2.216125 -1.953171 0.923551 29.000000
2.205416 -1.987883 0.925464 35.000000
2.169639 -1.999900 0.917061 30.000000
2.158282 -2.034245 0.918859 36.000000
2.125884 -2.048747 0.911874 28.000000
2.110437 -2.079407 0.912082 32.000000
2.073417 -2.090524 0.903942 30.000000
2.024131 -2.086475 0.889419 22.000000
1.955498 -2.060728 0.866310 37.000000
1.395255 -1.538231 0.629186 95.000000
1.321519 -1.489478 0.601123 37.000000
1.286693 -1.482634 0.590514 40.000000
1.273902 -1.500737 0.589947 36.000000
1.260027 -1.519288 0.589622 52.000000
1.243745 -1.533433 0.587610 29.000000
1.230379 -1.551082 0.586957 36.000000
1.209986 -1.561722 0.583650 37.000000
1.193326 -1.575239 0.581512 35.000000
1.176541 -1.588566 0.579375 51.000000
1.161500 -1.606223 0.578891 42.000000
1.141650 -1.615347 0.575289 37.000000
1.123482 -1.628675 0.573340 33.000000
1.119682 -1.661166 0.578007 24.000000
1.103615 -1.678289 0.577352 31.000000
1.083286 -1.686618 0.573680 30.000000
1.064325 -1.699344 0.571581 25.000000
1.051400 -1.719450 0.571957 31.000000
1.025908 -1.718755 0.565513 28.000000
1.013871 -1.743297 0.567417 25.000000
0.996616 -1.759442 0.566592 23.000000
0.987345 -1.787456 0.569595 8.000000
1.308680 2.417576 0.788577 8.000000
1.338831 2.410877 0.794838 15.000000
1.353997 2.373728 0.790953 27.000000
1.383675 2.366562 0.797131 21.000000
1.390404 2.316911 0.788970 29.000000
1.417229 2.305105 0.793727 25.000000
1.437930 2.279952 0.793828 25.000000
1.461855 2.263487 0.797087 32.000000
1.471276 2.221930 0.791377 16.000000
1.505530 2.220996 0.800232 21.000000
1.512561 2.180124 0.794701 24.000000
1.536907 2.162034 0.797491 26.000000
1.554185 2.136709 0.797644 30.000000
1.568188 2.107421 0.796241 28.000000
1.597611 2.096265 0.801748 28.000000
1.605108 2.059164 0.797389 33.000000
1.641919 2.059524 0.807549 18.000000
1.646825 2.017721 0.801334 30.000000
1.662159 1.991508 0.801127 32.000000
1.683370 1.972534 0.803861 32.000000
1.704415 1.953229 0.806596 35.000000
1.720013 1.925810 0.805936 32.000000
1.737350 1.902557 0.807083 32.000000
1.767550 1.893159 0.814135 36.000000
1.777972 1.862512 0.812192 24.000000
1.801242 1.845489 0.816172 35.000000
1.821137 1.824769 0.818649 38.000000
1.845013 1.806474 0.822230 35.000000
1.867971 1.788596 0.826149 67.000000
1.876849 1.757373 0.823975 34.000000
1.892290 1.732570 0.824752 59.000000
1.921679 1.720298 0.831575 44.000000
1.925967 1.685683 0.827654 28.000000
1.951501 1.669620 0.832874 35.000000
1.965981 1.644075 0.833470 35.000000
1.979409 1.619106 0.834386 35.000000
2.004483 1.602136 0.839465 50.000000
2.029440 1.584831 0.844559 34.000000
2.042948 1.558545 0.844982 37.000000
2.059954 1.534936 0.846881 36.000000
2.095322 1.525711 0.856957 29.000000
2.100380 1.493217 0.854072 35.000000
2.124499 1.474351 0.858964 35.000000
2.136206 1.447656 0.859463 36.000000
2.160056 1.428151 0.864289 43.000000
2.175219 1.403741 0.866288 35.000000
2.186620 1.376055 0.866282 36.000000
2.209417 1.356149 0.871297 35.000000
2.220208 1.328176 0.871287 31.000000
2.246732 1.310091 0.877834 35.000000
2.260721 1.284541 0.879509 36.000000
2.278687 1.261116 0.882790 36.000000
2.292198 1.235184 0.884468 37.000000
2.343269 1.228783 0.900476 35.000000
2.343843 1.195634 0.897171 37.000000
2.382171 1.181438 0.908311 36.000000
2.390687 1.152200 0.908150 29.000000
2.411667 1.128904 0.912762 35.000000
2.441173 1.109152 0.920544 29.000000
2.461505 1.085368 0.925441 32.000000
2.486353 1.062812 0.931542 34.000000
2.502066 1.036429 0.934570 30.000000
2.530890 1.014874 0.942238 35.000000
2.550441 0.989590 0.946830 34.000000
2.538927 0.952317 0.939879 21.000000
2.584614 0.936372 0.954222 34.000000
2.599196 0.908536 0.957018 34.000000
2.604418 0.877494 0.956442 29.000000
2.640599 0.856752 0.967559 40.000000
2.645334 0.825290 0.966898 32.000000
2.667676 0.799438 0.972920 35.000000
2.685210 0.771887 0.977302 34.000000
2.688880 0.740193 0.976643 16.000000
2.746919 0.722830 0.995740 29.000000
2.772938 0.696286 1.003188 30.000000
2.785016 0.665851 1.005584 30.000000
2.819654 0.640631 1.016460 35.000000
2.826389 0.608735 1.017302 29.000000
2.855949 0.581355 1.026354 30.000000
2.880603 0.552564 1.033661 30.000000
2.858550 0.514994 1.024536 10.000000
2.929092 0.493533 1.048302 31.000000
2.948256 0.462561 1.053970 28.000000
2.948420 0.428463 1.052787 28.000000
2.999579 0.401446 1.070131 36.000000
3.031765 0.370887 1.080725 29.000000
3.049675 0.338135 1.086225 28.000000
3.085981 0.306931 1.098307 30.000000
3.079805 0.271165 1.095168 10.000000
3.157690 0.242095 1.122290 28.000000
3.193070 0.208458 1.134188 34.000000
3.180922 0.171641 1.129589 26.000000
3.234464 0.137849 1.147970 34.000000
3.240432 0.101411 1.149851 31.000000
3.269539 0.065338 1.160197 29.000000
3.303052 0.028666 1.172006 29.000000
3.322007 -0.008821 1.178693 32.000000
3.387647 -0.047285 1.201990 45.000000
3.410542 -0.086169 1.210128 33.000000
3.418855 -0.125069 1.213360 32.000000
3.473676 -0.166437 1.233416 52.000000
3.499988 -0.207297 1.243103 30.000000
3.549200 -0.250568 1.261252 33.000000
3.527417 -0.289119 1.254111 27.000000
3.566327 -0.332941 1.268909 28.000000
3.628007 -0.380174 1.291929 40.000000
3.656409 -0.424964 1.303136 31.000000
3.698398 -0.472287 1.319218 33.000000
3.749114 -0.521847 1.338374 34.000000
3.775863 -0.569037 1.349423 32.000000
3.774090 -0.612556 1.350347 29.000000
3.706774 -0.644746 1.328092 21.000000
3.681046 -0.683071 1.320466 22.000000
3.636401 -0.717446 1.306322 28.000000
3.600668 -0.752792 1.295517 25.000000
3.559980 -0.786258 1.282829 25.000000
3.528398 -0.821133 1.273476 28.000000
3.482483 -0.852124 1.259283 22.000000
3.445555 -0.884514 1.248306 27.000000
3.412878 -0.917278 1.239000 24.000000
3.366362 -0.945698 1.224522 19.000000
3.365018 -0.986343 1.226580 28.000000
3.318132 -1.013182 1.212028 25.000000
3.293307 -1.046576 1.205964 26.000000
3.254903 -1.074776 1.194528 26.000000
3.211781 -1.100837 1.181694 23.000000
3.186143 -1.132516 1.175452 21.000000
3.155958 -1.161932 1.167473 24.000000
3.116651 -1.187583 1.156127 21.000000
3.072844 -1.210579 1.143064 26.000000
3.054922 -1.243781 1.140150 27.000000
3.002180 -1.261807 1.123767 23.000000
2.970744 -1.288451 1.115884 29.000000
2.935156 -1.312146 1.105872 24.000000
2.920630 -1.345557 1.104315 17.000000
2.897142 -1.374601 1.099412 27.000000
2.852180 -1.392968 1.086423 22.000000
2.836822 -1.425424 1.084785 32.000000
2.795930 -1.444540 1.073258 29.000000
2.771638 -1.471760 1.068209 26.000000
2.738828 -1.494052 1.059854 28.000000
2.710144 -1.518081 1.053027 25.000000
2.689422 -1.546350 1.049523 19.000000
2.672531 -1.576633 1.047424 26.000000
2.650887 -1.604863 1.044029 25.000000
2.637450 -1.637300 1.043427 30.000000
2.583073 -1.644670 1.027315 13.000000
2.569302 -1.676241 1.026536 9.000000
2.542758 -1.700487 1.021493 25.000000
2.493044 -1.707583 1.006393 25.000000
2.497394 -1.752512 1.013812 16.000000
2.431722 -1.747825 0.992870 24.000000
2.409123 -1.772259 0.988797 23.000000
2.378134 -1.791183 0.981888 26.000000
2.347046 -1.809748 0.975000 26.000000
2.327051 -1.836599 0.972715 24.000000
2.317860 -1.872122 0.975095 29.000000
2.279730 -1.882723 0.964567 23.000000
2.259040 -1.908728 0.962194 17.000000
2.230869 -1.928229 0.956641 24.000000
2.195421 -1.941073 0.947931 17.000000
2.188297 -1.978842 0.951532 28.000000
2.159643 -1.997259 0.945916 24.000000
2.141319 -2.025049 0.944802 25.000000
2.112464 -2.042796 0.939114 25.000000
2.079052 -2.057503 0.932205 23.000000
2.073408 -2.098060 0.936963 14.000000
2.004266 -2.073595 0.913094 23.000000
1.962178 -2.075515 0.901205 22.000000
1.382563 -1.528703 0.645864 62.000000
1.311566 -1.484124 0.618675 26.000000
1.286180 -1.488106 0.612191 36.000000
1.267129 -1.498981 0.608698 32.000000
1.272318 -1.539053 0.616961 18.000000
1.236893 -1.531672 0.606219 31.000000
1.220485 -1.545629 0.604081 29.000000
1.198169 -1.551826 0.599022 32.000000
1.183532 -1.569722 0.598539 33.000000
1.172465 -1.590721 0.599246 30.000000
1.149917 -1.596187 0.594149 33.000000
1.137426 -1.617504 0.595024 26.000000
1.133784 -1.650033 0.599931 18.000000
1.113574 -1.658812 0.596205 26.000000
1.105433 -1.688021 0.599804 24.000000
1.072012 -1.676186 0.588913 25.000000
1.060754 -1.701059 0.591002 24.000000
1.047757 -1.721182 0.591394 21.000000
1.023569 -1.725296 0.586345 24.000000
1.007733 -1.740932 0.585319 19.000000
0.997538 -1.769621 0.588647 15.000000
0.992704 -1.806178 0.594444 6.000000
1.306946 2.426834 0.817017 10.000000
1.325613 2.399073 0.816245 22.000000
1.343124 2.366262 0.813744 21.000000
1.367998 2.350748 0.817124 26.000000
1.387881 2.326753 0.817701 24.000000
1.411379 2.305830 0.819360 26.000000
1.433150 2.285570 0.821266 27.000000
1.456123 2.264164 0.822817 25.000000
1.477462 2.243421 0.824614 21.000000
1.490532 2.210510 0.821981 25.000000
1.507077 2.180756 0.820356 27.000000
1.535711 2.171277 0.826542 31.000000
1.555945 2.149732 0.828112 28.000000
1.560146 2.104154 0.820451 33.000000
1.582513 2.086227 0.823466 32.000000
1.607552 2.071815 0.827904 30.000000
1.618938 2.037586 0.824549 28.000000
1.634673 2.011528 0.824351 29.000000
1.662177 2.000095 0.830297 35.000000
1.686672 1.984561 0.834656 47.000000
1.699585 1.953589 0.832485 34.000000
1.723666 1.937554 0.836760 42.000000
1.747573 1.921281 0.841045 46.000000
1.764996 1.897637 0.842165 36.000000
1.782095 1.873818 0.843193 34.000000
1.798953 1.849826 0.844212 35.000000
1.818838 1.829112 0.846780 67.000000
1.838557 1.808067 0.849266 64.000000
1.854689 1.783482 0.850183 52.000000
1.880957 1.768564 0.855728 69.000000
1.900049 1.746816 0.858052 70.000000
1.912002 1.718478 0.857213 38.000000
1.937734 1.702573 0.862700 70.000000
1.959841 1.683250 0.866531 32.000000
1.959988 1.645313 0.860724 61.000000
1.992603 1.634590 0.869258 72.000000
1.999362 1.602627 0.866528 54.000000
2.027383 1.588853 0.873740 86.000000
2.040973 1.562401 0.874123 73.000000
2.050461 1.533037 0.872884 45.000000
2.070461 1.512631 0.876731 57.000000
2.102487 1.499550 0.885117 39.000000
2.107257 1.467035 0.881994 68.000000
2.130652 1.448405 0.887405 78.000000
2.154497 1.428931 0.892330 61.000000
2.169688 1.404392 0.894334 73.000000
2.184711 1.379686 0.896337 67.000000
2.203924 1.356705 0.899564 56.000000
2.222522 1.334049 0.903049 66.000000
2.232772 1.306283 0.903160 33.000000
2.250836 1.283117 0.906567 78.000000
2.268784 1.259605 0.909897 81.000000
2.290679 1.238159 0.914890 75.000000
2.316508 1.218551 0.921471 75.000000
2.346510 1.200550 0.929648 91.000000
2.359475 1.173682 0.931098 77.000000
2.393403 1.156813 0.940889 53.000000
2.431563 1.141374 0.952290 30.000000
2.417930 1.102079 0.943987 62.000000
2.442817 1.080082 0.950220 47.000000
2.458652 1.054166 0.953456 67.000000
2.483139 1.031330 0.959624 64.000000
2.524781 1.015398 0.972800 71.000000
2.548790 0.991767 0.979179 62.000000
2.537314 0.954404 0.972070 43.000000
2.569712 0.933522 0.981661 39.000000
2.597491 0.910403 0.989580 72.000000
2.611588 0.882541 0.992702 77.000000
2.630011 0.855586 0.997077 76.000000
2.648050 0.828607 1.001639 66.000000
2.670382 0.802599 1.007908 86.000000
2.678888 0.772196 1.008994 56.000000
2.718842 0.750458 1.021912 66.000000
2.749622 0.725509 1.031258 35.000000
2.775607 0.698804 1.038913 67.000000
2.792088 0.669493 1.043350 72.000000
2.808336 0.639882 1.047701 62.000000
2.838221 0.612851 1.056812 76.000000
2.867553 0.585393 1.066408 81.000000
2.869119 0.551900 1.065361 52.000000
2.884153 0.521016 1.069643 37.000000
2.931450 0.495207 1.085457 45.000000
2.959764 0.465630 1.094713 93.000000
2.978572 0.434076 1.100643 71.000000
3.011093 0.403980 1.111340 87.000000
3.029221 0.371536 1.117088 83.000000
3.065753 0.340851 1.129620 63.000000
3.087948 0.307827 1.136800 66.000000
3.100427 0.273653 1.140745 42.000000
3.149964 0.242147 1.158362 57.000000
3.185217 0.208557 1.170721 72.000000
3.210624 0.173717 1.179748 71.000000
3.235849 0.138240 1.188359 80.000000
3.260676 0.102231 1.197076 81.000000
3.275496 0.065608 1.202563 77.000000
3.313576 0.028763 1.216454 76.000000
3.351233 -0.008934 1.230347 40.000000
3.364985 -0.047044 1.235298 65.000000
3.387790 -0.085821 1.243692 51.000000
3.438286 -0.126163 1.262528 58.000000
3.469427 -0.166663 1.274698 45.000000
3.481565 -0.206792 1.279412 46.000000
3.530578 -0.249891 1.298123 36.000000
3.555658 -0.292236 1.308105 32.000000
3.585013 -0.335539 1.319569 39.000000
3.613834 -0.379701 1.331257 52.000000
3.660762 -0.426662 1.349698 37.000000
3.688572 -0.472280 1.361129 42.000000
3.734288 -0.521234 1.379544 53.000000
3.761032 -0.568419 1.390581 36.000000
3.759240 -0.611690 1.391555 34.000000
3.705921 -0.646437 1.373908 27.000000
3.629445 -0.675469 1.347219 28.000000
3.617281 -0.715694 1.344667 30.000000
3.581788 -0.750757 1.333201 33.000000
3.541239 -0.784416 1.320514 32.000000
3.495915 -0.815923 1.305781 34.000000
3.450427 -0.846486 1.290839 31.000000
3.413544 -0.878677 1.279678 26.000000
3.376586 -0.910020 1.268306 24.000000
3.361957 -0.947116 1.265467 28.000000
3.342392 -0.982558 1.260817 32.000000
3.291074 -1.007930 1.244051 32.000000
3.262092 -1.039413 1.235809 30.000000
3.210354 -1.063206 1.219434 30.000000
3.185378 -1.094824 1.212708 31.000000
3.155524 -1.124668 1.204520 28.000000
3.120958 -1.152370 1.194659 22.000000
3.086246 -1.179355 1.184711 31.000000
3.068907 -1.212652 1.181526 34.000000
3.020772 -1.233074 1.166350 32.000000
2.985224 -1.258506 1.156570 28.000000
2.962834 -1.288448 1.151428 30.000000
2.948493 -1.322363 1.149963 33.000000
2.912767 -1.345665 1.139607 28.000000
2.863762 -1.362718 1.124679 15.000000
2.852899 -1.397447 1.124602 32.000000
2.824843 -1.423582 1.117856 32.000000
2.800703 -1.451392 1.112788 35.000000
2.768026 -1.474373 1.104207 33.000000
2.751791 -1.505930 1.102279 35.000000
2.714685 -1.525626 1.091977 33.000000
2.677628 -1.544651 1.081705 27.000000
2.620116 -1.550889 1.063124 11.000000
2.623367 -1.592865 1.069183 35.000000
2.617440 -1.630607 1.072325 32.000000
2.587860 -1.652573 1.065117 24.000000
2.542232 -1.663719 1.051292 10.000000
2.515741 -1.687691 1.046065 29.000000
2.489756 -1.710702 1.040364 33.000000
2.462912 -1.733924 1.035067 27.000000
2.412977 -1.740173 1.019956 13.000000
2.401875 -1.772858 1.020599 36.000000
2.367132 -1.789078 1.011929 29.000000
2.365950 -1.830829 1.017781 33.000000
2.339044 -1.851375 1.011772 32.000000
2.307528 -1.869251 1.004658 27.000000
2.297804 -1.904823 1.006966 47.000000
2.258778 -1.915836 0.996494 27.000000
2.234121 -1.938574 0.992424 12.000000
2.216339 -1.967335 0.991440 34.000000
2.184156 -1.983137 0.984023 31.000000
2.172852 -2.017784 0.986099 35.000000
2.143939 -2.036139 0.980187 35.000000
2.108072 -2.047434 0.971155 29.000000
2.085687 -2.071425 0.968415 32.000000
2.063113 -2.095227 0.965582 28.000000
1.990907 -2.067402 0.939326 10.000000
1.974937 -2.096995 0.939570 36.000000
1.862078 -2.021536 0.893335 35.000000
1.429502 -1.586805 0.691765 98.000000
1.311651 -1.488795 0.640427 50.000000
1.285475 -1.493498 0.633988 33.000000
1.266300 -1.504448 0.630314 42.000000
1.244113 -1.511398 0.625129 46.000000
1.221895 -1.518085 0.619965 24.000000
1.201725 -1.528817 0.616520 54.000000
1.194067 -1.553793 0.618858 43.000000
1.180313 -1.571089 0.618163 41.000000
1.162585 -1.585046 0.616152 36.000000
1.137269 -1.586610 0.609418 36.000000
1.125835 -1.607288 0.610078 35.000000
1.107711 -1.620583 0.608009 31.000000
1.103730 -1.652993 0.612993 19.000000
1.080926 -1.657491 0.607709 32.000000
1.064729 -1.674349 0.606960 26.000000
1.049521 -1.690444 0.606011 31.000000
1.030478 -1.702949 0.603726 30.000000
1.014885 -1.718687 0.602695 29.000000
0.994297 -1.726055 0.598774 29.000000
0.979496 -1.746280 0.599357 22.000000
0.979392 -1.791012 0.608228 9.000000
1.298672 2.428418 0.842871 10.000000
1.312367 2.387205 0.837396 20.000000
1.337590 2.371898 0.840962 30.000000
1.359504 2.347195 0.841218 31.000000
1.384205 2.331421 0.844772 30.000000
1.396332 2.295005 0.840772 31.000000
1.424630 2.282042 0.845363 28.000000
1.448813 2.265518 0.848806 31.000000
1.466444 2.235919 0.847287 26.000000
1.484758 2.211059 0.847593 27.000000
1.494725 2.174206 0.843308 34.000000
1.521897 2.160008 0.847710 32.000000
1.528146 2.119232 0.841645 36.000000
1.550680 2.101557 0.844828 35.000000
1.573047 2.083630 0.847928 33.000000
1.593511 2.060853 0.849059 35.000000
1.612555 2.038647 0.850514 25.000000
1.628364 2.012648 0.850398 33.000000
1.655874 2.001087 0.856440 55.000000
1.674258 1.978267 0.857791 42.000000
1.690288 1.950933 0.857139 53.000000
1.708060 1.927875 0.858380 52.000000
1.735142 1.915101 0.864286 42.000000
1.758987 1.898453 0.868621 77.000000
1.769622 1.867722 0.866500 37.000000
1.789756 1.847174 0.869151 42.000000
1.813057 1.829824 0.873325 90.000000
1.832813 1.808740 0.875898 68.000000
1.852402 1.787490 0.878389 80.000000
1.851099 1.746431 0.871163 82.000000
1.890918 1.744160 0.883286 83.000000
1.895883 1.709500 0.879181 95.000000
1.907332 1.681250 0.878223 39.000000
1.924900 1.659660 0.880850 34.000000
1.957489 1.649421 0.889632 84.000000
1.968146 1.620593 0.888492 64.000000
1.996894 1.606563 0.895582 84.000000
2.013879 1.583943 0.897985 71.000000
2.027455 1.557539 0.898399 53.000000
2.048347 1.536716 0.902045 84.000000
2.064586 1.513433 0.904365 34.000000
2.081240 1.489323 0.906188 37.000000
2.104790 1.471024 0.911771 84.000000
2.121006 1.446409 0.913600 57.000000
2.144231 1.427428 0.919039 82.000000
2.159505 1.402889 0.921043 69.000000
2.170970 1.375164 0.921025 43.000000
2.201729 1.360146 0.929703 82.000000
2.212302 1.332458 0.929855 36.000000
2.230682 1.309456 0.933395 54.000000
2.240784 1.281525 0.933457 73.000000
2.250416 1.253520 0.933513 58.000000
2.284618 1.238799 0.943718 73.000000
2.302191 1.214749 0.947031 79.000000
2.319557 1.190350 0.950265 58.000000
2.353442 1.174158 0.960364 82.000000
2.387301 1.157226 0.970404 35.000000
2.386888 1.124154 0.966967 35.000000
2.407603 1.100530 0.971699 76.000000
2.419307 1.073077 0.973334 38.000000
2.452302 1.054807 0.983439 54.000000
2.472509 1.030023 0.988115 67.000000
2.487837 1.003549 0.991242 53.000000
2.529238 0.987028 1.004698 49.000000
2.535453 0.956483 1.004286 30.000000
2.558719 0.932547 1.011005 37.000000
2.582000 0.907866 1.017384 72.000000
2.600679 0.881289 1.021852 65.000000
2.623340 0.856052 1.028431 63.000000
2.636977 0.827617 1.031438 82.000000
2.654678 0.800251 1.036018 46.000000
2.681254 0.775102 1.044109 62.000000
2.689530 0.744545 1.045110 33.000000
2.747319 0.726981 1.065232 37.000000
2.759453 0.696914 1.068101 53.000000
2.780620 0.668561 1.074117 52.000000
2.801394 0.639989 1.080327 42.000000
2.821860 0.611106 1.086453 65.000000
2.846692 0.582661 1.094255 59.000000
2.857350 0.551235 1.096871 36.000000
2.881552 0.522017 1.104784 26.000000
2.923892 0.495506 1.119677 41.000000
2.942976 0.464317 1.125558 65.000000
2.952561 0.431460 1.127812 57.000000
2.989483 0.402239 1.140875 59.000000
3.030746 0.372852 1.155623 76.000000
3.048574 0.339832 1.161333 47.000000
3.070688 0.307059 1.168817 41.000000
3.111068 0.275411 1.183494 27.000000
3.160434 0.243636 1.201522 47.000000
3.172247 0.208246 1.205377 49.000000
3.202331 0.173656 1.216431 76.000000
3.218123 0.137829 1.221646 49.000000
3.238075 0.101831 1.228950 73.000000
3.266963 0.065595 1.239910 83.000000
3.300110 0.028763 1.252435 65.000000
3.304893 -0.008846 1.254209 36.000000
3.323374 -0.046651 1.261196 34.000000
3.374129 -0.085711 1.280488 48.000000
3.410290 -0.125424 1.294565 37.000000
3.450644 -0.166212 1.310638 36.000000
3.462727 -0.206287 1.315506 35.000000
3.530187 -0.250655 1.341868 36.000000
3.499342 -0.288432 1.330889 26.000000
3.561191 -0.334314 1.355232 36.000000
3.589772 -0.378249 1.367280 34.000000
3.641145 -0.425640 1.388054 39.000000
3.678104 -0.472272 1.403262 39.000000
3.695937 -0.517258 1.411380 35.000000
3.745459 -0.567801 1.431985 39.000000
3.739155 -0.610318 1.431244 33.000000
3.644688 -0.637522 1.396827 21.000000
3.632968 -0.678062 1.394096 33.000000
3.607137 -0.715527 1.385958 32.000000
3.548733 -0.745956 1.365616 29.000000
3.531318 -0.784252 1.361148 33.000000
3.486133 -0.815824 1.345894 28.000000
3.445097 -0.847800 1.332769 32.000000
3.422130 -0.883383 1.326227 32.000000
3.353469 -0.906441 1.302259 21.000000
3.343393 -0.944596 1.301127 28.000000
3.310517 -0.976017 1.291122 26.000000
3.281812 -1.008076 1.282772 28.000000
3.243967 -1.036765 1.270830 32.000000
3.201416 -1.063257 1.257056 28.000000
3.167401 -1.092094 1.247017 32.000000
3.155291 -1.128316 1.245708 29.000000
3.107796 -1.150860 1.229936 23.000000
3.081933 -1.181211 1.223213 29.000000
3.047139 -1.207592 1.212925 32.000000
3.012212 -1.233371 1.202555 30.000000
2.976632 -1.258863 1.192629 32.000000
2.954259 -1.288859 1.187385 30.000000
2.918813 -1.312675 1.176870 28.000000
2.908399 -1.348158 1.177033 33.000000
2.842965 -1.356723 1.154305 24.000000
2.840558 -1.395493 1.157820 34.000000
2.808263 -1.419620 1.149109 33.000000
2.780117 -1.445221 1.142132 31.000000
2.759994 -1.474761 1.138590 35.000000
2.731375 -1.499479 1.131539 33.000000
2.694410 -1.519095 1.120897 29.000000
2.689851 -1.556985 1.123990 35.000000
2.632370 -1.563528 1.104900 23.000000
2.615284 -1.593527 1.102615 34.000000
2.601892 -1.625722 1.102120 34.000000
2.563773 -1.643168 1.091793 22.000000
2.538034 -1.667123 1.086056 12.000000
2.504297 -1.685344 1.076875 32.000000
2.481641 -1.711719 1.073144 29.000000
2.466934 -1.742464 1.072278 32.000000
2.394016 -1.732344 1.046754 24.000000
2.394398 -1.773353 1.052401 35.000000
2.367114 -1.795331 1.046860 36.000000
2.347119 -1.822728 1.044553 31.000000
2.331396 -1.852003 1.043418 36.000000
2.303563 -1.872910 1.037616 35.000000
2.279202 -1.896476 1.033475 32.000000
2.265408 -1.928952 1.034267 33.000000
2.216425 -1.929419 1.018191 24.000000
2.205849 -1.964283 1.020432 35.000000
2.177211 -1.983379 1.014504 36.000000
2.151982 -2.005157 1.010124 32.000000
2.133387 -2.033097 1.008991 36.000000
2.100976 -2.047714 1.001294 35.000000
2.085260 -2.078522 1.001677 33.000000
2.052629 -2.092299 0.993917 32.000000
1.997073 -2.081636 0.974980 24.000000
1.964766 -2.094129 0.967218 50.000000
1.855404 -2.022295 0.921209 98.000000
1.437662 -1.602328 0.720113 103.000000
1.304588 -1.486822 0.659262 54.000000
1.281487 -1.495079 0.654263 71.000000
1.262291 -1.506069 0.650476 76.000000
1.231007 -1.502109 0.640498 81.000000
1.223754 -1.527272 0.642933 35.000000
1.198554 -1.530005 0.636067 60.000000
1.184093 -1.548010 0.635620 60.000000
1.170362 -1.565332 0.634913 58.000000
1.156424 -1.582468 0.634131 83.000000
1.136684 -1.591797 0.630272 51.000000
1.118686 -1.605343 0.628140 42.000000
1.101502 -1.618074 0.625757 37.000000
1.092233 -1.642456 0.627924 29.000000
1.071005 -1.651534 0.624201 33.000000
1.053422 -1.663696 0.621744 36.000000
1.042158 -1.688476 0.623975 35.000000
1.016871 -1.688085 0.616954 32.000000
1.008649 -1.716078 0.620384 32.000000
0.989179 -1.728231 0.618030 30.000000
0.973182 -1.743729 0.616897 30.000000
0.967030 -1.780663 0.623358 10.000000
1.308695 2.396884 0.866022 26.000000
1.331224 2.372313 0.866398 26.000000
1.353941 2.352589 0.868533 27.000000
1.365851 2.311302 0.862661 28.000000
1.387827 2.291311 0.864654 24.000000
1.419577 2.287284 0.872802 33.000000
1.424886 2.237756 0.863616 27.000000
1.466814 2.249017 0.877898 23.000000
1.469587 2.200344 0.868868 30.000000
1.491722 2.178408 0.870277 26.000000
1.512158 2.157129 0.872015 32.000000
1.529492 2.131888 0.872163 35.000000
1.560696 2.125468 0.880118 29.000000
1.569109 2.088362 0.875399 36.000000
1.586869 2.061766 0.874985 32.000000
1.608901 2.043336 0.878085 29.000000
1.624824 2.017196 0.877891 33.000000
1.640422 1.990943 0.877675 32.000000
1.664760 1.975518 0.882285 39.000000
1.682917 1.952523 0.883579 36.000000
1.700747 1.929351 0.884863 35.000000
1.725745 1.912273 0.888901 56.000000
1.746368 1.892148 0.891729 38.000000
1.763501 1.868423 0.892832 36.000000
1.780393 1.844440 0.893925 58.000000
1.793730 1.816926 0.893274 42.000000
1.823433 1.806001 0.900801 77.000000
1.838806 1.782133 0.902128 70.000000
1.854772 1.757348 0.902947 48.000000
1.880791 1.742085 0.908770 93.000000
1.878764 1.701116 0.901127 68.000000
1.925530 1.704084 0.916943 77.000000
1.929949 1.669270 0.912541 37.000000
1.940213 1.641275 0.911810 48.000000
1.965428 1.624528 0.917338 81.000000
1.979633 1.598499 0.917874 56.000000
2.011234 1.587615 0.927155 74.000000
2.021253 1.558341 0.925824 74.000000
2.037741 1.535224 0.928227 42.000000
2.058428 1.514063 0.931846 83.000000
2.082158 1.495968 0.937604 49.000000
2.087123 1.463472 0.934358 50.000000
2.122145 1.452782 0.945136 95.000000
2.130396 1.422653 0.943436 64.000000
2.149572 1.400719 0.947251 59.000000
2.168554 1.378529 0.950989 77.000000
2.195307 1.361021 0.958213 53.000000
2.205925 1.333290 0.958321 77.000000
2.228350 1.312533 0.963658 71.000000
2.226250 1.277518 0.958515 52.000000
2.252394 1.258701 0.965528 95.000000
2.266014 1.232637 0.967209 81.000000
2.287656 1.210869 0.972323 61.000000
2.309141 1.188657 0.977364 85.000000
2.330041 1.166593 0.982756 46.000000
2.372232 1.153887 0.996570 54.000000
2.393253 1.130428 1.001486 37.000000
2.396759 1.099153 0.999668 49.000000
2.421274 1.077487 1.006629 68.000000
2.432781 1.049715 1.008100 61.000000
2.461531 1.028717 1.016432 57.000000
2.472597 1.000487 1.017826 74.000000
2.500710 0.978893 1.026272 51.000000
2.532898 0.958731 1.036789 33.000000
2.543252 0.929614 1.038028 57.000000
2.575264 0.908082 1.048137 67.000000
2.593742 0.881718 1.053064 83.000000
2.607491 0.853522 1.056204 77.000000
2.634443 0.829338 1.064563 71.000000
2.652226 0.801867 1.069338 82.000000
2.665225 0.772803 1.072137 62.000000
