x y z intensity
0.785588 0.939540 -0.518638 35.000000
0.795857 0.929961 -0.520221 49.000000
0.796392 0.910243 -0.516080 35.000000
0.803318 0.897147 -0.515637 60.000000
1.317962 1.374574 -0.823972 38.000000
1.339584 1.365100 -0.830170 61.000000
1.370135 1.365499 -0.842699 44.000000
1.398332 1.361606 -0.852897 52.000000
1.425963 1.357791 -0.863399 52.000000
1.454393 1.352872 -0.873549 39.000000
1.475532 1.341876 -0.880037 60.000000
1.465850 1.303182 -0.868264 21.000000
1.494186 1.297295 -0.878342 28.000000
1.518442 1.288521 -0.886756 56.000000
1.556813 1.290957 -0.903224 35.000000
1.577762 1.278248 -0.909610 34.000000
1.612936 1.276489 -0.924076 46.000000
1.623093 1.254570 -0.924156 32.000000
1.654804 1.249000 -0.936577 36.000000
1.671940 1.231985 -0.940723 29.000000
1.688995 1.214743 -0.944808 46.000000
1.713348 1.202502 -0.952975 60.000000
1.741487 1.192356 -0.963174 34.000000
1.769639 1.181711 -0.973405 61.000000
1.793920 1.168085 -0.981442 43.000000
1.813951 1.151970 -0.987774 35.000000
1.838166 1.137487 -0.995782 44.000000
1.881246 1.134744 -1.014586 30.000000
1.889888 1.109921 -1.014111 34.000000
1.921366 1.098998 -1.026620 59.000000
1.945015 1.083053 -1.034804 33.000000
1.964522 1.064521 -1.040900 27.000000
1.984426 1.045198 -1.046482 27.000000
1.983585 1.015666 -1.041791 23.000000
1.990492 0.990226 -1.041322 24.000000
1.996756 0.965106 -1.041071 10.000000
1.994934 0.935790 -1.036183 16.000000
2.009232 0.914106 -1.039651 21.000000
1.994016 0.879700 -1.028560 13.000000
1.987023 0.848987 -1.021191 18.000000
1.996067 0.825720 -1.022650 22.000000
2.000698 0.800701 -1.021893 16.000000
1.996577 0.772304 -1.016768 16.000000
1.971057 0.736231 -1.000816 10.000000
1.991690 0.717713 -1.008404 15.000000
1.999490 0.694311 -1.009406 21.000000
2.002725 0.669336 -1.008254 20.000000
2.005501 0.644605 -1.007311 21.000000
2.012270 0.621161 -1.008451 24.000000
2.010464 0.594873 -1.004771 19.000000
1.995163 0.565244 -0.994879 21.000000
1.992289 0.539724 -0.991742 10.000000
2.006814 0.518567 -0.996774 15.000000
2.025554 0.498282 -1.003981 22.000000
2.008852 0.469559 -0.993978 16.000000
2.013813 0.446078 -0.994747 18.000000
1.987714 0.416137 -0.980231 18.000000
1.996536 0.393748 -0.983025 17.000000
2.009457 0.372145 -0.988137 21.000000
1.207996 0.165943 -0.590952 95.000000
1.209692 0.151883 -0.591282 98.000000
1.211304 0.137741 -0.591407 98.000000
1.212710 0.123640 -0.591613 98.000000
1.209512 0.109094 -0.589595 98.000000
1.210584 0.095004 -0.589842 95.000000
1.211614 0.080873 -0.589883 79.000000
1.207906 0.066495 -0.587822 95.000000
1.208563 0.052416 -0.587904 95.000000
1.204601 0.038195 -0.585759 98.000000
1.204888 0.024168 -0.585841 95.000000
1.209548 0.010179 -0.588109 98.000000
1.205092 -0.003926 -0.585882 98.000000
1.205010 -0.017952 -0.585841 98.000000
1.204806 -0.031979 -0.585677 95.000000
1.208850 -0.046177 -0.587822 100.000000
1.203784 -0.060032 -0.585555 98.000000
1.203088 -0.074058 -0.585391 98.000000
1.211119 -0.088742 -0.589719 47.000000
1.205689 -0.102451 -0.587247 95.000000
1.208977 -0.116922 -0.589224 98.000000
1.216604 -0.131982 -0.593340 100.000000
1.197159 -0.144027 -0.584492 95.000000
1.204527 -0.159110 -0.588483 98.000000
1.202673 -0.173158 -0.588235 98.000000
1.200737 -0.187166 -0.587947 91.000000
1.189798 -0.199642 -0.583224 61.000000
1.187508 -0.213546 -0.582938 98.000000
1.185177 -0.227368 -0.582488 98.000000
1.182601 -0.241190 -0.582120 98.000000
1.210762 -0.261631 -0.596863 100.000000
1.763860 -0.489844 -0.877284 23.000000
1.827769 -0.530526 -0.911019 29.000000
1.877836 -0.568973 -0.938354 19.000000
1.880268 -0.593527 -0.941601 23.000000
1.890952 -0.621031 -0.949076 23.000000
1.918198 -0.654837 -0.965334 20.000000
1.923635 -0.681835 -0.970749 23.000000
1.911878 -0.702761 -0.967431 10.000000
1.895657 -0.721911 -0.961976 18.000000
1.879302 -0.740726 -0.956396 23.000000
1.833510 -0.747265 -0.935869 23.000000
1.683724 -0.708985 -0.861928 65.000000
1.683746 -0.802927 -0.874029 20.000000
1.823861 -0.921737 -0.953461 26.000000
1.833783 -0.953595 -0.962432 19.000000
1.862976 -0.996763 -0.982187 23.000000
1.856071 -1.020779 -0.982513 19.000000
1.856807 -1.049138 -0.986960 19.000000
1.857255 -1.077559 -0.991311 21.000000
1.821725 -1.085695 -0.977168 10.000000
1.817790 -1.111599 -0.979278 11.000000
1.824657 -1.145220 -0.987910 23.000000
1.835303 -1.181177 -0.998218 17.000000
1.833655 -1.210374 -1.002540 22.000000
1.820241 -1.232116 -1.000551 16.000000
1.814088 -1.258827 -1.002621 16.000000
1.815096 -1.290773 -1.008727 20.000000
1.789796 -1.304137 -1.000313 9.000000
1.775484 -1.325272 -0.998089 10.000000
1.768270 -1.351725 -0.999888 16.000000
1.778680 -1.392187 -1.011813 11.000000
1.781311 -1.427383 -1.019516 17.000000
1.769431 -1.451185 -1.018956 14.000000
1.760684 -1.477854 -1.020414 14.000000
1.751657 -1.504381 -1.021774 16.000000
1.717529 -1.510391 -1.009293 9.000000
1.738785 -1.564204 -1.028690 10.000000
1.725391 -1.587578 -1.027734 15.000000
1.727589 -1.627207 -1.037170 11.000000
1.706977 -1.644182 -1.032170 16.000000
1.701661 -1.677573 -1.037373 13.000000
1.690397 -1.703884 -1.038163 13.000000
1.684187 -1.737421 -1.043289 17.000000
1.677443 -1.771026 -1.048210 10.000000
1.655765 -1.787100 -1.042839 10.000000
1.654471 -1.827451 -1.051537 14.000000
1.643417 -1.857665 -1.054297 13.000000
1.630033 -1.883627 -1.054577 18.000000
1.636086 -1.934853 -1.068848 12.000000
1.623492 -1.965151 -1.071302 17.000000
1.607684 -1.991821 -1.071705 16.000000
1.592825 -2.017612 -1.071657 10.000000
1.584827 -2.055018 -1.077675 10.000000
1.570699 -2.085127 -1.079807 10.000000
1.569857 -2.133799 -1.091337 10.000000
1.546600 -2.152684 -1.087490 10.000000
1.554977 -2.216780 -1.106337 10.000000
1.546487 -2.258364 -1.113626 12.000000
1.511657 -2.261620 -1.102058 10.000000
1.507383 -2.310873 -1.112992 9.000000
1.499764 -2.356431 -1.121861 9.000000
1.484023 -2.390212 -1.124969 10.000000
1.472569 -2.431994 -1.131718 10.000000
1.455687 -2.465748 -1.134697 10.000000
1.433538 -2.491482 -1.133855 9.000000
1.438433 -2.565764 -1.154912 10.000000
0.710812 1.276100 -0.561658 9.000000
0.940940 1.604317 -0.721641 21.000000
0.965374 1.604786 -0.729889 22.000000
0.987499 1.600872 -0.736356 28.000000
1.007185 1.592846 -0.740959 11.000000
1.011658 1.561096 -0.734558 25.000000
1.031013 1.552639 -0.739087 24.000000
1.055618 1.551617 -0.747328 18.000000
1.069669 1.534986 -0.748123 29.000000
1.091663 1.529564 -0.754431 19.000000
1.110962 1.520022 -0.758958 21.000000
1.121887 1.499157 -0.757747 26.000000
1.146551 1.496627 -0.765920 13.000000
1.102765 1.406212 -0.728815 33.000000
0.815068 0.969385 -0.522279 27.000000
0.798486 0.928042 -0.506701 21.000000
0.811118 0.922208 -0.510318 30.000000
0.839749 0.932966 -0.523364 35.000000
1.305119 1.386162 -0.799583 32.000000
1.320307 1.370407 -0.801788 27.000000
1.341835 1.360959 -0.807824 29.000000
1.365950 1.355043 -0.816151 35.000000
1.420517 1.376950 -0.841812 31.000000
1.435017 1.360284 -0.844240 32.000000
1.453415 1.346086 -0.848308 35.000000
1.471025 1.332070 -0.852649 21.000000
1.472034 1.302103 -0.846779 20.000000
1.489351 1.287799 -0.850983 25.000000
1.520550 1.285126 -0.863152 26.000000
1.556140 1.284229 -0.877033 31.000000
1.573404 1.268777 -0.881179 27.000000
1.604990 1.264379 -0.893348 30.000000
1.636678 1.259422 -0.905496 34.000000
1.642917 1.234586 -0.903536 20.000000
1.659966 1.217903 -0.907608 29.000000
1.687952 1.208916 -0.917685 30.000000
1.708539 1.194133 -0.923606 30.000000
1.736652 1.184183 -0.933673 32.000000
1.772316 1.178795 -0.947700 28.000000
1.796679 1.165200 -0.955590 35.000000
1.809346 1.143946 -0.957379 35.000000
1.848625 1.139666 -0.973702 20.000000
1.861118 1.117659 -0.975373 32.000000
1.888696 1.105224 -0.985547 31.000000
1.916695 1.091762 -0.995311 29.000000
1.952194 1.082642 -1.009519 48.000000
1.975806 1.066251 -1.017580 30.000000
1.987617 1.042705 -1.018934 19.000000
2.010913 1.025664 -1.026799 24.000000
2.009733 0.995990 -1.022244 10.000000
2.004097 0.964554 -1.015442 10.000000
2.022783 0.944824 -1.021094 15.000000
1.995413 0.904485 -1.004068 10.000000
2.026070 0.890163 -1.015822 15.000000
2.014536 0.857709 -1.006937 11.000000
2.032348 0.837414 -1.012223 14.000000
2.020123 0.805301 -1.003155 16.000000
2.024513 0.780134 -1.002373 9.000000
2.007311 0.747007 -0.991016 10.000000
2.006766 0.720462 -0.987964 13.000000
2.018869 0.698422 -0.991144 14.000000
2.026415 0.674849 -0.992078 19.000000
2.020792 0.646913 -0.986688 16.000000
2.018911 0.620755 -0.983538 14.000000
2.038493 0.601135 -0.990943 22.000000
2.005692 0.566296 -0.972839 10.000000
2.029221 0.547644 -0.982148 13.000000
2.026326 0.521738 -0.978690 16.000000
2.023169 0.495895 -0.975085 13.000000
2.041592 0.475462 -0.982363 20.000000
2.033276 0.448798 -0.976770 15.000000
2.024758 0.422371 -0.971097 13.000000
2.046982 0.402292 -0.980230 19.000000
2.029094 0.374341 -0.970085 10.000000
1.903634 0.328512 -0.909043 29.000000
1.236685 0.169341 -0.588463 74.000000
1.220547 0.152693 -0.580100 95.000000
1.226659 0.139008 -0.582358 98.000000
1.223577 0.124304 -0.580474 95.000000
1.224863 0.110068 -0.580640 98.000000
1.216928 0.095169 -0.576617 35.000000
1.222428 0.081338 -0.578794 88.000000
1.227769 0.067361 -0.581055 89.000000
1.223916 0.052930 -0.579001 95.000000
1.219894 0.038562 -0.576906 95.000000
1.215705 0.024299 -0.574851 95.000000
1.220389 0.010258 -0.577071 98.000000
1.220430 -0.003914 -0.577029 95.000000
1.229387 -0.018220 -0.581262 100.000000
1.224661 -0.032378 -0.578960 100.000000
1.219688 -0.046431 -0.576782 98.000000
1.219112 -0.060562 -0.576700 98.000000
1.222924 -0.075011 -0.578670 98.000000
1.217464 -0.088866 -0.576494 95.000000
1.221022 -0.103378 -0.578340 98.000000
1.219823 -0.117520 -0.578133 100.000000
1.218499 -0.131663 -0.577885 98.000000
1.212438 -0.145308 -0.575629 95.000000
1.206305 -0.158808 -0.573291 98.000000
1.209059 -0.173405 -0.575011 95.000000
1.207123 -0.187413 -0.574681 95.000000
1.196014 -0.200010 -0.570220 89.000000
1.207169 -0.216226 -0.576148 98.000000
1.695772 -0.406290 -0.815458 83.000000
1.796614 -0.452586 -0.865668 32.000000
1.857264 -0.490858 -0.896704 10.000000
1.908608 -0.528179 -0.923330 17.000000
1.911448 -0.552836 -0.926618 14.000000
1.940142 -0.585487 -0.942481 18.000000
1.955361 -0.614796 -0.951920 19.000000
1.931221 -0.631914 -0.942607 12.000000
1.949950 -0.663238 -0.954262 20.000000
1.934049 -0.682938 -0.949023 13.000000
1.922269 -0.703930 -0.945754 9.000000
1.931473 -0.732668 -0.952962 16.000000
1.919261 -0.753434 -0.949551 13.000000
1.885762 -0.765488 -0.935703 21.000000
1.822744 -0.764715 -0.907489 17.000000
1.718511 -0.744273 -0.858124 24.000000
1.706061 -0.762535 -0.854912 29.000000
1.780532 -0.820292 -0.894935 17.000000
1.804337 -0.856685 -0.910207 9.000000
1.864398 -0.911777 -0.943993 17.000000
1.866578 -0.939628 -0.948663 10.000000
1.880548 -0.973977 -0.959431 16.000000
1.869550 -0.996185 -0.958083 12.000000
1.882678 -1.031103 -0.968649 13.000000
1.867564 -1.050716 -0.964799 13.000000
1.855731 -1.072804 -0.963222 10.000000
1.859880 -1.103560 -0.969394 9.000000
1.867074 -1.137420 -0.977939 10.000000
1.854941 -1.158982 -0.975819 10.000000
1.853614 -1.188158 -0.980092 14.000000
1.832812 -1.204980 -0.974121 10.000000
1.830854 -1.234179 -0.978219 10.000000
1.828581 -1.263499 -0.982219 10.000000
1.822107 -1.290293 -0.984176 10.000000
1.826558 -1.325103 -0.992078 9.000000
1.804689 -1.341080 -0.985806 9.000000
1.797371 -1.367756 -0.987489 10.000000
1.804169 -1.405645 -0.997071 10.000000
1.781771 -1.421018 -0.990648 10.000000
1.777039 -1.450500 -0.994110 10.000000
1.788805 -1.495335 -1.007768 13.000000
1.772760 -1.516186 -1.005055 10.000000
1.780685 -1.557982 -1.016154 9.000000
1.756314 -1.573223 -1.009781 9.000000
1.753127 -1.606001 -1.014736 10.000000
1.751921 -1.642720 -1.022000 10.000000
1.731155 -1.659845 -1.017022 10.000000
1.712632 -1.680514 -1.014319 10.000000
1.714342 -1.719891 -1.022783 10.000000
1.698501 -1.743699 -1.021904 9.000000
1.707787 -1.794070 -1.036373 9.000000
1.695231 -1.820490 -1.036861 9.000000
1.678272 -1.844138 -1.035736 9.000000
1.673270 -1.881421 -1.042166 10.000000
1.647576 -1.893656 -1.034779 9.000000
1.650747 -1.941481 -1.046745 10.000000
1.632433 -1.964714 -1.045360 10.000000
1.628380 -2.005738 -1.053317 9.000000
1.635201 -2.061531 -1.068640 9.000000
1.612667 -2.081031 -1.065087 9.000000
1.598357 -2.111365 -1.067140 9.000000
1.594668 -2.156476 -1.076430 10.000000
1.579275 -2.186817 -1.078293 9.000000
1.571579 -2.228479 -1.085488 9.000000
1.565848 -2.274087 -1.094535 9.000000
1.546293 -2.300478 -1.094128 9.000000
1.546902 -2.357941 -1.108417 9.000000
1.518870 -2.372420 -1.102341 9.000000
1.513044 -2.422218 -1.112709 9.000000
1.491705 -2.448232 -1.111929 9.000000
1.496215 -2.518286 -1.131025 9.000000
1.466661 -2.532263 -1.124727 9.000000
1.457663 -2.582401 -1.134524 9.000000
0.903311 1.569707 -0.681277 23.000000
0.958121 1.623229 -0.712272 25.000000
0.977944 1.615605 -0.716814 24.000000
1.000132 1.611709 -0.723088 21.000000
1.014910 1.595688 -0.724088 28.000000
1.020325 1.563293 -0.717529 10.000000
1.044888 1.562658 -0.725616 20.000000
1.051138 1.534667 -0.720971 23.000000
1.075725 1.533447 -0.729030 21.000000
1.100377 1.531851 -0.737004 29.000000
1.122392 1.526064 -0.743252 25.000000
1.136052 1.508871 -0.743966 20.000000
1.155183 1.498862 -0.748282 27.000000
1.191539 1.510554 -0.763679 10.000000
1.164136 1.442065 -0.738384 30.000000
0.809564 0.936920 -0.498955 79.000000
0.819790 0.927183 -0.500462 48.000000
1.307328 1.381769 -0.777461 12.000000
1.325723 1.369352 -0.781490 32.000000
1.356955 1.369872 -0.793137 32.000000
1.381137 1.363898 -0.801343 32.000000
1.396197 1.347235 -0.803394 36.000000
1.414361 1.333676 -0.807362 34.000000
1.428365 1.317167 -0.809739 33.000000
1.456657 1.312366 -0.819378 35.000000
1.487836 1.310615 -0.831314 18.000000
1.498842 1.289697 -0.831345 32.000000
1.519575 1.278150 -0.837391 32.000000
1.561647 1.283721 -0.855144 32.000000
1.568735 1.259202 -0.853049 42.000000
1.603861 1.257834 -0.866857 30.000000
1.631984 1.250230 -0.876798 32.000000
1.652714 1.236572 -0.882777 32.000000
1.662295 1.214404 -0.882793 16.000000
1.690379 1.205522 -0.892606 35.000000
1.707183 1.188282 -0.896516 35.000000
1.735228 1.178482 -0.906315 30.000000
1.767113 1.170720 -0.917994 37.000000
1.791360 1.157320 -0.925800 32.000000
1.811749 1.141063 -0.931492 33.000000
1.843678 1.131674 -0.943121 35.000000
1.855633 1.110355 -0.945138 16.000000
1.899463 1.106836 -0.962768 46.000000
1.923126 1.091570 -0.970702 42.000000
1.947159 1.075435 -0.978214 33.000000
1.986789 1.067981 -0.994109 62.000000
2.006708 1.048672 -0.999502 35.000000
2.054575 1.043899 -1.019367 23.000000
2.057606 1.015858 -1.017007 28.000000
2.056121 0.985954 -1.012452 11.000000
2.046072 0.952256 -1.003814 21.000000
2.056323 0.928361 -1.005171 24.000000
2.053575 0.899048 -1.000715 17.000000
2.054910 0.871434 -0.997907 21.000000
2.072830 0.850799 -1.003113 18.000000
2.039494 0.809911 -0.984077 14.000000
2.090661 0.802625 -1.005885 22.000000
2.056448 0.762425 -0.986646 9.000000
2.060302 0.736963 -0.985767 18.000000
2.072522 0.714498 -0.988921 29.000000
2.058604 0.683175 -0.979586 20.000000
2.061672 0.657749 -0.978470 25.000000
2.059848 0.631234 -0.975505 25.000000
2.058038 0.604633 -0.972099 22.000000
2.068817 0.581934 -0.975099 25.000000
2.048634 0.550858 -0.963557 10.000000
2.063282 0.529299 -0.968549 22.000000
2.060011 0.503359 -0.965334 23.000000
2.065415 0.479325 -0.965974 21.000000
2.057134 0.452502 -0.960533 20.000000
2.061867 0.428693 -0.961239 23.000000
2.061926 0.403869 -0.959798 20.000000
2.075171 0.381616 -0.964448 24.000000
2.034465 0.349769 -0.944078 10.000000
2.033648 0.325497 -0.942621 30.000000
1.253834 0.156316 -0.579195 98.000000
1.219318 0.137727 -0.562816 100.000000
1.216197 0.123179 -0.560978 95.000000
1.217470 0.109101 -0.561142 98.000000
1.223108 0.095334 -0.563351 98.000000
1.224138 0.081161 -0.563393 95.000000
1.229457 0.067237 -0.565603 100.000000
1.225580 0.052817 -0.563599 103.000000
1.226115 0.038644 -0.563599 103.000000
1.226404 0.024472 -0.563722 100.000000
1.222067 0.010220 -0.561675 98.000000
1.226651 -0.003914 -0.563763 103.000000
1.226527 -0.018086 -0.563681 98.000000
1.262657 -0.033257 -0.580255 95.000000
1.253110 -0.047505 -0.576039 95.000000
1.247982 -0.061768 -0.573826 95.000000
1.251804 -0.076479 -0.575786 95.000000
1.241813 -0.090308 -0.571530 29.000000
1.199973 -0.101251 -0.552636 95.000000
1.221419 -0.117293 -0.562857 95.000000
1.211063 -0.130450 -0.558442 95.000000
1.209631 -0.144436 -0.558156 95.000000
1.207955 -0.158422 -0.557952 95.000000
1.215157 -0.173694 -0.561827 98.000000
2.015172 -0.383862 -0.936326 24.000000
2.015364 -0.408025 -0.937712 21.000000
2.019710 -0.433245 -0.941169 23.000000
2.014999 -0.456591 -0.940338 24.000000
1.992096 -0.475777 -0.931435 18.000000
2.000192 -0.502035 -0.936676 20.000000
2.003469 -0.527510 -0.939979 18.000000
1.971226 -0.543437 -0.926693 10.000000
1.995905 -0.575079 -0.940166 18.000000
1.980708 -0.595626 -0.935350 18.000000
1.974265 -0.618486 -0.934172 20.000000
1.976005 -0.644242 -0.937383 21.000000
1.973155 -0.668666 -0.938462 19.000000
1.974367 -0.694565 -0.941519 21.000000
1.962448 -0.715905 -0.938279 16.000000
1.950353 -0.737005 -0.935045 10.000000
1.976264 -0.772824 -0.950066 23.000000
1.946732 -0.787115 -0.938446 16.000000
1.958952 -0.818660 -0.947582 21.000000
1.949870 -0.841436 -0.946305 21.000000
1.928337 -0.858284 -0.938649 12.000000
1.939586 -0.890304 -0.947454 18.000000
1.929753 -0.912822 -0.946028 17.000000
1.919705 -0.935268 -0.944532 10.000000
1.929960 -0.967753 -0.953060 22.000000
1.911240 -0.985956 -0.947372 16.000000
1.908209 -1.012694 -0.950035 17.000000
1.905301 -1.039189 -0.952325 18.000000
1.917627 -1.075049 -0.962842 13.000000
1.913996 -1.101739 -0.964941 17.000000
1.917496 -1.133501 -0.971244 16.000000
1.870050 -1.134200 -0.951220 10.000000
1.880823 -1.170650 -0.961416 18.000000
1.867851 -1.192686 -0.959573 13.000000
1.862413 -1.219530 -0.961697 13.000000
1.864193 -1.251600 -0.967614 18.000000
1.854248 -1.275992 -0.967574 10.000000
1.855289 -1.308192 -0.973362 12.000000
1.855874 -1.340670 -0.979039 10.000000
1.819100 -1.345838 -0.964991 9.000000
1.833801 -1.389236 -0.978394 16.000000
1.811420 -1.404956 -0.972124 10.000000
1.814257 -1.440323 -0.979429 10.000000
1.815936 -1.476421 -0.986994 16.000000
1.800045 -1.497505 -0.984436 10.000000
1.812015 -1.542268 -0.997183 14.000000
1.791294 -1.560811 -0.992972 10.000000
1.771189 -1.578407 -0.988220 9.000000
1.784246 -1.627512 -1.003050 17.000000
1.773685 -1.654324 -1.003922 10.000000
1.758604 -1.678583 -1.003185 12.000000
1.753215 -1.712456 -1.008145 18.000000
1.741647 -1.739131 -1.008783 10.000000
1.732121 -1.769673 -1.011697 17.000000
1.725333 -1.803630 -1.016382 9.000000
1.709665 -1.826834 -1.014890 9.000000
1.714590 -1.874385 -1.026915 16.000000
1.693937 -1.894788 -1.023821 11.000000
1.694488 -1.939316 -1.033681 16.000000
1.682276 -1.969978 -1.036033 16.000000
1.658948 -1.985570 -1.030436 10.000000
1.657766 -2.030403 -1.040030 19.000000
1.650149 -2.068199 -1.045777 9.000000
1.633383 -2.095072 -1.045968 9.000000
1.633120 -2.144039 -1.057000 10.000000
1.620917 -2.178333 -1.060655 9.000000
1.608213 -2.212625 -1.064170 14.000000
1.595004 -2.246821 -1.067544 10.000000
1.591916 -2.296429 -1.078156 10.000000
1.572288 -2.323079 -1.077721 11.000000
1.572997 -2.380659 -1.091551 9.000000
1.548116 -2.404072 -1.089602 9.000000
1.529711 -2.434344 -1.090720 10.000000
1.513308 -2.468406 -1.093564 10.000000
1.510786 -2.526615 -1.106816 10.000000
1.490604 -2.556699 -1.107755 10.000000
1.476913 -2.598981 -1.113696 9.000000
0.882198 1.562658 -0.654056 29.000000
0.934164 1.612994 -0.682465 26.000000
0.951429 1.601727 -0.685130 23.000000
0.975830 1.602295 -0.692993 33.000000
0.992920 1.590637 -0.695679 26.000000
1.021096 1.593906 -0.705101 25.000000
1.022754 1.558149 -0.697180 28.000000
1.039454 1.545942 -0.699792 24.000000
1.055973 1.533493 -0.702342 29.000000
1.077820 1.528503 -0.708374 28.000000
1.094299 1.515625 -0.710876 23.000000
1.127255 1.525102 -0.724080 32.000000
1.138038 1.504150 -0.722979 23.000000
1.159965 1.497967 -0.728974 24.000000
1.158752 1.462158 -0.720581 29.000000
1.171563 1.444743 -0.721154 29.000000
1.172333 1.412811 -0.714402 36.000000
1.148476 1.352650 -0.692981 65.000000
0.995221 1.145696 -0.594785 100.000000
1.179506 1.297318 -0.692033 61.000000
1.281569 1.379086 -0.745841 35.000000
1.312593 1.380597 -0.757239 32.000000
1.334147 1.371615 -0.763070 31.000000
1.355658 1.362228 -0.768859 56.000000
1.376489 1.353130 -0.774985 34.000000
1.398032 1.343116 -0.780752 34.000000
1.412766 1.326405 -0.782793 38.000000
1.433560 1.316281 -0.788782 36.000000
1.461835 1.311543 -0.798299 37.000000
1.468655 1.288486 -0.796723 27.000000
1.493492 1.279942 -0.804268 29.000000
1.528256 1.280452 -0.817792 37.000000
1.542461 1.262169 -0.819568 37.000000
1.566707 1.252809 -0.827392 34.000000
1.598824 1.248286 -0.838666 52.000000
1.615826 1.232465 -0.842590 37.000000
1.647565 1.227389 -0.854134 33.000000
1.664402 1.210888 -0.858027 31.000000
1.681229 1.194096 -0.861861 35.000000
1.716791 1.190148 -0.875296 38.000000
1.744920 1.180365 -0.884907 61.000000
1.765374 1.165009 -0.890531 66.000000
1.793475 1.154250 -0.900058 67.000000
1.809951 1.135645 -0.903701 37.000000
1.830125 1.119208 -0.909303 33.000000
1.873911 1.116579 -0.926504 36.000000
1.877744 1.090333 -0.924468 52.000000
1.905714 1.077275 -0.933827 71.000000
1.953735 1.074776 -0.952964 58.000000
1.985391 1.063052 -0.964583 52.000000
2.017131 1.050636 -0.976163 69.000000
2.040982 1.033067 -0.983371 49.000000
2.056121 1.011462 -0.987020 28.000000
2.087721 0.997449 -0.998448 21.000000
2.077593 0.963493 -0.989990 22.000000
2.083840 0.937397 -0.989450 26.000000
2.093946 0.913157 -0.990742 24.000000
2.095376 0.885120 -0.988049 21.000000
2.100442 0.859316 -0.987568 25.000000
2.109807 0.834769 -0.988625 23.000000
2.097244 0.802187 -0.979985 16.000000
2.092875 0.773124 -0.975248 18.000000
2.075237 0.739673 -0.964407 23.000000
2.078833 0.714111 -0.963501 25.000000
2.095217 0.692890 -0.968545 25.000000
2.080834 0.661610 -0.959372 22.000000
2.087967 0.637446 -0.960245 27.000000
2.081561 0.609497 -0.955290 24.000000
2.083593 0.584249 -0.954213 23.000000
2.094363 0.561183 -0.956809 14.000000
2.087073 0.533555 -0.951544 21.000000
2.092607 0.509550 -0.952550 27.000000
2.093614 0.484228 -0.951173 23.000000
2.094169 0.459153 -0.949937 24.000000
2.085751 0.432040 -0.944358 23.000000
2.085816 0.407059 -0.942899 21.000000
2.085508 0.382253 -0.941721 20.000000
2.085111 0.357339 -0.940116 23.000000
2.079902 0.331738 -0.936406 28.000000
2.024600 0.299072 -0.910479 32.000000
1.248066 0.140530 -0.559643 95.000000
1.240405 0.125219 -0.555781 100.000000
1.232600 0.110077 -0.551875 103.000000
1.229164 0.095499 -0.549962 64.000000
1.243863 0.082230 -0.556114 100.000000
1.244654 0.067858 -0.556281 100.000000
1.236198 0.053136 -0.552288 95.000000
1.241257 0.039014 -0.554326 103.000000
1.241589 0.024695 -0.554451 103.000000
1.241755 0.010376 -0.554492 100.000000
1.232666 -0.003914 -0.550415 100.000000
1.232584 -0.018127 -0.550333 81.000000
1.273414 -0.033376 -0.568549 95.000000
1.268426 -0.047892 -0.566469 95.000000
1.272393 -0.062751 -0.568379 98.000000
1.267111 -0.077119 -0.566172 79.000000
1.225186 -0.088783 -0.547802 66.000000
1.210467 -0.101755 -0.541530 95.000000
1.232021 -0.117893 -0.551544 98.000000
1.212533 -0.130127 -0.543159 100.000000
1.251846 -0.149000 -0.561299 100.000000
1.861764 -0.309107 -0.838087 19.000000
2.011282 -0.357813 -0.906605 17.000000
2.043320 -0.387683 -0.921997 22.000000
2.047979 -0.413096 -0.925422 24.000000
2.043237 -0.436805 -0.924934 27.000000
2.029574 -0.458291 -0.920053 25.000000
2.024367 -0.481757 -0.919428 20.000000
2.032473 -0.508275 -0.924442 24.000000
2.022456 -0.530596 -0.921657 10.000000
2.020802 -0.555238 -0.923044 18.000000
2.014722 -0.578510 -0.922066 22.000000
2.017203 -0.604340 -0.925040 23.000000
2.006094 -0.626278 -0.922188 21.000000
2.003445 -0.650946 -0.923285 21.000000
2.004966 -0.677040 -0.926242 21.000000
1.988846 -0.697131 -0.921179 21.000000
2.007037 -0.729476 -0.931986 10.000000
1.986133 -0.747741 -0.924785 18.000000
1.982280 -0.772224 -0.925437 19.000000
1.977896 -0.797019 -0.926367 21.000000
1.965076 -0.817961 -0.922959 22.000000
1.985522 -0.853443 -0.935661 22.000000
1.963520 -0.870859 -0.928345 20.000000
1.958055 -0.895548 -0.929040 21.000000
1.948251 -0.918163 -0.927609 10.000000
1.958823 -0.950734 -0.935979 23.000000
1.948408 -0.973300 -0.934388 22.000000
1.937487 -0.996155 -0.933086 21.000000
1.938904 -1.024950 -0.937318 24.000000
1.943934 -1.056004 -0.943343 25.000000
1.928174 -1.076514 -0.939917 22.000000
1.940114 -1.112811 -0.950034 19.000000
1.924207 -1.132648 -0.946082 10.000000
1.919509 -1.159909 -0.948274 15.000000
1.902813 -1.179849 -0.944547 13.000000
1.897612 -1.206969 -0.946647 17.000000
1.884284 -1.229084 -0.944711 16.000000
1.878473 -1.256104 -0.946639 16.000000
1.879938 -1.288368 -0.952331 17.000000
1.873396 -1.315532 -0.954067 17.000000
1.874008 -1.348038 -0.959625 9.000000
1.863078 -1.372445 -0.959328 10.000000
1.844482 -1.391220 -0.955124 16.000000
1.855065 -1.432359 -0.966097 15.000000
1.838973 -1.454329 -0.964009 17.000000
1.841250 -1.490078 -0.971016 14.000000
1.835300 -1.520812 -0.974505 18.000000
1.829551 -1.550854 -0.977573 15.000000
1.819238 -1.578662 -0.978967 10.000000
1.819748 -1.614910 -0.985577 14.000000
1.808587 -1.642613 -0.986919 16.000000
1.808131 -1.679141 -0.993279 18.000000
1.799633 -1.710080 -0.996268 23.000000
1.777365 -1.728150 -0.991798 15.000000
1.762408 -1.751714 -0.990472 18.000000
1.759351 -1.789096 -0.997009 19.000000
1.752544 -1.823184 -1.001489 10.000000
1.729271 -1.840463 -0.996748 14.000000
1.747840 -1.901207 -1.015304 17.000000
1.730119 -1.925333 -1.014079 20.000000
1.721375 -1.959607 -1.018213 22.000000
1.696891 -1.976408 -1.013239 17.000000
1.699287 -2.024938 -1.024452 23.000000
1.692015 -2.062957 -1.030082 17.000000
1.672503 -2.086498 -1.028473 10.000000
1.675683 -2.139251 -1.041075 10.000000
1.646738 -2.151547 -1.033957 10.000000
1.654252 -2.212102 -1.049959 13.000000
1.644056 -2.250460 -1.055023 16.000000
1.625119 -2.277448 -1.054822 13.000000
1.611188 -2.311880 -1.058019 17.000000
1.602104 -2.354033 -1.064575 14.000000
1.597430 -2.404182 -1.074541 10.000000
1.569031 -2.419048 -1.068761 10.000000
1.563904 -2.474062 -1.080593 11.000000
1.554585 -2.520399 -1.088479 14.000000
1.534791 -2.550859 -1.089301 13.000000
1.519302 -2.589210 -1.093504 11.000000
1.505518 -2.631729 -1.099342 13.000000
1.495790 -2.687511 -1.110491 10.000000
0.853222 1.543172 -0.622553 30.000000
0.920814 1.623071 -0.661833 23.000000
0.939304 1.611469 -0.664250 22.000000
0.966064 1.616394 -0.673584 30.000000
0.975902 1.592883 -0.671137 22.000000
1.002867 1.597184 -0.680530 29.000000
1.026071 1.592543 -0.686322 23.000000
1.022337 1.548996 -0.675230 20.000000
1.031022 1.525149 -0.672554 26.000000
1.060710 1.532184 -0.683616 26.000000
1.074413 1.515817 -0.684371 28.000000
1.098930 1.514393 -0.691991 29.000000
1.126366 1.516415 -0.701388 29.000000
1.139826 1.499342 -0.702040 29.000000
1.164523 1.496873 -0.709689 23.000000
1.155322 1.449591 -0.695973 22.000000
1.179782 1.446752 -0.703498 34.000000
1.192372 1.429159 -0.704043 28.000000
1.191845 1.397832 -0.697657 46.000000
1.194672 1.369596 -0.692693 41.000000
1.209511 1.355410 -0.694829 45.000000
1.243114 1.361790 -0.707656 45.000000
1.292911 1.384536 -0.729469 31.000000
1.304743 1.365861 -0.729774 23.000000
1.335928 1.367021 -0.740910 47.000000
1.354113 1.354489 -0.744787 33.000000
1.374881 1.345451 -0.750680 57.000000
1.396294 1.335566 -0.756342 38.000000
1.417721 1.325332 -0.761959 36.000000
1.441891 1.318460 -0.769684 44.000000
1.463375 1.307481 -0.775281 33.000000
1.467229 1.280924 -0.771623 23.000000
1.494855 1.276113 -0.781120 35.000000
1.519627 1.267223 -0.788415 30.000000
1.558208 1.270206 -0.803484 52.000000
1.579543 1.257422 -0.808987 42.000000
1.600208 1.244866 -0.814707 38.000000
1.606094 1.220650 -0.812970 48.000000
1.627081 1.207058 -0.818308 31.000000
1.662534 1.204501 -0.831436 26.000000
1.683009 1.190519 -0.837091 68.000000
1.711018 1.181420 -0.846465 35.000000
1.731439 1.166657 -0.852025 59.000000
1.759501 1.156662 -0.861317 45.000000
1.783681 1.143602 -0.868744 37.000000
1.811737 1.132582 -0.877952 53.000000
1.827951 1.113839 -0.881478 33.000000
1.859903 1.104302 -0.892639 27.000000
1.879900 1.087147 -0.897960 52.000000
1.895758 1.067397 -0.901380 37.000000
1.939433 1.063381 -0.918444 71.000000
1.979640 1.055857 -0.933275 52.000000
2.015416 1.045845 -0.946523 37.000000
2.043381 1.030508 -0.955581 71.000000
2.066781 1.012985 -0.962960 35.000000
2.081757 0.991058 -0.966415 18.000000
2.100731 0.970817 -0.971736 25.000000
2.111148 0.946459 -0.973115 23.000000
2.121413 0.922024 -0.974494 26.000000
2.127048 0.895571 -0.973776 24.000000
2.128227 0.867402 -0.971107 21.000000
2.124514 0.837893 -0.966707 23.000000
2.112163 0.805022 -0.958010 13.000000
2.099108 0.772723 -0.949515 12.000000
2.111602 0.750088 -0.952658 25.000000
2.128332 0.728695 -0.957615 21.000000
2.105587 0.693993 -0.944936 23.000000
2.113016 0.669649 -0.945893 23.000000
2.098229 0.638538 -0.936954 18.000000
2.109557 0.615515 -0.939647 25.000000
2.107195 0.588754 -0.936733 18.000000
2.108929 0.563309 -0.935635 10.000000
2.106040 0.536759 -0.932489 21.000000
2.107276 0.511353 -0.931310 17.000000
2.112750 0.487081 -0.931886 21.000000
2.122351 0.463791 -0.934726 23.000000
2.118336 0.437394 -0.931205 22.000000
2.127443 0.413907 -0.933830 26.000000
2.118286 0.386873 -0.928468 17.000000
2.095143 0.357974 -0.917296 15.000000
2.098958 0.333813 -0.917649 26.000000
2.079715 0.306307 -0.908299 31.000000
2.023808 0.274390 -0.882925 41.000000
1.255493 0.126305 -0.546173 95.000000
1.252224 0.111463 -0.544396 95.000000
1.248820 0.096726 -0.542493 68.000000
1.258892 0.083000 -0.546677 95.000000
1.259773 0.068481 -0.546677 98.000000
1.260445 0.054005 -0.546761 100.000000
1.256363 0.039384 -0.544814 98.000000
1.256697 0.024960 -0.544940 100.000000
1.256906 0.010494 -0.544981 98.000000
1.252361 -0.003916 -0.542951 98.000000
1.275171 -0.018665 -0.552852 90.000000
1.288717 -0.033659 -0.558690 95.000000
1.283661 -0.048322 -0.556616 83.000000
1.287645 -0.063287 -0.558518 94.000000
1.282294 -0.077802 -0.556488 72.000000
1.244785 -0.089897 -0.540381 49.000000
1.266611 -0.106090 -0.550145 98.000000
1.738632 -0.226451 -0.757518 90.000000
1.845201 -0.261927 -0.804739 49.000000
1.946656 -0.299153 -0.849804 25.000000
1.997541 -0.330535 -0.873171 18.000000
2.070840 -0.367037 -0.906062 16.000000
2.062204 -0.390015 -0.903526 19.000000
2.062384 -0.414559 -0.904874 22.000000
2.057701 -0.438390 -0.904385 19.000000
2.061844 -0.463959 -0.907492 21.000000
2.043237 -0.484503 -0.900876 20.000000
2.051245 -0.511337 -0.906088 18.000000
2.045560 -0.534921 -0.905246 12.000000
2.035229 -0.557221 -0.902367 16.000000
2.042399 -0.584338 -0.907278 17.000000
2.049133 -0.611831 -0.912389 23.000000
2.020361 -0.628625 -0.901666 16.000000
2.030849 -0.657598 -0.908586 18.000000
2.032350 -0.683897 -0.911507 23.000000
2.037848 -0.711773 -0.916230 15.000000
2.047362 -0.741444 -0.922890 13.000000
2.009099 -0.753652 -0.907952 16.000000
2.022175 -0.785240 -0.916688 17.000000
2.013695 -0.808381 -0.915322 24.000000
2.004711 -0.831595 -0.914101 18.000000
2.008222 -0.860181 -0.918693 24.000000
2.015541 -0.890853 -0.925133 26.000000
1.988983 -0.906398 -0.916017 14.000000
1.995775 -0.937168 -0.922361 16.000000
1.993872 -0.964160 -0.924683 21.000000
1.983325 -0.987085 -0.923071 21.000000
1.976375 -1.012261 -0.923673 26.000000
1.949094 -1.026333 -0.914318 18.000000
1.978289 -1.071034 -0.932000 20.000000
1.966771 -1.093625 -0.930142 20.000000
1.954584 -1.116438 -0.928582 16.000000
1.954213 -1.146194 -0.932657 12.000000
1.949427 -1.173620 -0.934737 13.000000
1.940450 -1.198724 -0.934907 15.000000
1.927286 -1.221216 -0.933026 21.000000
1.917778 -1.246005 -0.933034 15.000000
1.915698 -1.275944 -0.936728 17.000000
1.901744 -1.298088 -0.934757 16.000000
1.902754 -1.330628 -0.940139 10.000000
1.914689 -1.371544 -0.951105 10.000000
1.896067 -1.390815 -0.946989 11.000000
1.873022 -1.407598 -0.941327 14.000000
1.879837 -1.446154 -0.950172 19.000000
1.867969 -1.470625 -0.949609 16.000000
1.862333 -1.501324 -0.953052 16.000000
1.856978 -1.531568 -0.956074 17.000000
1.868321 -1.577454 -0.968592 15.000000
1.862026 -1.607922 -0.971372 18.000000
1.826756 -1.614393 -0.959792 10.000000
1.829477 -1.654632 -0.968356 17.000000
1.825684 -1.688061 -0.972813 21.000000
1.810327 -1.712692 -0.972022 13.000000
1.798085 -1.740481 -0.973034 18.000000
1.799698 -1.780559 -0.980840 15.000000
1.786701 -1.808323 -0.981625 10.000000
1.789435 -1.852690 -0.991370 16.000000
1.765931 -1.870353 -0.986715 10.000000
1.764423 -1.911628 -0.994485 17.000000
1.765426 -1.956478 -1.003885 23.000000
1.734720 -1.966701 -0.995463 16.000000
1.728590 -2.004699 -1.001140 23.000000
1.722950 -2.042011 -1.006325 13.000000
1.718692 -2.083807 -1.013554 17.000000
1.698916 -2.107527 -1.011959 14.000000
1.683531 -2.139210 -1.014197 9.000000
1.686023 -2.192334 -1.026306 13.000000
1.667981 -2.219548 -1.026262 13.000000
1.660614 -2.261753 -1.032922 10.000000
1.649932 -2.300262 -1.037878 16.000000
1.630479 -2.327186 -1.037444 14.000000
1.631998 -2.385077 -1.050744 13.000000
1.608898 -2.408036 -1.048505 13.000000
1.593329 -2.442593 -1.051245 9.000000
1.593290 -2.505764 -1.066141 13.000000
1.576357 -2.540446 -1.068733 12.000000
1.558889 -2.574974 -1.071175 11.000000
1.538582 -2.605382 -1.071894 12.000000
1.534654 -2.669353 -1.086274 10.000000
1.519795 -2.712080 -1.091730 10.000000
0.831230 1.535267 -0.596607 12.000000
0.906243 1.628100 -0.639432 15.000000
0.928246 1.625548 -0.645276 23.000000
0.940752 1.606336 -0.644603 17.000000
0.961342 1.598660 -0.648529 17.000000
0.978278 1.587329 -0.651121 20.000000
1.000193 1.583735 -0.656962 16.000000
1.027281 1.587700 -0.666090 19.000000
1.027024 1.547479 -0.656687 17.000000
1.040848 1.531498 -0.657479 21.000000
1.062599 1.526936 -0.663235 25.000000
1.087127 1.525902 -0.670702 19.000000
1.097858 1.505484 -0.669688 24.000000
1.128057 1.511398 -0.680530 21.000000
1.145190 1.497509 -0.682610 16.000000
1.169908 1.495088 -0.690060 20.000000
1.159517 1.448341 -0.676917 15.000000
1.184052 1.445616 -0.684305 26.000000
1.196585 1.428051 -0.684827 25.000000
1.221130 1.424622 -0.692200 23.000000
1.230329 1.403227 -0.690864 31.000000
1.261097 1.406158 -0.701696 28.000000
1.282681 1.398182 -0.707341 26.000000
1.301026 1.386518 -0.711132 26.000000
1.312777 1.367777 -0.711481 15.000000
1.326929 1.352884 -0.713768 28.000000
1.351637 1.347092 -0.721047 32.000000
1.379662 1.344205 -0.730128 28.000000
1.397694 1.331146 -0.733854 34.000000
1.415671 1.317818 -0.737526 27.000000
1.439801 1.311079 -0.745097 23.000000
1.464642 1.303336 -0.752316 30.000000
1.471891 1.279908 -0.750520 10.000000
1.488903 1.266028 -0.754425 29.000000
1.520774 1.263343 -0.765175 31.000000
1.541338 1.251752 -0.770799 26.000000
1.573437 1.247964 -0.781556 32.000000
1.586656 1.229813 -0.783529 28.000000
1.629972 1.233549 -0.799747 26.000000
1.650587 1.220260 -0.805274 30.000000
1.656566 1.195233 -0.803163 10.000000
1.669293 1.176142 -0.805039 32.000000
1.712604 1.177863 -0.821482 30.000000
1.725222 1.158015 -0.823256 28.000000
1.757073 1.150760 -0.834189 35.000000
1.781232 1.137847 -0.841392 31.000000
1.805346 1.124524 -0.848617 28.000000
1.833379 1.113196 -0.857579 31.000000
1.853423 1.096563 -0.862849 10.000000
1.873358 1.079673 -0.868133 32.000000
1.905316 1.069194 -0.878885 37.000000
1.937309 1.058101 -0.889667 35.000000
1.985335 1.055535 -0.908191 46.000000
2.013349 1.040886 -0.917024 41.000000
2.032672 1.021918 -0.922423 32.000000
2.060486 1.006299 -0.931222 36.000000
2.092133 0.992508 -0.942154 19.000000
2.115354 0.974209 -0.949265 25.000000
2.163828 0.966797 -0.967656 24.000000
2.148740 0.930837 -0.957706 16.000000
2.158777 0.905976 -0.958942 20.000000
2.147154 0.872331 -0.950689 18.000000
2.143643 0.842412 -0.946136 14.000000
2.143889 0.814583 -0.943623 18.000000
2.139724 0.784981 -0.938894 9.000000
2.135002 0.755756 -0.934377 15.000000
2.147376 0.732724 -0.937407 22.000000
2.141999 0.703749 -0.932722 16.000000
2.149520 0.679027 -0.933690 19.000000
2.152398 0.652965 -0.932669 19.000000
2.119550 0.616536 -0.916162 16.000000
2.126041 0.592248 -0.917183 15.000000
2.119076 0.564106 -0.912079 9.000000
2.142914 0.544371 -0.920564 12.000000
2.148688 0.519740 -0.921294 21.000000
2.136253 0.490902 -0.914253 16.000000
2.136891 0.465494 -0.913196 16.000000
2.137363 0.439901 -0.911703 21.000000
2.137454 0.414556 -0.910424 14.000000
2.146385 0.390823 -0.912930 16.000000
2.132313 0.363114 -0.905710 9.000000
2.126925 0.337267 -0.902489 21.000000
2.130559 0.312754 -0.902775 27.000000
2.069868 0.279738 -0.876125 23.000000
1.267260 0.112487 -0.534556 76.000000
1.268397 0.097958 -0.534683 92.000000
1.296961 0.085242 -0.546521 75.000000
1.297864 0.070354 -0.546521 95.000000
1.298553 0.055508 -0.546607 98.000000
1.289856 0.040332 -0.542773 95.000000
1.294806 0.025641 -0.544798 98.000000
1.267326 0.010574 -0.533249 98.000000
1.267368 -0.003944 -0.533207 98.000000
1.262676 -0.018396 -0.531226 98.000000
1.285462 -0.033462 -0.540792 72.000000
1.298854 -0.048710 -0.546521 95.000000
1.302855 -0.063824 -0.548373 95.000000
1.320438 -0.079834 -0.556080 98.000000
1.778728 -0.189631 -0.750826 58.000000
1.881973 -0.222445 -0.794832 35.000000
1.966284 -0.255234 -0.831183 26.000000
1.995426 -0.282260 -0.844314 20.000000
2.010394 -0.307992 -0.851705 23.000000
2.057091 -0.339193 -0.872329 18.000000
2.057771 -0.363583 -0.873775 9.000000
2.090032 -0.393991 -0.888573 23.000000
2.081146 -0.417001 -0.886014 15.000000
2.085471 -0.442783 -0.889302 19.000000
2.080607 -0.466610 -0.888456 18.000000
2.075391 -0.490438 -0.887822 16.000000
2.074443 -0.515379 -0.888966 21.000000
2.059855 -0.536788 -0.884282 13.000000
2.053805 -0.560493 -0.883649 10.000000
2.056569 -0.586451 -0.886494 16.000000
2.041143 -0.607482 -0.881890 13.000000
2.069694 -0.641855 -0.896264 15.000000
2.075803 -0.669872 -0.901061 18.000000
2.059692 -0.690700 -0.896167 13.000000
2.056457 -0.715814 -0.896996 16.000000
2.044273 -0.737746 -0.893872 10.000000
2.031694 -0.759720 -0.891040 9.000000
2.057980 -0.796262 -0.904929 17.000000
2.036285 -0.814760 -0.898080 10.000000
2.040075 -0.843499 -0.902600 16.000000
2.022243 -0.863373 -0.897583 14.000000
2.004346 -0.882833 -0.892505 10.000000
2.007253 -0.911602 -0.896785 13.000000
1.997303 -0.934554 -0.895333 10.000000
1.987134 -0.957433 -0.893880 9.000000
2.026210 -1.005249 -0.915149 22.000000
1.990559 -1.015689 -0.902205 12.000000
1.991552 -1.045248 -0.906489 16.000000
1.980303 -1.067894 -0.904713 15.000000
1.980639 -1.097583 -0.908820 13.000000
1.976569 -1.125110 -0.910974 12.000000
1.980191 -1.157285 -0.916752 10.000000
1.955504 -1.173033 -0.909462 9.000000
1.978149 -1.217499 -0.924377 14.000000
1.957015 -1.235349 -0.918856 10.000000
1.939510 -1.255392 -0.915115 10.000000
1.941360 -1.287971 -0.920493 10.000000
1.927293 -1.310294 -0.918505 10.000000
1.935985 -1.348421 -0.927416 11.000000
1.906205 -1.359810 -0.917950 9.000000
1.905969 -1.393136 -0.923393 9.000000
1.898342 -1.420611 -0.924784 10.000000
1.908309 -1.462667 -0.935533 10.000000
1.903644 -1.493107 -0.938597 10.000000
1.890570 -1.518359 -0.938263 10.000000
1.881513 -1.545864 -0.939402 10.000000
1.885737 -1.585869 -0.947944 11.000000
1.868899 -1.607300 -0.945286 9.000000
1.833485 -1.613786 -0.934020 8.000000
1.857267 -1.672691 -0.953001 13.000000
1.839634 -1.693753 -0.950144 9.000000
1.831069 -1.724841 -0.952927 10.000000
1.828946 -1.762496 -0.959215 10.000000
1.809558 -1.783790 -0.956481 10.000000
1.809700 -1.824862 -0.964369 10.000000
1.790684 -1.845218 -0.961186 9.000000
1.786620 -1.883072 -0.967065 8.000000
1.791495 -1.931360 -0.978115 10.000000
1.779850 -1.962620 -0.980318 10.000000
1.770919 -1.997352 -0.984133 10.000000
1.752287 -2.021475 -0.982732 10.000000
1.736354 -2.048992 -0.983038 10.000000
1.741067 -2.101710 -0.995225 14.000000
1.709499 -2.110966 -0.986735 10.000000
1.710001 -2.160303 -0.996994 8.000000
1.703933 -2.202476 -1.003770 10.000000
1.687238 -2.234427 -1.005679 9.000000
1.682745 -2.280464 -1.013836 10.000000
1.669237 -2.315313 -1.016873 9.000000
1.660550 -2.357847 -1.023206 9.000000
1.651275 -2.400389 -1.029466 9.000000
1.628162 -2.423447 -1.027164 9.000000
1.636783 -2.498542 -1.046822 8.000000
1.615018 -2.525524 -1.046060 10.000000
1.605588 -2.572271 -1.053379 10.000000
1.575700 -2.586848 -1.047533 10.000000
1.577619 -2.658971 -1.064885 10.000000
1.561022 -2.697801 -1.068703 9.000000
1.539138 -2.728467 -1.069124 10.000000
1.539814 -2.805458 -1.087607 9.000000
0.890398 1.633234 -0.617405 11.000000
0.903113 1.614427 -0.616814 26.000000
0.926107 1.611401 -0.622250 18.000000
0.943154 1.600515 -0.624762 28.000000
0.967490 1.601553 -0.632075 26.000000
0.980521 1.581571 -0.631093 26.000000
0.997252 1.570057 -0.633552 30.000000
1.021663 1.570259 -0.640865 20.000000
1.030534 1.546490 -0.638409 21.000000
1.034651 1.514263 -0.632359 22.000000
1.067003 1.525415 -0.644543 23.000000
1.075047 1.501391 -0.641962 31.000000
1.096617 1.496418 -0.647524 24.000000
1.127695 1.501852 -0.657827 29.000000
1.135107 1.477453 -0.655159 29.000000
1.159639 1.475253 -0.662382 19.000000
1.169582 1.454365 -0.661229 24.000000
1.188165 1.444286 -0.665079 24.000000
1.209737 1.437620 -0.670622 28.000000
1.228271 1.427002 -0.674438 35.000000
1.246761 1.416129 -0.678266 25.000000
1.271439 1.412052 -0.685436 32.000000
1.289850 1.400592 -0.689234 35.000000
1.301768 1.382092 -0.689567 26.000000
1.306970 1.356655 -0.686465 30.000000
1.341431 1.361428 -0.698724 27.000000
1.362876 1.352266 -0.704092 33.000000
1.377604 1.336290 -0.706027 39.000000
1.392083 1.320126 -0.707961 29.000000
1.423062 1.320282 -0.718764 42.000000
1.444409 1.309839 -0.724077 35.000000
1.462198 1.295999 -0.727663 31.000000
1.476387 1.278819 -0.729445 29.000000
1.493386 1.264983 -0.733235 25.000000
1.525320 1.262300 -0.743684 34.000000
1.550048 1.253182 -0.750713 35.000000
1.570648 1.241236 -0.756197 30.000000
1.591701 1.228468 -0.761305 34.000000
1.608490 1.213042 -0.764983 31.000000
1.621840 1.194102 -0.766561 29.000000
1.661147 1.194515 -0.780816 30.000000
1.681488 1.180835 -0.786194 29.000000
1.698431 1.163600 -0.789461 32.000000
1.722519 1.151801 -0.796525 39.000000
1.758293 1.147247 -0.809006 30.000000
1.766718 1.124487 -0.808852 35.000000
1.810539 1.123742 -0.824868 35.000000
1.834567 1.109991 -0.831827 30.000000
1.858613 1.095895 -0.838806 33.000000
1.878561 1.078988 -0.843919 30.000000
1.902464 1.064026 -0.850792 33.000000
1.934482 1.053164 -0.861325 42.000000
1.949999 1.032897 -0.864521 29.000000
1.985742 1.023413 -0.877075 35.000000
2.009356 1.006594 -0.883810 46.000000
2.045135 0.995818 -0.896356 28.000000
2.089666 0.987994 -0.912233 29.000000
2.117110 0.971788 -0.921028 31.000000
2.131753 0.949369 -0.924245 25.000000
2.167542 0.935912 -0.936610 22.000000
2.164682 0.905572 -0.932388 20.000000
2.178774 0.882427 -0.935470 22.000000
2.179621 0.853945 -0.932849 24.000000
2.180164 0.825509 -0.930220 15.000000
2.171455 0.794235 -0.924099 21.000000
2.162531 0.762980 -0.917581 20.000000
2.166278 0.736762 -0.916852 20.000000
2.174102 0.711937 -0.917906 21.000000
2.172849 0.684250 -0.915156 21.000000
2.162355 0.653931 -0.908592 19.000000
2.173870 0.630403 -0.911277 21.000000
2.162771 0.600421 -0.904546 12.000000
2.182568 0.579323 -0.911044 15.000000
2.175179 0.550940 -0.906244 17.000000
2.172148 0.523731 -0.903014 18.000000
2.168555 0.496875 -0.900220 21.000000
2.169299 0.471062 -0.898929 19.000000
2.160724 0.443345 -0.893807 21.000000
2.169922 0.419602 -0.896340 22.000000
2.156128 0.391472 -0.889401 14.000000
2.178511 0.369890 -0.897432 17.000000
2.154989 0.340587 -0.886503 18.000000
2.144762 0.313995 -0.881428 21.000000
2.148047 0.289501 -0.881856 19.000000
2.146450 0.264369 -0.880328 21.000000
2.149229 0.239785 -0.880613 28.000000
1.288016 0.099150 -0.526488 24.000000
1.284333 0.084160 -0.524813 75.000000
1.275978 0.068983 -0.521038 95.000000
1.262775 0.053820 -0.515499 81.000000
1.267902 0.039510 -0.517387 80.000000
1.268237 0.025044 -0.517513 85.000000
1.277662 0.010655 -0.521332 95.000000
1.273075 -0.003944 -0.519444 98.000000
1.291507 -0.018732 -0.526914 98.000000
1.291252 -0.033504 -0.526786 108.000000
2.102889 -0.126775 -0.858749 29.000000
2.101431 -0.150727 -0.858401 10.000000
2.159687 -0.179742 -0.882642 24.000000
2.148253 -0.203505 -0.878798 21.000000
2.164398 -0.229994 -0.885840 24.000000
2.161816 -0.254736 -0.885553 24.000000
2.140502 -0.277029 -0.877661 18.000000
2.151206 -0.303430 -0.882810 22.000000
2.147842 -0.327905 -0.882238 21.000000
2.125834 -0.349445 -0.874287 10.000000
2.117368 -0.372908 -0.871841 18.000000
2.117745 -0.397977 -0.873152 18.000000
2.117891 -0.423009 -0.874319 24.000000
2.117661 -0.448216 -0.875696 24.000000
2.103626 -0.470421 -0.871307 21.000000
2.112056 -0.497450 -0.876000 23.000000
2.101913 -0.520615 -0.873630 21.000000
2.091653 -0.543392 -0.870906 9.000000
2.076799 -0.564778 -0.866248 16.000000
2.092809 -0.594909 -0.874795 20.000000
2.108394 -0.625481 -0.883325 22.000000
2.083789 -0.644156 -0.874939 18.000000
2.107546 -0.677914 -0.887024 18.000000
2.095719 -0.700461 -0.884075 22.000000
2.092479 -0.725879 -0.884840 18.000000
2.062479 -0.742037 -0.874629 9.000000
2.063118 -0.768760 -0.877105 18.000000
2.067660 -0.797426 -0.881565 16.000000
2.058780 -0.821154 -0.880473 18.000000
2.058349 -0.848278 -0.882995 21.000000
2.057549 -0.875526 -0.885435 15.000000
2.064965 -0.906489 -0.891466 21.000000
2.059285 -0.932014 -0.891895 17.000000
2.023828 -0.943726 -0.879492 9.000000
2.034253 -0.977164 -0.887395 19.000000
2.052878 -1.014765 -0.898627 19.000000
2.025018 -1.029971 -0.889980 19.000000
2.051065 -1.072399 -0.904650 22.000000
2.030953 -1.091650 -0.899574 16.000000
2.022947 -1.117317 -0.899878 25.000000
2.002503 -1.135953 -0.894666 13.000000
1.977905 -1.151980 -0.887585 9.000000
1.997264 -1.193820 -0.900371 12.000000
1.976215 -1.211938 -0.895019 10.000000
1.990591 -1.252002 -0.905779 16.000000
2.004437 -1.292471 -0.916488 14.000000
1.978639 -1.307750 -0.909092 10.000000
1.960509 -1.327765 -0.905368 12.000000
1.949493 -1.353328 -0.905371 10.000000
1.965313 -1.397238 -0.917503 9.000000
1.938858 -1.411345 -0.909977 10.000000
1.926794 -1.436841 -0.909868 10.000000
1.941092 -1.481427 -0.921720 15.000000
1.935665 -1.512691 -0.924934 11.000000
1.915827 -1.531798 -0.920774 10.000000
1.913291 -1.565969 -0.925627 15.000000
1.888707 -1.582190 -0.919954 10.000000
1.896844 -1.624879 -0.929513 9.000000
1.875345 -1.643910 -0.925496 10.000000
1.857162 -1.665666 -0.923142 10.000000
1.852560 -1.699945 -0.927629 11.000000
1.844917 -1.730432 -0.929943 10.000000
1.849632 -1.774567 -0.939437 10.000000
1.846896 -1.812509 -0.945434 12.000000
1.823738 -1.830620 -0.941032 10.000000
1.843033 -1.892085 -0.958734 9.000000
1.812639 -1.903224 -0.950801 11.000000
1.795117 -1.927734 -0.949597 10.000000
1.799441 -1.976334 -0.960216 18.000000
1.777947 -1.997135 -0.957183 10.000000
1.777924 -2.042542 -0.965908 13.000000
1.770993 -2.081012 -0.971121 15.000000
1.760572 -2.115948 -0.974611 10.000000
1.767426 -2.172846 -0.987946 10.000000
1.746886 -2.196931 -0.986250 10.000000
1.737671 -2.235718 -0.991058 10.000000
1.727872 -2.274566 -0.995809 10.000000
1.721717 -2.321894 -1.004063 10.000000
1.707873 -2.357091 -1.007053 11.000000
1.704441 -2.407603 -1.016323 13.000000
1.681328 -2.431107 -1.014137 10.000000
1.693359 -2.510254 -1.034961 10.000000
1.653484 -2.510021 -1.022903 9.000000
1.657385 -2.576903 -1.038185 10.000000
1.634978 -2.604081 -1.037334 15.000000
1.622783 -2.652087 -1.044719 13.000000
1.609140 -2.695335 -1.050032 18.000000
1.585227 -2.722120 -1.048848 21.000000
1.577631 -2.782656 -1.060633 17.000000
1.566281 -2.834208 -1.068747 21.000000
0.894152 1.631812 -0.599602 21.000000
0.889248 1.579264 -0.586476 30.000000
0.927393 1.605917 -0.602829 28.000000
0.930879 1.569961 -0.595723 28.000000
0.957330 1.575362 -0.604355 32.000000
