x y z intensity
1.078526 0.931462 -1.210809 29.000000
0.666630 0.532562 -0.733200 95.000000
0.672432 0.523121 -0.734711 98.000000
0.672137 0.509045 -0.729609 95.000000
0.665595 0.490558 -0.717892 85.000000
0.682822 0.490126 -0.732603 32.000000
0.691387 0.482651 -0.737188 47.000000
0.749227 0.508948 -0.794753 12.000000
0.755000 0.498357 -0.796003 16.000000
0.760222 0.487876 -0.797511 26.000000
0.746352 0.465439 -0.779090 34.000000
0.706542 0.427965 -0.733958 54.000000
0.720815 0.423794 -0.745117 98.000000
0.722157 0.411932 -0.742982 95.000000
0.716873 0.396487 -0.734094 95.000000
0.730698 0.391958 -0.745432 95.000000
0.715276 0.371512 -0.726368 98.000000
0.716133 0.359879 -0.723911 100.000000
0.716492 0.348437 -0.721675 98.000000
0.740230 0.348044 -0.742928 98.000000
0.720343 0.327158 -0.720376 100.000000
0.730931 0.320098 -0.727767 95.000000
0.751021 0.317357 -0.745828 55.000000
0.730596 0.297280 -0.723021 100.000000
0.730432 0.285881 -0.720389 103.000000
0.730173 0.274510 -0.717687 103.000000
0.743327 0.268324 -0.728761 103.000000
0.749850 0.259255 -0.732744 100.000000
0.752519 0.249038 -0.733535 103.000000
0.751660 0.237650 -0.730861 98.000000
0.736647 0.222093 -0.714505 83.000000
0.742570 0.213041 -0.718487 95.000000
0.748450 0.203861 -0.722410 98.000000
0.750424 0.193704 -0.723154 103.000000
0.759723 0.185147 -0.730368 98.000000
0.754467 0.173195 -0.724124 98.000000
0.763381 0.164477 -0.731511 98.000000
0.761796 0.153308 -0.728287 95.000000
0.752669 0.140927 -0.718414 92.000000
0.771869 0.133850 -0.736143 100.000000
0.769781 0.122778 -0.732980 100.000000
0.749563 0.109148 -0.712620 103.000000
0.779480 0.102799 -0.740456 105.000000
0.769629 0.090938 -0.730497 103.000000
0.788593 0.082362 -0.747945 103.000000
0.767730 0.069679 -0.727553 98.000000
0.764849 0.058983 -0.724250 85.000000
0.765525 0.048616 -0.724314 95.000000
0.766137 0.038217 -0.724314 103.000000
0.770027 0.027982 -0.727941 98.000000
0.759290 0.017285 -0.717768 102.000000
0.773952 0.007118 -0.731570 98.000000
0.766717 -0.003348 -0.724701 105.000000
0.770286 -0.013813 -0.728038 101.000000
0.773822 -0.024376 -0.731310 103.000000
0.769994 -0.034678 -0.727682 103.000000
0.769477 -0.045126 -0.727650 100.000000
0.779742 -0.056361 -0.737881 95.000000
0.779053 -0.066925 -0.737717 98.000000
0.774646 -0.077128 -0.734090 100.000000
0.770181 -0.087233 -0.730367 100.000000
0.776495 -0.098583 -0.736832 100.000000
0.775510 -0.109081 -0.736405 103.000000
0.777766 -0.120201 -0.739632 105.000000
0.772722 -0.130143 -0.735913 98.000000
0.767920 -0.139954 -0.731870 81.000000
0.766352 -0.150371 -0.731445 100.000000
0.764426 -0.160820 -0.731217 105.000000
0.766259 -0.172004 -0.734076 100.000000
0.764455 -0.182371 -0.733453 100.000000
0.758744 -0.191906 -0.729649 100.000000
0.770963 -0.205972 -0.742489 100.000000
0.758025 -0.213504 -0.731747 100.000000
0.762659 -0.225887 -0.737924 60.000000
0.770685 -0.239551 -0.747421 98.000000
0.768100 -0.250024 -0.746683 95.000000
0.768894 -0.261648 -0.749234 103.000000
0.776221 -0.275898 -0.758789 100.000000
0.769897 -0.285181 -0.754449 100.000000
0.770068 -0.297056 -0.757080 98.000000
0.766719 -0.307617 -0.756260 98.000000
0.763267 -0.318110 -0.755405 67.000000
0.760122 -0.328433 -0.754141 100.000000
0.759567 -0.340473 -0.756821 103.000000
0.762613 -0.353995 -0.762474 95.000000
0.758837 -0.364421 -0.761331 98.000000
0.758353 -0.376393 -0.763433 98.000000
0.760619 -0.390294 -0.769182 98.000000
0.756197 -0.400822 -0.768129 98.000000
0.745551 -0.407531 -0.760058 61.000000
0.750778 -0.423326 -0.768896 100.000000
0.755780 -0.439357 -0.777596 103.000000
0.750995 -0.449783 -0.776310 105.000000
0.749292 -0.462104 -0.778229 103.000000
0.747511 -0.474441 -0.780101 100.000000
0.742433 -0.484741 -0.778624 100.000000
0.733730 -0.493050 -0.774070 98.000000
0.737867 -0.509585 -0.782317 95.000000
0.716712 -0.509012 -0.764531 95.000000
0.714468 -0.521087 -0.766099 79.000000
1.149808 -0.957913 -1.273400 31.000000
1.180024 -1.008743 -1.315720 26.000000
1.186455 -1.040377 -1.331965 13.000000
1.220833 -1.097964 -1.380228 18.000000
1.206362 -1.112515 -1.373550 20.000000
1.204783 -1.140381 -1.383354 20.000000
1.192786 -1.157322 -1.379729 15.000000
1.191655 -1.184869 -1.388712 21.000000
1.183688 -1.207548 -1.391741 24.000000
1.170054 -1.224590 -1.388332 14.000000
1.168060 -1.252365 -1.396897 10.000000
1.169766 -1.286455 -1.412236 16.000000
1.163285 -1.312068 -1.417839 19.000000
1.153859 -1.334821 -1.420256 20.000000
1.150589 -1.362925 -1.428264 20.000000
1.148091 -1.394685 -1.439732 23.000000
1.128101 -1.405212 -1.429288 15.000000
1.110450 -1.418546 -1.421908 10.000000
1.107041 -1.450283 -1.433008 10.000000
1.097168 -1.476477 -1.438282 11.000000
1.090539 -1.505294 -1.446002 14.000000
1.079002 -1.527709 -1.447451 15.000000
1.031555 1.499671 -1.381334 10.000000
1.041825 1.474170 -1.376284 11.000000
1.041177 1.436367 -1.359429 9.000000
1.061045 1.427447 -1.369828 9.000000
1.053557 1.379980 -1.343004 9.000000
1.056060 1.349098 -1.331747 9.000000
1.080364 1.345960 -1.348032 13.000000
1.079802 1.312031 -1.333454 10.000000
1.101505 1.305411 -1.346564 10.000000
1.102820 1.274594 -1.334827 10.000000
1.121858 1.264438 -1.344661 10.000000
1.124075 1.237122 -1.336259 10.000000
1.113672 1.195188 -1.311549 9.000000
1.129532 1.181891 -1.318011 10.000000
1.148046 1.171163 -1.327507 17.000000
1.146343 1.141380 -1.315405 10.000000
1.161848 1.127534 -1.321621 10.000000
1.173520 1.111269 -1.325129 11.000000
1.166223 1.076040 -1.305760 10.000000
1.183178 1.064892 -1.315391 11.000000
1.113419 0.977245 -1.229208 9.000000
1.082895 0.926651 -1.187284 23.000000
0.674564 0.548346 -0.729707 52.000000
0.674492 0.534142 -0.724823 68.000000
0.677236 0.522334 -0.723105 49.000000
0.652456 0.489970 -0.692195 36.000000
0.673214 0.492062 -0.709705 17.000000
0.715812 0.509049 -0.749967 33.000000
0.758485 0.525185 -0.790632 16.000000
0.764344 0.514543 -0.791967 9.000000
0.760217 0.497827 -0.783728 10.000000
0.762228 0.485323 -0.781994 10.000000
0.758134 0.468680 -0.773259 10.000000
0.750170 0.450470 -0.761498 10.000000
0.732204 0.426888 -0.739758 29.000000
0.730256 0.413089 -0.734373 61.000000
0.747926 0.410246 -0.748689 29.000000
0.745422 0.396572 -0.743431 74.000000
0.746484 0.384590 -0.741118 94.000000
0.754108 0.375938 -0.745388 95.000000
0.751250 0.362423 -0.739919 95.000000
0.748256 0.349056 -0.734396 90.000000
0.752235 0.338703 -0.735104 95.000000
0.759263 0.329938 -0.739413 95.000000
0.766222 0.321046 -0.743662 59.000000
0.742081 0.299424 -0.717804 98.000000
0.755429 0.293456 -0.728884 98.000000
0.762169 0.284443 -0.732963 98.000000
0.761849 0.272766 -0.730248 100.000000
0.764643 0.262454 -0.731113 100.000000
0.767371 0.252109 -0.731911 98.000000
0.766467 0.240622 -0.729282 98.000000
0.758679 0.226944 -0.719592 95.000000
0.760834 0.216756 -0.720441 98.000000
0.763185 0.206405 -0.720996 100.000000
0.769047 0.196970 -0.724824 100.000000
0.771016 0.186603 -0.725513 100.000000
0.773148 0.176138 -0.725809 100.000000
0.774953 0.165705 -0.726366 100.000000
0.776659 0.155240 -0.726858 100.000000
0.771059 0.143395 -0.720487 94.000000
0.779874 0.134244 -0.727580 100.000000
0.784984 0.124288 -0.731261 103.000000
0.775219 0.112129 -0.721560 100.000000
0.791135 0.103573 -0.735242 105.000000
0.795779 0.093339 -0.738997 103.000000
0.793055 0.082249 -0.735872 105.000000
0.797575 0.071884 -0.739462 105.000000
0.791016 0.060579 -0.732810 100.000000
0.777046 0.048976 -0.719304 98.000000
0.773961 0.038345 -0.715911 103.000000
0.788895 0.028476 -0.729680 103.000000
0.785422 0.017764 -0.726417 100.000000
0.778179 0.007117 -0.719692 105.000000
0.778211 -0.003364 -0.719692 105.000000
0.785520 -0.013943 -0.726417 108.000000
0.781719 -0.024408 -0.722860 105.000000
0.781524 -0.034939 -0.722632 108.000000
0.781004 -0.045437 -0.722632 105.000000
0.776723 -0.055704 -0.719142 100.000000
0.790686 -0.067401 -0.732579 103.000000
0.786271 -0.077686 -0.728958 105.000000
0.796377 -0.089481 -0.738830 103.000000
0.791797 -0.099732 -0.735077 103.000000
0.786863 -0.109918 -0.731558 100.000000
0.782137 -0.119940 -0.727646 100.000000
0.787989 -0.131685 -0.734117 100.000000
0.782842 -0.141658 -0.730404 98.000000
0.774058 -0.150795 -0.723184 100.000000
0.772393 -0.161244 -0.722694 103.000000
0.774297 -0.172430 -0.725513 103.000000
0.772197 -0.182928 -0.725185 103.000000
0.773910 -0.194194 -0.727833 100.000000
0.771669 -0.204675 -0.727372 100.000000
0.772890 -0.216119 -0.730176 98.000000
0.770771 -0.226483 -0.729282 95.000000
0.785685 -0.242440 -0.745680 88.000000
0.793659 -0.256462 -0.754967 98.000000
0.783882 -0.264799 -0.747405 98.000000
0.788132 -0.277817 -0.753216 98.000000
0.781416 -0.287280 -0.749185 98.000000
0.778169 -0.297910 -0.748433 95.000000
0.775127 -0.308369 -0.747305 89.000000
0.771709 -0.318896 -0.746450 58.000000
0.775082 -0.332296 -0.752149 85.000000
0.778288 -0.345848 -0.757797 100.000000
0.770822 -0.354965 -0.753676 95.000000
0.770460 -0.367000 -0.755848 98.000000
0.766599 -0.377437 -0.754631 92.000000
0.765628 -0.389645 -0.756962 95.000000
0.757901 -0.398416 -0.752648 89.000000
0.753831 -0.408644 -0.751256 40.000000
0.765740 -0.428129 -0.766522 69.000000
0.774112 -0.446147 -0.778416 98.000000
0.769266 -0.456743 -0.777114 91.000000
0.767537 -0.469238 -0.778976 95.000000
0.765292 -0.481931 -0.781119 80.000000
0.760186 -0.492361 -0.779587 98.000000
0.748653 -0.498548 -0.771508 72.000000
0.746147 -0.511074 -0.773420 68.000000
0.740808 -0.521242 -0.771750 12.000000
1.120723 -0.878289 -1.196785 25.000000
1.161907 -0.934690 -1.248746 19.000000
1.202091 -0.992388 -1.300407 16.000000
1.200177 -1.016509 -1.307020 16.000000
1.203857 -1.045802 -1.319840 10.000000
1.230192 -1.095908 -1.357961 9.000000
1.227156 -1.120732 -1.364024 12.000000
1.217186 -1.140832 -1.364237 10.000000
1.219265 -1.171165 -1.376338 13.000000
1.206025 -1.188529 -1.373145 13.000000
1.196455 -1.207991 -1.372426 10.000000
1.188333 -1.230668 -1.375291 10.000000
1.180019 -1.253300 -1.378058 10.000000
1.184600 -1.290283 -1.396240 9.000000
1.179388 -1.315508 -1.401323 10.000000
1.172755 -1.341231 -1.406696 10.000000
1.160619 -1.360987 -1.405837 10.000000
1.145831 -1.377580 -1.401810 10.000000
1.140846 -1.406290 -1.409932 10.000000
1.128171 -1.425708 -1.408722 10.000000
1.132223 -1.466999 -1.428865 9.000000
1.112773 -1.480681 -1.421822 8.000000
1.115818 -1.522354 -1.441540 10.000000
1.106527 -1.548234 -1.445976 10.000000
1.097694 -1.577885 -1.453737 10.000000
1.033253 1.522241 -1.363531 12.000000
1.049187 1.507215 -1.368074 10.000000
1.045424 1.462045 -1.345164 16.000000
1.058408 1.443682 -1.346475 13.000000
1.076049 1.431557 -1.353796 9.000000
1.071681 1.390776 -1.333847 9.000000
1.077763 1.362358 -1.325350 10.000000
1.097299 1.353052 -1.335368 10.000000
1.096507 1.318967 -1.321015 14.000000
1.118408 1.312271 -1.333959 10.000000
1.116927 1.278400 -1.319342 16.000000
1.114993 1.244775 -1.304491 17.000000
1.128514 1.228795 -1.307985 10.000000
1.139278 1.209825 -1.308321 10.000000
1.140588 1.182721 -1.299721 10.000000
1.164644 1.177553 -1.315356 16.000000
1.174898 1.158220 -1.315402 16.000000
1.181122 1.136517 -1.312756 13.000000
1.176757 1.103667 -1.296908 14.000000
1.179581 1.079490 -1.290835 13.000000
1.194647 1.065268 -1.296741 10.000000
1.120901 0.974915 -1.208388 19.000000
0.676449 0.545059 -0.714798 75.000000
0.685318 0.538067 -0.719527 93.000000
0.651357 0.498146 -0.679568 39.000000
0.653669 0.486782 -0.677736 32.000000
0.699417 0.507019 -0.720669 25.000000
0.714379 0.503934 -0.731634 34.000000
0.785800 0.539748 -0.800770 29.000000
0.785443 0.524596 -0.795657 32.000000
0.787668 0.511812 -0.794050 17.000000
0.783773 0.494743 -0.785590 10.000000
0.766237 0.470120 -0.764364 10.000000
0.738528 0.440199 -0.733286 16.000000
0.716909 0.414871 -0.708527 68.000000
0.724676 0.406949 -0.712913 53.000000
0.739074 0.402463 -0.723797 30.000000
0.743444 0.392368 -0.724847 72.000000
0.751148 0.383928 -0.729099 92.000000
0.731360 0.362054 -0.707399 95.000000
0.755842 0.361814 -0.727929 83.000000
0.759602 0.351617 -0.729013 79.000000
0.746401 0.333533 -0.713356 92.000000
0.777557 0.335358 -0.740616 76.000000
0.760298 0.316189 -0.721768 82.000000
0.760219 0.304500 -0.719337 93.000000
0.767048 0.295571 -0.723406 98.000000
0.759441 0.281371 -0.714485 95.000000
0.766102 0.272343 -0.718422 98.000000
0.772427 0.263253 -0.722597 100.000000
0.775421 0.252774 -0.723130 98.000000
0.778049 0.242363 -0.723861 98.000000
0.766287 0.227630 -0.711233 62.000000
0.772328 0.218327 -0.715147 95.000000
0.781897 0.209861 -0.722362 95.000000
0.773373 0.196576 -0.712833 83.000000
0.778922 0.187128 -0.716853 95.000000
0.781087 0.176630 -0.717181 95.000000
0.775577 0.164619 -0.711029 95.000000
0.791896 0.157114 -0.724878 95.000000
0.800866 0.147869 -0.731960 71.000000
0.798772 0.136483 -0.728984 95.000000
0.811282 0.127503 -0.739286 98.000000
0.790404 0.113510 -0.719707 95.000000
0.813845 0.105786 -0.739926 98.000000
0.792734 0.092317 -0.720199 98.000000
0.808418 0.083241 -0.733865 95.000000
0.812949 0.072745 -0.737418 91.000000
0.791561 0.060181 -0.717437 44.000000
0.795916 0.049833 -0.720855 77.000000
0.796539 0.039204 -0.720855 64.000000
0.804214 0.028807 -0.727759 71.000000
0.800705 0.017996 -0.724537 95.000000
0.800804 0.007284 -0.724603 95.000000
0.797130 -0.003379 -0.721249 95.000000
0.785975 -0.013845 -0.711088 98.000000
0.778432 -0.024129 -0.704251 100.000000
0.781945 -0.034675 -0.707379 100.000000
0.781430 -0.045107 -0.707379 95.000000
0.791920 -0.056360 -0.717339 98.000000
0.794932 -0.067253 -0.720527 98.000000
0.797871 -0.078245 -0.723680 100.000000
0.793324 -0.088479 -0.720035 100.000000
0.796091 -0.099536 -0.723021 98.000000
0.794806 -0.110182 -0.722856 100.000000
0.790044 -0.120235 -0.719018 103.000000
0.788633 -0.130799 -0.718722 100.000000
0.787157 -0.141363 -0.718362 88.000000
0.785582 -0.151894 -0.717935 95.000000
0.791234 -0.163902 -0.724117 98.000000
0.789479 -0.174465 -0.723554 100.000000
0.809164 -0.190211 -0.743186 100.000000
0.781886 -0.194689 -0.719132 95.000000
0.804911 -0.211819 -0.741961 100.000000
0.802495 -0.222639 -0.741382 95.000000
0.792870 -0.231299 -0.734093 85.000000
0.790341 -0.241921 -0.733384 98.000000
0.787744 -0.252510 -0.732643 95.000000
0.788294 -0.264357 -0.735416 95.000000
0.785516 -0.274892 -0.734501 98.000000
0.782366 -0.285494 -0.733824 98.000000
0.786475 -0.298594 -0.739375 95.000000
0.779629 -0.307843 -0.735292 80.000000
0.783188 -0.321178 -0.740993 54.000000
0.779686 -0.331718 -0.740032 95.000000
0.779565 -0.343745 -0.742321 93.000000
0.778962 -0.355934 -0.744809 95.000000
0.775221 -0.366395 -0.743666 95.000000
0.774391 -0.378620 -0.746038 95.000000
0.773874 -0.390694 -0.748017 86.000000
0.782912 -0.408219 -0.760016 95.000000
0.775021 -0.417052 -0.755657 36.000000
0.760456 -0.422072 -0.744732 72.000000
0.759145 -0.434268 -0.746756 95.000000
0.757722 -0.446519 -0.748699 95.000000
0.759412 -0.460731 -0.753830 88.000000
0.754505 -0.471006 -0.752408 95.000000
0.749101 -0.481423 -0.751234 98.000000
0.756826 -0.499994 -0.762540 84.000000
1.288701 -0.949609 -1.328120 12.000000
1.275218 -0.964994 -1.322268 14.000000
1.273785 -0.989637 -1.329020 16.000000
1.266028 -1.009587 -1.329259 10.000000
1.267077 -1.036781 -1.338979 15.000000
1.267852 -1.064177 -1.348449 13.000000
1.244744 -1.071442 -1.332654 9.000000
1.245047 -1.098840 -1.341933 15.000000
1.252677 -1.134667 -1.360952 14.000000
1.240823 -1.151819 -1.357442 11.000000
1.239093 -1.180079 -1.366812 18.000000
1.221327 -1.191655 -1.356779 13.000000
1.216266 -1.217137 -1.362832 15.000000
1.216434 -1.248343 -1.374899 10.000000
1.203697 -1.265077 -1.370834 9.000000
1.197779 -1.290677 -1.376481 14.000000
1.188956 -1.313443 -1.378872 10.000000
1.198113 -1.356962 -1.402667 18.000000
1.183367 -1.373874 -1.398683 13.000000
1.171033 -1.393683 -1.397675 10.000000
1.166119 -1.422572 -1.405687 10.000000
1.150859 -1.439104 -1.401378 10.000000
1.146434 -1.471712 -1.412655 9.000000
1.130795 -1.487994 -1.408156 10.000000
1.124471 -1.516989 -1.415654 10.000000
1.122573 -1.552464 -1.428982 10.000000
1.109253 -1.575659 -1.430713 10.000000
1.106359 -1.611447 -1.443702 10.000000
1.037841 1.551978 -1.351782 10.000000
1.053949 1.536995 -1.356354 15.000000
1.057450 1.501439 -1.342797 20.000000
1.070713 1.482968 -1.344280 10.000000
1.073242 1.447715 -1.330342 15.000000
1.085920 1.429205 -1.331669 10.000000
1.093537 1.404234 -1.326865 9.000000
1.099597 1.375604 -1.318469 18.000000
1.119231 1.366210 -1.328509 18.000000
1.128668 1.344183 -1.326392 18.000000
1.122253 1.303989 -1.306033 19.000000
1.136228 1.288037 -1.309724 14.000000
1.150137 1.271953 -1.313349 22.000000
1.153071 1.244045 -1.304716 11.000000
1.166655 1.227718 -1.308112 10.000000
1.177286 1.208430 -1.308378 17.000000
1.183964 1.186687 -1.306011 16.000000
1.188549 1.161698 -1.299948 17.000000
1.201428 1.144956 -1.302974 21.000000
1.210272 1.125797 -1.303419 10.000000
1.202531 1.090275 -1.284527 19.000000
1.207974 1.068600 -1.281591 12.000000
1.092653 0.941813 -1.150197 10.000000
0.702385 0.575674 -0.729725 32.000000
0.699377 0.558751 -0.721944 95.000000
0.683877 0.532422 -0.701469 77.000000
0.661762 0.501889 -0.674595 66.000000
0.689006 0.508898 -0.698044 24.000000
0.722821 0.519795 -0.727910 50.000000
0.763348 0.534211 -0.764157 18.000000
0.762848 0.519384 -0.759165 9.000000
0.784243 0.519751 -0.776685 10.000000
0.802965 0.517297 -0.790704 31.000000
0.805079 0.504395 -0.789061 47.000000
0.804205 0.489320 -0.783831 28.000000
0.789543 0.466724 -0.766021 13.000000
0.731342 0.419785 -0.706332 22.000000
0.735840 0.409882 -0.707474 35.000000
0.736873 0.398094 -0.705361 58.000000
0.754755 0.395191 -0.719299 75.000000
0.759077 0.384983 -0.720286 90.000000
0.766411 0.376489 -0.724746 95.000000
0.770581 0.366099 -0.725635 98.000000
0.777832 0.357365 -0.729973 95.000000
0.764508 0.339084 -0.714523 95.000000
0.757593 0.324361 -0.705740 81.000000
0.771558 0.318539 -0.716370 81.000000
0.767936 0.305365 -0.710722 95.000000
0.771230 0.295053 -0.711487 98.000000
0.774489 0.284675 -0.712186 100.000000
0.777317 0.274396 -0.713117 95.000000
0.776831 0.262707 -0.710442 100.000000
0.783105 0.253506 -0.714514 100.000000
0.796579 0.246406 -0.725123 98.000000
0.774124 0.228217 -0.702514 87.000000
0.783798 0.219935 -0.709706 95.000000
0.778630 0.207580 -0.703951 87.000000
0.784565 0.198118 -0.707700 95.000000
0.783104 0.186747 -0.704800 95.000000
0.788633 0.177155 -0.708717 98.000000
0.790700 0.166624 -0.708979 95.000000
0.803463 0.158271 -0.719371 92.000000
0.808819 0.148270 -0.723072 66.000000
0.814124 0.138138 -0.726743 81.000000
0.815634 0.127295 -0.727011 98.000000
0.816809 0.116486 -0.727515 100.000000
0.818152 0.105609 -0.727649 100.000000
0.793095 0.091718 -0.704854 100.000000
0.820099 0.083856 -0.728287 100.000000
0.794817 0.070658 -0.705309 100.000000
0.810505 0.061223 -0.718687 64.000000
0.803724 0.049997 -0.712128 83.000000
0.815537 0.039850 -0.722065 92.000000
0.812094 0.028906 -0.718952 95.000000
0.804774 0.017978 -0.712456 100.000000
0.812392 0.007351 -0.719150 100.000000
0.786218 -0.003300 -0.695952 100.000000
0.793674 -0.013878 -0.702515 100.000000
0.789801 -0.024276 -0.699040 103.000000
0.785866 -0.034575 -0.695503 103.000000
0.781613 -0.044807 -0.692191 95.000000
0.784744 -0.055435 -0.695407 84.000000
0.795272 -0.066790 -0.705211 100.000000
0.798255 -0.077716 -0.708294 100.000000
0.797406 -0.088296 -0.708000 105.000000
0.796492 -0.098843 -0.707641 100.000000
0.798934 -0.109967 -0.710783 103.000000
0.794173 -0.119970 -0.706988 100.000000
0.796474 -0.131127 -0.709996 100.000000
0.798662 -0.142383 -0.712936 69.000000
0.800770 -0.153671 -0.715806 98.000000
0.802797 -0.165057 -0.718572 100.000000
0.804475 -0.176574 -0.721601 100.000000
0.820962 -0.191509 -0.737393 98.000000
0.815051 -0.201577 -0.733658 100.000000
0.794514 -0.207668 -0.716743 98.000000
0.814297 -0.224185 -0.735581 98.000000
0.808178 -0.233970 -0.731651 81.000000
0.798131 -0.242596 -0.724684 95.000000
0.795534 -0.253218 -0.723909 95.000000
0.803599 -0.267354 -0.732915 98.000000
0.796949 -0.276913 -0.728997 98.000000
0.794090 -0.287461 -0.728044 95.000000
0.790824 -0.298077 -0.727295 100.000000
0.787523 -0.308660 -0.726479 98.000000
0.787637 -0.320640 -0.728848 76.000000
0.791152 -0.334124 -0.734424 98.000000
0.791050 -0.346201 -0.736635 98.000000
0.790499 -0.358442 -0.739080 98.000000
0.790158 -0.370602 -0.741168 95.000000
0.782498 -0.379594 -0.737027 100.000000
0.778566 -0.389996 -0.735740 98.000000
0.781009 -0.404016 -0.741141 89.000000
0.779928 -0.416347 -0.743270 95.000000
0.771989 -0.425003 -0.738895 95.000000
0.764021 -0.433498 -0.734459 95.000000
0.759338 -0.443771 -0.733166 98.000000
0.764471 -0.459886 -0.741426 95.000000
0.762434 -0.472357 -0.743484 98.000000
0.789965 -0.503308 -0.773873 90.000000
1.240709 -0.859016 -1.234996 24.000000
1.291168 -0.918590 -1.292728 19.000000
1.299851 -0.949923 -1.309097 16.000000
1.301831 -0.976980 -1.319029 19.000000
1.291218 -0.994754 -1.316216 15.000000
1.283469 -1.014752 -1.316473 19.000000
1.278634 -1.037099 -1.319716 17.000000
1.282577 -1.067044 -1.332225 18.000000
1.280171 -1.092059 -1.338304 13.000000
1.267705 -1.109906 -1.335548 10.000000
1.267710 -1.137647 -1.344462 17.000000
1.263536 -1.163315 -1.350755 20.000000
1.251467 -1.180452 -1.347088 15.000000
1.246765 -1.206146 -1.353113 16.000000
1.238943 -1.229097 -1.355959 16.000000
1.226399 -1.245890 -1.352047 10.000000
1.226358 -1.277308 -1.363795 10.000000
1.212376 -1.294428 -1.360180 10.000000
1.208911 -1.323078 -1.368566 16.000000
1.202474 -1.348921 -1.373860 18.000000
1.203555 -1.383804 -1.388016 11.000000
1.191259 -1.403695 -1.387024 13.000000
1.173584 -1.417285 -1.379874 10.000000
1.168567 -1.446177 -1.387625 11.000000
1.159305 -1.472629 -1.392748 10.000000
1.153496 -1.501629 -1.400222 10.000000
1.147346 -1.530762 -1.407547 16.000000
1.136942 -1.557278 -1.412279 16.000000
1.125293 -1.579907 -1.413428 13.000000
1.118809 -1.613016 -1.423859 14.000000
1.111024 -1.642287 -1.430603 10.000000
1.035520 1.571393 -1.330890 10.000000
1.058613 1.566750 -1.344224 15.000000
1.069284 1.541075 -1.339683 15.000000
1.081874 1.518700 -1.337933 13.000000
1.088068 1.490261 -1.330647 19.000000
1.093848 1.461951 -1.323285 12.000000
1.107903 1.442780 -1.324127 14.000000
1.113026 1.414438 -1.316509 10.000000
1.122805 1.392513 -1.314738 15.000000
1.136161 1.373086 -1.315224 24.000000
1.145499 1.351007 -1.313189 17.000000
1.152009 1.325843 -1.308065 18.000000
1.158190 1.300699 -1.302756 24.000000
1.161417 1.272692 -1.294394 16.000000
1.177822 1.259297 -1.300891 21.000000
1.169403 1.219802 -1.280229 10.000000
1.191034 1.211949 -1.292545 11.000000
1.201375 1.192535 -1.292768 18.000000
1.205953 1.167484 -1.286827 17.000000
1.214950 1.148368 -1.287327 17.000000
1.218908 1.123390 -1.281116 20.000000
1.221670 1.098906 -1.275308 14.000000
1.230955 1.079231 -1.274965 19.000000
1.077539 0.921698 -1.108740 20.000000
0.701167 0.569806 -0.711450 84.000000
0.707204 0.560260 -0.713065 95.000000
0.679028 0.524309 -0.680465 79.000000
0.672137 0.505645 -0.669447 29.000000
0.721705 0.528822 -0.714507 33.000000
0.736965 0.525767 -0.725283 44.000000
0.774713 0.537979 -0.757985 10.000000
0.764457 0.516521 -0.743663 8.000000
0.796168 0.523152 -0.770074 9.000000
0.791736 0.506222 -0.762232 10.000000
0.800644 0.497487 -0.766568 10.000000
0.812505 0.490778 -0.774336 24.000000
0.824301 0.483779 -0.782089 42.000000
0.752568 0.428545 -0.710220 26.000000
0.757114 0.418428 -0.711382 91.000000
0.758192 0.406454 -0.709329 39.000000
0.766001 0.398022 -0.713569 87.000000
0.770000 0.387871 -0.714868 95.000000
0.770816 0.375829 -0.712596 91.000000
0.761066 0.358896 -0.700682 95.000000
0.764776 0.348804 -0.701785 93.000000
0.772229 0.340024 -0.705728 77.000000
0.779314 0.331250 -0.709914 95.000000
0.789871 0.323768 -0.717257 35.000000
0.779112 0.307635 -0.705227 95.000000
0.789565 0.299957 -0.712477 95.000000
0.785661 0.286816 -0.706731 98.000000
0.785234 0.275061 -0.704169 98.000000
0.791643 0.265897 -0.708268 98.000000
0.798245 0.256503 -0.712039 98.000000
0.797257 0.244811 -0.709538 95.000000
0.777917 0.227834 -0.690748 64.000000
0.787682 0.219540 -0.697858 95.000000
0.790011 0.209108 -0.698382 95.000000
0.795992 0.199534 -0.702125 92.000000
0.801929 0.189862 -0.705773 95.000000
0.800079 0.178440 -0.703147 98.000000
0.798180 0.167116 -0.700417 95.000000
0.807591 0.157975 -0.707164 95.000000
0.816705 0.148671 -0.714082 74.000000
0.822012 0.138507 -0.717712 95.000000
0.827030 0.128278 -0.721548 98.000000
0.824698 0.116788 -0.718485 98.000000
0.826041 0.105878 -0.718619 100.000000
0.834566 0.095865 -0.725524 98.000000
0.835515 0.084856 -0.725795 98.000000
0.828827 0.073181 -0.719492 100.000000
0.825828 0.061955 -0.716355 61.000000
0.815207 0.050361 -0.706608 77.000000
0.823355 0.039984 -0.713150 91.000000
0.823621 0.029139 -0.713350 95.000000
0.823820 0.018295 -0.713483 95.000000
0.816394 0.007383 -0.707003 103.000000
0.823987 -0.003426 -0.713549 100.000000
0.801243 -0.013878 -0.693813 100.000000
0.797367 -0.024308 -0.690412 100.000000
0.797142 -0.034804 -0.690187 100.000000
0.796627 -0.045332 -0.690187 103.000000
0.799820 -0.056093 -0.693361 95.000000
0.810449 -0.067581 -0.703008 98.000000
0.809695 -0.078243 -0.702779 103.000000
0.808842 -0.088905 -0.702483 100.000000
0.811681 -0.100031 -0.705388 103.000000
0.806676 -0.110229 -0.701958 100.000000
0.809077 -0.121421 -0.704993 100.000000
0.807924 -0.132067 -0.704432 98.000000
0.813908 -0.144034 -0.710589 67.000000
0.808585 -0.154068 -0.706899 98.000000
0.828968 -0.169319 -0.726206 98.000000
0.830908 -0.181050 -0.728848 100.000000
0.832729 -0.192844 -0.731449 100.000000
0.834154 -0.204771 -0.734252 98.000000
0.828163 -0.214851 -0.730488 103.000000
0.825760 -0.225803 -0.729904 98.000000
0.819629 -0.235669 -0.726011 75.000000
0.820713 -0.247570 -0.728531 95.000000
0.818069 -0.258419 -0.727776 100.000000
0.811426 -0.268105 -0.723960 98.000000
0.808623 -0.278770 -0.723037 100.000000
0.801849 -0.288244 -0.719129 98.000000
0.805779 -0.301575 -0.724823 98.000000
0.798882 -0.310898 -0.720781 95.000000
0.799015 -0.322929 -0.723141 37.000000
0.809691 -0.339433 -0.735018 95.000000
0.816616 -0.354747 -0.743585 100.000000
0.801968 -0.360957 -0.733201 100.000000
0.801680 -0.373167 -0.735210 100.000000
0.797433 -0.383907 -0.734297 95.000000
0.793152 -0.394576 -0.733315 95.000000
0.792547 -0.406795 -0.735163 98.000000
0.784624 -0.415562 -0.730858 53.000000
0.790272 -0.431613 -0.739218 95.000000
0.785579 -0.442137 -0.737973 95.000000
0.783809 -0.454746 -0.740141 95.000000
0.785610 -0.469148 -0.745062 75.000000
1.158343 -0.752837 -1.114467 43.000000
1.247126 -0.833434 -1.206532 34.000000
1.257135 -0.863546 -1.223068 10.000000
1.324168 -0.934599 -1.295672 14.000000
1.332905 -0.966291 -1.311771 21.000000
1.322370 -0.984278 -1.309073 16.000000
1.327220 -1.014038 -1.321760 24.000000
1.316299 -1.031979 -1.318834 20.000000
1.299121 -1.044796 -1.309667 18.000000
1.297106 -1.069780 -1.315806 18.000000
1.305987 -1.105529 -1.334595 10.000000
1.300296 -1.128320 -1.337419 11.000000
1.302288 -1.159361 -1.349795 20.000000
1.278540 -1.166249 -1.334018 18.000000
1.285741 -1.202816 -1.352203 24.000000
1.267675 -1.214596 -1.342335 15.000000
1.257023 -1.234919 -1.342060 14.000000
1.265891 -1.274837 -1.362854 16.000000
1.251921 -1.292386 -1.359276 9.000000
1.246048 -1.318371 -1.364646 10.000000
1.237064 -1.341504 -1.366901 11.000000
1.233246 -1.370538 -1.375031 13.000000
1.221155 -1.390611 -1.374081 16.000000
1.214021 -1.416724 -1.378987 14.000000
1.204108 -1.439682 -1.380735 13.000000
1.195114 -1.466341 -1.385903 13.000000
1.192160 -1.498681 -1.396266 9.000000
1.188802 -1.531227 -1.406536 10.000000
1.168888 -1.545098 -1.399515 15.000000
1.162342 -1.574428 -1.406520 13.000000
1.153000 -1.600509 -1.410538 14.000000
1.139548 -1.623829 -1.412044 13.000000
1.123496 -1.643768 -1.410476 10.000000
1.117781 -1.676558 -1.419963 10.000000
1.069864 1.606804 -1.340163 10.000000
1.076221 1.574242 -1.330092 9.000000
1.078303 1.538941 -1.317482 10.000000
1.097919 1.526572 -1.324353 9.000000
1.102856 1.494288 -1.313915 9.000000
1.128169 1.491876 -1.329878 10.000000
1.122459 1.446625 -1.307510 8.000000
1.127454 1.418318 -1.300039 10.000000
1.139796 1.399452 -1.301131 10.000000
1.142633 1.367548 -1.290002 9.000000
1.151875 1.345492 -1.287948 10.000000
1.168773 1.332554 -1.294707 10.000000
1.180280 1.313345 -1.295434 10.000000
1.194315 1.296971 -1.299043 10.000000
1.194424 1.265780 -1.287715 8.000000
1.188570 1.229066 -1.270278 9.000000
1.201830 1.212620 -1.273593 10.000000
1.203617 1.184750 -1.264789 10.000000
1.219378 1.170841 -1.270949 10.000000
1.226396 1.148538 -1.267959 10.000000
1.238088 1.132093 -1.271364 10.000000
1.244673 1.109644 -1.268201 10.000000
1.245013 1.082017 -1.258817 9.000000
0.717665 0.593632 -0.716374 10.000000
0.705841 0.568831 -0.699447 69.000000
0.711851 0.559327 -0.701054 32.000000
0.677010 0.518511 -0.662706 29.000000
0.698347 0.521172 -0.679497 11.000000
0.751688 0.546463 -0.727129 29.000000
0.770434 0.545398 -0.740918 10.000000
0.769861 0.530539 -0.736160 8.000000
0.775672 0.520153 -0.737504 8.000000
0.791223 0.516082 -0.748087 9.000000
0.800229 0.507478 -0.752447 9.000000
0.805436 0.496843 -0.753961 9.000000
0.814363 0.487958 -0.758226 9.000000
0.775604 0.451605 -0.718996 10.000000
0.753234 0.425938 -0.695207 35.000000
0.761152 0.417785 -0.699495 32.000000
0.775909 0.413129 -0.710043 49.000000
0.773452 0.399219 -0.704819 55.000000
0.777793 0.388896 -0.705811 51.000000
0.785557 0.380196 -0.709923 79.000000
0.793255 0.371333 -0.713975 70.000000
0.800575 0.362481 -0.718242 79.000000
0.804663 0.351778 -0.719039 87.000000
0.794090 0.335167 -0.707321 55.000000
0.786865 0.320285 -0.698746 70.000000
0.786697 0.308470 -0.696405 95.000000
0.793613 0.299438 -0.700357 95.000000
0.800491 0.290245 -0.704282 98.000000
0.803661 0.279622 -0.704957 95.000000
0.806763 0.268966 -0.705530 100.000000
0.809495 0.258377 -0.706373 98.000000
0.808484 0.246634 -0.703915 98.000000
0.789210 0.229458 -0.685109 62.000000
0.799025 0.221122 -0.692139 95.000000
0.805108 0.211583 -0.695873 95.000000
0.807161 0.201053 -0.696634 95.000000
0.813109 0.191302 -0.700277 95.000000
0.811498 0.179730 -0.697396 98.000000
0.817068 0.169880 -0.701175 98.000000
0.818797 0.159169 -0.701641 95.000000
0.828223 0.149719 -0.708246 79.000000
0.833336 0.139541 -0.712106 95.000000
0.838631 0.129197 -0.715599 100.000000
0.840054 0.118188 -0.715836 100.000000
0.837619 0.106662 -0.712747 95.000000
0.842459 0.096136 -0.716344 100.000000
0.843374 0.085093 -0.716615 100.000000
0.840452 0.073716 -0.713623 100.000000
0.829808 0.061871 -0.704069 71.000000
0.830473 0.050994 -0.704136 95.000000
0.831072 0.040117 -0.704136 95.000000
0.835151 0.029373 -0.707566 100.000000
0.827723 0.018278 -0.701237 103.000000
0.835486 0.007519 -0.707767 103.000000
0.831704 -0.003426 -0.704535 103.000000
0.820193 -0.014107 -0.694741 105.000000
0.816280 -0.024719 -0.691379 105.000000
0.816051 -0.035397 -0.691150 100.000000
0.815529 -0.046075 -0.691150 100.000000
0.814941 -0.056752 -0.691052 98.000000
0.825670 -0.068342 -0.700575 100.000000
0.817306 -0.078440 -0.693888 100.000000
0.820250 -0.089517 -0.696819 103.000000
0.815534 -0.099797 -0.693232 100.000000
0.818075 -0.111006 -0.696291 105.000000
0.824319 -0.122845 -0.702506 103.000000
0.819114 -0.133042 -0.698985 98.000000
0.832932 -0.146353 -0.711195 60.000000
0.823556 -0.155923 -0.704592 103.000000
0.840649 -0.170488 -0.720166 98.000000
0.846362 -0.183115 -0.726010 98.000000
0.836719 -0.192500 -0.719209 100.000000
0.841948 -0.205323 -0.725182 98.000000
0.836163 -0.215366 -0.721149 98.000000
0.833794 -0.226318 -0.720566 98.000000
0.827593 -0.236216 -0.716714 58.000000
0.835802 -0.250463 -0.725897 95.000000
0.836805 -0.262560 -0.728295 100.000000
0.834056 -0.273519 -0.727425 98.000000
0.819992 -0.280769 -0.717201 98.000000
0.816833 -0.291584 -0.716515 95.000000
0.809956 -0.301021 -0.712578 98.000000
0.810242 -0.313076 -0.714935 95.000000
0.810394 -0.325192 -0.717216 35.000000
0.831904 -0.346250 -0.738435 90.000000
0.824617 -0.355668 -0.734239 79.000000
0.827619 -0.369767 -0.739748 95.000000
0.809647 -0.374115 -0.725945 77.000000
0.812439 -0.388236 -0.731301 95.000000
0.801154 -0.395558 -0.724014 77.000000
0.793302 -0.404426 -0.719818 59.000000
0.792274 -0.416756 -0.721873 34.000000
0.808297 -0.438395 -0.739481 70.000000
0.796770 -0.445320 -0.732000 42.000000
1.175229 -0.736996 -1.099390 33.000000
1.262504 -0.814436 -1.187407 28.000000
1.279628 -0.848750 -1.210062 14.000000
1.302687 -0.888018 -1.238685 10.000000
1.331650 -0.932615 -1.273295 10.000000
1.337439 -0.961956 -1.286095 10.000000
1.336503 -0.986911 -1.292627 10.000000
1.332138 -1.009543 -1.295993 10.000000
1.321294 -1.027358 -1.293088 10.000000
1.325810 -1.057330 -1.305303 13.000000
1.313728 -1.075486 -1.302691 10.000000
1.323731 -1.110864 -1.320744 9.000000
1.309033 -1.125926 -1.314397 10.000000
1.314307 -1.159619 -1.329614 10.000000
1.298391 -1.174936 -1.323578 10.000000
1.289197 -1.194934 -1.322968 10.000000
1.281770 -1.218036 -1.325744 10.000000
1.274088 -1.241162 -1.328423 10.000000
1.277435 -1.275581 -1.342941 10.000000
1.269181 -1.298838 -1.345392 9.000000
1.257750 -1.319130 -1.344705 9.000000
1.254491 -1.348142 -1.352883 9.000000
1.250769 -1.377246 -1.360856 10.000000
1.227954 -1.385265 -1.348086 9.000000
1.223733 -1.414353 -1.355842 10.000000
1.213879 -1.437327 -1.357605 10.000000
1.215519 -1.476475 -1.374349 9.000000
1.207494 -1.502659 -1.378763 9.000000
1.206811 -1.538452 -1.391748 9.000000
1.189380 -1.555591 -1.387720 9.000000
1.182896 -1.585023 -1.394631 10.000000
1.167505 -1.605171 -1.393221 9.000000
1.163593 -1.641961 -1.406111 10.000000
1.146586 -1.658069 -1.401241 9.000000
1.141790 -1.694939 -1.413814 9.000000
1.076365 1.640152 -1.329726 8.000000
1.073737 1.593684 -1.308735 10.000000
1.089986 1.578783 -1.313347 10.000000
1.109964 1.566393 -1.320295 10.000000
1.115218 1.533830 -1.310139 12.000000
1.123615 1.508543 -1.306016 10.000000
1.137967 1.489211 -1.307069 10.000000
1.148331 1.467142 -1.305584 10.000000
1.154614 1.438003 -1.297754 9.000000
1.164361 1.415800 -1.296041 14.000000
1.158217 1.374828 -1.276852 10.000000
1.173829 1.358341 -1.280216 10.000000
1.188162 1.342259 -1.283985 15.000000
1.191521 1.313881 -1.276006 10.000000
1.199940 1.291605 -1.273750 10.000000
1.219327 1.281007 -1.283074 12.000000
1.219944 1.249343 -1.271360 9.000000
1.233391 1.232666 -1.274656 13.000000
1.228481 1.199360 -1.260657 13.000000
1.235653 1.176973 -1.257844 10.000000
1.248528 1.160087 -1.260885 15.000000
1.237412 1.121440 -1.240015 15.000000
1.234769 1.091217 -1.227870 14.000000
0.722431 0.592641 -0.704114 18.000000
0.722841 0.577770 -0.699476 67.000000
0.691193 0.538754 -0.664807 87.000000
0.684196 0.519895 -0.654203 31.000000
0.731244 0.541471 -0.695079 21.000000
0.759539 0.547939 -0.717802 33.000000
0.804327 0.565129 -0.755814 9.000000
0.813726 0.556580 -0.760306 9.000000
0.776968 0.517186 -0.721979 7.000000
0.782621 0.506779 -0.723240 8.000000
0.781488 0.492058 -0.718325 8.000000
0.813449 0.498246 -0.744397 9.000000
0.795298 0.473256 -0.723976 13.000000
0.762788 0.441089 -0.691353 29.000000
0.767744 0.430835 -0.692310 80.000000
0.772290 0.420718 -0.693506 95.000000
0.766364 0.405000 -0.685297 52.000000
0.795126 0.407391 -0.708082 73.000000
0.799545 0.396850 -0.709125 95.000000
0.803859 0.386274 -0.710065 93.000000
0.800980 0.372333 -0.704733 95.000000
0.811930 0.365052 -0.712117 79.000000
0.823158 0.357375 -0.719136 95.000000
0.812498 0.340573 -0.707629 95.000000
0.816084 0.329917 -0.708560 70.000000
0.797809 0.310718 -0.690622 98.000000
0.797758 0.298746 -0.687984 100.000000
0.804388 0.289703 -0.692133 100.000000
0.803873 0.277860 -0.689655 98.000000
0.803230 0.266047 -0.687105 98.000000
0.809654 0.256774 -0.691058 100.000000
0.808818 0.244991 -0.688369 100.000000
0.818823 0.236563 -0.695389 95.000000
0.802641 0.220721 -0.680175 95.000000
0.801259 0.209246 -0.677566 98.000000
0.814776 0.201550 -0.687529 98.000000
0.805700 0.188249 -0.678448 98.000000
0.815109 0.179429 -0.685415 103.000000
0.813369 0.167969 -0.682504 95.000000
0.811284 0.156640 -0.679820 100.000000
0.824313 0.148141 -0.689780 91.000000
0.825869 0.137380 -0.690144 98.000000
0.827359 0.126619 -0.690409 103.000000
0.832569 0.116358 -0.693824 103.000000
0.833666 0.105547 -0.694256 103.000000
0.838727 0.095104 -0.697508 103.000000
0.835829 0.083792 -0.694589 100.000000
0.836660 0.072915 -0.694822 103.000000
0.841267 0.062322 -0.698143 95.000000
0.830402 0.050658 -0.688678 95.000000
0.834842 0.040032 -0.691866 95.000000
0.838955 0.029339 -0.695254 98.000000
0.835339 0.018344 -0.692197 98.000000
0.839288 0.007518 -0.695421 92.000000
0.839321 -0.003393 -0.695421 95.000000
0.839288 -0.014304 -0.695354 95.000000
0.831456 -0.024983 -0.688810 95.000000
0.835074 -0.035959 -0.691800 95.000000
0.834544 -0.046820 -0.691767 95.000000
0.830105 -0.057415 -0.688480 78.000000
0.837126 -0.068824 -0.694689 95.000000
0.828655 -0.078970 -0.688085 100.000000
0.827831 -0.089747 -0.687788 100.000000
0.834298 -0.101456 -0.694057 98.000000
0.833301 -0.112300 -0.693624 100.000000
0.828120 -0.122579 -0.690211 98.000000
0.830540 -0.133955 -0.693092 98.000000
0.829043 -0.144766 -0.692726 84.000000
0.819855 -0.154116 -0.685909 95.000000
0.833359 -0.167847 -0.698108 98.000000
0.838902 -0.180348 -0.704149 100.000000
0.837039 -0.191222 -0.703472 98.000000
0.831077 -0.201252 -0.699865 100.000000
0.836318 -0.213996 -0.705688 98.000000
0.833936 -0.224919 -0.705110 98.000000
0.838943 -0.237888 -0.710781 95.000000
0.836403 -0.248806 -0.710060 87.000000
0.829780 -0.258638 -0.706392 95.000000
0.838122 -0.273012 -0.714986 95.000000
0.831361 -0.282776 -0.711216 95.000000
0.828188 -0.293639 -0.710492 95.000000
0.828840 -0.305710 -0.712596 95.000000
0.825203 -0.316690 -0.712042 95.000000
0.821774 -0.327462 -0.711142 95.000000
0.821845 -0.339690 -0.713300 95.000000
0.825404 -0.353479 -0.718539 100.000000
0.817797 -0.362774 -0.714577 95.000000
0.813989 -0.373432 -0.713459 98.000000
0.809795 -0.384159 -0.712515 98.000000
0.802015 -0.393093 -0.708430 92.000000
0.808162 -0.408945 -0.716694 98.000000
0.796762 -0.415957 -0.709370 70.000000
0.792219 -0.426440 -0.708217 29.000000
1.375687 -0.809246 -1.246282 21.000000
1.386786 -0.839861 -1.262739 20.000000
1.381359 -0.860073 -1.263234 21.000000
1.391781 -0.891222 -1.279398 18.000000
1.385137 -0.911959 -1.280157 18.000000
1.375100 -0.930308 -1.277727 11.000000
1.355098 -0.941802 -1.266104 10.000000
1.354577 -0.966751 -1.272677 17.000000
1.347299 -0.987067 -1.273022 14.000000
1.358938 -1.021696 -1.291373 17.000000
1.360686 -1.049418 -1.300510 21.000000
1.355768 -1.072391 -1.303506 16.000000
1.346714 -1.093278 -1.303934 13.000000
1.335191 -1.111026 -1.300689 10.000000
1.328770 -1.134374 -1.303822 10.000000
1.332165 -1.165081 -1.315342 20.000000
1.319111 -1.183115 -1.312314 15.000000
1.300133 -1.195501 -1.303281 13.000000
1.313320 -1.237988 -1.326719 19.000000
1.293915 -1.250156 -1.317529 12.000000
1.287002 -1.272920 -1.319473 10.000000
1.284492 -1.301804 -1.327736 9.000000
1.280621 -1.331415 -1.336355 10.000000
1.280102 -1.363529 -1.347280 16.000000
1.273706 -1.389890 -1.352224 14.000000
1.264264 -1.413231 -1.354071 14.000000
1.243828 -1.424228 -1.344294 12.000000
1.246063 -1.463323 -1.360909 10.000000
1.254053 -1.508569 -1.382666 10.000000
1.235653 -1.522383 -1.375400 9.000000
1.220947 -1.542920 -1.374316 10.000000
1.217384 -1.575791 -1.384118 16.000000
1.204644 -1.599455 -1.385590 16.000000
1.195392 -1.625832 -1.389415 13.000000
1.194041 -1.666121 -1.404865 16.000000
1.187210 -1.699964 -1.414556 12.000000
1.174329 -1.723041 -1.415116 13.000000
1.159763 -1.746633 -1.416099 9.000000
1.083407 1.677626 -1.322045 10.000000
1.090397 1.644708 -1.312584 10.000000
1.096786 1.611901 -1.302961 10.000000
1.105099 1.582686 -1.295963 10.000000
1.118723 1.564131 -1.297707 14.000000
1.128724 1.538261 -1.293327 10.000000
1.145747 1.522293 -1.297266 16.000000
1.153805 1.496872 -1.293157 10.000000
1.167952 1.477286 -1.294029 10.000000
1.170278 1.445399 -1.284009 15.000000
1.176055 1.416270 -1.276133 10.000000
1.196136 1.406525 -1.285812 19.000000
1.201225 1.377349 -1.277786 17.000000
1.212994 1.358032 -1.278655 18.000000
1.219048 1.332488 -1.273745 19.000000
1.227631 1.309943 -1.271539 14.000000
1.228416 1.278131 -1.260077 16.000000
1.233523 1.252771 -1.254814 10.000000
1.246970 1.236028 -1.258110 13.000000
1.260285 1.219153 -1.261340 19.000000
1.261678 1.190884 -1.252796 17.000000
1.267743 1.168809 -1.250452 15.000000
1.250425 1.124551 -1.223955 21.000000
1.232385 1.080977 -1.197321 21.000000
0.736420 0.599219 -0.700733 77.000000
0.736356 0.584464 -0.696473 63.000000
0.688919 0.532765 -0.647099 54.000000
0.723320 0.545344 -0.675455 26.000000
0.758149 0.557092 -0.703896 35.000000
0.786825 0.563347 -0.726377 23.000000
0.828882 0.578029 -0.760938 10.000000
0.825195 0.560303 -0.753403 9.000000
0.804660 0.531738 -0.730660 9.000000
0.797025 0.512454 -0.719854 8.000000
0.816144 0.510284 -0.733208 9.000000
0.825153 0.501491 -0.737461 10.000000
0.792721 0.468489 -0.705459 25.000000
0.767005 0.440175 -0.679113 62.000000
0.778519 0.433994 -0.686405 98.000000
0.779604 0.421914 -0.684551 98.000000
0.805435 0.422546 -0.703729 48.000000
0.806406 0.410191 -0.701753 90.000000
0.814349 0.401349 -0.705870 98.000000
0.829380 0.395740 -0.716037 98.000000
0.822667 0.380011 -0.708046 95.000000
0.823248 0.367596 -0.705806 98.000000
0.823724 0.355172 -0.703489 95.000000
0.823748 0.342980 -0.701408 98.000000
0.830995 0.333706 -0.705438 51.000000
0.801835 0.310007 -0.678193 100.000000
0.808820 0.300916 -0.682095 100.000000
0.812076 0.290375 -0.682800 100.000000
0.814963 0.279868 -0.683740 105.000000
0.821736 0.270450 -0.687455 100.000000
0.813542 0.256201 -0.678689 100.000000
0.819913 0.246783 -0.682537 100.000000
0.833991 0.239290 -0.692327 76.000000
0.813889 0.222308 -0.674209 100.000000
0.820041 0.212709 -0.677893 100.000000
0.822326 0.202047 -0.678357 100.000000
0.816682 0.189687 -0.672794 100.000000
0.826399 0.180723 -0.679416 100.000000
0.820816 0.168395 -0.673450 98.000000
0.826348 0.158533 -0.677076 100.000000
0.835662 0.149190 -0.683745 77.000000
0.841066 0.139014 -0.687249 100.000000
0.842537 0.128120 -0.687550 100.000000
0.840086 0.116657 -0.684643 103.000000
0.845043 0.106299 -0.688184 103.000000
0.838551 0.094467 -0.681999 100.000000
0.839478 0.083640 -0.682264 103.000000
0.848050 0.073450 -0.688786 103.000000
0.837191 0.061633 -0.679482 60.000000
0.837850 0.050823 -0.679548 98.000000
0.838444 0.039979 -0.679581 100.000000
0.838740 0.029169 -0.679779 98.000000
0.842822 0.018410 -0.683059 103.000000
0.839037 0.007482 -0.679944 98.000000
0.842954 -0.003377 -0.683092 98.000000
0.842921 -0.014271 -0.683025 95.000000
0.854440 -0.025513 -0.692300 98.000000
0.850323 -0.036357 -0.688953 98.000000
0.849821 -0.047352 -0.688920 98.000000
0.849220 -0.058312 -0.688819 48.000000
0.840769 -0.068673 -0.682363 98.000000
0.840007 -0.079501 -0.682131 95.000000
0.850748 -0.091611 -0.691260 98.000000
0.845711 -0.102155 -0.688017 98.000000
0.836961 -0.112016 -0.681304 100.000000
0.843338 -0.123976 -0.687349 98.000000
0.845779 -0.135519 -0.690152 98.000000
0.851944 -0.147761 -0.696054 52.000000
0.854148 -0.159485 -0.698712 95.000000
0.844802 -0.168981 -0.691940 100.000000
0.846592 -0.180754 -0.694766 98.000000
0.848296 -0.192593 -0.697487 100.000000
0.846356 -0.203516 -0.696773 103.000000
0.844076 -0.214507 -0.696263 100.000000
0.845469 -0.226440 -0.698804 100.000000
0.835481 -0.235258 -0.691921 52.000000
0.851458 -0.251676 -0.707020 93.000000
0.845052 -0.261533 -0.703112 100.000000
0.845777 -0.273740 -0.705669 98.000000
0.846407 -0.286009 -0.708116 98.000000
0.843484 -0.296898 -0.707108 98.000000
0.836494 -0.306507 -0.703244 95.000000
0.836805 -0.318746 -0.705507 98.000000
0.829428 -0.328294 -0.701789 81.000000
0.840449 -0.345005 -0.713169 95.000000
0.840441 -0.357438 -0.715229 100.000000
0.832765 -0.366859 -0.711336 98.000000
0.828605 -0.377751 -0.710455 98.000000
0.824728 -0.388431 -0.709221 98.000000
0.820428 -0.399217 -0.708234 95.000000
0.823087 -0.413481 -0.713299 94.000000
1.336773 -0.736385 -1.173223 31.000000
1.394483 -0.790973 -1.228903 26.000000
1.406122 -0.821426 -1.245277 21.000000
1.397488 -0.839694 -1.242775 22.000000
1.418575 -0.876987 -1.267946 21.000000
1.402068 -0.891444 -1.259666 16.000000
1.402222 -0.916443 -1.266421 19.000000
1.388845 -0.932738 -1.261041 10.000000
1.388551 -0.957832 -1.267558 14.000000
1.387917 -0.983059 -1.273911 21.000000
1.370864 -0.996634 -1.265205 18.000000
1.373012 -1.024237 -1.274367 21.000000
1.374891 -1.051983 -1.283346 19.000000
1.372408 -1.077914 -1.289762 21.000000
1.379901 -1.111078 -1.304437 19.000000
1.345593 -1.111637 -1.280976 9.000000
1.355597 -1.147467 -1.298328 18.000000
1.351996 -1.173609 -1.304273 20.000000
1.335995 -1.189035 -1.298294 18.000000
1.337808 -1.220629 -1.309843 22.000000
1.316431 -1.229780 -1.297326 16.000000
1.323560 -1.267061 -1.314476 21.000000
1.303988 -1.279118 -1.305221 15.000000
1.307320 -1.313915 -1.319122 9.000000
1.313051 -1.351965 -1.335821 13.000000
1.297472 -1.370082 -1.332578 16.000000
1.293915 -1.399507 -1.340276 17.000000
1.284472 -1.422867 -1.342101 22.000000
1.272117 -1.443226 -1.340961 15.000000
1.266366 -1.473289 -1.348717 16.000000
1.264071 -1.506003 -1.358744 14.000000
1.257439 -1.536331 -1.366289 9.000000
1.246557 -1.559692 -1.367527 12.000000
1.234058 -1.583490 -1.369100 16.000000
1.230197 -1.616563 -1.378540 15.000000
1.219623 -1.643626 -1.382742 18.000000
1.208601 -1.670823 -1.386740 19.000000
1.203449 -1.704024 -1.395789 19.000000
1.193967 -1.734588 -1.402356 16.000000
1.188672 -1.772187 -1.414297 9.000000
1.164496 -1.781918 -1.404025 10.000000
1.105979 1.740032 -1.332689 10.000000
1.113552 1.706740 -1.323567 10.000000
1.101954 1.645713 -1.292421 9.000000
1.122365 1.633570 -1.299421 14.000000
1.125796 1.597324 -1.287114 11.000000
1.136034 1.571333 -1.282908 10.000000
1.156954 1.562700 -1.292915 16.000000
1.164141 1.533207 -1.285797 10.000000
1.181097 1.516958 -1.289612 16.000000
1.188956 1.491266 -1.285468 10.000000
1.202970 1.471495 -1.286315 9.000000
1.202244 1.436223 -1.273510 19.000000
1.199523 1.397561 -1.257301 11.000000
1.219600 1.387627 -1.266768 21.000000
1.226914 1.361495 -1.261544 20.000000
1.238452 1.341973 -1.262368 16.000000
1.258254 1.331344 -1.271661 24.000000
1.259154 1.299192 -1.260433 10.000000
1.264289 1.273512 -1.255267 10.000000
1.266186 1.245061 -1.247114 16.000000
1.276615 1.225212 -1.247478 18.000000
1.280893 1.199730 -1.241919 22.000000
1.284857 1.174289 -1.236317 20.000000
1.261097 1.124507 -1.204422 18.000000
1.220430 1.062653 -1.158181 29.000000
0.743641 0.615736 -0.695668 27.000000
0.734240 0.593273 -0.682724 29.000000
0.709023 0.558385 -0.654749 85.000000
0.698813 0.536750 -0.641566 32.000000
0.750099 0.561238 -0.684077 34.000000
0.775563 0.565620 -0.703294 44.000000
0.847232 0.602129 -0.764008 27.000000
0.860266 0.595529 -0.771518 27.000000
0.859987 0.579728 -0.767079 10.000000
0.822561 0.539751 -0.729811 9.000000
0.848718 0.541862 -0.749063 10.000000
0.851212 0.528564 -0.747375 10.000000
0.819301 0.494549 -0.715658 13.000000
0.776424 0.455418 -0.674801 43.000000
0.777690 0.443345 -0.673101 77.000000
0.786106 0.435024 -0.677067 100.000000
0.794186 0.426681 -0.681248 95.000000
0.791636 0.412651 -0.676313 73.000000
0.827993 0.418530 -0.704589 81.000000
0.836046 0.409471 -0.708684 98.000000
0.844065 0.400249 -0.712717 95.000000
0.844829 0.387584 -0.710612 95.000000
0.838157 0.371723 -0.702348 95.000000
0.838635 0.359200 -0.700114 95.000000
0.846018 0.349905 -0.704181 85.000000
0.838614 0.334576 -0.695975 46.000000
0.820237 0.315067 -0.678235 95.000000
0.827301 0.305836 -0.682107 98.000000
0.819394 0.291147 -0.673669 100.000000
0.830027 0.283055 -0.680471 98.000000
0.825336 0.269965 -0.675214 100.000000
0.828323 0.259222 -0.675784 100.000000
0.831210 0.248480 -0.676254 95.000000
0.841375 0.239933 -0.683113 62.000000
0.847683 0.230125 -0.686803 94.000000
0.827226 0.213305 -0.668887 100.000000
0.833334 0.203543 -0.672468 100.000000
