x y z intensity
2.871058 -0.226967 0.293582 37.000000
2.863453 -0.257796 0.292986 74.000000
2.850644 -0.288018 0.291885 89.000000
2.837418 -0.317935 0.290784 65.000000
2.819016 -0.347030 0.289177 83.000000
2.790445 -0.374391 0.286558 71.000000
2.741909 -0.398355 0.281832 18.000000
2.727576 -0.426649 0.280650 9.000000
2.693313 -0.451357 0.277449 13.000000
2.688287 -0.480760 0.277281 23.000000
2.682926 -0.509996 0.277114 36.000000
2.667476 -0.537184 0.275937 42.000000
2.661467 -0.566147 0.275687 77.000000
2.650353 -0.594022 0.275016 81.000000
2.634004 -0.620649 0.273760 52.000000
2.636773 -0.651674 0.274516 42.000000
2.562182 -0.662889 0.267234 9.000000
2.569202 -0.694547 0.268496 10.000000
2.542376 -0.717145 0.266245 10.000000
2.572620 -0.755995 0.270010 54.000000
2.564313 -0.783876 0.269681 69.000000
2.541371 -0.807320 0.267935 79.000000
2.532538 -0.834801 0.267607 62.000000
2.528003 -0.864054 0.267779 45.000000
2.570004 -0.909849 0.273013 9.000000
2.728232 -0.999294 0.290503 6.000000
3.248072 -1.270413 0.347847 1.000000
3.183311 -1.285327 0.341862 1.000000
3.113983 -1.297114 0.335503 1.000000
2.999226 -1.287456 0.324116 1.000000
2.985012 -1.320188 0.323716 1.000000
3.119929 -1.420768 0.339475 1.000000
3.081945 -1.443856 0.336385 1.000000
2.985293 -1.438583 0.327025 1.000000
2.978357 -1.475622 0.327497 1.000000
2.939978 -1.496747 0.324540 2.000000
2.870574 -1.501146 0.318169 3.000000
2.814824 -1.510859 0.313183 4.000000
2.846114 -1.568033 0.317951 6.000000
2.798453 -1.581978 0.314050 7.000000
2.798325 -1.622520 0.315399 10.000000
2.797482 -1.663241 0.316741 10.000000
2.788020 -1.698357 0.317009 8.000000
2.798852 -1.747335 0.319785 6.000000
2.720936 -1.740345 0.312438 3.000000
2.739290 -1.794600 0.316169 4.000000
2.727777 -1.830066 0.316425 6.000000
2.650102 -1.820424 0.309121 7.000000
2.663162 -1.871608 0.312151 9.000000
2.630383 -1.892028 0.310024 10.000000
2.621648 -1.929587 0.310754 10.000000
2.596416 -1.955234 0.309581 10.000000
2.586724 -1.992744 0.310303 10.000000
2.556883 -2.014910 0.308658 9.000000
2.573486 -2.074088 0.312567 10.000000
2.519958 -2.076826 0.308101 9.000000
2.513067 -2.116379 0.309073 10.000000
2.485931 -2.140624 0.307800 10.000000
2.469874 -2.174353 0.307927 9.000000
2.464472 -2.217934 0.309444 10.000000
2.440184 -2.244864 0.308631 10.000000
2.422744 -2.278311 0.308640 9.000000
2.422897 -2.328861 0.311050 9.000000
2.372391 -2.330906 0.306907 9.000000
2.364372 -2.374436 0.308383 10.000000
2.324493 -2.385844 0.305631 14.000000
2.274312 -2.385931 0.301524 25.000000
2.255955 -2.417051 0.301422 47.000000
2.222795 -2.434317 0.299504 35.000000
2.159636 -2.417608 0.293633 34.000000
2.054569 -2.351059 0.281947 28.000000
1.944703 -2.274934 0.269339 10.000000
1.884712 -2.254092 0.263509 25.000000
1.819061 -2.224412 0.256910 24.000000
1.763656 -2.205327 0.251592 21.000000
1.696651 -2.169523 0.244536 24.000000
1.633695 -2.136484 0.237964 25.000000
1.574590 -2.106328 0.231790 24.000000
1.522162 -2.083192 0.226609 23.000000
1.464741 -2.051070 0.220587 14.000000
1.439500 -2.062890 0.219304 29.000000
1.394552 -2.045529 0.215071 32.000000
1.367942 -2.051573 0.213300 32.000000
1.350946 -2.074726 0.213327 35.000000
1.331019 -2.093642 0.212921 30.000000
1.318730 -2.124936 0.213788 29.000000
1.300682 -2.147783 0.213794 28.000000
1.315318 -2.226198 0.219286 9.000000
0.713457 1.226523 0.131071 7.000000
0.721621 1.210056 0.130713 10.000000
0.734748 1.202111 0.131274 25.000000
0.747789 1.193949 0.131836 24.000000
0.762739 1.190325 0.132865 23.000000
0.778384 1.186079 0.133898 26.000000
0.796765 1.185732 0.135363 25.000000
0.809640 1.176929 0.135889 25.000000
0.819518 1.163926 0.135939 30.000000
0.823401 1.142735 0.135031 10.000000
0.847608 1.149690 0.137465 26.000000
0.860089 1.140319 0.137991 26.000000
0.875479 1.134800 0.138999 25.000000
0.887739 1.125132 0.139482 29.000000
0.906206 1.123077 0.140982 22.000000
0.918375 1.113077 0.141469 29.000000
0.930455 1.102943 0.141956 26.000000
0.942403 1.092677 0.142442 14.000000
0.953775 1.082721 0.143018 33.000000
0.972160 1.079584 0.144449 32.000000
0.987292 1.072506 0.145436 36.000000
0.998916 1.061597 0.145928 36.000000
1.007002 1.046969 0.145875 31.000000
1.025339 1.042970 0.147323 32.000000
1.047268 1.042147 0.149279 36.000000
1.051469 1.023650 0.148724 19.000000
1.076995 1.025759 0.151197 43.000000
1.091354 1.017654 0.152206 61.000000
1.109782 1.012273 0.153682 35.000000
1.131929 1.009949 0.155627 64.000000
1.146659 1.000701 0.156605 40.000000
1.161322 0.991276 0.157538 43.000000
1.168278 0.975254 0.157445 43.000000
1.198140 0.978092 0.160445 27.000000
1.208769 0.964852 0.160824 36.000000
1.222892 0.954910 0.161818 35.000000
1.233270 0.941389 0.162246 47.000000
1.243506 0.927773 0.162627 52.000000
1.253599 0.914015 0.163008 36.000000
1.271600 0.905979 0.164436 45.000000
1.293665 0.900463 0.166394 43.000000
1.307354 0.889280 0.167356 19.000000
1.325244 0.880371 0.168799 39.000000
1.343157 0.871183 0.170198 64.000000
1.356791 0.859004 0.171071 69.000000
1.374565 0.849297 0.172527 52.000000
1.404877 0.847256 0.175584 35.000000
1.431181 0.841880 0.178069 42.000000
1.444616 0.828606 0.178960 38.000000
1.466578 0.819986 0.180872 24.000000
1.497275 0.815735 0.183914 57.000000
1.532307 0.813495 0.187504 71.000000
1.554341 0.803462 0.189438 71.000000
1.567482 0.788616 0.190300 61.000000
1.575831 0.771649 0.190731 51.000000
1.588668 0.756442 0.191541 43.000000
1.610357 0.745257 0.193491 36.000000
1.636387 0.735925 0.196045 17.000000
1.667094 0.727912 0.199039 37.000000
1.684121 0.713528 0.200408 33.000000
1.719284 0.706557 0.204018 37.000000
1.740726 0.693184 0.205942 48.000000
1.780547 0.686777 0.210117 35.000000
1.801898 0.672479 0.212054 42.000000
1.823067 0.657935 0.213995 35.000000
1.820763 0.634668 0.213194 24.000000
1.851063 0.622758 0.216241 43.000000
1.890808 0.613220 0.220337 59.000000
1.902082 0.594072 0.221194 36.000000
1.941760 0.583400 0.225304 48.000000
1.986182 0.573130 0.229976 42.000000
2.006643 0.555461 0.231890 36.000000
2.026934 0.537416 0.233808 35.000000
2.080832 0.527476 0.239612 24.000000
2.091265 0.505968 0.240431 54.000000
2.135354 0.492034 0.245075 62.000000
2.164804 0.474066 0.248058 66.000000
2.194165 0.455432 0.251045 37.000000
2.233113 0.438250 0.255221 62.000000
2.242612 0.414764 0.255918 34.000000
2.246954 0.390321 0.256128 8.000000
2.314842 0.376096 0.263599 7.000000
2.363018 0.357579 0.268772 8.000000
2.401205 0.336572 0.272907 8.000000
2.424415 0.312905 0.275294 8.000000
2.501657 0.295136 0.283841 9.000000
2.544274 0.272132 0.288399 18.000000
2.611318 0.250481 0.295840 41.000000
2.638649 0.224062 0.298804 29.000000
2.744978 0.202965 0.310661 10.000000
2.801550 0.176476 0.316916 9.000000
2.862813 0.148969 0.323735 10.000000
2.908987 0.119550 0.328874 45.000000
2.959720 0.089305 0.334577 60.000000
3.035048 0.058456 0.343091 93.000000
3.045451 0.025442 0.344214 98.000000
3.030640 -0.007819 0.342529 85.000000
2.980682 -0.040192 0.336914 29.000000
2.890640 -0.070512 0.326807 9.000000
2.914578 -0.102915 0.329614 9.000000
2.947975 -0.136318 0.333545 37.000000
2.911623 -0.166509 0.329525 72.000000
2.904695 -0.197968 0.328874 60.000000
2.852842 -0.225703 0.323262 29.000000
2.855153 -0.257262 0.323735 83.000000
2.837418 -0.286842 0.321877 75.000000
2.809403 -0.314992 0.318986 54.000000
2.786118 -0.343211 0.316571 35.000000
2.762541 -0.370913 0.314244 31.000000
2.763264 -0.401759 0.314633 34.000000
2.773445 -0.434164 0.316140 52.000000
2.709730 -0.454561 0.309257 29.000000
2.689995 -0.481384 0.307411 77.000000
2.674861 -0.508900 0.306126 71.000000
2.669175 -0.537916 0.305875 77.000000
2.653435 -0.564945 0.304509 85.000000
2.642339 -0.592767 0.303702 80.000000
2.626014 -0.619260 0.302339 64.000000
2.628866 -0.650231 0.303203 46.000000
2.535046 -0.656418 0.292948 9.000000
2.551791 -0.690408 0.295402 10.000000
2.544161 -0.718171 0.295159 10.000000
2.559960 -0.752944 0.297605 38.000000
2.556436 -0.782175 0.297831 78.000000
2.524137 -0.802395 0.294738 84.000000
2.515273 -0.829966 0.294494 59.000000
2.510866 -0.858901 0.294639 60.000000
2.501332 -0.886279 0.294313 9.000000
2.710937 -0.993806 0.319773 8.000000
2.955533 -1.120298 0.349656 2.000000
3.183847 -1.246433 0.377720 1.000000
3.183918 -1.286768 0.378840 1.000000
3.146958 -1.311686 0.375575 1.000000
2.986290 -1.283231 0.357556 1.000000
2.958486 -1.309828 0.355420 2.000000
3.025690 -1.378914 0.364634 1.000000
2.938480 -1.378119 0.355415 2.000000
2.905329 -1.401664 0.352644 4.000000
2.858906 -1.417502 0.348253 6.000000
2.829946 -1.441982 0.346040 8.000000
2.840476 -1.486720 0.348699 10.000000
2.828714 -1.519681 0.348550 10.000000
2.825016 -1.557735 0.349574 10.000000
2.790578 -1.578841 0.346829 9.000000
2.794655 -1.621925 0.348923 10.000000
2.789618 -1.660100 0.349935 12.000000
2.792906 -1.702932 0.351812 9.000000
2.740402 -1.712479 0.346840 9.000000
2.713085 -1.737070 0.345081 10.000000
2.702217 -1.772186 0.345451 12.000000
2.695060 -1.810158 0.346348 10.000000
2.667435 -1.833321 0.344493 9.000000
2.643105 -1.859665 0.343269 10.000000
2.630743 -1.894437 0.343530 10.000000
2.585834 -1.905491 0.339580 10.000000
2.584689 -1.948848 0.341513 10.000000
2.563233 -1.977059 0.340718 10.000000
2.553689 -2.013613 0.341290 10.000000
2.554761 -2.060284 0.343616 9.000000
2.528265 -2.085117 0.342291 9.000000
2.512942 -2.119182 0.342422 9.000000
2.482009 -2.140221 0.340581 9.000000
2.465940 -2.173949 0.340707 10.000000
2.445731 -2.204209 0.340313 10.000000
2.432462 -2.241087 0.340942 10.000000
2.397851 -2.256533 0.338293 10.000000
2.365833 -2.275900 0.336365 10.000000
2.323123 -2.284245 0.332817 14.000000
2.308562 -2.320209 0.333438 36.000000
2.289999 -2.352539 0.333444 67.000000
2.267649 -2.381117 0.332941 78.000000
2.255090 -2.420386 0.333941 44.000000
2.225255 -2.441367 0.332426 31.000000
2.142220 -2.402457 0.322927 26.000000
2.048331 -2.346163 0.311300 21.000000
1.954784 -2.288967 0.299841 10.000000
1.891490 -2.264468 0.292989 23.000000
1.828923 -2.238768 0.286085 21.000000
1.770291 -2.215951 0.279712 24.000000
1.694035 -2.168510 0.270441 22.000000
1.637099 -2.143404 0.264152 25.000000
1.581025 -2.117324 0.257819 25.000000
1.525580 -2.090283 0.251605 20.000000
1.468050 -2.058246 0.244946 11.000000
1.439879 -2.066048 0.243055 25.000000
1.389399 -2.040505 0.237344 28.000000
1.364316 -2.051497 0.235959 30.000000
1.339248 -2.062127 0.234578 31.000000
1.309988 -2.063315 0.232179 30.000000
1.311035 -2.115631 0.235519 28.000000
1.298298 -2.146860 0.236481 24.000000
1.297608 -2.199522 0.239686 9.000000
0.724513 1.247421 0.146336 6.000000
0.710059 1.192400 0.141382 9.000000
0.745532 1.223174 0.146646 17.000000
0.743038 1.189601 0.144150 16.000000
0.766670 1.198096 0.146805 11.000000
0.776949 1.185471 0.146901 19.000000
0.792548 1.180989 0.147984 10.000000
0.816643 1.188612 0.150673 19.000000
0.815218 1.159248 0.148640 17.000000
0.848117 1.178453 0.152870 10.000000
0.840266 1.141070 0.149771 22.000000
0.852660 1.131763 0.150336 14.000000
0.880098 1.142061 0.153549 18.000000
0.889410 1.128421 0.153549 23.000000
0.891743 1.107412 0.152566 14.000000
0.929023 1.128250 0.157372 25.000000
0.922060 1.095161 0.154731 18.000000
0.953382 1.107569 0.158493 12.000000
0.948987 1.078370 0.156327 28.000000
0.964041 1.071570 0.157355 21.000000
0.982408 1.068222 0.158975 29.000000
0.990633 1.053729 0.158919 26.000000
1.005488 1.046345 0.159999 21.000000
1.019929 1.039199 0.161084 27.000000
1.038280 1.034904 0.162679 21.000000
1.049533 1.023425 0.163174 22.000000
1.071438 1.022101 0.165333 28.000000
1.078945 1.006843 0.165277 25.000000
1.104545 1.008278 0.167962 32.000000
1.122935 1.002680 0.169541 31.000000
1.141004 0.997151 0.171218 30.000000
1.155624 0.987767 0.172246 34.000000
1.158740 0.968601 0.171584 26.000000
1.184655 0.968328 0.174265 26.000000
1.199063 0.958317 0.175302 29.000000
1.209530 0.945068 0.175727 23.000000
1.227372 0.938087 0.177386 32.000000
1.237575 0.924468 0.177813 31.000000
1.255658 0.916658 0.179387 28.000000
1.265640 0.902760 0.179769 34.000000
1.287656 0.897285 0.181926 26.000000
1.317728 0.897327 0.185294 24.000000
1.323340 0.880029 0.185107 32.000000
1.332861 0.865430 0.185498 24.000000
1.350675 0.856000 0.187050 35.000000
1.364184 0.843676 0.188026 33.000000
1.411365 0.852037 0.193721 29.000000
1.424914 0.838953 0.194660 36.000000
1.438316 0.825724 0.195601 31.000000
1.468745 0.822257 0.198995 27.000000
1.495077 0.815578 0.201709 37.000000
1.512691 0.803751 0.203254 29.000000
1.534607 0.793960 0.205393 34.000000
1.556352 0.783987 0.207539 34.000000
1.569272 0.769033 0.208506 31.000000
1.590881 0.758362 0.210662 35.000000
1.603564 0.742952 0.211581 34.000000
1.647820 0.741597 0.216669 27.000000
1.651158 0.721724 0.216462 31.000000
1.677249 0.711309 0.219183 30.000000
1.716944 0.706272 0.223763 34.000000
1.752200 0.698410 0.227643 32.000000
1.768883 0.682909 0.229191 27.000000
1.794827 0.670446 0.231885 31.000000
1.820686 0.657637 0.234645 27.000000
1.832395 0.639277 0.235545 18.000000
1.848604 0.622458 0.237050 35.000000
1.874143 0.608439 0.239765 31.000000
1.885362 0.589445 0.240673 27.000000
1.934455 0.581597 0.246364 35.000000
1.969211 0.568745 0.250311 29.000000
1.994392 0.552556 0.253053 32.000000
2.024294 0.537159 0.256345 32.000000
2.025150 0.513788 0.255994 10.000000
2.078844 0.503368 0.262338 35.000000
2.122856 0.489668 0.267475 33.000000
2.147471 0.470674 0.270183 32.000000
2.181558 0.453207 0.274048 33.000000
2.210701 0.434215 0.277307 29.000000
2.234791 0.413721 0.280030 26.000000
2.253790 0.391811 0.282075 8.000000
2.302022 0.374359 0.287726 5.000000
2.335404 0.353717 0.291617 8.000000
2.388249 0.335045 0.297892 8.000000
2.421262 0.312755 0.301794 7.000000
2.468841 0.291567 0.307468 8.000000
2.536040 0.271447 0.315603 11.000000
2.593117 0.248978 0.322517 29.000000
2.630289 0.223561 0.326899 29.000000
2.721634 0.201416 0.338127 10.000000
2.768217 0.174517 0.343745 24.000000
2.824429 0.147075 0.350597 10.000000
2.890358 0.118938 0.358682 29.000000
2.931102 0.088556 0.363694 36.000000
3.021211 0.058265 0.374771 47.000000
3.026637 0.025317 0.375479 66.000000
2.996959 -0.007650 0.371786 84.000000
2.956992 -0.039924 0.366862 22.000000
2.906752 -0.070997 0.360706 9.000000
2.910816 -0.102915 0.361322 9.000000
2.909562 -0.134622 0.361232 21.000000
2.888046 -0.165285 0.358771 53.000000
2.876188 -0.196190 0.357451 35.000000
2.854097 -0.226007 0.354902 17.000000
2.811921 -0.253609 0.349895 26.000000
2.804119 -0.283757 0.349193 12.000000
2.761377 -0.309924 0.344104 10.000000
2.743099 -0.338181 0.342091 9.000000
2.729439 -0.366776 0.340693 9.000000
2.744931 -0.399444 0.343063 32.000000
2.750215 -0.430919 0.344119 37.000000
2.706186 -0.454308 0.338959 21.000000
2.691355 -0.482091 0.337565 80.000000
2.685974 -0.511434 0.337313 36.000000
2.651070 -0.534721 0.333390 45.000000
2.645083 -0.563661 0.333141 72.000000
2.629162 -0.590343 0.331669 37.000000
2.612957 -0.616649 0.330200 51.000000
2.601288 -0.643936 0.329260 36.000000
2.517256 -0.652361 0.319265 8.000000
2.538801 -0.687489 0.322597 10.000000
2.531199 -0.715147 0.322273 9.000000
2.542318 -0.748330 0.324380 24.000000
2.534007 -0.776115 0.324054 57.000000
2.511263 -0.799141 0.321909 34.000000
2.507225 -0.828003 0.322109 61.000000
2.498133 -0.855197 0.321703 43.000000
2.441857 -0.865964 0.315338 9.000000
2.679344 -0.983017 0.346828 8.000000
2.881942 -1.093307 0.374196 2.000000
3.248865 -1.273072 0.422963 1.000000
3.202603 -1.295654 0.418220 1.000000
3.280101 -1.368502 0.429583 1.000000
2.982198 -1.282732 0.391885 2.000000
2.950073 -1.307022 0.388893 5.000000
2.935593 -1.339256 0.388298 4.000000
2.884866 -1.354513 0.383029 9.000000
2.892426 -1.396456 0.385321 9.000000
2.881472 -1.430354 0.385323 10.000000
2.852680 -1.454734 0.382752 9.000000
2.827842 -1.481325 0.380977 9.000000
2.833319 -1.524089 0.383346 10.000000
2.799124 -1.545537 0.380292 8.000000
2.765039 -1.565918 0.377148 7.000000
2.799274 -1.626120 0.383524 10.000000
2.755771 -1.641516 0.379304 9.000000
2.759220 -1.684121 0.381445 8.000000
2.744855 -1.716952 0.381335 7.000000
2.696587 -1.728339 0.376453 9.000000
2.677494 -1.757865 0.375764 9.000000
2.686953 -1.806690 0.379047 9.000000
2.659370 -1.829811 0.376991 6.000000
2.622896 -1.847531 0.373883 9.000000
2.618607 -1.887932 0.375305 8.000000
2.569802 -1.896053 0.370479 9.000000
2.568724 -1.939175 0.372568 9.000000
2.551892 -1.969598 0.372054 8.000000
2.541801 -2.006858 0.372978 9.000000
2.527444 -2.040956 0.373224 8.000000
2.531803 -2.090840 0.376311 7.000000
2.493524 -2.105756 0.373031 9.000000
2.462846 -2.126631 0.370996 8.000000
2.443884 -2.156003 0.370461 9.000000
2.379579 -2.146227 0.363265 10.000000
2.355958 -2.172308 0.362281 11.000000
2.353736 -2.218541 0.364658 32.000000
2.322243 -2.237374 0.362547 29.000000
2.297584 -2.262825 0.361458 16.000000
2.311249 -2.326758 0.366577 35.000000
2.307464 -2.372503 0.368690 30.000000
2.295151 -2.412106 0.369780 29.000000
2.285603 -2.455341 0.371407 15.000000
2.235296 -2.454545 0.366434 17.000000
2.142169 -2.404786 0.354276 22.000000
2.050563 -2.353179 0.342288 10.000000
1.953854 -2.292381 0.329187 8.000000
1.903333 -2.283105 0.323838 17.000000
1.846921 -2.265383 0.317346 10.000000
1.779824 -2.230188 0.308651 18.000000
1.700425 -2.179001 0.297869 12.000000
1.634369 -2.142246 0.289377 12.000000
1.599158 -2.144086 0.286256 19.000000
1.514175 -2.077120 0.274057 10.000000
1.471339 -2.065260 0.269412 9.000000
1.434568 -2.060886 0.265769 18.000000
1.403679 -2.064116 0.263195 20.000000
1.381159 -2.079360 0.262199 26.000000
1.347585 -2.077761 0.259122 24.000000
1.332845 -2.105032 0.259689 26.000000
1.309835 -2.119556 0.258695 26.000000
1.288048 -2.133011 0.257548 17.000000
1.305122 -2.215568 0.264669 9.000000
0.712207 1.229997 0.157148 7.000000
0.720487 1.213509 0.156699 15.000000
0.733704 1.205492 0.157393 23.000000
0.749421 1.201561 0.158556 25.000000
0.759835 1.189025 0.158649 29.000000
0.769985 1.176461 0.158738 23.000000
0.791065 1.180291 0.161076 25.000000
0.803895 1.171519 0.161687 25.000000
0.819449 1.166682 0.162865 24.000000
0.820508 1.141440 0.161243 16.000000
0.829313 1.128800 0.161319 24.000000
0.853514 1.135473 0.164218 29.000000
0.865864 1.126046 0.164829 30.000000
0.878083 1.116446 0.165440 22.000000
0.890215 1.106714 0.166007 30.000000
0.908525 1.104521 0.167783 26.000000
0.923719 1.098258 0.168939 26.000000
0.935625 1.088027 0.169512 23.000000
0.946958 1.078061 0.170130 28.000000
0.968640 1.078648 0.172475 35.000000
0.977001 1.064253 0.172462 34.000000
0.985193 1.049798 0.172400 28.000000
1.010356 1.053198 0.175316 33.000000
1.032222 1.052615 0.177649 31.000000
1.036659 1.034184 0.176993 32.000000
1.051465 1.026127 0.178135 25.000000
1.062214 1.014880 0.178722 32.000000
1.069654 0.999703 0.178658 35.000000
1.095199 1.001259 0.181583 39.000000
1.113502 0.995694 0.183302 34.000000
1.128076 0.986606 0.184418 39.000000
1.149800 0.984167 0.186809 34.000000
1.160504 0.971415 0.187321 34.000000
1.178795 0.964809 0.189017 22.000000
1.193162 0.954839 0.190150 29.000000
1.215271 0.950805 0.192477 43.000000
1.229557 0.940342 0.193572 32.000000
1.243480 0.930031 0.194718 32.000000
1.261615 0.922082 0.196394 46.000000
1.271661 0.908096 0.196875 35.000000
1.293719 0.902527 0.199187 40.000000
1.315622 0.896935 0.201605 28.000000
1.329498 0.885087 0.202626 28.000000
1.339128 0.870347 0.203068 45.000000
1.356938 0.860872 0.204774 35.000000
1.370300 0.848751 0.205902 34.000000
1.388014 0.838756 0.207568 38.000000
1.401367 0.825906 0.208604 33.000000
1.414475 0.813163 0.209691 33.000000
1.457868 0.816943 0.215202 31.000000
1.479770 0.807977 0.217480 29.000000
1.514647 0.805869 0.221794 38.000000
1.532164 0.793694 0.223447 42.000000
1.545088 0.779254 0.224569 33.000000
1.562404 0.766581 0.226230 36.000000
1.575181 0.751470 0.227197 34.000000
1.587681 0.736422 0.228274 32.000000
1.627240 0.733173 0.233130 29.000000
1.644179 0.719404 0.234867 27.000000
1.665602 0.707098 0.237148 32.000000
1.691456 0.696492 0.240141 32.000000
1.712814 0.683366 0.242433 27.000000
1.733952 0.670052 0.244732 32.000000
1.759676 0.658115 0.247747 31.000000
1.794701 0.648853 0.251963 26.000000
1.792274 0.625963 0.251005 29.000000
1.836511 0.619052 0.256606 33.000000
1.852562 0.602069 0.258218 30.000000
1.887360 0.590683 0.262526 34.000000
1.917360 0.577187 0.266124 35.000000
1.942569 0.561610 0.269008 32.000000
1.972425 0.547129 0.272619 41.000000
2.021332 0.536966 0.278882 29.000000
2.065490 0.524574 0.284431 35.000000
2.090333 0.506673 0.287342 35.000000
2.100526 0.484941 0.288336 33.000000
2.134681 0.468347 0.292515 37.000000
2.173623 0.452061 0.297432 38.000000
2.217308 0.435989 0.303021 44.000000
2.241391 0.415317 0.305890 30.000000
2.187158 0.380625 0.298115 8.000000
2.254775 0.367050 0.306977 8.000000
2.302667 0.349043 0.313185 8.000000
2.340674 0.328694 0.318068 8.000000
2.378495 0.307522 0.322883 8.000000
2.430879 0.287343 0.329781 8.000000
2.502871 0.268201 0.339282 19.000000
2.574715 0.247475 0.348791 34.000000
2.572247 0.218859 0.348203 10.000000
2.702949 0.200234 0.365746 37.000000
2.734623 0.172559 0.369842 35.000000
2.771033 0.144495 0.374609 31.000000
2.831808 0.116606 0.382724 17.000000
2.917139 0.088167 0.394189 34.000000
2.962443 0.057212 0.400303 70.000000
2.982718 0.024985 0.403073 98.000000
2.992720 -0.007650 0.404412 70.000000
2.972626 -0.040100 0.401733 46.000000
2.922542 -0.071391 0.395038 21.000000
2.926503 -0.103526 0.395617 31.000000
2.925241 -0.135540 0.395617 34.000000
2.864166 -0.164063 0.387496 10.000000
2.857279 -0.195001 0.386739 9.000000
2.790774 -0.221134 0.377954 9.000000
2.768533 -0.249872 0.375193 9.000000
2.760693 -0.279590 0.374438 10.000000
2.732826 -0.306988 0.370926 9.000000
2.724436 -0.336190 0.370088 9.000000
2.705899 -0.363965 0.367916 13.000000
2.711587 -0.394904 0.369083 29.000000
2.716905 -0.426057 0.370248 80.000000
2.692616 -0.452497 0.367328 77.000000
2.687571 -0.481839 0.367160 95.000000
2.682106 -0.511182 0.366907 93.000000
2.661901 -0.537498 0.364575 89.000000
2.636494 -0.562378 0.361665 84.000000
2.644774 -0.594442 0.363409 98.000000
2.618888 -0.618680 0.360420 79.000000
2.602390 -0.644881 0.358763 70.000000
2.552035 -0.662078 0.352551 18.000000
2.530298 -0.686031 0.350240 10.000000
2.527560 -0.714824 0.350417 12.000000
2.514881 -0.741081 0.349513 23.000000
2.539817 -0.778695 0.353729 74.000000
2.526507 -0.804835 0.352661 85.000000
2.522396 -0.833901 0.352911 70.000000
2.503777 -0.858086 0.351187 52.000000
2.457037 -0.872038 0.345525 21.000000
2.610170 -0.958826 0.368088 9.000000
2.905481 -1.103297 0.410818 5.000000
2.967262 -1.163828 0.420713 6.000000
2.977284 -1.205607 0.423490 8.000000
2.941262 -1.228387 0.419536 8.000000
2.955041 -1.272431 0.422955 9.000000
2.941078 -1.304417 0.422262 10.000000
2.926620 -1.336701 0.421668 9.000000
2.916550 -1.370499 0.421524 10.000000
2.910302 -1.406750 0.422224 13.000000
2.899222 -1.440892 0.422274 10.000000
2.861499 -1.461006 0.418250 11.000000
2.832110 -1.485441 0.415624 10.000000
2.833433 -1.525451 0.417410 10.000000
2.833958 -1.566140 0.419285 10.000000
2.773487 -1.572768 0.412177 9.000000
2.773661 -1.612662 0.413853 9.000000
2.781348 -1.658406 0.416993 10.000000
2.737627 -1.673378 0.412372 9.000000
2.774204 -1.737112 0.419650 8.000000
2.713226 -1.740746 0.412498 10.000000
2.681551 -1.762427 0.409805 10.000000
2.674446 -1.800255 0.410912 9.000000
2.638767 -1.817664 0.407397 9.000000
2.614604 -1.843785 0.405881 9.000000
2.602275 -1.878330 0.406251 10.000000
2.585533 -1.909907 0.405989 9.000000
2.553190 -1.928622 0.403027 9.000000
2.508282 -1.938470 0.398400 9.000000
2.486928 -1.965966 0.397425 9.000000
2.511480 -2.030799 0.403994 9.000000
2.439423 -2.017309 0.394953 9.000000
2.436073 -2.060100 0.397067 15.000000
2.391569 -2.066537 0.392196 26.000000
2.372543 -2.096066 0.391741 34.000000
2.360421 -2.132135 0.392605 35.000000
2.351530 -2.171521 0.393972 36.000000
2.342049 -2.210933 0.395326 31.000000
2.372268 -2.287465 0.403146 25.000000
2.364713 -2.330822 0.405059 24.000000
2.353076 -2.370842 0.406351 27.000000
2.330450 -2.400179 0.405721 30.000000
2.307541 -2.429386 0.405087 28.000000
2.294381 -2.469166 0.406244 24.000000
2.237184 -2.461179 0.399632 23.000000
2.177206 -2.448614 0.392459 26.000000
2.102628 -2.415305 0.382162 29.000000
1.995682 -2.343732 0.366214 10.000000
1.912849 -2.296907 0.354388 16.000000
1.840645 -2.260007 0.344393 18.000000
1.763333 -2.214125 0.333289 14.000000
1.711608 -2.198083 0.326913 16.000000
1.645440 -2.161424 0.317670 18.000000
1.586240 -2.131559 0.309558 18.000000
1.540729 -2.115929 0.303723 12.000000
1.474375 -2.072031 0.293984 10.000000
1.443213 -2.075890 0.291174 16.000000
1.389835 -2.046453 0.283894 21.000000
1.362002 -2.053296 0.281619 22.000000
1.336899 -2.063960 0.279993 24.000000
1.309005 -2.070215 0.277809 26.000000
1.294189 -2.097192 0.278364 20.000000
1.278946 -2.124039 0.278982 18.000000
1.280888 -2.180818 0.283408 8.000000
0.710680 1.229168 0.169891 7.000000
0.708844 1.195648 0.167053 21.000000
0.732144 1.204712 0.170133 27.000000
0.742650 1.192308 0.170225 32.000000
0.758275 1.188245 0.171520 28.000000
0.770452 1.180271 0.172256 29.000000
0.783279 1.171691 0.172950 32.000000
0.798823 1.167075 0.174255 32.000000
0.814369 1.162224 0.175521 34.000000
0.809631 1.128998 0.172479 14.000000
0.824829 1.123983 0.173738 29.000000
0.848964 1.130720 0.176864 35.000000
0.861227 1.121283 0.177516 29.000000
0.873447 1.111716 0.178168 36.000000
0.897348 1.117926 0.181375 33.000000
0.906372 1.104126 0.181406 33.000000
0.918369 1.094062 0.182021 30.000000
0.930278 1.083867 0.182637 14.000000
0.945327 1.077268 0.183888 52.000000
0.960368 1.070419 0.185100 34.000000
0.972006 1.059799 0.185719 35.000000
0.986459 1.053019 0.187026 56.000000
1.008202 1.052794 0.189537 35.000000
1.030092 1.052207 0.192060 52.000000
1.045064 1.044246 0.193298 36.000000
1.049342 1.025720 0.192588 24.000000
1.053332 1.007215 0.191825 56.000000
1.067538 0.999298 0.193108 42.000000
1.089399 0.997456 0.195617 59.000000
1.107651 0.991928 0.197479 75.000000
1.129639 0.989457 0.200009 50.000000
1.147985 0.983329 0.201888 66.000000
1.162161 0.974133 0.203156 65.000000
1.180425 0.967482 0.205001 26.000000
1.191000 0.954369 0.205518 35.000000
1.205287 0.944172 0.206704 35.000000
1.223148 0.937185 0.208611 33.000000
1.237317 0.926536 0.209758 59.000000
1.247410 0.912777 0.210234 31.000000
1.265420 0.904734 0.212109 35.000000
1.291293 0.902333 0.215345 42.000000
1.297003 0.885226 0.215151 24.000000
1.323116 0.881800 0.218307 39.000000
1.340823 0.872853 0.220209 36.000000
1.354466 0.860625 0.221336 35.000000
1.372228 0.850815 0.223150 44.000000
1.385519 0.838456 0.224383 32.000000
1.403180 0.828173 0.226157 36.000000
1.437920 0.827430 0.230742 57.000000
1.455349 0.816635 0.232582 25.000000
1.459900 0.798164 0.232302 37.000000
1.507743 0.803172 0.239051 52.000000
1.520825 0.788763 0.240114 34.000000
1.542638 0.778668 0.242621 46.000000
1.564277 0.768389 0.245190 34.000000
1.577070 0.753228 0.246264 33.000000
1.589586 0.738130 0.247394 34.000000
1.606552 0.724646 0.249172 22.000000
1.636993 0.717031 0.253112 32.000000
1.662873 0.706876 0.256306 31.000000
1.684233 0.694211 0.258806 29.000000
1.710033 0.683139 0.262017 31.000000
1.740381 0.673395 0.265941 32.000000
1.770807 0.662858 0.269760 29.000000
1.791822 0.648560 0.272289 31.000000
1.803426 0.630572 0.273350 17.000000
1.838277 0.620336 0.277958 33.000000
1.854330 0.603300 0.279737 34.000000
1.874931 0.587419 0.282230 30.000000
1.914340 0.576879 0.287515 35.000000
1.925258 0.557295 0.288597 32.000000
1.955032 0.542780 0.292410 32.000000
2.008612 0.534164 0.299927 32.000000
2.052684 0.521938 0.305901 16.000000
2.072662 0.502908 0.308374 34.000000
2.106917 0.486904 0.312934 36.000000
2.126550 0.467084 0.315417 34.000000
2.175049 0.452864 0.322143 35.000000
2.204119 0.433869 0.326008 41.000000
2.233016 0.414204 0.329808 26.000000
2.217931 0.386364 0.327142 8.000000
2.261025 0.368501 0.333177 7.000000
2.279586 0.345930 0.335549 8.000000
2.356706 0.331304 0.346497 8.000000
2.365062 0.306178 0.347438 8.000000
2.422272 0.286686 0.355592 8.000000
2.469479 0.264880 0.362237 19.000000
2.541183 0.244473 0.372497 35.000000
2.597929 0.221299 0.380599 32.000000
2.674190 0.198321 0.391597 25.000000
2.720613 0.171851 0.398184 34.000000
2.761819 0.144151 0.404135 32.000000
2.807672 0.115791 0.410729 10.000000
2.878030 0.087119 0.420852 22.000000
2.953026 0.057025 0.431790 68.000000
2.973270 0.024944 0.434775 95.000000
2.948625 -0.007548 0.431158 68.000000
2.943405 -0.039766 0.430434 91.000000
2.952661 -0.072238 0.431881 83.000000
2.912106 -0.103086 0.426004 89.000000
2.900964 -0.134533 0.424557 30.000000
2.845019 -0.163125 0.416514 10.000000
2.823342 -0.192889 0.413534 9.000000
2.791481 -0.221439 0.409110 7.000000
2.759326 -0.249255 0.404602 9.000000
2.746577 -0.278506 0.403072 9.000000
2.733593 -0.307371 0.401458 9.000000
2.710474 -0.334808 0.398401 10.000000
2.667456 -0.359175 0.392461 10.000000
2.697660 -0.393307 0.397259 29.000000
2.693204 -0.422818 0.397091 58.000000
2.673858 -0.449782 0.394678 20.000000
2.678497 -0.480713 0.395866 86.000000
2.663406 -0.508148 0.394176 80.000000
2.648020 -0.535286 0.392487 77.000000
2.642105 -0.564196 0.392238 98.000000
2.635773 -0.593022 0.391904 95.000000
2.614828 -0.618349 0.389337 95.000000
2.598263 -0.644551 0.387655 71.000000
2.552847 -0.662997 0.381597 10.000000
2.497769 -0.677771 0.374039 10.000000
2.509313 -0.710456 0.376498 10.000000
2.506179 -0.739277 0.376890 21.000000
2.526429 -0.775301 0.380765 53.000000
2.513077 -0.801419 0.379645 56.000000
2.504293 -0.828827 0.379157 76.000000
2.490503 -0.854466 0.377959 48.000000
2.434449 -0.865009 0.370456 16.000000
2.624643 -0.964973 0.400455 10.000000
2.886914 -1.097637 0.441702 9.000000
2.980883 -1.170673 0.457390 9.000000
2.972637 -1.204915 0.457405 9.000000
2.963855 -1.239454 0.457516 9.000000
2.941196 -1.267720 0.455415 9.000000
2.927276 -1.299706 0.454724 9.000000
2.876846 -1.315422 0.448517 8.000000
2.911789 -1.369804 0.455444 13.000000
2.878789 -1.393115 0.451952 10.000000
2.881340 -1.433182 0.453957 15.000000
2.852246 -1.458060 0.451170 10.000000
2.827386 -1.484850 0.449087 13.000000
2.798170 -1.508410 0.446116 16.000000
2.811746 -1.555952 0.450188 9.000000
2.751846 -1.561911 0.442374 8.000000
2.734588 -1.592235 0.441594 10.000000
2.763710 -1.650192 0.448402 10.000000
2.733184 -1.672292 0.445346 11.000000
2.756581 -1.728715 0.451427 8.000000
2.687533 -1.726961 0.442296 9.000000
2.672971 -1.758619 0.441996 10.000000
2.657561 -1.790860 0.441792 9.000000
2.633739 -1.817269 0.440222 9.000000
2.601984 -1.836989 0.437098 10.000000
2.589704 -1.871441 0.437473 10.000000
2.573019 -1.902928 0.437166 10.000000
2.532271 -1.916368 0.432804 10.000000
2.472450 -1.913142 0.424993 16.000000
2.447479 -1.937315 0.423262 25.000000
2.429893 -1.967350 0.422971 28.000000
2.427215 -2.009917 0.425255 32.000000
2.417116 -2.045529 0.426091 51.000000
2.401989 -2.078536 0.426349 37.000000
2.401371 -2.124647 0.429155 40.000000
2.377974 -2.151105 0.428069 29.000000
2.412399 -2.231110 0.437441 33.000000
2.388726 -2.256806 0.436126 32.000000
2.374536 -2.293338 0.436880 27.000000
2.359915 -2.329904 0.437623 24.000000
2.348250 -2.369918 0.438904 30.000000
2.325617 -2.399253 0.438322 33.000000
2.302597 -2.428356 0.437634 35.000000
2.263458 -2.438129 0.433607 27.000000
2.263402 -2.492271 0.437429 27.000000
2.170187 -2.442994 0.423137 29.000000
2.081543 -2.395703 0.409668 25.000000
1.974989 -2.323986 0.392445 10.000000
1.917766 -2.307523 0.384772 18.000000
1.848769 -2.274596 0.374605 21.000000
1.775555 -2.231880 0.363060 19.000000
1.711572 -2.200372 0.353651 19.000000
1.654446 -2.175717 0.345552 22.000000
1.580261 -2.126108 0.333669 18.000000
1.539543 -2.119299 0.328791 13.000000
1.470391 -2.071406 0.317656 10.000000
1.430769 -2.063037 0.312776 15.000000
1.394308 -2.058094 0.308538 21.000000
1.352590 -2.044414 0.303097 24.000000
1.331484 -2.058434 0.301815 26.000000
1.314246 -2.081375 0.301826 30.000000
1.283653 -2.083078 0.298872 26.000000
1.271090 -2.114161 0.300084 21.000000
1.273070 -2.170857 0.304884 9.000000
0.706586 1.224000 0.181952 7.000000
0.711541 1.203758 0.180854 18.000000
0.724665 1.195798 0.181629 23.000000
0.740319 1.191877 0.183007 24.000000
0.750612 1.179446 0.183092 29.000000
0.766142 1.175208 0.184475 27.000000
0.778924 1.166658 0.185209 33.000000
0.797214 1.166162 0.187257 32.000000
0.809912 1.157247 0.187953 29.000000
0.807410 1.128571 0.185425 19.000000
0.822599 1.123554 0.186816 26.000000
0.840761 1.122310 0.188837 29.000000
0.852981 1.112939 0.189527 34.000000
0.868129 1.107338 0.190847 28.000000
0.886375 1.105405 0.192889 33.000000
0.901517 1.099373 0.194221 31.000000
0.922490 1.101173 0.197003 28.000000
0.924815 1.079622 0.195622 17.000000
0.939858 1.073013 0.196963 32.000000
0.954808 1.066243 0.198308 34.000000
0.969794 1.059268 0.199614 35.000000
0.984683 1.052086 0.200968 33.000000
0.995695 1.041563 0.201634 32.000000
1.020905 1.044627 0.205036 54.000000
1.039292 1.040243 0.207061 33.000000
1.043546 1.021760 0.206297 26.000000
1.051134 1.006677 0.206180 35.000000
1.065333 0.998758 0.207557 58.000000
1.087171 0.996910 0.210259 62.000000
1.098038 0.984815 0.210850 38.000000
1.119978 0.982374 0.213524 73.000000
1.134067 0.973473 0.214878 53.000000
1.159873 0.973573 0.218285 53.000000
1.178169 0.966918 0.220275 29.000000
1.188697 0.953806 0.220839 29.000000
1.202693 0.943983 0.222169 35.000000
1.216897 0.933557 0.223456 35.000000
1.231073 0.922996 0.224699 31.000000
1.244839 0.912539 0.225992 39.000000
1.270876 0.910207 0.229420 33.000000
1.284862 0.898915 0.230678 54.000000
1.294681 0.884597 0.231162 25.000000
1.312292 0.876014 0.233204 31.000000
1.334264 0.869512 0.235889 36.000000
1.347673 0.857673 0.237164 39.000000
1.361239 0.845299 0.238392 34.000000
1.383124 0.837858 0.241049 50.000000
1.404826 0.830338 0.243814 35.000000
1.418124 0.817197 0.245007 44.000000
1.452726 0.816275 0.249963 26.000000
1.452897 0.795380 0.248940 35.000000
1.491919 0.795822 0.254611 35.000000
1.522520 0.790672 0.258810 55.000000
1.539762 0.778455 0.260781 35.000000
1.552612 0.763596 0.261955 42.000000
1.574162 0.753012 0.264685 36.000000
1.582295 0.735560 0.265062 34.000000
1.608178 0.726409 0.268556 24.000000
1.634074 0.716756 0.272006 32.000000
1.646333 0.700624 0.273146 32.000000
1.676689 0.692045 0.277367 37.000000
1.693258 0.677348 0.279272 30.000000
1.723507 0.667694 0.283513 30.000000
1.772403 0.664242 0.290628 32.000000
1.779475 0.644840 0.291037 29.000000
1.772379 0.620422 0.289163 23.000000
1.788352 0.604161 0.291035 32.000000
1.837108 0.598289 0.298250 32.000000
1.867066 0.585577 0.302426 35.000000
1.901612 0.573777 0.307438 37.000000
1.912491 0.554236 0.308571 29.000000
1.951717 0.542529 0.314244 35.000000
1.995667 0.531366 0.320758 28.000000
2.034859 0.517956 0.326389 26.000000
2.064375 0.501479 0.330557 35.000000
2.103316 0.486704 0.336272 42.000000
2.113342 0.464693 0.337375 35.000000
2.166582 0.451650 0.345352 37.000000
2.176214 0.428816 0.346396 32.000000
2.219591 0.412190 0.352778 29.000000
2.189850 0.381912 0.347649 8.000000
2.247530 0.366698 0.356428 8.000000
2.280630 0.346530 0.361281 8.000000
2.323395 0.327026 0.367687 8.000000
2.365989 0.306665 0.374101 8.000000
2.418285 0.286535 0.382072 9.000000
2.455597 0.263672 0.387650 16.000000
2.537010 0.244395 0.400212 35.000000
2.573901 0.219460 0.405801 26.000000
2.659873 0.197507 0.419156 30.000000
2.711143 0.171455 0.427086 38.000000
2.742501 0.143293 0.431830 32.000000
2.817884 0.116315 0.443567 10.000000
2.883197 0.087418 0.453755 25.000000
2.933292 0.056739 0.461525 61.000000
2.953501 0.024819 0.464724 95.000000
2.948653 -0.007561 0.463947 95.000000
2.923687 -0.039565 0.460061 87.000000
2.908331 -0.071180 0.457730 88.000000
2.897470 -0.102736 0.456175 89.000000
2.856745 -0.132611 0.449870 32.000000
2.820549 -0.161905 0.444344 9.000000
2.818629 -0.192802 0.444257 9.000000
2.727733 -0.216660 0.430192 8.000000
2.720362 -0.246055 0.429331 10.000000
2.707665 -0.274844 0.427610 10.000000
2.719195 -0.306096 0.429769 9.000000
2.671611 -0.330396 0.422621 10.000000
2.672764 -0.360329 0.423147 10.000000
2.688232 -0.392426 0.426079 25.000000
2.688748 -0.422566 0.426601 68.000000
2.669343 -0.449531 0.424028 33.000000
2.669187 -0.479588 0.424550 95.000000
2.654122 -0.506886 0.422753 95.000000
2.633921 -0.532993 0.420103 80.000000
2.628027 -0.561797 0.419771 93.000000
2.616899 -0.589432 0.418667 95.000000
2.600739 -0.615741 0.416795 95.000000
2.598765 -0.645329 0.417152 85.000000
2.515066 -0.653888 0.404517 16.000000
2.531681 -0.687814 0.407957 12.000000
2.509804 -0.711482 0.405249 11.000000
2.487694 -0.734756 0.402546 19.000000
2.512664 -0.771910 0.407426 70.000000
2.504140 -0.799347 0.407020 72.000000
2.490602 -0.825231 0.405769 72.000000
2.490874 -0.855585 0.406809 75.000000
2.458162 -0.874548 0.402510 32.000000
2.555235 -0.940557 0.419455 10.000000
2.966453 -1.166464 0.489832 9.000000
2.971976 -1.206279 0.492177 10.000000
2.949588 -1.234844 0.489969 9.000000
2.944940 -1.271242 0.490889 9.000000
2.908495 -1.293188 0.486321 9.000000
2.894345 -1.324830 0.485535 9.000000
2.888646 -1.360981 0.486353 12.000000
2.891556 -1.400948 0.488472 16.000000
2.871559 -1.430581 0.487027 16.000000
2.851611 -1.459523 0.485387 18.000000
2.804766 -1.474859 0.479361 11.000000
2.788726 -1.505278 0.478481 13.000000
2.784974 -1.543277 0.479934 10.000000
2.742477 -1.558785 0.474489 9.000000
2.737963 -1.596436 0.475938 12.000000
2.716406 -1.623633 0.474219 10.000000
2.706870 -1.658683 0.474819 10.000000
2.726142 -1.712232 0.480581 9.000000
2.682710 -1.725682 0.475069 9.000000
2.663617 -1.755306 0.474085 13.000000
2.656923 -1.792343 0.475203 10.000000
2.600423 -1.796310 0.467628 9.000000
2.572455 -1.819361 0.465192 17.000000
2.528294 -1.830339 0.459847 26.000000
2.508556 -1.857587 0.458692 27.000000
2.480162 -1.879245 0.456182 81.000000
2.451515 -1.900632 0.453680 63.000000
2.431137 -1.926942 0.452531 47.000000
2.452079 -1.988006 0.459302 35.000000
2.445411 -2.027704 0.461104 24.000000
2.449397 -2.077145 0.464944 30.000000
2.445814 -2.119493 0.467228 34.000000
2.422462 -2.146536 0.466031 30.000000
2.428155 -2.199764 0.470418 33.000000
2.403811 -2.226532 0.469206 31.000000
2.380174 -2.252190 0.467792 30.000000
2.373114 -2.295561 0.470002 29.000000
2.333692 -2.307793 0.465868 19.000000
2.343115 -2.368686 0.471457 32.000000
2.306703 -2.383787 0.468027 33.000000
2.288262 -2.415410 0.467886 32.000000
2.281898 -2.462426 0.470615 36.000000
2.251570 -2.483793 0.468475 22.000000
2.175016 -2.453004 0.456681 26.000000
2.089639 -2.409497 0.442789 26.000000
1.983018 -2.338063 0.424278 10.000000
1.911094 -2.301773 0.412430 18.000000
1.851496 -2.280393 0.403561 21.000000
1.783401 -2.246434 0.392709 18.000000
1.722301 -2.218997 0.383272 21.000000
1.653069 -2.178739 0.371869 20.000000
1.593732 -2.149091 0.362466 21.000000
1.538262 -2.122425 0.353872 18.000000
1.473232 -2.077851 0.342426 10.000000
1.442022 -2.081785 0.339180 17.000000
1.374740 -2.031859 0.327351 18.000000
1.357998 -2.055236 0.327385 25.000000
1.324727 -2.053439 0.323546 24.000000
1.307517 -2.076347 0.323575 28.000000
1.282187 -2.086475 0.321715 27.000000
1.266919 -2.113327 0.322380 24.000000
1.272791 -2.173511 0.328042 9.000000
0.709092 1.232021 0.196016 7.000000
0.717458 1.215564 0.195477 13.000000
0.725593 1.199045 0.194925 13.000000
0.746464 1.203508 0.197777 18.000000
0.748202 1.178887 0.195872 26.000000
0.771863 1.187143 0.199435 16.000000
0.779293 1.170217 0.198821 32.000000
0.792076 1.161507 0.199601 21.000000
0.810354 1.160784 0.201748 21.000000
0.817211 1.143696 0.201118 15.000000
0.823848 1.126563 0.200433 10.000000
0.838429 1.121748 0.201964 27.000000
0.853699 1.116309 0.203414 23.000000
0.865833 1.106775 0.204151 22.000000
0.880971 1.100974 0.205566 28.000000
0.899196 1.098803 0.207753 20.000000
0.914370 1.092568 0.209180 22.000000
0.922538 1.079009 0.209242 16.000000
0.927763 1.061270 0.208479 14.000000
0.949219 1.061982 0.211333 33.000000
0.964112 1.055042 0.212772 29.000000
0.978998 1.047896 0.214172 25.000000
0.993430 1.040941 0.215666 31.000000
1.008206 1.033379 0.217075 26.000000
1.026461 1.029108 0.219190 29.000000
1.041251 1.021130 0.220611 10.000000
1.044832 1.003030 0.219830 24.000000
1.066641 1.001511 0.222714 52.000000
1.077571 0.989587 0.223346 28.000000
1.088365 0.977573 0.223933 29.000000
1.113510 0.978836 0.227646 34.000000
1.135464 0.976049 0.230523 26.000000
1.149927 0.966560 0.231887 42.000000
1.156639 0.950574 0.231725 11.000000
1.185971 0.953477 0.236207 22.000000
1.200289 0.943276 0.237587 33.000000
1.214485 0.932895 0.238924 26.000000
1.228368 0.922664 0.240311 29.000000
1.242411 0.911873 0.241655 35.000000
1.252361 0.898019 0.242179 25.000000
1.274064 0.892859 0.245132 29.000000
1.283821 0.878632 0.245661 12.000000
1.313672 0.878369 0.250195 23.000000
1.327377 0.866420 0.251467 34.000000
1.340995 0.854281 0.252742 32.000000
1.354278 0.842247 0.254118 32.000000
1.371937 0.832287 0.256187 32.000000
1.393560 0.824855 0.259153 29.000000
1.402518 0.809340 0.259603 33.000000
1.436991 0.808499 0.264913 21.000000
1.454414 0.797292 0.266960 25.000000
1.484694 0.792975 0.271453 31.000000
1.506470 0.783312 0.274314 28.000000
1.528026 0.773517 0.277236 27.000000
1.545141 0.761148 0.279366 31.000000
1.562351 0.748264 0.281342 29.000000
1.583752 0.737374 0.284287 28.000000
1.605127 0.726082 0.287186 24.000000
1.635562 0.718189 0.291595 27.000000
1.652319 0.704161 0.293651 29.000000
1.668993 0.689768 0.295767 25.000000
1.694685 0.678789 0.299451 27.000000
1.729511 0.670863 0.304708 29.000000
1.769014 0.664008 0.310849 27.000000
1.780781 0.646289 0.312070 26.000000
1.792351 0.628351 0.313294 24.000000
1.817739 0.614935 0.316965 25.000000
1.833707 0.598051 0.318952 29.000000
1.868328 0.586753 0.324210 30.000000
1.893455 0.572044 0.327905 29.000000
1.913785 0.555303 0.330728 31.000000
1.943461 0.540832 0.335133 29.000000
1.977798 0.527172 0.340430 20.000000
2.012045 0.512824 0.345737 24.000000
2.051051 0.498950 0.351812 26.000000
2.070755 0.479758 0.354607 27.000000
2.099900 0.462305 0.359053 28.000000
2.119239 0.442309 0.361792 11.000000
2.157794 0.425679 0.367833 22.000000
2.196223 0.408375 0.373883 17.000000
2.171363 0.379162 0.369272 6.000000
2.228920 0.364102 0.378568 8.000000
2.281443 0.347058 0.387048 7.000000
2.294850 0.323369 0.388989 7.000000
2.361789 0.306444 0.399970 8.000000
2.423714 0.287547 0.410133 7.000000
2.461053 0.264573 0.416086 10.000000
2.517720 0.242817 0.425360 29.000000
2.495661 0.213088 0.421447 9.000000
2.630591 0.195596 0.444010 29.000000
2.696519 0.170748 0.454883 26.000000
2.727733 0.142693 0.459948 25.000000
2.827696 0.116839 0.476640 9.000000
2.848460 0.086432 0.480138 17.000000
2.928126 0.056739 0.493429 51.000000
2.943369 0.024687 0.496012 83.000000
2.958252 -0.007599 0.498505 46.000000
2.918538 -0.039475 0.491858 91.000000
2.888332 -0.070818 0.486873 52.000000
2.867728 -0.101772 0.483461 52.000000
2.856546 -0.132751 0.481799 36.000000
2.810652 -0.161535 0.474236 9.000000
2.798897 -0.191704 0.472488 9.000000
2.727830 -0.216882 0.460693 9.000000
2.710558 -0.245442 0.458035 8.000000
2.693062 -0.273595 0.455378 9.000000
2.689879 -0.303166 0.455294 9.000000
2.696231 -0.333865 0.456784 9.000000
2.663129 -0.359419 0.451561 10.000000
2.644417 -0.386469 0.448827 10.000000
2.669343 -0.420014 0.453545 49.000000
2.669439 -0.450100 0.454121 75.000000
2.649853 -0.476717 0.451390 39.000000
2.644521 -0.505626 0.451057 95.000000
2.634022 -0.533640 0.449898 91.000000
2.613652 -0.559401 0.447090 74.000000
2.592934 -0.584761 0.444287 92.000000
2.576839 -0.610860 0.442310 49.000000
2.574907 -0.640238 0.442724 37.000000
2.548673 -0.663426 0.439025 32.000000
2.498508 -0.679562 0.431145 9.000000
2.467255 -0.700226 0.426642 10.000000
2.497317 -0.738472 0.432803 10.000000
2.498689 -0.768604 0.433957 36.000000
2.494815 -0.797521 0.434290 67.000000
2.481383 -0.823273 0.432986 56.000000
2.448921 -0.842422 0.428421 27.000000
2.434982 -0.867523 0.427125 51.000000
2.765900 -1.054230 0.487793 9.000000
2.947170 -1.160353 0.521253 8.000000
2.925293 -1.188867 0.518848 8.000000
2.953160 -1.237968 0.525352 9.000000
2.953181 -1.276124 0.526984 8.000000
2.938954 -1.308656 0.526387 8.000000
2.870800 -1.316113 0.515820 9.000000
2.892151 -1.364205 0.521378 9.000000
2.868143 -1.391834 0.519079 10.000000
2.817535 -1.405457 0.511775 9.000000
2.811035 -1.440625 0.512402 9.000000
2.781918 -1.464781 0.509223 10.000000
2.783346 -1.504398 0.511442 9.000000
2.766621 -1.535208 0.510660 8.000000
2.741413 -1.560351 0.507994 9.000000
2.719794 -1.588185 0.506420 9.000000
2.689855 -1.610076 0.502973 9.000000
2.693066 -1.652734 0.505957 9.000000
2.721076 -1.710842 0.513560 8.000000
2.627390 -1.692804 0.498395 8.000000
2.583926 -1.705556 0.492714 10.000000
2.561369 -1.730727 0.490782 10.000000
2.529987 -1.750666 0.487479 28.000000
2.507039 -1.775095 0.485463 31.000000
2.503389 -1.814498 0.487534 48.000000
2.491168 -1.847989 0.488038 30.000000
2.479202 -1.880887 0.488342 26.000000
2.485657 -1.929487 0.492699 30.000000
2.472010 -1.963139 0.493076 21.000000
2.516155 -2.042693 0.504792 21.000000
2.470726 -2.051582 0.498985 24.000000
2.451779 -2.082056 0.498462 18.000000
2.436195 -2.115654 0.498797 27.000000
2.413577 -2.141759 0.497303 21.000000
2.400942 -2.178425 0.498286 24.000000
2.384065 -2.211673 0.498500 26.000000
2.359667 -2.238080 0.497094 18.000000
2.367821 -2.294136 0.502367 22.000000
2.345991 -2.323771 0.501693 24.000000
2.309986 -2.339108 0.498019 21.000000
2.304822 -2.386014 0.500977 29.000000
2.276135 -2.406892 0.498595 28.000000
2.263087 -2.446459 0.500029 25.000000
2.246095 -2.482450 0.500705 20.000000
2.182772 -2.466403 0.491045 13.000000
2.136218 -2.468051 0.485110 14.000000
2.001622 -2.362305 0.458496 10.000000
1.921989 -2.319526 0.444558 10.000000
1.856043 -2.290748 0.433613 15.000000
1.772486 -2.237530 0.418381 10.000000
1.723774 -2.225695 0.411191 10.000000
1.648520 -2.177560 0.397474 15.000000
1.599354 -2.159124 0.389502 10.000000
1.558247 -2.152638 0.383806 10.000000
1.474634 -2.084912 0.367458 10.000000
1.434920 -2.076700 0.361862 10.000000
1.395505 -2.067880 0.356298 15.000000
1.348379 -2.045984 0.348576 16.000000
1.325871 -2.060863 0.347292 20.000000
1.294029 -2.057846 0.342987 24.000000
1.279247 -2.084741 0.343726 18.000000
1.261494 -2.107334 0.343755 17.000000
1.275862 -2.185333 0.352747 6.000000
0.691781 1.205664 0.204438 7.000000
0.707453 1.202123 0.206027 10.000000
0.735864 1.219570 0.211245 17.000000
0.741376 1.198691 0.209914 19.000000
0.757069 1.194518 0.211480 23.000000
0.772810 1.190155 0.213095 22.000000
0.776866 1.169567 0.211735 19.000000
0.797947 1.173119 0.214803 21.000000
0.816384 1.172299 0.217138 23.000000
0.809089 1.134997 0.212696 10.000000
0.830177 1.137895 0.215742 21.000000
0.845528 1.132549 0.217284 21.000000
0.860264 1.127444 0.218920 19.000000
0.872570 1.117809 0.219708 26.000000
0.893993 1.119626 0.222757 20.000000
0.909331 1.113451 0.224324 26.000000
0.918286 1.099448 0.224306 24.000000
0.932953 1.093381 0.225923 12.000000
0.941650 1.079225 0.225899 31.000000
0.956709 1.072379 0.227388 27.000000
0.968387 1.061633 0.228099 31.000000
0.979532 1.051198 0.228942 31.000000
0.994393 1.043805 0.230442 29.000000
1.009244 1.036203 0.231902 33.000000
1.034488 1.038929 0.235793 29.000000
1.038415 1.020815 0.234970 18.000000
1.060252 1.019419 0.238042 36.000000
1.071392 1.007551 0.238724 33.000000
1.093293 1.005569 0.241770 36.000000
1.111237 1.000322 0.244162 42.000000
1.125898 0.991145 0.245618 35.000000
1.144185 0.984966 0.247887 51.000000
1.154644 0.972545 0.248588 31.000000
1.172906 0.965884 0.250870 27.000000
1.183433 0.952725 0.251481 35.000000
1.197460 0.942899 0.253005 31.000000
1.223373 0.941493 0.256901 36.000000
1.225806 0.921905 0.255829 34.000000
1.239554 0.911444 0.257318 33.000000
1.261567 0.906173 0.260369 49.000000
1.271228 0.892426 0.261042 35.000000
1.289070 0.883775 0.263231 24.000000
1.311035 0.877588 0.266309 35.000000
1.320410 0.863232 0.266943 30.000000
1.342301 0.856441 0.269939 37.000000
1.355603 0.844360 0.271417 36.000000
1.369011 0.831791 0.272751 30.000000
