x y z intensity
2.053859 0.593851 -0.834291 25.000000
2.060233 0.570318 -0.834991 21.000000
2.007803 0.531231 -0.811955 9.000000
2.044984 0.516344 -0.825528 26.000000
1.996128 0.479989 -0.804332 24.000000
1.345046 0.275167 -0.539171 95.000000
1.201711 0.231674 -0.481046 83.000000
1.204159 0.217989 -0.481367 81.000000
1.197272 0.202711 -0.477985 58.000000
1.226996 0.193397 -0.489177 73.000000
1.229033 0.179382 -0.489380 98.000000
1.230907 0.165368 -0.489625 95.000000
1.223385 0.150219 -0.486160 95.000000
1.229584 0.136783 -0.488156 98.000000
1.198570 0.119549 -0.475547 98.000000
1.227590 0.108368 -0.486726 98.000000
1.237955 0.095089 -0.490521 98.000000
1.220372 0.079740 -0.483253 69.000000
1.216531 0.065604 -0.481455 100.000000
1.221817 0.051929 -0.483373 98.000000
1.222338 0.038004 -0.483373 98.000000
1.222659 0.024078 -0.483494 95.000000
1.208871 0.010037 -0.478018 99.000000
1.204261 -0.003715 -0.476180 100.000000
1.204182 -0.017428 -0.476101 100.000000
1.203945 -0.031102 -0.475982 100.000000
1.208157 -0.044989 -0.477780 103.000000
1.207642 -0.058755 -0.477661 100.000000
1.206888 -0.072522 -0.477621 100.000000
1.206015 -0.086249 -0.477542 59.000000
1.195754 -0.099207 -0.473711 103.000000
1.199242 -0.113265 -0.475350 98.000000
1.207229 -0.127879 -0.478781 100.000000
1.201135 -0.141077 -0.476788 100.000000
1.194935 -0.154169 -0.474717 100.000000
1.197842 -0.168372 -0.476273 103.000000
1.195898 -0.182059 -0.476074 98.000000
1.212202 -0.198677 -0.483157 52.000000
1.191653 -0.209274 -0.475519 100.000000
1.193927 -0.223660 -0.477029 98.000000
1.186893 -0.236331 -0.474805 100.000000
1.184235 -0.249860 -0.474487 100.000000
1.186002 -0.264361 -0.475994 100.000000
1.178522 -0.276797 -0.473773 98.000000
1.179988 -0.291323 -0.475157 98.000000
1.199346 -0.310542 -0.483773 40.000000
1.195855 -0.324261 -0.483367 95.000000
1.192243 -0.337898 -0.482961 95.000000
1.192977 -0.352817 -0.484288 84.000000
1.197973 -0.369169 -0.487382 95.000000
1.193950 -0.382796 -0.486848 73.000000
1.194145 -0.397815 -0.488040 95.000000
1.194226 -0.412893 -0.489227 91.000000
1.167687 -0.418710 -0.479673 30.000000
1.184881 -0.440185 -0.488152 95.000000
1.280283 -0.492079 -0.528730 108.000000
1.313928 -0.522168 -0.544222 100.000000
1.325418 -0.544286 -0.550657 91.000000
1.327923 -0.563203 -0.553631 66.000000
1.338856 -0.585777 -0.559938 95.000000
1.328199 -0.599092 -0.557245 71.000000
1.313205 -0.610246 -0.552774 32.000000
1.319084 -0.631387 -0.557359 86.000000
1.333022 -0.656904 -0.565438 91.000000
1.822063 -0.976182 -0.781877 35.000000
1.897328 -1.044463 -0.817612 24.000000
1.926543 -1.089251 -0.833827 18.000000
1.922729 -1.115963 -0.835758 18.000000
1.934613 -1.152298 -0.844700 10.000000
1.953956 -1.193997 -0.857033 20.000000
1.932960 -1.211258 -0.851819 16.000000
1.939517 -1.245991 -0.858763 19.000000
1.925929 -1.268062 -0.856886 19.000000
1.919511 -1.295755 -0.858786 17.000000
1.917063 -1.325541 -0.862030 16.000000
1.909854 -1.353260 -0.863748 13.000000
1.883916 -1.366694 -0.856511 10.000000
1.895000 -1.408164 -0.866757 20.000000
1.891092 -1.438181 -0.869687 15.000000
1.871403 -1.457223 -0.866042 12.000000
1.863188 -1.484191 -0.867151 17.000000
1.850352 -1.508745 -0.866846 14.000000
1.851735 -1.545278 -0.873265 14.000000
1.846029 -1.575258 -0.875852 13.000000
1.835716 -1.602784 -0.877034 10.000000
1.821600 -1.627181 -0.876509 12.000000
1.845407 -1.686356 -0.894345 18.000000
1.819971 -1.701234 -0.888635 13.000000
1.811540 -1.731987 -0.891158 14.000000
1.800180 -1.758787 -0.891657 12.000000
1.800961 -1.799478 -0.899121 15.000000
1.807657 -1.847209 -0.909766 13.000000
1.781065 -1.861212 -0.903696 9.000000
1.783395 -1.905831 -0.912497 17.000000
1.772199 -1.936787 -0.914648 17.000000
1.759584 -1.968476 -0.917024 16.000000
1.753808 -2.006565 -0.922300 18.000000
1.729050 -2.023109 -0.917658 12.000000
1.743530 -2.086498 -0.934059 16.000000
1.732954 -2.121156 -0.937376 10.000000
1.719021 -2.152128 -0.939036 9.000000
1.713325 -2.194144 -0.945397 10.000000
1.705702 -2.237289 -0.952053 10.000000
1.692916 -2.272064 -0.954997 11.000000
1.685294 -2.314399 -0.961077 12.000000
1.682589 -2.364571 -0.970164 11.000000
1.659990 -2.387796 -0.968195 16.000000
1.654269 -2.439142 -0.977419 10.000000
1.638699 -2.473927 -0.979900 9.000000
1.640755 -2.536489 -0.993265 15.000000
1.632208 -2.588441 -1.002221 13.000000
1.614661 -2.623304 -1.004392 14.000000
1.604018 -2.670332 -1.011144 13.000000
1.578641 -2.697934 -1.010422 11.000000
1.587716 -2.782122 -1.030716 16.000000
1.560608 -2.809753 -1.029762 10.000000
0.519234 0.967540 -0.341687 5.000000
0.433339 0.785609 -0.280382 9.000000
0.439280 0.776408 -0.280032 27.000000
0.467207 0.804000 -0.293113 26.000000
0.507400 0.851824 -0.313923 32.000000
0.541175 0.886623 -0.330346 31.000000
0.573873 0.916334 -0.345197 33.000000
0.616992 0.961780 -0.366394 33.000000
0.667033 1.013914 -0.390656 29.000000
0.712284 1.057507 -0.412125 9.000000
0.745085 1.080610 -0.426028 20.000000
0.809341 1.145322 -0.456841 98.000000
0.790863 1.093601 -0.441410 37.000000
0.788349 1.065407 -0.435214 36.000000
0.793940 1.048683 -0.433616 32.000000
0.779554 1.005368 -0.420836 29.000000
0.796165 1.003766 -0.425459 52.000000
0.788947 0.972477 -0.417415 18.000000
0.793244 0.956074 -0.415612 37.000000
0.800412 0.943265 -0.415379 35.000000
0.804830 0.926473 -0.413382 31.000000
0.805312 0.906563 -0.409883 46.000000
0.808672 0.890217 -0.407960 35.000000
0.824687 0.887773 -0.412422 59.000000
0.811408 0.854228 -0.402361 43.000000
0.827194 0.851591 -0.406780 32.000000
0.809728 0.815179 -0.394964 58.000000
0.808447 0.795850 -0.391187 37.000000
0.810244 0.779921 -0.388980 85.000000
0.818670 0.770515 -0.390069 95.000000
0.820073 0.754605 -0.387800 45.000000
0.828283 0.745062 -0.388808 91.000000
0.839929 0.738564 -0.391468 95.000000
0.851209 0.732165 -0.394246 92.000000
1.551205 1.245021 -0.703999 59.000000
1.623653 1.273980 -0.732629 39.000000
1.674941 1.283721 -0.750996 47.000000
1.719185 1.286814 -0.766077 37.000000
1.755623 1.283936 -0.778060 48.000000
1.769722 1.263422 -0.779611 29.000000
1.786976 1.246022 -0.783135 32.000000
1.820127 1.238412 -0.793092 64.000000
1.837255 1.220233 -0.796504 38.000000
1.866061 1.209421 -0.805030 43.000000
1.899280 1.200251 -0.814925 63.000000
1.924117 1.185913 -0.821728 37.000000
1.952995 1.173573 -0.830190 46.000000
1.989892 1.165391 -0.842033 32.000000
2.006558 1.144942 -0.845250 37.000000
2.018870 1.121895 -0.846751 31.000000
2.035084 1.100930 -0.849901 25.000000
2.042818 1.075349 -0.849604 29.000000
2.050279 1.049713 -0.849226 29.000000
2.040672 1.015738 -0.841838 22.000000
2.055943 0.994272 -0.844760 25.000000
2.053765 0.964957 -0.841033 10.000000
2.064252 0.941251 -0.842067 13.000000
2.065651 0.914047 -0.839911 22.000000
2.045292 0.877579 -0.829018 13.000000
2.063511 0.857546 -0.833382 14.000000
2.072682 0.834037 -0.834546 21.000000
2.064178 0.803586 -0.828558 17.000000
2.068385 0.778336 -0.827815 18.000000
2.072196 0.753330 -0.827283 10.000000
2.084734 0.731162 -0.829904 21.000000
2.097090 0.708749 -0.832528 25.000000
2.086798 0.679140 -0.826489 18.000000
2.067166 0.647067 -0.816834 19.000000
2.069610 0.622124 -0.815916 24.000000
2.080731 0.599874 -0.818459 21.000000
2.073636 0.572403 -0.813858 21.000000
2.039052 0.538012 -0.798554 10.000000
2.044695 0.514821 -0.799380 16.000000
2.050269 0.491492 -0.799862 25.000000
1.996183 0.454668 -0.777407 24.000000
1.349100 0.259385 -0.522943 92.000000
1.209296 0.218311 -0.468124 59.000000
1.206977 0.203768 -0.466624 46.000000
1.241441 0.195133 -0.479337 91.000000
1.243493 0.181013 -0.479542 95.000000
1.240751 0.166273 -0.478005 95.000000
1.237833 0.151597 -0.476425 98.000000
1.244064 0.138016 -0.478373 98.000000
1.240848 0.123404 -0.476710 98.000000
1.242110 0.109349 -0.476914 98.000000
1.243211 0.095212 -0.477036 83.000000
1.234869 0.080467 -0.473544 77.000000
1.235637 0.066476 -0.473665 95.000000
1.231659 0.052207 -0.471837 95.000000
1.236850 0.038374 -0.473665 98.000000
1.232465 0.024250 -0.471998 95.000000
1.237335 0.010271 -0.473827 95.000000
1.228037 -0.003732 -0.470210 99.000000
1.213950 -0.017496 -0.464807 103.000000
1.218380 -0.031382 -0.466475 100.000000
1.217942 -0.045202 -0.466396 100.000000
1.222008 -0.059287 -0.468223 100.000000
1.216667 -0.072881 -0.466276 98.000000
1.220449 -0.087032 -0.467943 82.000000
1.214795 -0.100480 -0.465997 95.000000
1.222940 -0.115135 -0.469368 100.000000
1.221616 -0.129020 -0.469247 100.000000
1.215492 -0.142362 -0.467303 95.000000
1.218526 -0.156750 -0.468846 100.000000
1.216800 -0.170555 -0.468565 100.000000
1.214834 -0.184400 -0.468364 95.000000
1.235844 -0.201973 -0.476982 57.000000
1.205977 -0.211164 -0.466024 98.000000
1.231182 -0.229985 -0.476328 98.000000
1.233231 -0.244799 -0.477695 100.000000
1.225907 -0.257875 -0.475592 95.000000
1.200226 -0.266708 -0.466398 98.000000
1.192744 -0.279247 -0.464225 98.000000
1.221369 -0.300663 -0.476299 72.000000
1.213557 -0.313326 -0.474038 54.000000
1.210040 -0.327148 -0.473629 98.000000
1.201940 -0.339617 -0.471414 78.000000
1.207126 -0.355911 -0.474493 95.000000
1.212173 -0.372369 -0.477484 95.000000
1.203621 -0.384673 -0.475145 95.000000
1.221630 -0.405685 -0.483356 103.000000
1.318937 -0.454712 -0.523237 103.000000
1.432884 -0.512325 -0.570000 81.000000
1.563530 -0.578902 -0.623445 95.000000
1.605233 -0.615101 -0.641925 103.000000
1.467793 -0.581584 -0.588629 105.000000
1.348666 -0.552090 -0.542456 95.000000
1.346814 -0.569385 -0.543582 95.000000
1.349171 -0.588415 -0.546204 70.000000
1.347075 -0.605573 -0.547078 71.000000
1.340298 -0.621050 -0.546309 36.000000
1.874268 -0.973801 -0.775429 30.000000
1.921462 -1.026186 -0.798279 23.000000
1.967840 -1.079759 -0.820906 21.000000
1.972393 -1.111374 -0.826231 24.000000
1.939850 -1.122117 -0.816132 10.000000
1.955837 -1.160962 -0.826484 10.000000
1.975327 -1.202748 -0.838493 24.000000
1.950225 -1.217725 -0.831664 13.000000
1.960332 -1.255552 -0.840358 19.000000
1.958535 -1.285502 -0.843627 19.000000
1.940724 -1.305065 -0.840037 17.000000
1.941665 -1.338273 -0.845116 19.000000
1.934911 -1.365566 -0.846495 10.000000
1.915897 -1.385219 -0.843050 10.000000
1.912398 -1.415227 -0.845930 14.000000
1.907946 -1.445803 -0.849095 13.000000
1.921694 -1.491011 -0.860577 19.000000
1.894709 -1.503791 -0.853226 13.000000
1.885358 -1.531578 -0.854588 15.000000
1.879347 -1.562394 -0.857432 15.000000
1.890874 -1.608515 -0.868587 9.000000
1.873859 -1.629624 -0.866019 10.000000
1.866546 -1.660551 -0.868698 13.000000
1.858785 -1.691561 -0.871270 13.000000
1.850655 -1.722570 -0.873816 19.000000
1.821525 -1.734098 -0.866481 10.000000
1.819471 -1.771454 -0.872166 10.000000
1.820246 -1.812375 -0.879342 18.000000
1.817106 -1.850052 -0.884847 9.000000
1.819908 -1.894771 -0.893440 10.000000
1.802571 -1.919055 -0.892335 14.000000
1.794604 -1.953625 -0.895935 14.000000
1.789247 -1.991760 -0.901089 21.000000
1.783424 -2.029999 -0.906107 12.000000
1.781995 -2.076411 -0.914593 16.000000
1.765731 -2.104017 -0.914759 15.000000
1.755067 -2.138835 -0.917965 10.000000
1.752913 -2.184682 -0.925746 9.000000
1.747003 -2.227088 -0.931887 10.000000
1.736257 -2.266772 -0.936770 10.000000
1.729046 -2.309315 -0.942695 13.000000
1.715640 -2.344392 -0.945458 12.000000
1.698862 -2.375484 -0.946540 14.000000
1.696481 -2.430837 -0.957182 10.000000
1.689395 -2.477664 -0.964284 10.000000
1.673518 -2.512743 -0.966633 9.000000
1.663337 -2.560733 -0.973785 10.000000
1.661572 -2.619854 -0.985102 15.000000
1.637083 -2.647830 -0.984542 15.000000
1.628697 -2.699130 -0.992468 16.000000
1.614678 -2.742358 -0.997406 19.000000
1.609753 -2.807344 -1.010027 23.000000
1.589280 -2.842326 -1.011719 21.000000
1.573001 -2.890949 -1.018108 10.000000
0.461584 0.810576 -0.283710 10.000000
0.489379 0.838286 -0.296558 16.000000
0.537475 0.898276 -0.321235 16.000000
0.567535 0.924335 -0.334182 21.000000
0.605205 0.962299 -0.351792 27.000000
0.665166 1.031200 -0.381210 18.000000
0.705005 1.067363 -0.399039 16.000000
0.726982 1.075076 -0.406572 10.000000
0.828679 1.195688 -0.457435 24.000000
0.818745 1.101182 -0.436509 28.000000
0.813134 1.069032 -0.428964 31.000000
0.812799 1.044663 -0.424364 17.000000
0.824507 1.034907 -0.425637 25.000000
0.808486 0.992249 -0.413253 20.000000
0.803811 0.964702 -0.406941 14.000000
0.804872 0.944580 -0.403631 28.000000
0.815466 0.934942 -0.404786 26.000000
0.822299 0.922037 -0.404504 23.000000
0.822576 0.902025 -0.401092 33.000000
0.828984 0.889102 -0.400781 21.000000
0.838555 0.879531 -0.401992 35.000000
0.834758 0.856291 -0.396865 10.000000
0.830590 0.833201 -0.391700 24.000000
0.822631 0.807021 -0.384916 32.000000
0.831345 0.797529 -0.385991 29.000000
0.826158 0.774956 -0.380658 35.000000
0.838037 0.768603 -0.383276 36.000000
0.839297 0.752611 -0.381099 32.000000
0.847468 0.742878 -0.382080 69.000000
1.548685 1.267528 -0.684044 31.000000
1.610518 1.287988 -0.706730 36.000000
1.642714 1.284456 -0.716719 28.000000
1.683008 1.285498 -0.729736 29.000000
1.719819 1.282902 -0.741034 35.000000
1.737145 1.266219 -0.744540 21.000000
1.758727 1.251562 -0.749347 29.000000
1.787979 1.241906 -0.757383 28.000000
1.801133 1.221647 -0.759142 28.000000
1.838185 1.216383 -0.770447 53.000000
1.863046 1.203184 -0.777046 30.000000
1.887857 1.189501 -0.783666 33.000000
1.916996 1.177434 -0.791603 34.000000
1.957905 1.172557 -0.804845 24.000000
1.970533 1.150253 -0.806396 29.000000
1.999254 1.137123 -0.814550 33.000000
2.019710 1.118829 -0.819383 30.000000
2.044187 1.102435 -0.825829 29.000000
2.060243 1.081228 -0.828861 20.000000
2.063538 1.053353 -0.826857 15.000000
2.079167 1.031797 -0.829816 22.000000
2.047900 0.987579 -0.814163 10.000000
2.084159 0.976045 -0.825396 10.000000
2.098814 0.954414 -0.828505 15.000000
2.083380 0.918947 -0.819394 10.000000
2.097453 0.897164 -0.822345 14.000000
2.072464 0.858711 -0.809727 10.000000
2.077271 0.833378 -0.809119 10.000000
2.086132 0.809772 -0.810208 17.000000
2.077244 0.779416 -0.804408 9.000000
2.090017 0.757395 -0.807050 10.000000
2.107044 0.736679 -0.811333 18.000000
2.092538 0.705330 -0.803868 10.000000
2.113546 0.685798 -0.809793 21.000000
2.107312 0.657710 -0.805589 17.000000
2.091847 0.627015 -0.797871 12.000000
2.094004 0.602019 -0.796934 20.000000
2.104903 0.579476 -0.799361 10.000000
2.061205 0.542353 -0.781075 10.000000
2.071577 0.520081 -0.783420 16.000000
2.054169 0.491158 -0.775497 13.000000
2.063963 0.468920 -0.777909 22.000000
2.027767 0.436497 -0.762722 25.000000
1.216640 0.204787 -0.455001 18.000000
1.251247 0.196106 -0.467358 73.000000
1.257866 0.182607 -0.469420 95.000000
1.250512 0.167099 -0.466120 86.000000
1.252236 0.152938 -0.466325 95.000000
1.258498 0.139252 -0.468224 95.000000
1.250607 0.124071 -0.464878 95.000000
1.256546 0.110291 -0.466777 98.000000
1.248303 0.095375 -0.463469 33.000000
1.244602 0.080893 -0.461815 95.000000
1.240732 0.066557 -0.460200 93.000000
1.241379 0.052486 -0.460200 95.000000
1.251277 0.038745 -0.463714 98.000000
1.251603 0.024567 -0.463795 95.000000
1.242390 0.010311 -0.460361 95.000000
1.237742 -0.003746 -0.458624 100.000000
1.228285 -0.017630 -0.455070 98.000000
1.232732 -0.031663 -0.456686 98.000000
1.237017 -0.045802 -0.458383 100.000000
1.236412 -0.059780 -0.458383 100.000000
1.221645 -0.072960 -0.453014 98.000000
1.234841 -0.087777 -0.458101 95.000000
1.233794 -0.101755 -0.457939 98.000000
1.237335 -0.116132 -0.459472 98.000000
1.263986 -0.133110 -0.469751 95.000000
1.234505 -0.144154 -0.459148 98.000000
1.242192 -0.159297 -0.462369 100.000000
1.258941 -0.175991 -0.469131 95.000000
1.266274 -0.191620 -0.472260 94.000000
1.245627 -0.202932 -0.465053 70.000000
1.243288 -0.217052 -0.464889 98.000000
1.240907 -0.231131 -0.464519 95.000000
1.238280 -0.245169 -0.464232 88.000000
1.244799 -0.261051 -0.467229 98.000000
1.241863 -0.275234 -0.466980 98.000000
1.229660 -0.287118 -0.463124 82.000000
1.244738 -0.305467 -0.469552 98.000000
1.214040 -0.312565 -0.458865 56.000000
1.219645 -0.328780 -0.461892 74.000000
1.220512 -0.343886 -0.463156 71.000000
1.212216 -0.356363 -0.460989 64.000000
1.666832 -0.572834 -0.639610 78.000000
1.744611 -0.621757 -0.671236 15.000000
1.843611 -0.680615 -0.711294 28.000000
1.814185 -0.693081 -0.701840 28.000000
1.705952 -0.673883 -0.661862 78.000000
1.445965 -0.590078 -0.562621 100.000000
1.357005 -0.571926 -0.529802 50.000000
1.363743 -0.592838 -0.534012 54.000000
1.873706 -0.917419 -0.744102 22.000000
1.930943 -0.972615 -0.769786 22.000000
1.945258 -1.007609 -0.778571 18.000000
1.971625 -1.049677 -0.792266 14.000000
1.989072 -1.087931 -0.802498 18.000000
1.981292 -1.112772 -0.802696 13.000000
1.960913 -1.130566 -0.797827 9.000000
1.981085 -1.171971 -0.809561 10.000000
1.968352 -1.194385 -0.807922 10.000000
1.986997 -1.237048 -0.819729 14.000000
1.957685 -1.249294 -0.811392 10.000000
1.956026 -1.279193 -0.814526 10.000000
1.961365 -1.314850 -0.821152 13.000000
1.947174 -1.336899 -0.819244 9.000000
1.951620 -1.372922 -0.825742 9.000000
1.947866 -1.403713 -0.828942 10.000000
1.925218 -1.419882 -0.823516 10.000000
1.943430 -1.467690 -0.836356 10.000000
1.927242 -1.490008 -0.834470 10.000000
1.900234 -1.502734 -0.827344 10.000000
1.894709 -1.533464 -0.830227 10.000000
1.903337 -1.576370 -0.839441 10.000000
1.922103 -1.628812 -0.853411 9.000000
1.897085 -1.644604 -0.848019 9.000000
1.871880 -1.660071 -0.842563 9.000000
1.871226 -1.697343 -0.848265 10.000000
1.852682 -1.718733 -0.845988 9.000000
1.854540 -1.759547 -0.853126 9.000000
1.859213 -1.803810 -0.861706 10.000000
1.836182 -1.821712 -0.857633 9.000000
1.849718 -1.876478 -0.870829 9.000000
1.835900 -1.904318 -0.871332 10.000000
1.831542 -1.942508 -0.876410 10.000000
1.807311 -1.959853 -0.872111 10.000000
1.814822 -2.012169 -0.883319 10.000000
1.805662 -2.047047 -0.886627 10.000000
1.797978 -2.086436 -0.891700 10.000000
1.778604 -2.110483 -0.890231 10.000000
1.792278 -2.174653 -0.905579 10.000000
1.771960 -2.198686 -0.904032 9.000000
1.779485 -2.260853 -0.917852 10.000000
1.758244 -2.284720 -0.916141 10.000000
1.756800 -2.335135 -0.924888 9.000000
1.744537 -2.375117 -0.929320 10.000000
1.733080 -2.414296 -0.933416 10.000000
1.721020 -2.453412 -0.937362 9.000000
1.714995 -2.505337 -0.946003 9.000000
1.701580 -2.544595 -0.949724 9.000000
1.695485 -2.595762 -0.957814 10.000000
1.684143 -2.644180 -0.964641 19.000000
1.661265 -2.671318 -0.963767 18.000000
1.643539 -2.711445 -0.967448 22.000000
1.627088 -2.750648 -0.970667 21.000000
1.593152 -2.760807 -0.963798 18.000000
1.569092 -2.792332 -0.964362 19.000000
1.562500 -2.852202 -0.974633 9.000000
0.565753 1.041767 -0.346138 6.000000
0.502003 0.901126 -0.302541 8.000000
0.473998 0.828418 -0.281119 26.000000
0.499661 0.851963 -0.292202 26.000000
0.553643 0.919844 -0.318896 27.000000
0.570860 0.925755 -0.324484 33.000000
0.629865 0.995772 -0.352919 26.000000
0.674176 1.040845 -0.373032 26.000000
0.720217 1.084580 -0.393125 13.000000
0.769288 1.131763 -0.414930 9.000000
1.118556 1.569176 -0.588856 30.000000
1.123831 1.540938 -0.585142 26.000000
0.799822 1.023403 -0.403003 35.000000
0.801754 1.003086 -0.399954 25.000000
0.831093 1.015682 -0.410091 13.000000
0.814365 0.973269 -0.398010 31.000000
0.821615 0.960310 -0.397848 22.000000
0.831845 0.950928 -0.399142 32.000000
0.829803 0.926818 -0.394192 32.000000
0.830067 0.906795 -0.390882 28.000000
0.843007 0.900746 -0.393622 43.000000
0.846066 0.884222 -0.391759 27.000000
0.855556 0.874496 -0.392935 32.000000
0.824580 0.824318 -0.375672 28.000000
0.830447 0.811199 -0.375070 29.000000
0.839160 0.801668 -0.376149 61.000000
0.847797 0.792025 -0.377155 39.000000
0.856360 0.782270 -0.378197 62.000000
0.854179 0.762944 -0.374503 95.000000
0.916133 0.800000 -0.398867 120.000000
1.596920 1.332459 -0.685845 33.000000
1.614498 1.317616 -0.689287 35.000000
1.647385 1.313789 -0.698831 33.000000
1.654195 1.288919 -0.697235 50.000000
1.687095 1.284266 -0.706690 28.000000
1.716299 1.276076 -0.714597 31.000000
1.756636 1.276314 -0.727506 35.000000
1.747417 1.239524 -0.719423 13.000000
1.780414 1.232873 -0.728846 37.000000
1.809222 1.223336 -0.736914 41.000000
1.826541 1.205052 -0.739922 29.000000
1.867241 1.202342 -0.752779 42.000000
1.880408 1.180730 -0.754138 35.000000
1.913185 1.171836 -0.763697 34.000000
1.938249 1.156981 -0.769841 37.000000
1.958801 1.139759 -0.774530 20.000000
1.991581 1.129131 -0.784092 37.000000
2.020253 1.115677 -0.792062 42.000000
2.044734 1.099386 -0.798354 34.000000
2.073326 1.084852 -0.806142 40.000000
2.101806 1.069786 -0.814027 28.000000
2.100674 1.039514 -0.810420 22.000000
2.120391 1.019693 -0.814904 29.000000
2.118569 0.989456 -0.811127 10.000000
2.124993 0.963336 -0.810620 18.000000
2.130847 0.937464 -0.810333 24.000000
2.115020 0.901978 -0.801437 14.000000
2.133331 0.881656 -0.805922 21.000000
2.129735 0.851998 -0.801867 17.000000
2.130055 0.824490 -0.799675 16.000000
2.116748 0.792072 -0.792364 18.000000
2.103042 0.760081 -0.785106 9.000000
2.128958 0.742353 -0.792606 18.000000
2.136981 0.718211 -0.793409 26.000000
2.126621 0.688333 -0.787782 18.000000
2.138500 0.665504 -0.790169 22.000000
2.136497 0.638668 -0.787708 24.000000
2.125156 0.609294 -0.781834 19.000000
2.136214 0.586496 -0.784290 22.000000
2.105986 0.552686 -0.771574 10.000000
2.148477 0.537944 -0.785580 21.000000
2.149631 0.512468 -0.784410 21.000000
2.150403 0.487167 -0.783451 21.000000
2.160151 0.463876 -0.785698 24.000000
2.142007 0.434717 -0.777888 26.000000
2.118851 0.405125 -0.768249 24.000000
1.251579 0.195667 -0.452000 82.000000
1.248971 0.180831 -0.450524 100.000000
1.246144 0.166101 -0.449128 100.000000
1.243181 0.151435 -0.447649 103.000000
1.249444 0.137908 -0.449495 100.000000
1.246185 0.123307 -0.447933 98.000000
1.247484 0.109223 -0.448014 98.000000
1.253273 0.095497 -0.449821 98.000000
1.254251 0.081319 -0.449902 89.000000
1.255025 0.067182 -0.450065 100.000000
1.251015 0.052765 -0.448380 100.000000
1.251502 0.038640 -0.448420 100.000000
1.251827 0.024515 -0.448502 103.000000
1.256737 0.010430 -0.450228 103.000000
1.252070 -0.003775 -0.448542 100.000000
1.251989 -0.017899 -0.448461 100.000000
1.247040 -0.031904 -0.446654 105.000000
1.237187 -0.045669 -0.443243 95.000000
1.231923 -0.059407 -0.441517 95.000000
1.245301 -0.074159 -0.446411 100.000000
1.230324 -0.087192 -0.441277 39.000000
1.243400 -0.102262 -0.446168 98.000000
1.242228 -0.116293 -0.446088 95.000000
1.245535 -0.130816 -0.447609 100.000000
1.244074 -0.144901 -0.447406 98.000000
1.242451 -0.158903 -0.447162 98.000000
1.240665 -0.172906 -0.446878 95.000000
1.238717 -0.186950 -0.446675 95.000000
1.264541 -0.205444 -0.456460 50.000000
1.215772 -0.211684 -0.439478 95.000000
1.213453 -0.225356 -0.439119 95.000000
1.238666 -0.244543 -0.448889 98.000000
1.235926 -0.258529 -0.448561 95.000000
1.233063 -0.272474 -0.448193 95.000000
1.239258 -0.288515 -0.451126 95.000000
1.245159 -0.304763 -0.454136 95.000000
1.246362 -0.320005 -0.455430 35.000000
1.229164 -0.330414 -0.450014 98.000000
2.067670 -0.657123 -0.763461 25.000000
2.060510 -0.680286 -0.762479 19.000000
2.079778 -0.712837 -0.771571 21.000000
2.080777 -0.739462 -0.773954 14.000000
2.037207 -0.749985 -0.759741 10.000000
2.064281 -0.786379 -0.771954 24.000000
2.038071 -0.802739 -0.764294 20.000000
1.975377 -0.882791 -0.750078 20.000000
2.034260 -0.936847 -0.775197 16.000000
2.023917 -0.959919 -0.774040 10.000000
2.038843 -0.995361 -0.782666 23.000000
2.036306 -1.022676 -0.784603 15.000000
2.025053 -1.045770 -0.783279 18.000000
2.026112 -1.075369 -0.786822 21.000000
2.026805 -1.105029 -0.790200 13.000000
2.027128 -1.134898 -0.793560 18.000000
2.014766 -1.157749 -0.792061 12.000000
1.981791 -1.168429 -0.782438 9.000000
2.001146 -1.210804 -0.793961 20.000000
1.996003 -1.238335 -0.795435 14.000000
2.006207 -1.276524 -0.803601 14.000000
1.980513 -1.291281 -0.797048 13.000000
1.989763 -1.329771 -0.805090 10.000000
1.987243 -1.360072 -0.807935 12.000000
1.972128 -1.382861 -0.806230 10.000000
1.949076 -1.399885 -0.801357 9.000000
1.968498 -1.446944 -0.813567 16.000000
1.956337 -1.472351 -0.813336 11.000000
1.973877 -1.520782 -0.825600 11.000000
1.964590 -1.549253 -0.826815 14.000000
1.932760 -1.559759 -0.818544 10.000000
1.938224 -1.599285 -0.825594 12.000000
1.924258 -1.624467 -0.825052 10.000000
1.931646 -1.668128 -0.833818 9.000000
1.913374 -1.690170 -0.831606 15.000000
1.891409 -1.708696 -0.827849 10.000000
1.911195 -1.765714 -0.842502 10.000000
1.888456 -1.784231 -0.838629 10.000000
1.886159 -1.822178 -0.843870 10.000000
1.885875 -1.864372 -0.850849 11.000000
1.872261 -1.892562 -0.851346 9.000000
1.855103 -1.917224 -0.850305 9.000000
1.863819 -1.969395 -0.861279 21.000000
1.839309 -1.986908 -0.857079 13.000000
1.840305 -2.032539 -0.864834 17.000000
1.848923 -2.089847 -0.877375 15.000000
1.826429 -2.110734 -0.874519 10.000000
1.831506 -2.164145 -0.884982 22.000000
1.826569 -2.206879 -0.890808 10.000000
1.804669 -2.232016 -0.889542 10.000000
1.801567 -2.278608 -0.896748 16.000000
1.794799 -2.321519 -0.902318 10.000000
1.794585 -2.377032 -0.912598 18.000000
1.774883 -2.404881 -0.912189 14.000000
1.771716 -2.455850 -0.920388 17.000000
1.760624 -2.500189 -0.925992 23.000000
1.731291 -2.516038 -0.920941 16.000000
1.725992 -2.567302 -0.928940 19.000000
1.699737 -2.591712 -0.927022 32.000000
1.687900 -2.634977 -0.931932 26.000000
1.650589 -2.642708 -0.924179 30.000000
1.627712 -2.669443 -0.923242 24.000000
1.617371 -2.721735 -0.931046 24.000000
1.588669 -2.739862 -0.927118 26.000000
1.557751 -2.758694 -0.923593 17.000000
1.567918 -2.847830 -0.943354 9.000000
0.573981 1.051647 -0.338416 6.000000
0.467560 0.835250 -0.271615 9.000000
0.476882 0.829602 -0.272647 25.000000
0.517902 0.877683 -0.291558 32.000000
0.559376 0.925289 -0.310707 31.000000
0.599443 0.967948 -0.328580 35.000000
0.653991 1.029666 -0.353428 30.000000
0.693636 1.066494 -0.370190 24.000000
0.756108 1.134076 -0.398118 21.000000
0.813999 1.192867 -0.423557 10.000000
1.135496 1.587111 -0.576815 32.000000
1.150362 1.569768 -0.577318 30.000000
1.132413 1.510686 -0.562239 33.000000
1.072622 1.398979 -0.527046 64.000000
0.824211 1.026676 -0.396454 51.000000
0.810786 0.987724 -0.386265 14.000000
0.824905 0.981772 -0.388857 30.000000
0.838450 0.976036 -0.391580 40.000000
0.842523 0.959287 -0.389973 30.000000
0.849555 0.946156 -0.389730 36.000000
0.853641 0.929051 -0.387887 34.000000
0.860320 0.915861 -0.387622 29.000000
0.860187 0.895694 -0.384351 39.000000
0.859752 0.875673 -0.381053 27.000000
0.845871 0.841942 -0.371628 32.000000
0.848073 0.825632 -0.369714 37.000000
0.856928 0.815945 -0.370736 61.000000
0.851744 0.793141 -0.365799 78.000000
0.860307 0.783387 -0.366767 71.000000
0.883000 0.786239 -0.373763 118.000000
1.589289 1.322277 -0.659119 34.000000
1.611050 1.310076 -0.663753 37.000000
1.632676 1.297505 -0.668402 39.000000
1.650537 1.281712 -0.671468 40.000000
1.683428 1.277137 -0.680607 62.000000
1.727416 1.280975 -0.694663 42.000000
1.749053 1.266692 -0.699261 35.000000
1.762908 1.246602 -0.700716 35.000000
1.776486 1.226304 -0.702101 44.000000
1.801264 1.214325 -0.708414 57.000000
1.830396 1.204062 -0.715951 52.000000
1.855618 1.190727 -0.721956 34.000000
1.892378 1.184897 -0.732869 50.000000
1.913467 1.168116 -0.737284 48.000000
1.930007 1.148939 -0.740362 36.000000
1.966914 1.141367 -0.751215 37.000000
1.979413 1.118783 -0.752384 64.000000
1.999714 1.100922 -0.756920 65.000000
2.044986 1.096176 -0.770853 64.000000
2.073525 1.081823 -0.778512 54.000000
2.093644 1.062570 -0.782954 53.000000
2.126312 1.049271 -0.792160 33.000000
2.129053 1.021061 -0.790207 24.000000
2.157261 1.004827 -0.797703 21.000000
2.155181 0.974457 -0.794078 25.000000
2.148328 0.942325 -0.788770 23.000000
2.153938 0.916300 -0.788383 23.000000
2.150747 0.886311 -0.784569 20.000000
2.155788 0.860356 -0.784093 21.000000
2.173971 0.839169 -0.788194 23.000000
2.142973 0.799718 -0.774808 16.000000
2.160432 0.778682 -0.778904 20.000000
2.164248 0.752705 -0.778258 24.000000
2.172298 0.728260 -0.779070 27.000000
2.153100 0.694871 -0.770215 22.000000
2.160394 0.670656 -0.771163 24.000000
2.158545 0.643445 -0.768590 24.000000
2.165373 0.619186 -0.769389 26.000000
2.167419 0.593460 -0.768570 22.000000
2.173725 0.568962 -0.769222 18.000000
2.165974 0.540953 -0.765012 24.000000
2.167207 0.515372 -0.763894 25.000000
2.181822 0.493093 -0.767860 27.000000
2.182467 0.467347 -0.766669 25.000000
2.182802 0.441850 -0.765619 26.000000
2.178185 0.415427 -0.762798 24.000000
2.131290 0.381713 -0.745536 18.000000
1.263112 0.182428 -0.440126 100.000000
1.265048 0.168173 -0.440332 100.000000
1.266779 0.153918 -0.440538 100.000000
1.263647 0.139146 -0.439071 100.000000
1.260380 0.124398 -0.437602 103.000000
1.261648 0.110208 -0.437765 100.000000
1.262793 0.095977 -0.437806 78.000000
1.277921 0.082661 -0.442790 100.000000
1.269270 0.067767 -0.439645 100.000000
1.269927 0.053483 -0.439768 100.000000
1.265737 0.039012 -0.438174 100.000000
1.266105 0.024741 -0.438134 100.000000
1.266269 0.010469 -0.438174 100.000000
1.266310 -0.003762 -0.438174 98.000000
1.237880 -0.017630 -0.428325 95.000000
1.251771 -0.031944 -0.433189 95.000000
1.241882 -0.045709 -0.429879 98.000000
1.255520 -0.060355 -0.434661 100.000000
1.259507 -0.074800 -0.436132 95.000000
1.258651 -0.088978 -0.436010 95.000000
1.252841 -0.102770 -0.434336 98.000000
1.256411 -0.117293 -0.435765 95.000000
1.264467 -0.132456 -0.438865 100.000000
1.277034 -0.148293 -0.443552 98.000000
1.251929 -0.159664 -0.435154 100.000000
1.278229 -0.177707 -0.444766 98.000000
1.266880 -0.190671 -0.441260 88.000000
1.264730 -0.204937 -0.440970 79.000000
1.271731 -0.220821 -0.444017 98.000000
1.259975 -0.233387 -0.440392 95.000000
1.262009 -0.248484 -0.441726 95.000000
1.268529 -0.264610 -0.444640 98.000000
1.265561 -0.278950 -0.444347 100.000000
1.257859 -0.292095 -0.442309 98.000000
1.994243 -0.582913 -0.707909 26.000000
2.078303 -0.633072 -0.739459 24.000000
2.094004 -0.663474 -0.746594 22.000000
2.095635 -0.690083 -0.749030 22.000000
2.096988 -0.716825 -0.751388 20.000000
2.084598 -0.738809 -0.748856 10.000000
2.089813 -0.767221 -0.752663 20.000000
2.068137 -0.785625 -0.746861 18.000000
2.077011 -0.816071 -0.752396 21.000000
2.054927 -0.834011 -0.746461 26.000000
1.980147 -0.829813 -0.721637 25.000000
2.036360 -0.880214 -0.744318 25.000000
2.065622 -0.920577 -0.757540 24.000000
2.064050 -0.947899 -0.759620 10.000000
2.049311 -0.969260 -0.756867 19.000000
2.064252 -1.004838 -0.765186 23.000000
2.057491 -1.030299 -0.765509 23.000000
2.046168 -1.053537 -0.764177 23.000000
2.055598 -1.087651 -0.770709 18.000000
2.052052 -1.115363 -0.772429 19.000000
2.056475 -1.147666 -0.777195 20.000000
2.039564 -1.168842 -0.774419 10.000000
2.026875 -1.191728 -0.772833 12.000000
2.005821 -1.209556 -0.768056 15.000000
2.020645 -1.250000 -0.777588 17.000000
2.015170 -1.277673 -0.778936 18.000000
2.020852 -1.313685 -0.785225 13.000000
2.030051 -1.352558 -0.792952 18.000000
2.023349 -1.380542 -0.794157 15.000000
2.004205 -1.400920 -0.790968 10.000000
2.000283 -1.432053 -0.793849 10.000000
1.988343 -1.457665 -0.793646 16.000000
1.991815 -1.494001 -0.799232 16.000000
1.971598 -1.513765 -0.795872 16.000000
1.984912 -1.559770 -0.806128 17.000000
1.971480 -1.585319 -0.805704 16.000000
1.968780 -1.619792 -0.809733 16.000000
1.965652 -1.654438 -0.813731 10.000000
1.943945 -1.673615 -0.810087 10.000000
1.936376 -1.705071 -0.812458 16.000000
1.931982 -1.739799 -0.816219 13.000000
1.930573 -1.777832 -0.821442 17.000000
1.928560 -1.816013 -0.826538 14.000000
1.919232 -1.847711 -0.828622 17.000000
1.909348 -1.879473 -0.830680 16.000000
1.911678 -1.925546 -0.838878 10.000000
1.904194 -1.960751 -0.842167 13.000000
1.902736 -2.003015 -0.848355 21.000000
1.903910 -2.048964 -0.855952 21.000000
1.877576 -2.067650 -0.851993 19.000000
1.880803 -2.117383 -0.860864 21.000000
1.870594 -2.152970 -0.863771 23.000000
1.850594 -2.177625 -0.862305 18.000000
1.853619 -2.232369 -0.872715 15.000000
1.838820 -2.264328 -0.873969 12.000000
1.826578 -2.299872 -0.876529 18.000000
1.821231 -2.347800 -0.883701 24.000000
1.813639 -2.391057 -0.889005 28.000000
1.796800 -2.422959 -0.890002 29.000000
1.769638 -2.443978 -0.887027 33.000000
1.751945 -2.475500 -0.887882 34.000000
1.732355 -2.507890 -0.888996 31.000000
1.716552 -2.543188 -0.891086 26.000000
1.674872 -2.543217 -0.880921 35.000000
1.668675 -2.594312 -0.888510 32.000000
1.652350 -2.634262 -0.892172 32.000000
1.634652 -2.669124 -0.893913 32.000000
1.616511 -2.703814 -0.895708 32.000000
1.583707 -2.718647 -0.890947 28.000000
1.574544 -2.775078 -0.899667 29.000000
1.561623 -2.822166 -0.905281 10.000000
0.600787 1.095304 -0.341020 5.000000
0.485192 0.861246 -0.270952 9.000000
0.499022 0.864090 -0.274732 20.000000
0.547972 0.924482 -0.297091 22.000000
0.572605 0.942997 -0.306342 24.000000
0.639105 1.026122 -0.336998 24.000000
0.675758 1.059516 -0.351858 26.000000
0.729695 1.115929 -0.374738 26.000000
0.786904 1.175668 -0.399261 14.000000
0.870752 1.269482 -0.436084 11.000000
1.102340 1.570649 -0.545812 31.000000
1.138468 1.585504 -0.557494 22.000000
1.156124 1.572060 -0.559353 30.000000
1.169838 1.555149 -0.559952 28.000000
1.169493 1.518472 -0.553483 32.000000
0.841077 0.997961 -0.382417 30.000000
0.845892 0.980777 -0.380717 30.000000
0.849972 0.964025 -0.379124 43.000000
0.857027 0.950813 -0.378932 29.000000
0.870869 0.944273 -0.381414 62.000000
0.864494 0.916944 -0.375462 32.000000
0.871001 0.903703 -0.375154 30.000000
0.873914 0.887006 -0.373441 35.000000
0.849457 0.843353 -0.360107 29.000000
0.862315 0.836692 -0.362467 74.000000
0.867805 0.823593 -0.362053 42.000000
0.873149 0.810458 -0.361593 84.000000
0.878308 0.797289 -0.361124 105.000000
1.588755 1.318030 -0.635581 37.000000
1.606770 1.302911 -0.638638 35.000000
1.632073 1.293444 -0.644593 68.000000
1.653661 1.280663 -0.649087 36.000000
1.682791 1.273272 -0.656498 32.000000
1.704294 1.259725 -0.660892 42.000000
1.748934 1.262560 -0.674248 32.000000
1.747061 1.231562 -0.669717 26.000000
1.780107 1.225124 -0.678574 52.000000
1.796991 1.207808 -0.681665 52.000000
1.826102 1.197693 -0.688999 58.000000
1.859249 1.189645 -0.697863 55.000000
1.884023 1.176377 -0.703878 36.000000
1.909034 1.162195 -0.709626 58.000000
1.937802 1.150455 -0.717194 33.000000
1.942113 1.123455 -0.715311 31.000000
1.974859 1.113301 -0.724285 63.000000
1.991236 1.092931 -0.726971 57.000000
2.023950 1.081735 -0.735915 65.000000
2.065058 1.074239 -0.747871 48.000000
2.085042 1.055257 -0.752203 36.000000
2.126242 1.046365 -0.764219 60.000000
2.154657 1.030488 -0.771506 32.000000
2.174392 1.010138 -0.775811 11.000000
2.185313 0.985529 -0.776887 26.000000
2.169783 0.949252 -0.768702 16.000000
2.188797 0.928421 -0.772781 25.000000
2.181201 0.896321 -0.767583 20.000000
2.181828 0.868359 -0.765619 18.000000
2.200122 0.846975 -0.769551 26.000000
2.186859 0.813938 -0.762842 13.000000
2.186607 0.786149 -0.760705 10.000000
2.185986 0.758337 -0.758485 27.000000
2.176065 0.727713 -0.753140 22.000000
2.201963 0.708920 -0.760120 29.000000
2.186857 0.677077 -0.753051 22.000000
2.189586 0.651012 -0.752223 21.000000
2.196486 0.626424 -0.753030 27.000000
2.180190 0.595436 -0.745929 18.000000
2.200289 0.574484 -0.751361 13.000000
2.206429 0.549707 -0.751946 24.000000
2.207657 0.523761 -0.750959 22.000000
2.208570 0.497773 -0.749898 25.000000
2.204529 0.471043 -0.747406 24.000000
2.200227 0.444376 -0.744836 20.000000
2.204918 0.419548 -0.745269 23.000000
2.199979 0.393051 -0.742549 18.000000
1.446241 0.208385 -0.486326 98.000000
1.279109 0.169668 -0.429690 95.000000
1.285561 0.155879 -0.431478 100.000000
1.277797 0.140346 -0.428400 100.000000
1.288644 0.126927 -0.431811 100.000000
1.275801 0.111195 -0.427148 98.000000
1.281643 0.097217 -0.428896 95.000000
1.287368 0.083091 -0.430562 100.000000
1.283462 0.068395 -0.429020 98.000000
1.279385 0.053764 -0.427519 100.000000
1.284620 0.039532 -0.429144 100.000000
1.289734 0.025151 -0.430728 103.000000
1.285199 0.010627 -0.429185 100.000000
1.280498 -0.003790 -0.427560 98.000000
1.285116 -0.018236 -0.429103 82.000000
1.265862 -0.032226 -0.422769 95.000000
1.265455 -0.046445 -0.422688 98.000000
1.260147 -0.060436 -0.420983 95.000000
1.268886 -0.075162 -0.424107 95.000000
1.286912 -0.090728 -0.430313 59.000000
1.295329 -0.105986 -0.433309 98.000000
1.265778 -0.117896 -0.423698 98.000000
1.297455 -0.135536 -0.434513 100.000000
1.286478 -0.149047 -0.431228 95.000000
1.294224 -0.164658 -0.434135 95.000000
1.297035 -0.179870 -0.435546 98.000000
1.299706 -0.195146 -0.436870 95.000000
1.283497 -0.207457 -0.431846 52.000000
1.276480 -0.221071 -0.430062 95.000000
1.273981 -0.235401 -0.429770 88.000000
1.285327 -0.252475 -0.434198 95.000000
1.315076 -0.273647 -0.444865 103.000000
1.423323 -0.312874 -0.482170 108.000000
2.027699 -0.542181 -0.691772 21.000000
2.076584 -0.580247 -0.709791 24.000000
2.111321 -0.615487 -0.723084 24.000000
2.113559 -0.641986 -0.725498 16.000000
2.120054 -0.670051 -0.729393 21.000000
2.121655 -0.696867 -0.731721 22.000000
2.113981 -0.720749 -0.730861 19.000000
2.128426 -0.752335 -0.737694 16.000000
2.102381 -0.769716 -0.730547 15.000000
2.125093 -0.805006 -0.740311 19.000000
2.120548 -0.830809 -0.741055 23.000000
2.098261 -0.849139 -0.735252 18.000000
2.093280 -0.874650 -0.735851 21.000000
2.087968 -0.900116 -0.736372 18.000000
2.095438 -0.931404 -0.741504 16.000000
2.102445 -0.962938 -0.746546 17.000000
2.083232 -0.982608 -0.742292 17.000000
2.098141 -1.018491 -0.750298 18.000000
2.099778 -1.048498 -0.753612 26.000000
2.096816 -1.076392 -0.755310 21.000000
2.097670 -1.106624 -0.758520 22.000000
2.089776 -1.132374 -0.758596 24.000000
2.068811 -1.151572 -0.754418 15.000000
2.072848 -1.184157 -0.758961 17.000000
2.047365 -1.200547 -0.753125 13.000000
2.038456 -1.225800 -0.753038 15.000000
2.053231 -1.266544 -0.762212 20.000000
2.063750 -1.304766 -0.769531 16.000000
2.049297 -1.328203 -0.768047 16.000000
2.058452 -1.367322 -0.775467 16.000000
2.039805 -1.387481 -0.772155 12.000000
2.036249 -1.418860 -0.774969 10.000000
2.008960 -1.433631 -0.768842 12.000000
2.027880 -1.481783 -0.780460 19.000000
2.003859 -1.499016 -0.775734 18.000000
2.021522 -1.547860 -0.787268 13.000000
2.015807 -1.579636 -0.789736 17.000000
1.994740 -1.599465 -0.786385 16.000000
1.995749 -1.637155 -0.791757 14.000000
1.988774 -1.668953 -0.794084 16.000000
1.981433 -1.700751 -0.796389 10.000000
1.962937 -1.723079 -0.794223 17.000000
1.972594 -1.770812 -0.803662 18.000000
1.953405 -1.793044 -0.801464 10.000000
1.947840 -1.828128 -0.804952 17.000000
1.948733 -1.869902 -0.811198 17.000000
1.941319 -1.906045 -0.814871 14.000000
1.951126 -1.958345 -0.825317 17.000000
1.923306 -1.973404 -0.819912 10.000000
1.941768 -2.036622 -0.834426 20.000000
1.923094 -2.061804 -0.833155 19.000000
1.909550 -2.094778 -0.835062 18.000000
1.909446 -2.141215 -0.842215 23.000000
1.892761 -2.169800 -0.842194 19.000000
1.893320 -2.221089 -0.850825 19.000000
1.888020 -2.264275 -0.856223 22.000000
1.873049 -2.296521 -0.857394 15.000000
1.859229 -2.333298 -0.860300 34.000000
1.834402 -2.354050 -0.857173 33.000000
1.810876 -2.379195 -0.855706 33.000000
1.788501 -2.403174 -0.853944 41.000000
1.758771 -2.420102 -0.849726 32.000000
1.741409 -2.451515 -0.850582 32.000000
1.721055 -2.478686 -0.849955 30.000000
1.698711 -2.506748 -0.849691 18.000000
1.690831 -2.553763 -0.855751 32.000000
1.656975 -2.565370 -0.849964 29.000000
1.645410 -2.608203 -0.854492 30.000000
1.616211 -2.627441 -0.851269 31.000000
1.588574 -2.645312 -0.847754 29.000000
1.585779 -2.709752 -0.858947 30.000000
1.557370 -2.727334 -0.855371 26.000000
1.561954 -2.808874 -0.871625 9.000000
0.501775 0.887870 -0.269964 8.000000
0.528634 0.911172 -0.279984 10.000000
0.563459 0.946393 -0.293941 11.000000
0.616051 1.010191 -0.317129 10.000000
0.660590 1.056077 -0.335216 18.000000
0.721072 1.125904 -0.361339 10.000000
0.768011 1.169806 -0.379625 12.000000
0.842152 1.253270 -0.411357 10.000000
1.118987 1.588485 -0.533451 24.000000
1.142276 1.583143 -0.537952 26.000000
1.158900 1.570289 -0.539930 18.000000
1.176327 1.556694 -0.541660 24.000000
1.195710 1.547280 -0.544980 25.000000
1.209883 1.529441 -0.545368 24.000000
1.186659 1.467189 -0.529717 29.000000
0.878005 1.014960 -0.380722 23.000000
0.863292 0.976263 -0.371004 28.000000
0.864449 0.955437 -0.367960 25.000000
0.871368 0.942176 -0.367728 21.000000
0.884691 0.935808 -0.370291 28.000000
0.881759 0.911649 -0.365731 22.000000
0.891467 0.901699 -0.366819 22.000000
0.873828 0.864570 -0.356758 30.000000
0.862732 0.834351 -0.349274 27.000000
0.878670 0.831182 -0.353106 54.000000
0.880508 0.814705 -0.351257 40.000000
1.249882 1.106138 -0.491605 100.000000
1.508286 1.275304 -0.584844 12.000000
1.577468 1.304013 -0.607636 30.000000
1.606451 1.298143 -0.614841 34.000000
1.631738 1.288769 -0.620643 27.000000
1.649503 1.273153 -0.623534 33.000000
1.663243 1.254369 -0.624928 30.000000
1.715398 1.263853 -0.640787 25.000000
1.744657 1.255550 -0.647918 35.000000
1.757811 1.236093 -0.649562 10.000000
1.775185 1.218796 -0.652313 32.000000
1.792411 1.201203 -0.655070 33.000000
1.821499 1.191237 -0.662199 32.000000
1.850610 1.180768 -0.669282 36.000000
1.879313 1.170217 -0.676598 32.000000
1.900273 1.153702 -0.680727 29.000000
1.929286 1.141799 -0.687799 35.000000
1.941452 1.120187 -0.689159 11.000000
1.970280 1.107367 -0.696191 37.000000
1.990498 1.089870 -0.700439 40.000000
2.006309 1.069722 -0.703221 32.000000
2.056158 1.066636 -0.717554 35.000000
2.093208 1.056381 -0.727704 43.000000
2.117380 1.039091 -0.733357 32.000000
2.145695 1.023493 -0.740435 35.000000
2.174036 1.007278 -0.747531 12.000000
2.184837 0.982767 -0.748680 14.000000
2.208527 0.963827 -0.754156 21.000000
2.196960 0.929565 -0.747681 13.000000
2.198127 0.901151 -0.745678 16.000000
2.198987 0.872783 -0.743591 15.000000
2.190412 0.841346 -0.738646 10.000000
2.208437 0.819891 -0.742477 13.000000
2.172298 0.778997 -0.728408 9.000000
2.198591 0.760862 -0.735321 10.000000
2.233840 0.745191 -0.745191 22.000000
2.223677 0.714259 -0.739980 15.000000
2.213089 0.683586 -0.734680 17.000000
2.202155 0.653248 -0.729296 18.000000
2.204559 0.627085 -0.728443 15.000000
2.211164 0.602424 -0.729177 20.000000
2.194498 0.571613 -0.722324 9.000000
2.214396 0.550438 -0.727534 14.000000
2.234148 0.528805 -0.732679 20.000000
2.211930 0.497383 -0.724067 14.000000
2.226548 0.474528 -0.727547 15.000000
2.226840 0.448643 -0.726607 19.000000
2.217535 0.420941 -0.722471 14.000000
2.222019 0.396061 -0.722905 16.000000
2.179248 0.363279 -0.708008 9.000000
1.299637 0.157188 -0.420456 74.000000
1.310737 0.143665 -0.423683 98.000000
1.298005 0.127560 -0.419261 95.000000
1.294600 0.112556 -0.417815 98.000000
1.290979 0.097700 -0.416409 95.000000
1.310933 0.084439 -0.422659 95.000000
1.302311 0.069236 -0.419638 100.000000
1.302980 0.054644 -0.419721 98.000000
1.303482 0.040011 -0.419763 98.000000
1.299099 0.025285 -0.418231 98.000000
1.299266 0.010747 -0.418273 100.000000
1.294548 -0.003818 -0.416741 98.000000
1.299224 -0.018412 -0.418190 98.000000
1.317965 -0.033433 -0.424317 98.000000
1.312786 -0.048052 -0.422701 95.000000
1.312196 -0.062750 -0.422574 95.000000
1.311438 -0.077490 -0.422532 95.000000
1.305763 -0.091854 -0.420876 37.000000
1.314203 -0.107231 -0.423767 98.000000
1.303455 -0.121101 -0.420582 88.000000
1.306805 -0.136198 -0.421943 98.000000
1.300560 -0.150265 -0.420204 85.000000
1.308286 -0.166066 -0.423091 95.000000
1.296993 -0.179428 -0.419827 95.000000
1.304397 -0.195357 -0.422626 79.000000
1.297498 -0.209182 -0.420806 35.000000
1.299832 -0.224564 -0.422119 76.000000
1.353541 -0.249462 -0.440097 98.000000
1.865912 -0.431161 -0.610336 37.000000
1.958350 -0.475630 -0.641703 40.000000
2.068555 -0.526982 -0.679014 24.000000
2.104183 -0.561208 -0.691887 9.000000
2.139294 -0.596223 -0.704731 18.000000
2.123528 -0.617595 -0.701069 12.000000
2.153154 -0.652443 -0.712508 20.000000
2.150499 -0.678075 -0.713224 13.000000
2.138534 -0.700697 -0.710924 11.000000
2.157914 -0.733819 -0.719086 16.000000
2.149818 -0.757961 -0.718138 11.000000
2.123655 -0.775414 -0.711188 9.000000
2.150745 -0.812845 -0.722309 18.000000
2.128515 -0.831613 -0.716790 10.000000
2.132579 -0.860945 -0.720323 15.000000
2.127496 -0.886758 -0.720859 14.000000
2.117694 -0.910637 -0.719827 10.000000
2.120762 -0.940246 -0.723260 13.000000
2.114797 -0.966034 -0.723634 10.000000
2.091208 -0.983642 -0.718068 9.000000
2.127708 -1.030016 -0.733179 21.000000
2.112179 -1.051680 -0.730417 13.000000
2.104974 -1.077450 -0.730611 14.000000
2.109877 -1.110293 -0.735373 16.000000
2.089363 -1.129277 -0.731061 10.000000
2.102152 -1.166549 -0.738428 17.000000
2.105795 -1.199808 -0.743063 10.000000
2.043340 -1.194296 -0.723965 8.000000
2.099766 -1.259297 -0.747500 12.000000
2.069486 -1.273023 -0.740265 10.000000
2.080125 -1.311274 -0.747283 11.000000
2.069634 -1.337479 -0.747322 10.000000
2.054861 -1.360896 -0.745829 10.000000
2.059656 -1.397595 -0.751483 10.000000
2.056056 -1.429041 -0.754223 10.000000
2.040814 -1.451705 -0.752307 9.000000
2.051955 -1.494507 -0.760678 12.000000
2.024016 -1.509046 -0.754603 9.000000
2.034115 -1.552231 -0.762834 10.000000
2.020863 -1.578158 -0.762385 10.000000
2.022363 -1.615814 -0.767615 10.000000
2.004730 -1.638556 -0.765720 10.000000
2.012522 -1.682666 -0.773642 10.000000
2.008069 -1.718428 -0.777534 8.000000
2.003847 -1.753683 -0.781062 11.000000
1.984792 -1.776125 -0.778944 9.000000
1.993815 -1.824321 -0.787939 10.000000
1.977563 -1.849936 -0.787101 10.000000
1.974865 -1.888650 -0.791734 10.000000
1.974194 -1.931641 -0.797977 10.000000
1.963503 -1.963944 -0.799760 10.000000
1.949057 -1.992776 -0.800049 8.000000
1.956563 -2.046617 -0.810216 10.000000
1.951056 -2.085925 -0.814466 11.000000
1.944812 -2.125419 -0.818671 16.000000
1.924164 -2.151489 -0.817657 17.000000
1.932871 -2.209128 -0.828493 21.000000
1.912358 -2.234286 -0.827054 33.000000
1.884283 -2.252689 -0.823094 26.000000
1.872468 -2.288540 -0.825587 19.000000
1.836069 -2.294202 -0.817323 28.000000
1.828186 -2.338198 -0.822731 25.000000
1.809227 -2.366158 -0.822290 32.000000
1.779938 -2.383230 -0.818229 29.000000
1.766083 -2.418485 -0.820502 27.000000
1.738982 -2.438952 -0.817659 29.000000
1.710544 -2.454230 -0.813126 23.000000
1.704730 -2.505924 -0.820743 10.000000
1.681051 -2.528823 -0.818786 27.000000
1.660620 -2.560460 -0.819702 23.000000
1.641470 -2.591024 -0.820202 26.000000
1.604880 -2.597781 -0.813337 22.000000
1.587671 -2.632079 -0.814991 23.000000
1.580317 -2.688025 -0.823375 24.000000
1.552703 -2.710625 -0.821399 19.000000
1.552629 -2.778448 -0.833042 10.000000
0.659794 1.191214 -0.345933 6.000000
0.560962 0.962451 -0.285464 22.000000
0.580858 0.972834 -0.291643 28.000000
0.624510 1.019644 -0.308976 26.000000
0.677003 1.077868 -0.330195 20.000000
0.738004 1.147604 -0.355469 24.000000
0.782642 1.187421 -0.371941 14.000000
0.881607 1.306965 -0.414016 15.000000
1.099487 1.590942 -0.509766 24.000000
1.119001 1.582621 -0.512998 26.000000
1.142169 1.577293 -0.517340 23.000000
1.147210 1.549035 -0.514092 33.000000
1.178970 1.554885 -0.522261 26.000000
1.201224 1.549325 -0.526705 31.000000
1.215445 1.531480 -0.527076 30.000000
1.234615 1.521633 -0.530236 21.000000
1.211394 1.458938 -0.514817 31.000000
0.883473 0.995244 -0.365088 73.000000
0.868129 0.956786 -0.355651 29.000000
0.872163 0.939580 -0.353971 37.000000
0.875555 0.922808 -0.352397 28.000000
0.881991 0.909520 -0.352186 33.000000
0.878535 0.885570 -0.347739 24.000000
0.891409 0.879031 -0.350113 24.000000
0.880024 0.848940 -0.343041 70.000000
0.885979 0.835406 -0.342540 52.000000
1.446295 1.276070 -0.547386 75.000000
1.526112 1.315768 -0.573235 32.000000
1.569650 1.323364 -0.585744 32.000000
1.587563 1.308634 -0.588618 28.000000
1.601669 1.290674 -0.590054 32.000000
1.649552 1.299344 -0.603929 39.000000
1.663622 1.280674 -0.605329 30.000000
1.688941 1.270465 -0.610895 35.000000
1.706574 1.254174 -0.613696 33.000000
1.720099 1.234795 -0.615042 27.000000
1.741352 1.220792 -0.619183 35.000000
1.762522 1.206476 -0.623269 32.000000
1.783539 1.191777 -0.627298 32.000000
1.812575 1.182072 -0.634150 42.000000
1.853357 1.179943 -0.645530 30.000000
1.853992 1.151247 -0.642482 45.000000
1.895204 1.147598 -0.653565 35.000000
1.915940 1.130972 -0.657527 28.000000
