x y z intensity
2.248555 0.954163 1.553783 36.000000
2.262616 0.927933 1.558591 33.000000
2.272528 0.899789 1.560538 33.000000
2.290133 0.874563 1.567873 54.000000
2.310953 0.850774 1.578275 49.000000
2.324203 0.823437 1.582493 55.000000
2.336768 0.796090 1.587254 43.000000
2.357623 0.770900 1.596716 50.000000
2.381765 0.746760 1.609264 37.000000
2.409856 0.723341 1.624455 34.000000
2.441842 0.700491 1.642296 35.000000
2.457509 0.672427 1.649022 36.000000
2.481069 0.646279 1.661100 37.000000
2.495831 0.617714 1.668221 46.000000
2.522695 0.591728 1.683337 49.000000
2.533389 0.561328 1.686817 48.000000
2.551646 0.532728 1.696226 51.000000
2.573309 0.504632 1.708758 33.000000
2.586993 0.474335 1.715079 35.000000
2.596391 0.443033 1.718482 47.000000
2.609076 0.412380 1.725102 50.000000
2.638161 0.383934 1.742477 62.000000
2.675427 0.355785 1.765148 44.000000
2.699936 0.325317 1.779427 44.000000
2.715884 0.293439 1.788137 46.000000
2.722938 0.260458 1.791774 31.000000
2.775847 0.230990 1.824752 31.000000
2.794870 0.198027 1.836223 35.000000
2.809335 0.164409 1.844753 35.000000
2.835728 0.131063 1.862028 39.000000
2.845432 0.096431 1.867513 35.000000
2.867056 0.061863 1.881643 30.000000
2.888375 0.026781 1.895568 23.000000
2.934462 -0.008891 1.925744 17.000000
2.967686 -0.045393 1.947581 24.000000
2.967145 -0.081903 1.947148 20.000000
2.986731 -0.119247 1.960969 23.000000
2.989706 -0.156122 1.962838 27.000000
3.004541 -0.194019 1.973474 29.000000
3.002234 -0.230933 1.972925 28.000000
3.019985 -0.269707 1.986626 23.000000
2.975493 -0.302535 1.958242 26.000000
2.992676 -0.341565 1.971497 33.000000
2.972007 -0.376267 1.959998 30.000000
2.971891 -0.413443 1.961860 30.000000
2.963158 -0.449357 1.958031 34.000000
2.945847 -0.483594 1.948630 32.000000
2.940080 -0.519932 1.947869 30.000000
2.913521 -0.552261 1.933237 23.000000
2.895367 -0.585528 1.923324 28.000000
2.897000 -0.622897 1.927378 31.000000
2.885577 -0.657781 1.923897 33.000000
2.866128 -0.690278 1.914006 29.000000
2.866859 -0.727526 1.917622 32.000000
2.846305 -0.759672 1.908070 31.000000
2.837736 -0.794806 1.906570 27.000000
2.800637 -0.821558 1.885862 22.000000
2.795640 -0.857256 1.886770 28.000000
2.766172 -0.885259 1.871107 31.000000
2.751956 -0.918196 1.866925 31.000000
2.757955 -0.957512 1.875418 30.000000
2.731320 -0.986000 1.862819 32.000000
2.724735 -1.020958 1.862777 32.000000
2.693819 -1.046962 1.847100 28.000000
2.678290 -1.078674 1.842213 19.000000
2.658693 -1.108458 1.834333 30.000000
2.645875 -1.141703 1.832457 32.000000
2.625761 -1.170780 1.824285 35.000000
2.600952 -1.198211 1.814076 32.000000
2.584306 -1.228364 1.808405 33.000000
2.566770 -1.258732 1.803258 32.000000
2.548862 -1.288696 1.797913 25.000000
2.538404 -1.322375 1.797791 19.000000
2.497623 -1.339817 1.776317 32.000000
2.482924 -1.370850 1.773356 33.000000
2.467917 -1.401576 1.770192 35.000000
2.438042 -1.423536 1.756259 33.000000
2.422720 -1.453673 1.752910 33.000000
2.402663 -1.481882 1.747438 36.000000
2.372379 -1.502362 1.733286 28.000000
2.341284 -1.522886 1.719778 20.000000
2.317082 -1.547582 1.711341 31.000000
2.290261 -1.568793 1.699518 30.000000
2.269386 -1.595047 1.693535 32.000000
2.234509 -1.610925 1.677063 32.000000
2.220231 -1.641417 1.676016 33.000000
2.171608 -1.645862 1.649070 27.000000
2.129961 -1.654596 1.627199 17.000000
2.098670 -1.670550 1.613047 20.000000
2.069600 -1.689161 1.602084 32.000000
2.051444 -1.714923 1.597996 31.000000
2.033001 -1.740495 1.593909 34.000000
1.987470 -1.743764 1.569969 30.000000
1.965688 -1.765568 1.563200 32.000000
1.926904 -1.773179 1.544214 31.000000
1.911302 -1.799977 1.542386 23.000000
1.869492 -1.803355 1.520800 19.000000
1.858591 -1.836343 1.524409 30.000000
1.821239 -1.840890 1.504721 31.000000
1.779812 -1.842232 1.483162 30.000000
1.747599 -1.852304 1.469013 29.000000
1.736044 -1.884209 1.472360 31.000000
1.700881 -1.890175 1.455701 31.000000
1.665889 -1.895502 1.439025 19.000000
1.639481 -1.910180 1.429742 21.000000
1.615923 -1.927784 1.422863 28.000000
1.589502 -1.941592 1.413457 26.000000
1.565773 -1.958488 1.406528 31.000000
1.528510 -1.957761 1.387337 27.000000
1.488953 -1.952971 1.365724 30.000000
1.345180 -1.807011 1.247266 52.000000
1.135338 -1.562099 1.064346 19.000000
1.092100 -1.541409 1.036988 18.000000
1.075724 -1.555351 1.033306 27.000000
1.056825 -1.565456 1.027168 25.000000
1.038978 -1.579497 1.023756 28.000000
1.024625 -1.596520 1.022323 26.000000
1.001803 -1.602793 1.014109 27.000000
0.984849 -1.615689 1.010247 26.000000
1.280969 2.151590 1.360899 27.000000
1.296722 2.123308 1.358928 22.000000
1.323870 2.113607 1.368844 16.000000
1.328882 2.065828 1.354221 16.000000
1.353119 2.052017 1.361608 13.000000
1.362583 2.016082 1.354424 14.000000
1.373009 1.979539 1.346645 11.000000
1.416795 1.993495 1.373395 10.000000
1.435461 1.971399 1.375732 33.000000
1.453881 1.949113 1.377967 32.000000
1.474779 1.930092 1.382573 34.000000
1.490155 1.903893 1.382131 57.000000
1.513350 1.887814 1.389125 35.000000
1.528203 1.861365 1.388473 44.000000
1.545524 1.838116 1.390295 31.000000
1.559785 1.811409 1.389504 21.000000
1.590955 1.803944 1.403719 62.000000
1.607697 1.780004 1.405271 35.000000
1.630051 1.762213 1.411878 41.000000
1.634539 1.725337 1.403079 71.000000
1.655304 1.707873 1.410008 51.000000
1.671094 1.683223 1.411165 64.000000
1.683502 1.655472 1.409744 33.000000
1.700790 1.634239 1.413857 26.000000
1.728294 1.620877 1.425028 41.000000
1.751566 1.604805 1.434162 37.000000
1.756766 1.570538 1.427189 46.000000
1.773329 1.548342 1.430888 53.000000
1.783228 1.520355 1.429464 35.000000
1.809313 1.505837 1.440813 46.000000
1.826327 1.482338 1.443761 32.000000
1.835487 1.453888 1.441971 26.000000
1.861278 1.438360 1.453127 56.000000
1.880198 1.417207 1.459051 50.000000
1.895584 1.393284 1.462179 61.000000
1.927107 1.382146 1.479043 73.000000
1.928391 1.347867 1.471424 42.000000
1.953630 1.330461 1.482188 64.000000
1.961220 1.300834 1.479590 30.000000
1.989087 1.285498 1.493481 30.000000
1.989047 1.251119 1.485359 37.000000
2.013086 1.232877 1.496359 43.000000
2.026136 1.207630 1.499344 36.000000
2.050045 1.188556 1.510135 77.000000
2.059066 1.160675 1.510187 37.000000
2.075256 1.136846 1.515452 37.000000
2.095034 1.114644 1.523254 29.000000
2.122113 1.095941 1.536484 27.000000
2.137831 1.071129 1.541360 38.000000
2.157194 1.047798 1.548956 37.000000
2.175767 1.024538 1.557004 42.000000
2.201785 1.004485 1.570339 62.000000
2.213054 0.976663 1.572100 35.000000
2.231150 0.952307 1.579846 41.000000
2.264536 0.934058 1.598270 25.000000
2.251294 0.896471 1.583910 28.000000
2.280537 0.875786 1.599459 39.000000
2.301299 0.851892 1.610004 62.000000
2.310703 0.823050 1.611527 37.000000
2.335106 0.799801 1.624583 68.000000
2.344034 0.770583 1.625935 40.000000
2.368070 0.746474 1.638665 47.000000
2.392033 0.721787 1.651326 30.000000
2.427847 0.700077 1.672104 31.000000
2.443467 0.672051 1.679014 36.000000
2.462422 0.645067 1.689070 41.000000
2.477685 0.616311 1.695627 33.000000
2.496202 0.588497 1.705430 36.000000
2.518655 0.561194 1.717923 35.000000
2.528687 0.530734 1.721831 34.000000
2.546616 0.501782 1.731101 25.000000
2.576582 0.474692 1.748611 32.000000
2.585486 0.443576 1.752735 42.000000
2.610534 0.414871 1.767788 45.000000
2.639473 0.386066 1.785445 36.000000
2.659959 0.355647 1.797358 38.000000
2.684421 0.325123 1.811865 35.000000
2.692027 0.292294 1.815146 32.000000
2.670014 0.256681 1.799329 16.000000
2.739174 0.229098 1.843895 15.000000
2.753820 0.196143 1.852758 19.000000
2.755849 0.162049 1.853164 18.000000
2.806819 0.130367 1.887431 18.000000
2.812413 0.095799 1.890115 19.000000
2.825585 0.061308 1.898894 21.000000
2.842599 0.026549 1.910257 21.000000
2.863454 -0.008739 1.924306 29.000000
2.867393 -0.044179 1.926884 29.000000
2.866865 -0.079606 1.926462 32.000000
2.861453 -0.114867 1.923779 32.000000
2.852004 -0.149807 1.917468 30.000000
2.862648 -0.185782 1.925513 33.000000
2.848015 -0.220249 1.916628 28.000000
2.832670 -0.254304 1.908271 16.000000
2.838215 -0.290164 1.912899 32.000000
2.830524 -0.324807 1.909696 32.000000
2.810274 -0.357671 1.897936 30.000000
2.806111 -0.392429 1.897208 32.000000
2.805849 -0.427813 1.898948 32.000000
2.801159 -0.462413 1.897801 35.000000
2.796156 -0.496909 1.896446 31.000000
2.761826 -0.526165 1.876081 21.000000
2.767969 -0.562794 1.883371 32.000000
2.749448 -0.594450 1.873812 30.000000
2.746903 -0.629419 1.875138 32.000000
2.740086 -0.663302 1.873485 32.000000
2.728302 -0.696362 1.869686 33.000000
2.704673 -0.725669 1.856675 31.000000
2.708508 -0.762589 1.863522 29.000000
2.671959 -0.787909 1.842565 21.000000
2.675154 -0.824723 1.848997 33.000000
2.646277 -0.851402 1.833289 29.000000
2.640276 -0.885758 1.834616 29.000000
2.610989 -0.911543 1.818641 33.000000
2.596757 -0.942643 1.814179 30.000000
2.594497 -0.977565 1.817038 33.000000
2.575778 -1.006790 1.809540 29.000000
2.521904 -1.021576 1.777245 18.000000
2.518322 -1.056157 1.780325 31.000000
2.506782 -1.087396 1.777838 30.000000
2.475118 -1.110254 1.762329 30.000000
2.463173 -1.140957 1.759564 32.000000
2.443355 -1.167744 1.751173 29.000000
2.426399 -1.196494 1.746099 31.000000
2.416782 -1.228764 1.746350 29.000000
2.354667 -1.233603 1.708549 21.000000
2.359493 -1.273106 1.719344 32.000000
2.327086 -1.292333 1.702955 30.000000
2.309250 -1.319269 1.697276 30.000000
2.302082 -1.352234 1.699565 36.000000
2.265814 -1.367831 1.680202 30.000000
2.251081 -1.395959 1.676854 31.000000
2.238764 -1.426741 1.676749 29.000000
2.170511 -1.419789 1.633239 18.000000
2.172090 -1.458999 1.643543 29.000000
2.148800 -1.481630 1.635122 29.000000
2.125428 -1.503802 1.626534 27.000000
2.109688 -1.530034 1.622599 32.000000
2.068964 -1.538895 1.600673 26.000000
2.041965 -1.557187 1.589260 28.000000
2.014858 -1.575039 1.577790 27.000000
1.991061 -1.595024 1.568883 20.000000
1.966194 -1.615205 1.560548 29.000000
1.942175 -1.634398 1.551416 30.000000
1.927888 -1.661517 1.550113 30.000000
1.897244 -1.674395 1.535645 35.000000
1.865672 -1.687306 1.521769 32.000000
1.841443 -1.704815 1.512480 28.000000
1.812890 -1.719661 1.501090 28.000000
1.770203 -1.718349 1.476192 15.000000
1.757078 -1.747130 1.477541 27.000000
1.728586 -1.760555 1.466005 30.000000
1.710281 -1.782101 1.461538 26.000000
1.687542 -1.800942 1.454970 30.000000
1.664784 -1.819445 1.448329 26.000000
1.627544 -1.821519 1.428991 26.000000
1.593306 -1.826143 1.412259 27.000000
1.556534 -1.826852 1.392920 17.000000
1.542085 -1.853579 1.393690 26.000000
1.519210 -1.870018 1.386861 30.000000
1.488149 -1.876022 1.372419 25.000000
1.470425 -1.898575 1.370518 31.000000
1.431567 -1.893288 1.348671 26.000000
1.307851 -1.771649 1.245698 37.000000
1.113038 -1.544597 1.072162 26.000000
1.088973 -1.548297 1.061093 16.000000
1.063887 -1.552063 1.050405 26.000000
1.044884 -1.562175 1.044162 31.000000
1.030675 -1.579356 1.042776 25.000000
1.017288 -1.600625 1.044113 30.000000
0.997932 -1.610178 1.037812 23.000000
0.980859 -1.623164 1.033857 24.000000
1.268961 2.095703 1.365862 21.000000
1.284142 2.067553 1.363752 27.000000
1.313132 2.061377 1.376135 26.000000
1.332666 2.040271 1.378723 25.000000
1.370436 2.043476 1.398072 26.000000
1.379901 2.007362 1.390687 10.000000
1.403714 1.992589 1.398054 14.000000
1.422445 1.970554 1.400445 10.000000
1.441016 1.948242 1.402649 12.000000
1.454119 1.918852 1.399809 10.000000
1.482715 1.909876 1.411963 10.000000
1.492655 1.876721 1.406374 13.000000
1.504768 1.847018 1.403173 17.000000
1.519336 1.820580 1.402386 12.000000
1.558732 1.823445 1.424545 24.000000
1.572913 1.796463 1.423596 26.000000
1.583918 1.766181 1.420050 29.000000
1.617822 1.761119 1.436891 37.000000
1.630094 1.734361 1.436322 31.000000
1.649183 1.712897 1.440225 34.000000
1.656101 1.679096 1.433569 36.000000
1.670505 1.655035 1.435260 30.000000
1.701178 1.644946 1.449321 30.000000
1.702972 1.608643 1.440292 29.000000
1.729222 1.595562 1.452199 32.000000
1.744036 1.570019 1.452858 34.000000
1.763818 1.550503 1.459371 30.000000
1.780357 1.527973 1.463084 36.000000
1.797571 1.504599 1.466122 34.000000
1.810408 1.478969 1.467008 32.000000
1.826327 1.455806 1.470461 29.000000
1.848752 1.437580 1.479171 32.000000
1.867756 1.416463 1.485059 39.000000
1.882237 1.393089 1.488869 35.000000
1.894062 1.366487 1.489230 33.000000
1.912470 1.344649 1.494882 32.000000
1.936942 1.327736 1.506368 36.000000
1.948089 1.300539 1.506473 31.000000
1.972339 1.282849 1.517834 32.000000
1.993704 1.261962 1.525828 32.000000
1.996453 1.230233 1.520668 35.000000
2.016693 1.209297 1.529105 34.000000
2.029704 1.183787 1.531844 31.000000
2.046014 1.160171 1.537319 35.000000
2.073272 1.142347 1.550852 34.000000
2.082024 1.114120 1.550612 30.000000
2.109006 1.095440 1.563934 24.000000
2.132170 1.074333 1.574449 29.000000
2.147176 1.049457 1.579912 30.000000
2.166340 1.025745 1.587444 30.000000
2.177219 0.998634 1.589901 30.000000
2.195358 0.974638 1.597808 28.000000
2.213480 0.950364 1.605644 30.000000
2.242843 0.930500 1.621648 25.000000
2.249055 0.900796 1.620828 26.000000
2.262804 0.873915 1.625391 29.000000
2.276230 0.846936 1.629959 28.000000
2.300691 0.824147 1.643261 29.000000
2.336765 0.804840 1.664882 28.000000
2.357575 0.779278 1.674542 32.000000
2.373792 0.752259 1.681967 26.000000
2.369973 0.718940 1.675123 21.000000
2.401586 0.696200 1.693405 24.000000
2.424541 0.670752 1.706660 22.000000
2.463962 0.648842 1.730244 25.000000
2.482763 0.621116 1.740371 28.000000
2.485164 0.589276 1.739068 23.000000
2.507988 0.561675 1.750988 26.000000
2.521574 0.532251 1.758428 23.000000
2.507131 0.496723 1.745377 10.000000
2.557164 0.473730 1.777258 14.000000
2.557904 0.441210 1.775685 10.000000
2.558820 0.408599 1.773341 9.000000
2.603849 0.382784 1.802552 9.000000
2.620103 0.352014 1.811811 9.000000
2.647985 0.322434 1.830053 9.000000
2.688323 0.293486 1.855911 9.000000
2.695328 0.260450 1.859642 9.000000
2.751727 0.231355 1.896541 10.000000
2.758087 0.197504 1.899883 18.000000
2.747794 0.162474 1.891695 18.000000
2.753133 0.128520 1.895344 20.000000
2.754562 0.094221 1.895241 17.000000
2.755276 0.060024 1.895650 18.000000
2.747345 0.025749 1.890186 16.000000
2.747447 -0.008447 1.890288 20.000000
2.739005 -0.042415 1.884417 22.000000
2.755072 -0.076969 1.895344 24.000000
2.741396 -0.110668 1.886946 22.000000
2.752724 -0.145364 1.894731 25.000000
2.734439 -0.178487 1.883098 22.000000
2.740628 -0.213119 1.888252 18.000000
2.696631 -0.243508 1.859943 20.000000
2.714527 -0.279099 1.873289 21.000000
2.686521 -0.310002 1.855911 22.000000
2.703770 -0.345851 1.868745 23.000000
2.675329 -0.376093 1.851083 25.000000
2.679288 -0.410525 1.855732 28.000000
2.674275 -0.443908 1.855331 27.000000
2.673527 -0.477817 1.856850 16.000000
2.627358 -0.503383 1.827740 19.000000
2.637806 -0.539420 1.838028 27.000000
2.624161 -0.570297 1.830505 26.000000
2.609165 -0.601271 1.824280 24.000000
2.602540 -0.633702 1.822698 24.000000
2.583700 -0.662952 1.812586 24.000000
2.584012 -0.697389 1.817022 26.000000
2.560678 -0.724866 1.803728 12.000000
2.540625 -0.753223 1.793750 19.000000
2.532226 -0.784961 1.792090 23.000000
2.523535 -0.816406 1.790234 25.000000
2.494421 -0.841518 1.774892 25.000000
2.481303 -0.871150 1.769968 24.000000
2.475915 -0.903336 1.770434 29.000000
2.450112 -0.928457 1.757453 27.000000
2.435751 -0.957651 1.752745 10.000000
2.421232 -0.986556 1.747851 23.000000
2.387298 -1.007185 1.728897 24.000000
2.380085 -1.038603 1.729292 27.000000
2.357367 -1.063174 1.718514 25.000000
2.330696 -1.085512 1.704809 24.000000
2.329636 -1.120401 1.710922 27.000000
2.298930 -1.140081 1.694215 24.000000
2.278733 -1.165183 1.686367 9.000000
2.265638 -1.193898 1.683842 26.000000
2.237659 -1.214450 1.670252 26.000000
2.235141 -1.248728 1.675679 30.000000
2.192468 -1.260054 1.650917 24.000000
2.175036 -1.285479 1.645240 26.000000
2.161051 -1.312714 1.642111 24.000000
2.146881 -1.339765 1.638891 26.000000
2.113932 -1.355847 1.622655 10.000000
2.085381 -1.372972 1.608357 24.000000
2.073366 -1.401885 1.608160 23.000000
2.048188 -1.420471 1.596438 25.000000
2.028857 -1.444134 1.590585 26.000000
2.016211 -1.472412 1.590115 25.000000
1.997565 -1.494814 1.583371 29.000000
1.954246 -1.499578 1.558646 22.000000
1.927817 -1.516553 1.547086 10.000000
1.898086 -1.530352 1.532900 21.000000
1.881474 -1.554346 1.529209 21.000000
1.863633 -1.578691 1.526045 24.000000
1.840170 -1.596770 1.516980 26.000000
1.813476 -1.611514 1.505131 26.000000
1.779373 -1.620721 1.488583 28.000000
1.765300 -1.646079 1.487146 22.000000
1.741658 -1.662343 1.477676 10.000000
1.692455 -1.655109 1.447966 21.000000
1.681046 -1.682491 1.448934 22.000000
1.653310 -1.695070 1.437411 23.000000
1.631424 -1.713443 1.430935 24.000000
1.619456 -1.740134 1.431621 22.000000
1.582848 -1.742097 1.412207 24.000000
1.552272 -1.749778 1.397926 20.000000
1.547043 -1.786140 1.406639 10.000000
1.507965 -1.783293 1.384594 20.000000
1.482929 -1.796206 1.375284 20.000000
1.463365 -1.815441 1.371074 24.000000
1.443553 -1.834510 1.366699 26.000000
1.413050 -1.839546 1.352251 21.000000
1.377573 -1.837142 1.332686 27.000000
1.121056 -1.569410 1.109309 9.000000
1.071958 -1.537734 1.073210 21.000000
1.055478 -1.551709 1.069387 21.000000
1.037681 -1.566079 1.065959 25.000000
1.023301 -1.583315 1.064595 22.000000
0.997024 -1.581977 1.050833 20.000000
0.984771 -1.602439 1.051786 24.000000
1.227393 1.996490 1.340607 15.000000
1.261876 1.997430 1.357594 19.000000
1.283165 1.980465 1.362583 22.000000
1.304288 1.963168 1.367406 16.000000
1.327676 1.949274 1.374831 10.000000
1.365793 1.956207 1.397351 20.000000
1.391819 1.944990 1.407232 24.000000
1.412736 1.926359 1.411974 29.000000
1.433485 1.907474 1.416632 24.000000
1.462008 1.898542 1.428972 32.000000
1.477214 1.872309 1.428347 30.000000
1.492189 1.845962 1.427690 20.000000
1.509578 1.822801 1.429500 18.000000
1.529492 1.802718 1.433804 10.000000
1.549153 1.782382 1.438023 18.000000
1.563056 1.755505 1.436942 22.000000
1.581132 1.735411 1.441482 17.000000
1.606110 1.720699 1.450764 20.000000
1.623914 1.700026 1.455152 24.000000
1.645786 1.681544 1.461672 21.000000
1.655455 1.650747 1.457456 21.000000
1.690905 1.647219 1.477576 15.000000
1.699043 1.616707 1.473760 28.000000
1.720317 1.597098 1.479808 33.000000
1.740384 1.577833 1.486462 31.000000
1.754022 1.552638 1.487684 34.000000
1.773726 1.532784 1.494182 35.000000
1.790185 1.509877 1.497830 36.000000
1.807407 1.486207 1.500800 35.000000
1.822509 1.463470 1.504957 33.000000
1.848293 1.447740 1.516489 46.000000
1.864072 1.423857 1.519730 69.000000
1.872872 1.394710 1.517522 59.000000
1.894950 1.375493 1.526042 66.000000
1.909280 1.351525 1.529624 71.000000
1.920764 1.324416 1.529783 55.000000
1.941577 1.304724 1.538684 62.000000
1.963175 1.284172 1.546838 32.000000
1.976725 1.259218 1.550011 55.000000
2.000726 1.240679 1.561388 90.000000
2.006873 1.210945 1.558782 55.000000
2.019931 1.185430 1.561617 68.000000
2.043563 1.165838 1.572616 68.000000
2.052539 1.137742 1.572510 56.000000
2.068695 1.113501 1.577711 52.000000
2.113960 1.104359 1.605167 30.000000
2.118061 1.074025 1.602469 52.000000
2.137386 1.050663 1.610256 62.000000
2.152178 1.025508 1.615693 56.000000
2.174342 1.003549 1.626582 49.000000
2.189425 0.977316 1.631161 63.000000
2.203750 0.951341 1.636190 59.000000
2.225377 0.928184 1.646777 47.000000
2.246393 0.905006 1.657834 34.000000
2.271620 0.882496 1.671025 67.000000
2.289080 0.856618 1.678399 86.000000
2.309664 0.832032 1.689073 63.000000
2.333954 0.808411 1.702515 54.000000
2.343109 0.778839 1.703796 35.000000
2.359278 0.751857 1.711221 33.000000
2.363430 0.720896 1.710029 24.000000
2.398286 0.699512 1.732080 18.000000
2.409943 0.670275 1.736230 20.000000
2.440631 0.646474 1.755212 26.000000
2.439896 0.613692 1.750440 21.000000
2.454332 0.585008 1.757652 19.000000
2.480530 0.558734 1.773267 20.000000
2.494511 0.529311 1.780221 21.000000
2.504225 0.498792 1.784033 18.000000
2.545513 0.474174 1.811252 23.000000
2.562925 0.444353 1.820528 32.000000
2.563436 0.411632 1.818822 41.000000
2.583892 0.381908 1.831271 36.000000
2.563546 0.346300 1.814724 35.000000
2.575431 0.315181 1.821047 36.000000
2.574363 0.282617 1.819237 35.000000
2.577551 0.250356 1.819527 31.000000
2.604420 0.220163 1.837456 29.000000
2.610742 0.187891 1.840820 42.000000
2.612597 0.155273 1.841113 62.000000
2.601517 0.122081 1.833261 34.000000
2.611148 0.089801 1.838919 37.000000
2.603559 0.057056 1.833552 35.000000
2.583508 0.024302 1.819449 37.000000
2.599957 -0.008055 1.830965 29.000000
2.591587 -0.040438 1.825014 35.000000
2.582930 -0.072520 1.818871 34.000000
2.581772 -0.104825 1.818967 33.000000
2.576725 -0.136818 1.815415 32.000000
2.579072 -0.169244 1.818003 34.000000
2.568892 -0.200816 1.811769 29.000000
2.550289 -0.231445 1.799693 20.000000
2.535120 -0.262087 1.790878 34.000000
2.540493 -0.294590 1.795578 52.000000
2.549142 -0.328010 1.803718 37.000000
2.537298 -0.358678 1.797209 35.000000
2.500912 -0.385401 1.773393 33.000000
2.520813 -0.420659 1.789563 34.000000
2.515767 -0.452270 1.788896 33.000000
2.466741 -0.475071 1.755958 16.000000
2.469253 -0.507589 1.760749 26.000000
2.471540 -0.540308 1.765345 32.000000
2.465420 -0.571188 1.764121 34.000000
2.459207 -0.601974 1.762709 33.000000
2.452052 -0.632948 1.761674 35.000000
2.445273 -0.663546 1.759885 33.000000
2.441598 -0.695363 1.761511 33.000000
2.367373 -0.705764 1.710946 17.000000
2.406597 -0.750162 1.743424 32.000000
2.394360 -0.779008 1.738899 35.000000
2.369619 -0.803975 1.726235 34.000000
2.353132 -0.830920 1.718523 29.000000
2.340295 -0.858813 1.713471 32.000000
2.345917 -0.894227 1.723034 33.000000
2.320447 -0.917802 1.709871 27.000000
2.291656 -0.938782 1.693085 16.000000
2.281219 -0.967621 1.690979 30.000000
2.266815 -0.994616 1.685876 32.000000
2.251442 -1.021790 1.681327 32.000000
2.236564 -1.048230 1.675965 33.000000
2.210358 -1.069076 1.662021 29.000000
2.205647 -1.100826 1.665448 32.000000
2.179096 -1.120840 1.651366 26.000000
2.137234 -1.132890 1.626611 12.000000
2.153756 -1.175940 1.646406 35.000000
2.122569 -1.192995 1.629794 41.000000
2.102136 -1.215657 1.621470 35.000000
2.078128 -1.235831 1.610215 34.000000
2.061099 -1.259988 1.604434 31.000000
2.040322 -1.281485 1.595815 32.000000
2.012538 -1.298104 1.581530 29.000000
1.952492 -1.293957 1.543144 13.000000
1.973268 -1.342028 1.567253 33.000000
1.954678 -1.364900 1.561551 29.000000
1.933433 -1.384552 1.552432 30.000000
1.911252 -1.404291 1.543943 29.000000
1.892271 -1.426294 1.538025 29.000000
1.869851 -1.445299 1.529230 35.000000
1.834201 -1.453609 1.509618 24.000000
1.812710 -1.471085 1.500133 10.000000
1.808630 -1.505571 1.507959 32.000000
1.769810 -1.509543 1.485454 28.000000
1.756646 -1.534808 1.484432 32.000000
1.727520 -1.545989 1.469925 29.000000
1.714050 -1.570793 1.468658 26.000000
1.699258 -1.596097 1.467966 32.000000
1.663956 -1.600089 1.447906 24.000000
1.622816 -1.597414 1.422637 10.000000
1.619814 -1.633708 1.432244 31.000000
1.592590 -1.645720 1.420698 24.000000
1.575318 -1.665870 1.416339 28.000000
1.536514 -1.664611 1.394130 28.000000
1.530646 -1.696674 1.400195 27.000000
1.494911 -1.697494 1.380640 28.000000
1.467793 -1.707346 1.368804 24.000000
1.459975 -1.739670 1.375061 10.000000
1.416432 -1.728982 1.347693 28.000000
1.400152 -1.750888 1.346125 26.000000
1.375718 -1.762557 1.336764 27.000000
1.348668 -1.770350 1.324798 24.000000
1.321684 -1.777699 1.312804 23.000000
1.251851 -1.725355 1.257591 30.000000
1.101156 -1.555323 1.119163 24.000000
1.069709 -1.548513 1.100179 10.000000
1.060256 -1.573302 1.103864 26.000000
1.031492 -1.569224 1.087384 22.000000
1.014671 -1.582865 1.083477 27.000000
1.005510 -1.611623 1.089854 25.000000
1.179840 1.935905 1.323074 25.000000
1.205162 1.927117 1.333020 26.000000
1.228154 1.914258 1.340383 21.000000
1.248618 1.897581 1.345217 26.000000
1.295439 1.919760 1.378095 17.000000
1.306316 1.888043 1.372603 16.000000
1.329040 1.873906 1.379912 30.000000
1.356794 1.866383 1.392241 28.000000
1.371916 1.841185 1.391664 31.000000
1.397094 1.829455 1.401370 29.000000
1.438028 1.837495 1.426677 28.000000
1.442067 1.798188 1.415403 35.000000
1.480627 1.801888 1.438149 21.000000
1.508574 1.791742 1.450310 25.000000
1.524216 1.768936 1.452461 42.000000
1.538072 1.742184 1.451360 34.000000
1.562988 1.727814 1.460686 50.000000
1.583738 1.710693 1.467882 35.000000
1.596922 1.683373 1.466491 34.000000
1.626277 1.674796 1.481563 40.000000
1.642035 1.650037 1.482675 19.000000
1.674417 1.643480 1.500354 19.000000
1.683742 1.612396 1.495824 26.000000
1.700818 1.590586 1.499966 24.000000
1.727026 1.577016 1.512083 24.000000
1.746985 1.557370 1.518714 20.000000
1.757352 1.529136 1.517089 19.000000
1.773811 1.506314 1.520822 22.000000
1.780441 1.475235 1.516160 10.000000
1.809383 1.462533 1.530611 15.000000
1.841661 1.451908 1.547867 24.000000
1.847610 1.420359 1.542931 20.000000
1.849887 1.386314 1.535023 24.000000
1.884438 1.377419 1.555385 25.000000
1.886130 1.343290 1.547269 24.000000
1.906977 1.323889 1.556322 26.000000
1.918295 1.296744 1.556348 15.000000
1.942476 1.279062 1.567968 17.000000
1.966461 1.260945 1.579623 26.000000
1.979972 1.235729 1.582635 24.000000
2.000294 1.214634 1.591270 29.000000
2.013421 1.188983 1.594120 24.000000
2.015549 1.156995 1.588334 21.000000
2.024575 1.129042 1.588086 26.000000
2.047797 1.108947 1.599063 13.000000
2.085562 1.095978 1.621231 14.000000
2.096996 1.069620 1.624111 20.000000
2.115539 1.046646 1.632593 19.000000
2.134775 1.022959 1.640303 21.000000
2.141861 0.994072 1.639912 21.000000
2.167451 0.973599 1.653705 19.000000
2.204296 0.957472 1.675933 24.000000
2.188213 0.918293 1.658034 12.000000
2.236162 0.905753 1.688648 18.000000
2.241696 0.876132 1.688293 22.000000
2.262963 0.851835 1.698620 23.000000
2.283333 0.827427 1.709418 27.000000
2.295892 0.799858 1.714384 27.000000
2.327664 0.778578 1.733597 32.000000
2.339896 0.750387 1.738227 32.000000
2.324578 0.713534 1.722540 20.000000
2.359793 0.692103 1.744243 26.000000
2.379208 0.665402 1.754215 32.000000
2.382113 0.634393 1.753075 31.000000
2.396564 0.606389 1.760537 35.000000
2.406914 0.577144 1.764829 36.000000
2.417006 0.547613 1.769033 36.000000
2.411017 0.514586 1.761428 34.000000
2.408682 0.482474 1.756628 24.000000
2.437450 0.456737 1.775475 29.000000
2.446573 0.426626 1.778944 34.000000
2.450955 0.395766 1.780063 35.000000
2.455057 0.365000 1.780995 36.000000
2.446899 0.332407 1.772993 37.000000
2.442457 0.300614 1.767716 36.000000
2.461371 0.271696 1.780408 33.000000
2.440294 0.238334 1.762988 27.000000
2.470906 0.210050 1.784072 32.000000
2.485193 0.179883 1.793394 48.000000
2.474822 0.147865 1.784911 37.000000
2.484046 0.117201 1.791502 37.000000
2.477339 0.085679 1.785564 36.000000
2.477899 0.054540 1.785937 37.000000
2.486384 0.023478 1.792063 44.000000
2.474309 -0.007726 1.783293 33.000000
2.449787 -0.038432 1.765568 28.000000
2.457437 -0.069444 1.771045 30.000000
2.456327 -0.100328 1.771137 31.000000
2.447299 -0.130687 1.764647 29.000000
2.453738 -0.162004 1.770212 31.000000
2.451796 -0.192796 1.769750 27.000000
2.409246 -0.219899 1.739910 23.000000
2.418448 -0.251442 1.748576 30.000000
2.423863 -0.282728 1.753406 33.000000
2.412415 -0.312223 1.747114 31.000000
2.412781 -0.343048 1.749390 35.000000
2.400906 -0.372199 1.742646 32.000000
2.400808 -0.402983 1.744555 33.000000
2.391872 -0.432513 1.741095 28.000000
2.367349 -0.458667 1.725180 25.000000
2.369977 -0.490174 1.730090 33.000000
2.360374 -0.519079 1.726095 35.000000
2.346646 -0.546960 1.719109 31.000000
2.352454 -0.579420 1.726459 35.000000
2.338213 -0.606880 1.719117 34.000000
2.323834 -0.634052 1.711516 29.000000
2.324369 -0.665695 1.716131 29.000000
2.301141 -0.690414 1.703207 27.000000
2.285624 -0.717001 1.695812 31.000000
2.281533 -0.747112 1.696996 32.000000
2.265546 -0.773184 1.689435 31.000000
2.245497 -0.797604 1.678829 32.000000
2.229283 -0.822971 1.670942 30.000000
2.219797 -0.851340 1.669258 31.000000
2.225974 -0.885141 1.678340 32.000000
2.193337 -0.904069 1.659183 25.000000
2.168095 -0.925373 1.645702 29.000000
2.161670 -0.954492 1.646367 33.000000
2.139919 -0.976713 1.635519 31.000000
2.118104 -0.998474 1.624434 29.000000
2.117711 -1.030921 1.631060 34.000000
2.088225 -1.048359 1.614141 29.000000
2.088015 -1.080383 1.619791 29.000000
2.064911 -1.101228 1.609027 29.000000
2.052604 -1.127576 1.606514 32.000000
2.039950 -1.153750 1.604000 36.000000
2.020071 -1.175597 1.595589 33.000000
2.003571 -1.199125 1.590011 34.000000
1.990466 -1.224644 1.587080 35.000000
1.963106 -1.241055 1.572847 32.000000
1.949667 -1.265965 1.569680 27.000000
1.915349 -1.276900 1.549674 27.000000
1.907718 -1.306319 1.552539 32.000000
1.866580 -1.311347 1.526806 32.000000
1.872075 -1.350069 1.540528 33.000000
1.834415 -1.356287 1.517502 32.000000
1.799361 -1.364842 1.497828 32.000000
1.784227 -1.388081 1.494602 30.000000
1.768844 -1.411072 1.491294 27.000000
1.737203 -1.420588 1.474177 29.000000
1.715141 -1.437584 1.465258 28.000000
1.702644 -1.462353 1.464480 35.000000
1.680483 -1.478653 1.455430 35.000000
1.658279 -1.494626 1.446245 32.000000
1.639119 -1.513045 1.439718 34.000000
1.619858 -1.531222 1.433206 29.000000
1.596343 -1.546714 1.424414 32.000000
1.564946 -1.552337 1.406935 26.000000
1.553307 -1.578941 1.408791 29.000000
1.530790 -1.592718 1.399274 34.000000
1.504236 -1.603735 1.387598 32.000000
1.487414 -1.622937 1.383313 32.000000
1.460847 -1.633138 1.371546 31.000000
1.434253 -1.642798 1.359744 27.000000
1.420069 -1.664383 1.357910 28.000000
1.390716 -1.670091 1.343387 25.000000
1.372314 -1.688414 1.339410 31.000000
1.343083 -1.693223 1.324825 36.000000
1.308841 -1.690768 1.305019 32.000000
1.298068 -1.718350 1.308680 33.000000
1.269150 -1.721802 1.294022 33.000000
1.190363 -1.655207 1.227841 32.000000
1.086283 -1.548170 1.133723 27.000000
1.067035 -1.559094 1.127258 24.000000
1.045410 -1.566109 1.118258 31.000000
1.019108 -1.565647 1.104072 35.000000
1.011458 -1.593845 1.110238 29.000000
0.985202 -1.592733 1.096125 32.000000
1.147062 1.853220 1.304261 18.000000
1.180766 1.859109 1.324450 26.000000
1.205438 1.849966 1.334328 24.000000
1.227812 1.836985 1.341647 16.000000
1.252439 1.827144 1.351510 28.000000
1.274689 1.813525 1.358716 23.000000
1.296776 1.799603 1.365860 26.000000
1.323832 1.792135 1.378282 27.000000
1.348549 1.780916 1.387957 26.000000
1.373174 1.769238 1.397666 30.000000
1.395147 1.753943 1.404591 27.000000
1.417113 1.738254 1.411533 26.000000
1.440319 1.726224 1.421649 31.000000
1.467625 1.716284 1.433747 29.000000
1.489343 1.699618 1.440516 35.000000
1.512550 1.686422 1.450489 36.000000
1.534196 1.668995 1.457132 30.000000
1.554428 1.651987 1.464285 41.000000
1.572968 1.631058 1.468076 32.000000
1.593051 1.613441 1.475004 30.000000
1.627913 1.610218 1.495620 30.000000
1.646108 1.588266 1.499209 30.000000
1.656888 1.561004 1.497719 35.000000
1.695015 1.559070 1.520998 37.000000
1.708591 1.534133 1.522111 34.000000
1.731331 1.517172 1.531433 37.000000
1.744625 1.491771 1.532369 32.000000
1.767092 1.474268 1.541556 32.000000
1.789591 1.456259 1.550685 33.000000
1.799046 1.427690 1.548488 36.000000
1.826851 1.414753 1.563585 35.000000
1.842432 1.390743 1.566821 37.000000
1.857843 1.366562 1.569971 39.000000
1.875417 1.345128 1.576452 50.000000
1.890429 1.320477 1.579352 37.000000
1.904418 1.296167 1.582764 31.000000
1.925013 1.276152 1.591680 34.000000
1.938624 1.251327 1.594933 37.000000
1.962416 1.232889 1.606474 37.000000
1.986265 1.213925 1.618047 37.000000
1.995889 1.186133 1.618043 37.000000
2.001659 1.156210 1.615080 36.000000
2.014310 1.130306 1.617662 36.000000
2.026789 1.104230 1.620157 34.000000
2.070760 1.095621 1.648984 32.000000
2.083000 1.068779 1.651257 33.000000
2.094279 1.042200 1.653967 36.000000
2.108970 1.017217 1.659569 35.000000
2.119831 0.990241 1.662021 35.000000
2.141563 0.968123 1.673085 49.000000
2.152040 0.940654 1.675286 35.000000
2.162341 0.913008 1.677399 33.000000
2.194879 0.894480 1.696799 42.000000
2.200350 0.865149 1.696375 35.000000
2.217624 0.839785 1.703809 48.000000
2.226357 0.811626 1.706036 43.000000
2.235001 0.783289 1.707997 36.000000
2.254902 0.758650 1.718652 44.000000
2.255342 0.727412 1.714581 34.000000
2.247722 0.693891 1.704365 31.000000
2.294165 0.676616 1.735052 32.000000
2.289428 0.644291 1.728219 31.000000
2.269265 0.607720 1.708709 31.000000
2.291315 0.582983 1.721990 36.000000
2.293547 0.552936 1.720472 32.000000
2.287616 0.521106 1.712875 32.000000
2.305043 0.494657 1.722789 32.000000
2.325855 0.468706 1.736114 27.000000
2.335023 0.439845 1.739786 33.000000
2.331483 0.408972 1.735132 33.000000
2.335693 0.379415 1.736118 35.000000
2.339724 0.349857 1.737013 35.000000
2.343396 0.320210 1.737730 34.000000
2.346889 0.290473 1.738178 35.000000
2.345663 0.260381 1.736200 34.000000
2.356719 0.231482 1.742305 32.000000
2.350939 0.201008 1.737005 29.000000
2.368967 0.172401 1.749312 36.000000
2.358712 0.141698 1.740686 31.000000
2.363807 0.112152 1.744459 36.000000
2.369086 0.082325 1.747335 35.000000
2.361668 0.052219 1.741760 35.000000
2.374008 0.022507 1.750842 36.000000
2.353979 -0.007409 1.736005 27.000000
2.345842 -0.037007 1.729981 32.000000
2.341374 -0.066605 1.726658 32.000000
2.328157 -0.095681 1.717846 27.000000
2.339332 -0.125661 1.726036 34.000000
2.317650 -0.153900 1.711032 28.000000
2.327929 -0.184171 1.719485 26.000000
2.297736 -0.210975 1.698121 21.000000
2.311046 -0.241767 1.709887 29.000000
2.308493 -0.270909 1.708919 33.000000
2.305235 -0.300051 1.708479 34.000000
2.293736 -0.328140 1.701942 31.000000
2.297928 -0.358336 1.707070 35.000000
2.278063 -0.384705 1.694187 33.000000
2.289740 -0.416356 1.704869 29.000000
2.261051 -0.440692 1.686443 22.000000
2.260384 -0.470004 1.688000 31.000000
2.251031 -0.497760 1.684004 30.000000
2.245368 -0.526251 1.682784 33.000000
2.235608 -0.553683 1.678532 33.000000
2.225695 -0.580929 1.674112 32.000000
2.222735 -0.610391 1.676097 32.000000
2.227877 -0.641757 1.683083 26.000000
2.177904 -0.657222 1.649400 24.000000
2.170444 -0.684835 1.648028 29.000000
2.174357 -0.716251 1.655187 32.000000
2.158756 -0.741120 1.647524 33.000000
2.146861 -0.767159 1.642711 31.000000
2.134738 -0.792844 1.637734 31.000000
2.110423 -0.814303 1.624527 27.000000
2.120620 -0.848540 1.636708 26.000000
2.092235 -0.867763 1.620362 23.000000
2.086199 -0.896056 1.621313 33.000000
2.083679 -0.926013 1.624988 37.000000
2.066105 -0.949101 1.616885 35.000000
2.044665 -0.970166 1.605821 32.000000
2.037745 -0.997875 1.606169 35.000000
2.030616 -1.025592 1.606423 34.000000
1.993599 -1.038551 1.584137 21.000000
1.975312 -1.059860 1.575534 25.000000
1.959772 -1.083300 1.570321 31.000000
1.940548 -1.104370 1.562085 32.000000
1.928240 -1.129318 1.559507 35.000000
1.901705 -1.145547 1.545337 33.000000
1.896059 -1.174224 1.548233 36.000000
1.872812 -1.191879 1.536795 35.000000
1.859876 -1.215857 1.533746 25.000000
1.836514 -1.232701 1.522030 24.000000
1.819845 -1.253796 1.516006 29.000000
1.802245 -1.275131 1.510402 32.000000
1.778664 -1.290792 1.498523 31.000000
1.760817 -1.311457 1.492789 26.000000
1.749440 -1.336819 1.492516 27.000000
1.725691 -1.351397 1.480386 24.000000
1.700976 -1.365966 1.468780 16.000000
1.673067 -1.377562 1.454345 26.000000
1.657933 -1.399227 1.451000 34.000000
1.642640 -1.420733 1.447495 31.000000
1.611523 -1.428187 1.430159 36.000000
1.608409 -1.460304 1.437568 34.000000
1.586476 -1.475447 1.428327 33.000000
1.540374 -1.467134 1.397078 32.000000
1.538565 -1.502252 1.407508 21.000000
1.516641 -1.516172 1.398047 24.000000
1.474093 -1.508785 1.369557 27.000000
1.459951 -1.531472 1.368820 31.000000
1.432343 -1.538010 1.353836 35.000000
1.409364 -1.550855 1.344849 27.000000
1.398773 -1.575317 1.345978 32.000000
1.375625 -1.587557 1.336870 32.000000
1.363373 -1.612396 1.338425 21.000000
1.333273 -1.613644 1.320660 25.000000
1.318030 -1.634766 1.319316 32.000000
1.297320 -1.649068 1.312653 34.000000
1.268781 -1.652974 1.298000 36.000000
1.245556 -1.663179 1.288609 27.000000
1.229860 -1.683254 1.287058 33.000000
1.152130 -1.616523 1.219965 29.000000
1.097977 -1.579422 1.176704 17.000000
1.059273 -1.562404 1.149311 20.000000
1.039919 -1.573135 1.142740 29.000000
1.018188 -1.580001 1.133538 28.000000
0.987424 -1.571951 1.114082 30.000000
1.125037 1.789614 1.296763 17.000000
1.155948 1.791830 1.314498 18.000000
1.170673 1.768611 1.313819 20.000000
1.218475 1.794535 1.350092 9.000000
1.216164 1.746383 1.330757 18.000000
1.242542 1.739944 1.343179 23.000000
1.266494 1.729584 1.352908 21.000000
1.285371 1.712177 1.357240 26.000000
1.306664 1.697881 1.364258 24.000000
1.322736 1.676590 1.365750 23.000000
1.363696 1.688558 1.394718 23.000000
1.382357 1.669898 1.398812 10.000000
1.411719 1.663800 1.413702 25.000000
1.434433 1.651402 1.423680 26.000000
1.458398 1.638060 1.433052 25.000000
1.469798 1.612612 1.432043 29.000000
1.476556 1.580415 1.424785 26.000000
1.510370 1.578972 1.445525 29.000000
1.535743 1.567989 1.457983 27.000000
1.553515 1.547001 1.461521 15.000000
1.587793 1.543875 1.482227 26.000000
1.604303 1.522892 1.486212 29.000000
1.617528 1.498929 1.487320 26.000000
1.633601 1.477498 1.491055 29.000000
1.661996 1.466852 1.506028 28.000000
1.684123 1.450324 1.515259 30.000000
1.712524 1.438612 1.530082 29.000000
1.718671 1.408114 1.525067 18.000000
1.742793 1.393705 1.537525 27.000000
1.764663 1.375688 1.546436 32.000000
1.776582 1.349794 1.546741 30.000000
1.803858 1.336618 1.561891 32.000000
1.818798 1.312663 1.564813 32.000000
1.835920 1.291483 1.571185 29.000000
1.846259 1.265338 1.571657 26.000000
1.863096 1.243653 1.577791 19.000000
1.890172 1.228304 1.592424 29.000000
1.899864 1.201613 1.592566 29.000000
1.926782 1.185354 1.607007 28.000000
1.943149 1.162377 1.612787 31.000000
1.952357 1.134965 1.612511 29.000000
1.961266 1.107560 1.612227 31.000000
1.972763 1.082369 1.615270 29.000000
1.992017 1.060486 1.623392 23.000000
2.017541 1.042310 1.637891 27.000000
2.050299 1.027222 1.658203 29.000000
2.051029 0.995146 1.651304 27.000000
2.054358 0.965246 1.647920 26.000000
2.072076 0.942142 1.656115 26.000000
2.089783 0.918677 1.664153 29.000000
2.095378 0.890458 1.663876 22.000000
2.097724 0.860288 1.659862 14.000000
2.121636 0.839465 1.674094 28.000000
2.138580 0.814871 1.681570 26.000000
2.143380 0.786097 1.680772 28.000000
2.163071 0.762685 1.691579 26.000000
2.167437 0.733650 1.690434 24.000000
2.175338 0.705780 1.692084 26.000000
2.183065 0.677910 1.693560 19.000000
2.166918 0.643271 1.677677 10.000000
2.174048 0.615352 1.678880 16.000000
2.188151 0.589777 1.686482 17.000000
2.198242 0.562839 1.691022 16.000000
2.192518 0.531936 1.683433 16.000000
2.221614 0.509214 1.702503 16.000000
2.211514 0.477443 1.691569 16.000000
2.212850 0.448370 1.689435 10.000000
2.213479 0.419484 1.687729 9.000000
2.233445 0.394086 1.700931 16.000000
2.241977 0.366180 1.704277 13.000000
2.237451 0.336563 1.699744 11.000000
2.256917 0.310153 1.712366 17.000000
2.240482 0.278896 1.697862 12.000000
2.247124 0.250890 1.701817 10.000000
2.253950 0.222609 1.704997 10.000000
2.252133 0.193630 1.702595 9.000000
2.250137 0.164665 1.700018 10.000000
2.255847 0.136284 1.703285 11.000000
2.244921 0.107126 1.694945 10.000000
2.254103 0.078798 1.700880 10.000000
2.246725 0.049998 1.695202 10.000000
2.239001 0.021315 1.689437 10.000000
2.247069 -0.007130 1.695460 20.000000
2.242906 -0.035674 1.692277 21.000000
2.234582 -0.063916 1.685913 18.000000
2.237460 -0.092536 1.689095 21.000000
2.232617 -0.120740 1.685400 21.000000
2.235063 -0.149375 1.688153 20.000000
2.241227 -0.178343 1.693742 20.000000
2.195500 -0.202822 1.660144 9.000000
2.232530 -0.234967 1.690048 24.000000
2.230043 -0.263266 1.689190 25.000000
2.218945 -0.290613 1.682751 24.000000
2.227396 -0.320605 1.691165 27.000000
2.212366 -0.346924 1.680701 25.000000
2.208008 -0.375122 1.680359 26.000000
2.196035 -0.401795 1.673251 21.000000
2.172138 -0.425787 1.656992 12.000000
2.178832 -0.455924 1.665217 22.000000
2.157935 -0.480271 1.652227 28.000000
2.183740 -0.515088 1.675061 31.000000
2.162373 -0.538981 1.661824 26.000000
2.160398 -0.567573 1.663368 28.000000
2.142591 -0.591820 1.652803 24.000000
2.135659 -0.619209 1.651704 25.000000
2.083031 -0.632262 1.614025 13.000000
2.102646 -0.667402 1.633446 25.000000
2.083658 -0.690498 1.622937 26.000000
2.083681 -0.719702 1.627209 28.000000
2.068162 -0.743568 1.619438 25.000000
2.060080 -0.769895 1.617438 29.000000
2.054922 -0.797847 1.618898 29.000000
2.035186 -0.819453 1.607695 20.000000
1.984843 -0.828583 1.573479 17.000000
2.002176 -0.864926 1.591589 29.000000
1.977694 -0.884037 1.577755 29.000000
1.971633 -0.911006 1.578568 30.000000
1.961554 -0.936325 1.576274 27.000000
1.943391 -0.958144 1.568607 29.000000
1.925798 -0.979368 1.560222 27.000000
1.911713 -1.002046 1.554616 24.000000
1.885979 -1.019084 1.540752 18.000000
1.875183 -1.043093 1.537851 29.000000
1.859972 -1.065322 1.532526 29.000000
1.840977 -1.085232 1.524227 29.000000
1.821993 -1.104799 1.515787 31.000000
1.806323 -1.126184 1.510181 29.000000
1.797413 -1.151724 1.510281 30.000000
1.774646 -1.168127 1.498682 25.000000
1.755174 -1.186398 1.489835 16.000000
1.742369 -1.209004 1.486752 31.000000
1.706114 -1.214732 1.463386 24.000000
1.698937 -1.241952 1.466452 26.000000
1.682500 -1.261250 1.460156 25.000000
1.651989 -1.270749 1.442957 21.000000
1.644215 -1.297509 1.445620 26.000000
1.624294 -1.313298 1.436304 23.000000
1.609750 -1.334573 1.433055 16.000000
1.585536 -1.347594 1.421345 30.000000
1.567654 -1.365643 1.415148 27.000000
1.555774 -1.388892 1.414501 27.000000
1.531530 -1.400806 1.402565 28.000000
1.507237 -1.412327 1.390519 29.000000
1.494959 -1.434884 1.389656 29.000000
1.470684 -1.445557 1.377517 22.000000
1.439451 -1.450614 1.360409 16.000000
1.435618 -1.481314 1.367564 29.000000
1.411302 -1.490955 1.355372 29.000000
1.394335 -1.509873 1.351844 28.000000
1.370089 -1.518723 1.339497 28.000000
1.347394 -1.530867 1.330377 26.000000
1.331418 -1.548478 1.326216 23.000000
1.316802 -1.569603 1.325142 20.000000
1.291241 -1.577567 1.313147 19.000000
1.274960 -1.594440 1.308781 29.000000
1.249496 -1.601641 1.296713 28.000000
1.229216 -1.615199 1.289987 26.000000
1.208935 -1.628393 1.283276 29.000000
1.188510 -1.641373 1.276437 24.000000
1.133875 -1.605549 1.232429 22.000000
1.077891 -1.565019 1.185898 17.000000
1.039423 -1.547981 1.158189 12.000000
1.022476 -1.562182 1.154170 26.000000
1.010042 -1.583296 1.155391 24.000000
1.100340 1.723105 1.285401 24.000000
1.119060 1.707554 1.289823 9.000000
1.151839 1.712873 1.310322 22.000000
1.172961 1.700226 1.317413 25.000000
1.196367 1.690724 1.327220 22.000000
1.212366 1.670656 1.328868 28.000000
1.238241 1.663903 1.341208 23.000000
1.253939 1.643383 1.342706 21.000000
1.273368 1.629908 1.350027 29.000000
1.291458 1.612269 1.354098 10.000000
1.321281 1.611151 1.372296 26.000000
1.339250 1.592877 1.376255 29.000000
1.356991 1.574375 1.380138 24.000000
1.384370 1.568728 1.395499 33.000000
1.400795 1.550231 1.399798 29.000000
1.412655 1.524879 1.397825 27.000000
1.445819 1.524032 1.418743 32.000000
1.450377 1.492897 1.411541 15.000000
1.493594 1.499297 1.440313 28.000000
1.512558 1.482264 1.447039 29.000000
1.528370 1.462147 1.450875 27.000000
1.550124 1.447337 1.460304 31.000000
1.562721 1.423900 1.461154 31.000000
1.581164 1.405767 1.467612 28.000000
1.605787 1.392773 1.479639 32.000000
1.607505 1.361313 1.472213 17.000000
1.644502 1.358069 1.495601 31.000000
1.659447 1.336128 1.498861 32.000000
1.676492 1.317027 1.505481 32.000000
1.697627 1.299606 1.514288 35.000000
1.707954 1.275020 1.514909 32.000000
1.725532 1.254590 1.520684 32.000000
1.745521 1.236745 1.529859 34.000000
1.748574 1.206948 1.524326 24.000000
1.768238 1.188572 1.533279 31.000000
1.794545 1.174300 1.548029 34.000000
1.807218 1.150730 1.550935 32.000000
1.833489 1.135602 1.565427 39.000000
1.835542 1.105272 1.559285 32.000000
1.847592 1.081172 1.561873 35.000000
1.869355 1.063300 1.573804 35.000000
1.867030 1.030943 1.564334 24.000000
1.895596 1.016243 1.581972 29.000000
1.921288 0.998735 1.595874 33.000000
1.928287 0.972051 1.595530 29.000000
1.956744 0.955877 1.612867 35.000000
1.952483 0.923620 1.603262 32.000000
1.947907 0.891575 1.593542 34.000000
1.979599 0.875967 1.613507 34.000000
1.981215 0.847439 1.610158 23.000000
1.975774 0.815471 1.599898 29.000000
2.002827 0.797446 1.617181 35.000000
2.008060 0.769944 1.615740 32.000000
2.027512 0.748234 1.626731 36.000000
2.027912 0.719396 1.622527 35.000000
2.046973 0.697101 1.633294 37.000000
2.054582 0.670636 1.634866 45.000000
2.061280 0.644336 1.636933 26.000000
2.083741 0.622265 1.650264 31.000000
2.082500 0.593340 1.645962 32.000000
2.077702 0.563239 1.637875 31.000000
2.087415 0.537567 1.642392 35.000000
2.093204 0.510772 1.643632 33.000000
2.102534 0.484703 1.647742 36.000000
2.091816 0.454485 1.637249 37.000000
2.092943 0.426716 1.635032 25.000000
2.120601 0.404414 1.654512 33.000000
2.133062 0.378491 1.661094 34.000000
2.129233 0.349878 1.655923 36.000000
2.132886 0.322568 1.656753 35.000000
2.131948 0.294799 1.654950 35.000000
2.139111 0.267949 1.658413 35.000000
2.142183 0.240474 1.658745 38.000000
2.128738 0.211514 1.647290 27.000000
2.130798 0.184323 1.647867 27.000000
2.136643 0.157340 1.651331 32.000000
2.150151 0.130654 1.660737 34.000000
2.143156 0.102799 1.655293 33.000000
2.152310 0.075703 1.661318 34.000000
2.144893 0.047968 1.655541 34.000000
2.141266 0.020472 1.652652 33.000000
2.141348 -0.006852 1.652735 33.000000
2.133267 -0.034132 1.646460 36.000000
2.132856 -0.061437 1.646131 35.000000
2.143652 -0.089236 1.655459 45.000000
2.142908 -0.116611 1.654714 45.000000
2.137468 -0.143720 1.651496 50.000000
2.135735 -0.171044 1.651083 28.000000
2.133754 -0.198368 1.650588 33.000000
2.127667 -0.225192 1.646796 37.000000
2.132653 -0.253318 1.652647 48.000000
2.125664 -0.280175 1.649185 35.000000
2.126781 -0.307819 1.650993 41.000000
2.127142 -0.335647 1.653293 67.000000
2.103861 -0.359482 1.637167 36.000000
2.107233 -0.387927 1.642841 29.000000
2.099136 -0.414103 1.638565 35.000000
2.067085 -0.435351 1.616473 35.000000
2.081924 -0.465991 1.630190 36.000000
2.072731 -0.491786 1.626091 35.000000
2.067251 -0.518367 1.624783 35.000000
2.065372 -0.545800 1.626421 36.000000
2.055065 -0.571365 1.622493 36.000000
2.033559 -0.593159 1.608680 29.000000
2.000072 -0.611229 1.586391 26.000000
1.993664 -0.636703 1.584389 31.000000
1.994021 -0.664861 1.588977 32.000000
1.982854 -0.689203 1.584276 31.000000
1.975229 -0.714646 1.582511 32.000000
1.952482 -0.734381 1.568565 35.000000
1.958856 -0.765451 1.579140 34.000000
1.950669 -0.790573 1.576973 28.000000
1.919452 -0.806470 1.557239 33.000000
1.899937 -0.826193 1.545888 30.000000
1.886971 -0.849082 1.540930 30.000000
1.884800 -0.876876 1.544847 31.000000
1.867917 -0.897662 1.536599 31.000000
1.861676 -0.923541 1.537289 33.000000
1.848076 -0.945690 1.531875 31.000000
1.833572 -0.967983 1.526863 24.000000
1.819737 -0.989554 1.521232 27.000000
1.804925 -1.011346 1.516080 30.000000
1.769796 -1.020400 1.492459 33.000000
1.775666 -1.053719 1.504789 31.000000
1.736354 -1.060018 1.478698 33.000000
1.721182 -1.080431 1.473154 33.000000
1.712638 -1.104994 1.473326 30.000000
1.714111 -1.136217 1.482180 21.000000
1.688307 -1.149357 1.467569 26.000000
1.669210 -1.166574 1.458676 27.000000
1.636832 -1.173978 1.438110 31.000000
1.613624 -1.188334 1.426692 29.000000
1.607445 -1.214120 1.429250 26.000000
1.587274 -1.230375 1.420611 27.000000
1.567961 -1.245786 1.411322 25.000000
1.554054 -1.266496 1.408331 21.000000
1.536780 -1.284356 1.402323 23.000000
1.517268 -1.298795 1.392872 24.000000
1.502926 -1.318859 1.389603 29.000000
1.482323 -1.333128 1.380566 26.000000
1.470844 -1.355455 1.379927 26.000000
1.447025 -1.366397 1.367945 25.000000
1.426354 -1.379675 1.358684 25.000000
1.420258 -1.407186 1.363465 17.000000
1.389579 -1.411726 1.346164 21.000000
1.362972 -1.418056 1.331154 19.000000
1.350662 -1.438982 1.330107 27.000000
1.328713 -1.451234 1.321119 23.000000
1.310609 -1.465639 1.314362 21.000000
1.292426 -1.479681 1.307478 25.000000
1.270311 -1.490910 1.298352 23.000000
1.248195 -1.501848 1.289185 12.000000
1.232628 -1.518272 1.284972 14.000000
