x y z intensity
1.905615 0.923732 0.774606 32.000000
1.919703 0.904124 0.777703 35.000000
1.925228 0.880033 0.777014 52.000000
1.960325 0.869497 0.788676 41.000000
1.978219 0.850890 0.793319 52.000000
2.000524 0.833399 0.799491 49.000000
2.026804 0.817576 0.807550 42.000000
2.035621 0.794396 0.808617 39.000000
2.048541 0.772799 0.811421 28.000000
2.069876 0.754384 0.817853 38.000000
2.086823 0.733755 0.822269 71.000000
2.103621 0.712852 0.826549 64.000000
2.128958 0.694725 0.834618 70.000000
2.145337 0.673315 0.839136 80.000000
2.152441 0.648853 0.840015 37.000000
2.172896 0.628145 0.846149 61.000000
2.206678 0.610877 0.857481 34.000000
2.231349 0.590448 0.865172 37.000000
2.251133 0.568535 0.871345 50.000000
2.270916 0.546010 0.877225 37.000000
2.294953 0.524291 0.885024 45.000000
2.314199 0.501167 0.890997 71.000000
2.337863 0.478514 0.898663 48.000000
2.352031 0.453750 0.902891 42.000000
2.375209 0.430289 0.910653 29.000000
2.398144 0.406409 0.918347 32.000000
2.434770 0.384137 0.931192 71.000000
2.475893 0.361804 0.945736 49.000000
2.479649 0.333640 0.946307 57.000000
2.510925 0.308902 0.957415 68.000000
2.528086 0.281812 0.963057 36.000000
2.549602 0.254952 0.970472 37.000000
2.566165 0.227173 0.976206 29.000000
2.629034 0.202670 0.999496 37.000000
2.649760 0.173947 1.006844 52.000000
2.674834 0.145051 1.016057 60.000000
2.699673 0.115625 1.024835 42.000000
2.728767 0.085814 1.035652 73.000000
2.752849 0.055273 1.044788 59.000000
2.790603 0.024322 1.059070 36.000000
2.800043 -0.007495 1.062618 35.000000
2.846603 -0.039958 1.080265 33.000000
2.878758 -0.073127 1.092494 35.000000
2.905754 -0.106868 1.103040 36.000000
2.937016 -0.141471 1.115550 36.000000
2.982052 -0.177652 1.132895 35.000000
3.031204 -0.215225 1.152199 33.000000
3.014746 -0.248489 1.146585 27.000000
3.067744 -0.287991 1.167448 35.000000
3.110826 -0.327783 1.184858 33.000000
3.148847 -0.368091 1.200384 36.000000
3.209644 -0.412121 1.224537 39.000000
3.223524 -0.451143 1.230978 34.000000
3.209072 -0.486486 1.226911 34.000000
3.189823 -0.520654 1.220975 33.000000
3.128626 -0.547253 1.199046 24.000000
3.099519 -0.578499 1.189394 31.000000
3.070197 -0.609017 1.179651 29.000000
3.054200 -0.642004 1.175311 31.000000
3.037939 -0.674680 1.170975 35.000000
2.998531 -0.701715 1.157645 29.000000
2.963329 -0.729242 1.146392 29.000000
2.982466 -0.769889 1.155837 35.000000
2.910558 -0.786722 1.130262 21.000000
2.897307 -0.818565 1.127526 26.000000
2.856837 -0.842261 1.114184 29.000000
2.829612 -0.869174 1.106019 28.000000
2.815603 -0.899861 1.103018 32.000000
2.783453 -0.924443 1.092940 28.000000
2.773137 -0.956155 1.091794 32.000000
2.744882 -0.981556 1.083679 28.000000
2.729762 -1.010869 1.080325 26.000000
2.696692 -1.033560 1.070311 29.000000
2.676600 -1.060746 1.065431 35.000000
2.660642 -1.089418 1.062199 32.000000
2.622374 -1.109042 1.050691 32.000000
2.614541 -1.140649 1.050845 33.000000
2.567871 -1.154846 1.035370 29.000000
2.559220 -1.186300 1.035720 31.000000
2.529434 -1.207099 1.027005 26.000000
2.511829 -1.233997 1.023829 32.000000
2.481331 -1.254351 1.015332 34.000000
2.450837 -1.274048 1.006857 31.000000
2.436751 -1.302041 1.005242 36.000000
2.418276 -1.327593 1.001830 35.000000
2.395486 -1.350563 0.996542 29.000000
2.372441 -1.373256 0.991356 33.000000
2.341232 -1.390604 0.982699 27.000000
2.322019 -1.414837 0.978973 31.000000
2.294613 -1.433727 0.971962 33.000000
2.286394 -1.465391 0.973670 34.000000
2.258653 -1.483610 0.966505 35.000000
2.242538 -1.509185 0.964316 36.000000
2.214089 -1.527174 0.957446 30.000000
2.216777 -1.565771 0.963545 33.000000
2.157287 -1.561044 0.943247 26.000000
2.155716 -1.596579 0.947494 35.000000
2.145432 -1.627197 0.948821 33.000000
2.093779 -1.625989 0.931807 16.000000
2.102320 -1.670031 0.940896 26.000000
2.080165 -1.691277 0.936988 35.000000
2.054185 -1.709245 0.931444 30.000000
2.035272 -1.732995 0.929198 31.000000
2.002622 -1.743301 0.919973 27.000000
1.994087 -1.775712 0.922470 35.000000
1.967528 -1.792363 0.916799 37.000000
1.947855 -1.814957 0.914308 33.000000
1.927924 -1.837293 0.911817 35.000000
1.904434 -1.856154 0.907624 34.000000
1.880757 -1.874679 0.903441 31.000000
1.866930 -1.903011 0.903999 32.000000
1.836389 -1.914148 0.896533 26.000000
1.844805 -1.966269 0.908163 55.000000
1.816951 -1.980382 0.902116 69.000000
1.782827 -1.987028 0.893003 32.000000
1.761351 -2.007388 0.890082 40.000000
1.738500 -2.028264 0.887591 34.000000
1.722691 -2.055384 0.887727 35.000000
1.697525 -2.071368 0.883229 35.000000
1.672265 -2.087024 0.878571 18.000000
1.655704 -2.113577 0.878674 31.000000
1.623073 -2.121907 0.871265 28.000000
1.614586 -2.159473 0.875902 27.000000
1.599907 -2.189337 0.877318 31.000000
1.570892 -2.199856 0.871033 26.000000
1.554184 -2.230294 0.872671 29.000000
1.532991 -2.251918 0.870883 27.000000
1.503799 -2.261353 0.864532 10.000000
1.447023 -2.231370 0.843352 9.000000
1.374805 -2.171265 0.811428 13.000000
1.282656 -2.078125 0.767969 10.000000
1.186760 -1.970113 0.720029 13.000000
1.105402 -1.880690 0.679893 10.000000
1.034249 -1.806976 0.646190 13.000000
0.959213 -1.718699 0.608042 12.000000
0.903170 -1.663072 0.582193 8.000000
0.982092 1.798709 0.649895 21.000000
1.002498 1.786505 0.652454 21.000000
1.026145 1.783015 0.658257 26.000000
1.034075 1.749869 0.653114 26.000000
1.057510 1.745955 0.658857 23.000000
1.073461 1.729607 0.659999 30.000000
1.090369 1.712404 0.660867 25.000000
1.118932 1.715621 0.669689 25.000000
1.116042 1.670997 0.659840 27.000000
1.132206 1.653396 0.660534 24.000000
1.160684 1.655742 0.669330 32.000000
1.169937 1.630721 0.667134 30.000000
1.187364 1.617038 0.669586 28.000000
1.204597 1.603225 0.672039 35.000000
1.222670 1.588574 0.674169 30.000000
1.236714 1.570652 0.674958 28.000000
1.241639 1.541477 0.670856 28.000000
1.264178 1.534305 0.676373 34.000000
1.280585 1.519629 0.678680 37.000000
1.296927 1.504697 0.680923 35.000000
1.316203 1.493119 0.684793 39.000000
1.333098 1.477187 0.686656 47.000000
1.342621 1.454698 0.685568 32.000000
1.364768 1.445967 0.690960 37.000000
1.377100 1.426639 0.691434 31.000000
1.395860 1.413911 0.695136 42.000000
1.401093 1.387699 0.692159 80.000000
1.429054 1.385009 0.701101 59.000000
1.444121 1.368267 0.703033 52.000000
1.452081 1.344992 0.701623 73.000000
1.473677 1.334333 0.706832 49.000000
1.474123 1.304592 0.701982 80.000000
1.495532 1.293530 0.707135 24.000000
1.505462 1.273508 0.707497 36.000000
1.530278 1.264854 0.714237 62.000000
1.540527 1.243934 0.714279 40.000000
1.575774 1.243875 0.726413 56.000000
1.578290 1.216826 0.722927 62.000000
1.583659 1.193121 0.721385 33.000000
1.600579 1.177295 0.724579 69.000000
1.635981 1.175403 0.736689 24.000000
1.641255 1.150833 0.734753 41.000000
1.661314 1.137306 0.739897 72.000000
1.685588 1.125615 0.746455 48.000000
1.693722 1.103675 0.746371 73.000000
1.705559 1.084208 0.747950 57.000000
1.721184 1.067080 0.751267 43.000000
1.732654 1.047239 0.752717 67.000000
1.768147 1.041466 0.764642 29.000000
1.763125 1.011757 0.759116 46.000000
1.774118 0.991427 0.760507 93.000000
1.825972 0.993268 0.779385 81.000000
1.832607 0.970009 0.778914 64.000000
1.855634 0.955209 0.785414 60.000000
1.878255 0.940395 0.792204 35.000000
1.905357 0.926792 0.800436 65.000000
1.911220 0.902745 0.799773 26.000000
1.920807 0.880881 0.801152 37.000000
1.921646 0.855148 0.798912 55.000000
1.965103 0.847918 0.814303 42.000000
1.995953 0.834143 0.824182 57.000000
2.004925 0.811253 0.825312 51.000000
2.031011 0.795032 0.833511 35.000000
2.048154 0.775250 0.838369 35.000000
2.047757 0.748500 0.835791 33.000000
2.069016 0.729570 0.842093 57.000000
2.090017 0.710482 0.848551 81.000000
2.115261 0.692398 0.856818 64.000000
2.131585 0.671036 0.861361 71.000000
2.143213 0.647974 0.864111 67.000000
2.163536 0.627334 0.870323 56.000000
2.188215 0.607487 0.878348 37.000000
2.221795 0.589620 0.889846 33.000000
2.246116 0.568847 0.897976 56.000000
2.265701 0.546494 0.904236 69.000000
2.280586 0.522636 0.908619 57.000000
2.295209 0.498494 0.912931 53.000000
2.309721 0.474143 0.917171 52.000000
2.364982 0.457550 0.937820 52.000000
2.378882 0.432236 0.942160 37.000000
2.397252 0.407414 0.948164 35.000000
2.433758 0.385110 0.961363 54.000000
2.470052 0.361990 0.974493 63.000000
2.478430 0.334396 0.976885 55.000000
2.505063 0.308977 0.986477 59.000000
2.517544 0.281396 0.990449 64.000000
2.543531 0.255082 1.000139 53.000000
2.569232 0.228072 1.009670 35.000000
2.631944 0.203489 1.033623 51.000000
2.638666 0.173687 1.035706 45.000000
2.654345 0.144371 1.041176 38.000000
2.692947 0.115648 1.056028 71.000000
2.708055 0.085432 1.061589 63.000000
2.732036 0.054995 1.070978 42.000000
2.792908 0.024353 1.094879 66.000000
2.783689 -0.007482 1.091230 34.000000
2.816089 -0.039603 1.103911 36.000000
2.871381 -0.073152 1.125524 51.000000
2.893606 -0.106773 1.134645 36.000000
2.915527 -0.140830 1.143479 50.000000
2.964924 -0.177179 1.163540 33.000000
3.027697 -0.215589 1.188873 35.000000
2.983451 -0.246659 1.172168 21.000000
3.045502 -0.286816 1.197289 36.000000
3.102492 -0.327762 1.220366 36.000000
3.135709 -0.367471 1.234524 37.000000
3.200747 -0.412188 1.261307 37.000000
3.219261 -0.451800 1.269662 48.000000
3.191019 -0.485045 1.260144 32.000000
3.180923 -0.520774 1.257692 29.000000
3.124541 -0.548138 1.236973 18.000000
3.086458 -0.577676 1.223435 31.000000
3.057131 -0.608302 1.213440 31.000000
3.036613 -0.640330 1.207186 34.000000
3.011304 -0.670829 1.199127 31.000000
2.990216 -0.701977 1.192788 35.000000
2.950694 -0.728247 1.179024 28.000000
2.951762 -0.764111 1.181543 29.000000
2.893677 -0.784422 1.160787 18.000000
2.884846 -0.817486 1.159806 29.000000
2.848985 -0.842516 1.147817 31.000000
2.821822 -0.869486 1.139450 32.000000
2.789950 -0.894528 1.129204 28.000000
2.775749 -0.924771 1.126067 33.000000
2.756786 -0.953293 1.121044 32.000000
2.732924 -0.980132 1.114524 24.000000
2.704504 -1.004853 1.106131 24.000000
2.680584 -1.030474 1.099072 29.000000
2.656209 -1.055890 1.092310 32.000000
2.627251 -1.079141 1.083686 35.000000
2.615098 -1.109478 1.082573 31.000000
2.594290 -1.135510 1.077348 34.000000
2.577638 -1.163085 1.073908 36.000000
2.543793 -1.182587 1.063293 27.000000
2.522083 -1.207844 1.058289 28.000000
2.496084 -1.230656 1.051527 35.000000
2.478565 -1.256775 1.047766 32.000000
2.452159 -1.278744 1.040851 45.000000
2.425626 -1.300246 1.033953 35.000000
2.407169 -1.325891 1.030403 35.000000
2.388404 -1.351173 1.026859 36.000000
2.381662 -1.383239 1.028480 29.000000
2.318203 -1.381728 1.005557 27.000000
2.314993 -1.415606 1.008850 37.000000
2.291589 -1.437041 1.003340 34.000000
2.271973 -1.460654 0.999492 35.000000
2.244314 -1.478839 0.992188 32.000000
2.227702 -1.504894 0.990352 34.000000
2.211352 -1.530250 0.988079 35.000000
2.201786 -1.561474 0.989597 27.000000
2.150741 -1.561561 0.971776 29.000000
2.133296 -1.586607 0.969790 32.000000
2.134977 -1.625018 0.975917 30.000000
2.098318 -1.635316 0.965212 23.000000
2.088138 -1.664929 0.966023 22.000000
2.073322 -1.692084 0.965553 36.000000
2.054481 -1.716134 0.963209 40.000000
2.004040 -1.711719 0.945325 23.000000
1.999336 -1.747353 0.949667 28.000000
1.983483 -1.773643 0.948937 35.000000
1.953571 -1.787036 0.941412 32.000000
1.940729 -1.816029 0.942266 36.000000
1.917358 -1.835231 0.938018 32.000000
1.894743 -1.853324 0.933351 35.000000
1.877841 -1.878442 0.932348 33.000000
1.850711 -1.893341 0.926383 24.000000
1.856092 -1.941959 0.936815 36.000000
1.863930 -1.994372 0.948722 98.000000
1.826298 -1.998366 0.937630 95.000000
1.781446 -1.995544 0.923671 57.000000
1.756659 -2.012450 0.919022 32.000000
1.728792 -2.025429 0.912848 35.000000
1.709918 -2.048906 0.911457 32.000000
1.690707 -2.072196 0.909969 25.000000
1.659519 -2.080487 0.902050 21.000000
1.628398 -2.088317 0.894165 25.000000
1.627564 -2.137930 0.904106 30.000000
1.607380 -2.160421 0.902494 29.000000
1.575872 -2.167288 0.894451 26.000000
1.563673 -2.200777 0.897484 29.000000
1.537351 -2.214850 0.892527 25.000000
1.517541 -2.241174 0.892625 20.000000
1.511878 -2.286306 0.900154 19.000000
1.446328 -2.239686 0.871769 9.000000
1.377847 -2.188667 0.842363 10.000000
1.282314 -2.086922 0.794315 11.000000
1.196534 -1.995516 0.751154 10.000000
1.113909 -1.907231 0.710061 13.000000
1.027596 -1.804115 0.664485 14.000000
0.972393 -1.754124 0.639183 10.000000
0.986808 1.816637 0.675572 9.000000
1.001431 1.796657 0.675307 18.000000
1.012342 1.767687 0.671622 21.000000
1.038340 1.768052 0.679153 19.000000
1.049720 1.743663 0.677186 22.000000
1.066865 1.726668 0.678089 24.000000
1.082616 1.710124 0.679241 19.000000
1.103437 1.701394 0.683509 26.000000
1.111046 1.672618 0.679774 10.000000
1.135268 1.666793 0.685321 22.000000
1.142187 1.637941 0.681461 26.000000
1.162385 1.628398 0.685594 18.000000
1.182601 1.618596 0.689737 30.000000
1.195246 1.596537 0.688738 23.000000
1.215183 1.586315 0.692823 25.000000
1.229245 1.568334 0.693632 28.000000
1.257862 1.568704 0.702611 10.000000
1.253752 1.528414 0.693432 36.000000
1.273215 1.517322 0.697458 30.000000
1.289557 1.502389 0.699701 26.000000
1.302598 1.483724 0.700337 34.000000
1.318645 1.468508 0.702574 26.000000
1.334501 1.453035 0.704748 28.000000
1.356674 1.444232 0.710296 33.000000
1.375544 1.431694 0.714108 22.000000
1.384470 1.408823 0.712839 36.000000
1.399786 1.392609 0.714889 32.000000
1.421649 1.382691 0.720290 34.000000
1.433312 1.362777 0.720574 44.000000
1.444070 1.343262 0.721106 29.000000
1.462220 1.329437 0.724750 36.000000
1.466278 1.302870 0.721435 42.000000
1.498211 1.301027 0.731937 24.000000
1.501172 1.274817 0.728860 40.000000
1.515143 1.257129 0.730591 32.000000
1.532626 1.242199 0.734065 32.000000
1.549402 1.227571 0.737740 36.000000
1.562925 1.209283 0.739414 30.000000
1.575803 1.191318 0.741282 33.000000
1.615296 1.192227 0.755149 31.000000
1.631790 1.176372 0.758746 24.000000
1.636674 1.152157 0.757046 33.000000
1.649474 1.132891 0.758483 35.000000
1.665504 1.116424 0.761957 34.000000
1.689214 1.104851 0.768933 37.000000
1.705017 1.087852 0.772365 35.000000
1.712747 1.065630 0.772097 36.000000
1.748231 1.060380 0.784425 35.000000
1.747607 1.033005 0.780512 26.000000
1.766911 1.017351 0.785501 39.000000
1.794187 1.006004 0.794104 36.000000
1.805088 0.985144 0.795517 35.000000
1.824090 0.968589 0.800409 34.000000
1.842578 0.951981 0.805585 33.000000
1.873787 0.941048 0.815872 48.000000
1.875439 0.915469 0.813682 32.000000
1.898045 0.899646 0.820231 26.000000
1.911910 0.879778 0.823430 32.000000
1.934042 0.863470 0.830214 33.000000
1.951817 0.844951 0.835118 35.000000
1.973755 0.827826 0.841794 34.000000
1.995600 0.810335 0.848414 33.000000
2.026005 0.795806 0.858647 36.000000
2.034575 0.772454 0.859719 32.000000
2.038422 0.747573 0.859093 18.000000
2.068385 0.731810 0.869227 42.000000
2.089359 0.712616 0.875839 36.000000
2.096970 0.688625 0.876926 34.000000
2.113150 0.667360 0.881565 37.000000
2.133618 0.647095 0.888061 31.000000
2.149495 0.625153 0.892571 33.000000
2.196449 0.611652 0.910061 35.000000
2.167000 0.576923 0.896191 10.000000
2.227107 0.565878 0.919363 35.000000
2.242248 0.542380 0.923609 32.000000
2.261429 0.519867 0.930176 30.000000
2.285134 0.497878 0.938309 34.000000
2.326797 0.479141 0.953750 29.000000
2.345538 0.455151 0.960124 30.000000
2.359380 0.429939 0.964484 30.000000
2.363956 0.402881 0.965036 10.000000
2.427765 0.385272 0.989787 34.000000
2.445492 0.359476 0.996122 31.000000
2.467614 0.333986 1.004089 31.000000
2.484860 0.307425 1.010193 35.000000
2.501896 0.280548 1.016136 31.000000
2.518635 0.253355 1.022250 29.000000
2.553625 0.227323 1.035525 32.000000
2.579013 0.199918 1.045228 16.000000
2.617975 0.172902 1.060645 30.000000
2.647560 0.144449 1.071976 31.000000
2.690547 0.115959 1.089020 30.000000
2.724129 0.086133 1.102231 33.000000
2.748018 0.055467 1.111875 33.000000
2.762284 0.024191 1.117682 27.000000
2.767010 -0.007470 1.119557 32.000000
2.831711 -0.039996 1.145718 35.000000
2.835785 -0.072466 1.147407 32.000000
2.876446 -0.106412 1.164186 35.000000
2.916788 -0.141312 1.180865 29.000000
2.947447 -0.176707 1.193889 33.000000
2.968525 -0.211989 1.202770 29.000000
3.021417 -0.250479 1.224953 21.000000
3.027654 -0.285979 1.228599 32.000000
3.070555 -0.325399 1.246819 29.000000
3.112843 -0.365974 1.265128 32.000000
3.172993 -0.409877 1.290802 33.000000
3.191320 -0.449328 1.299413 31.000000
3.186336 -0.485809 1.298671 30.000000
3.148784 -0.517029 1.284961 28.000000
3.110928 -0.547410 1.271160 17.000000
3.095679 -0.581236 1.266598 29.000000
3.048308 -0.608394 1.248889 22.000000
3.027840 -0.640477 1.242585 27.000000
2.997970 -0.670020 1.232462 29.000000
2.977144 -0.700972 1.225569 30.000000
2.955584 -0.731814 1.219290 27.000000
2.943082 -0.764380 1.216331 26.000000
2.858519 -0.777251 1.183497 10.000000
2.881025 -0.818946 1.195498 28.000000
2.845157 -0.843992 1.183304 24.000000
2.818045 -0.871071 1.174734 26.000000
2.777493 -0.893378 1.160539 28.000000
2.745588 -0.917731 1.149968 24.000000
2.744293 -0.952148 1.152229 26.000000
2.720491 -0.978993 1.145560 26.000000
2.696791 -1.005063 1.138429 9.000000
2.689889 -1.037717 1.138943 32.000000
2.652522 -1.058217 1.126516 25.000000
2.619306 -1.079800 1.115949 27.000000
2.598756 -1.106171 1.110709 29.000000
2.565316 -1.126545 1.099998 26.000000
2.540284 -1.150088 1.092780 26.000000
2.536111 -1.183090 1.094686 29.000000
2.472441 -1.188228 1.071391 10.000000
2.476293 -1.224619 1.076767 28.000000
2.454233 -1.248985 1.071602 29.000000
2.440797 -1.276851 1.069528 29.000000
2.414231 -1.298452 1.062484 32.000000
2.375387 -1.312732 1.049866 26.000000
2.372992 -1.346992 1.053403 29.000000
2.354143 -1.371958 1.049731 27.000000
2.306953 -1.379883 1.033418 10.000000
2.307751 -1.416193 1.038647 32.000000
2.256607 -1.420268 1.020440 24.000000
2.245023 -1.448678 1.020132 27.000000
2.236932 -1.479581 1.021509 32.000000
2.220817 -1.505156 1.019319 25.000000
2.200073 -1.528501 1.015620 28.000000
2.168219 -1.542749 1.006186 21.000000
2.140205 -1.559229 0.998549 11.000000
2.137674 -1.595471 1.003519 29.000000
2.105659 -1.608457 0.993972 24.000000
2.106138 -1.647410 1.000574 14.000000
2.095766 -1.677225 1.001456 17.000000
2.048056 -1.677861 0.985233 23.000000
2.033026 -1.704754 0.984644 27.000000
1.997004 -1.712464 0.973207 24.000000
1.960456 -1.720278 0.962158 10.000000
1.962318 -1.761910 0.970054 30.000000
1.939394 -1.781545 0.965845 25.000000
1.920562 -1.803373 0.962849 28.000000
1.890623 -1.815867 0.955146 29.000000
1.880672 -1.847715 0.957627 23.000000
1.863700 -1.872876 0.956590 27.000000
1.843119 -1.894486 0.953846 23.000000
1.871094 -1.966973 0.976399 29.000000
1.881578 -2.023097 0.990365 123.000000
1.853208 -2.037895 0.983956 100.000000
1.777773 -1.999475 0.952329 34.000000
1.737470 -1.998678 0.939354 29.000000
1.712721 -2.015238 0.934600 24.000000
1.696921 -2.042267 0.934840 27.000000
1.686655 -2.076503 0.938367 19.000000
1.640766 -2.066396 0.921971 10.000000
1.632894 -2.103984 0.927034 23.000000
1.615971 -2.130273 0.927039 20.000000
1.594514 -2.153503 0.925735 24.000000
1.568556 -2.168101 0.920821 23.000000
1.547968 -2.190100 0.919074 18.000000
1.532501 -2.219604 0.920457 22.000000
1.528433 -2.269542 0.930201 12.000000
1.491080 -2.267396 0.918657 12.000000
1.438616 -2.240677 0.897505 9.000000
1.384567 -2.209114 0.874901 9.000000
1.280378 -2.096313 0.821073 9.000000
1.182723 -1.984754 0.768814 9.000000
1.113842 -1.916356 0.734248 10.000000
1.033577 -1.826649 0.692311 10.000000
0.965905 -1.751233 0.656656 9.000000
0.969579 1.797565 0.687380 21.000000
0.987801 1.781190 0.688475 25.000000
1.004421 1.765265 0.689754 22.000000
1.020823 1.749264 0.690955 28.000000
1.030886 1.720300 0.687085 23.000000
1.054080 1.716194 0.693121 28.000000
1.072280 1.703714 0.695851 26.000000
1.082801 1.679065 0.693662 15.000000
1.096568 1.657765 0.692823 25.000000
1.114298 1.644853 0.695457 28.000000
1.131836 1.631683 0.698091 25.000000
1.146579 1.614478 0.698996 29.000000
1.163818 1.600955 0.701559 27.000000
1.180994 1.587241 0.704123 30.000000
1.201857 1.576437 0.708048 32.000000
1.215857 1.558530 0.708801 21.000000
1.229649 1.540562 0.709543 34.000000
1.249182 1.529691 0.713672 33.000000
1.265717 1.514951 0.716043 34.000000
1.282059 1.500018 0.718414 37.000000
1.298209 1.484894 0.720721 36.000000
1.311165 1.466078 0.721307 37.000000
1.333355 1.457530 0.726998 39.000000
1.342749 1.435006 0.725719 29.000000
1.355043 1.415763 0.726155 43.000000
1.363159 1.393628 0.725093 57.000000
1.375017 1.374194 0.725439 39.000000
1.403422 1.371072 0.734478 55.000000
1.411613 1.347984 0.733008 37.000000
1.433216 1.337698 0.738441 49.000000
1.447217 1.321267 0.740743 71.000000
1.475620 1.316582 0.749686 34.000000
1.479510 1.289941 0.746228 35.000000
1.493097 1.272958 0.748407 35.000000
1.514244 1.261248 0.753709 47.000000
1.534878 1.249692 0.759352 47.000000
1.545006 1.228608 0.759304 36.000000
1.561727 1.213656 0.763040 52.000000
1.586264 1.203609 0.770132 41.000000
1.587930 1.176908 0.766598 34.000000
1.619813 1.171738 0.777209 35.000000
1.632316 1.153016 0.778976 39.000000
1.648521 1.136676 0.782564 43.000000
1.676174 1.127979 0.791631 56.000000
1.688359 1.108509 0.793287 38.000000
1.696362 1.086398 0.793111 60.000000
1.712067 1.069106 0.796532 63.000000
1.727561 1.051591 0.799960 35.000000
1.730983 1.026736 0.797736 37.000000
1.754219 1.013559 0.804727 38.000000
1.769311 0.995346 0.807973 52.000000
1.780113 0.974742 0.809373 51.000000
1.806838 0.963072 0.818396 54.000000
1.825577 0.946215 0.823325 52.000000
1.860511 0.937792 0.836051 68.000000
1.879121 0.920085 0.840945 36.000000
1.884705 0.896416 0.840454 31.000000
1.906946 0.880549 0.847440 43.000000
1.916416 0.858499 0.848753 35.000000
1.929860 0.838226 0.851873 36.000000
1.955948 0.823039 0.860567 36.000000
1.990564 0.810881 0.872974 44.000000
2.007961 0.791267 0.877874 48.000000
2.016351 0.768229 0.879154 33.000000
2.042050 0.751228 0.887704 32.000000
2.063096 0.732350 0.894525 48.000000
2.079647 0.711674 0.899467 58.000000
2.096046 0.690579 0.904274 62.000000
2.112216 0.669208 0.909015 45.000000
2.132726 0.648835 0.915665 66.000000
2.148518 0.626860 0.920276 52.000000
2.159618 0.603438 0.923214 32.000000
2.197394 0.586772 0.937214 34.000000
2.212583 0.563831 0.941929 37.000000
2.232010 0.541622 0.948483 41.000000
2.260287 0.521104 0.958791 49.000000
2.279265 0.498173 0.965446 44.000000
2.302756 0.475634 0.973636 44.000000
2.330396 0.453640 0.983985 48.000000
2.312464 0.422665 0.975034 28.000000
2.385169 0.407776 1.004328 48.000000
2.389407 0.380431 1.005048 42.000000
2.407188 0.354947 1.011204 44.000000
2.433760 0.330389 1.021366 59.000000
2.464657 0.305876 1.033296 62.000000
2.499885 0.281165 1.047405 52.000000
2.516572 0.253865 1.053338 52.000000
2.505373 0.223701 1.047987 25.000000
2.567518 0.199663 1.073241 43.000000
2.620043 0.173558 1.094919 62.000000
2.631082 0.143935 1.098767 42.000000
2.646307 0.114387 1.104803 37.000000
2.675030 0.084872 1.116440 52.000000
2.698805 0.054630 1.126332 39.000000
2.736074 0.023978 1.141916 49.000000
2.750007 -0.007457 1.147693 45.000000
2.791349 -0.039511 1.164931 40.000000
2.841537 -0.072845 1.185830 61.000000
2.854431 -0.105975 1.191605 52.000000
2.889982 -0.140447 1.206814 62.000000
2.929621 -0.176138 1.224040 37.000000
2.959805 -0.212024 1.237021 36.000000
2.989548 -0.248650 1.250290 33.000000
3.009646 -0.285143 1.259408 39.000000
3.075093 -0.326944 1.288045 44.000000
3.103502 -0.365999 1.300779 49.000000
3.131417 -0.405687 1.313707 49.000000
3.181681 -0.449337 1.336117 36.000000
3.185605 -0.487267 1.339530 38.000000
3.152836 -0.519296 1.326960 35.000000
3.110647 -0.548987 1.310993 27.000000
3.068179 -0.577843 1.294834 32.000000
3.048094 -0.610296 1.288164 32.000000
3.023138 -0.641479 1.279793 33.000000
3.002569 -0.673053 1.272936 35.000000
2.977061 -0.703254 1.264281 32.000000
2.951241 -0.732941 1.255638 32.000000
2.929690 -0.763280 1.248814 33.000000
2.880957 -0.786110 1.230767 28.000000
2.854596 -0.813962 1.221775 29.000000
2.832189 -0.842822 1.214993 33.000000
2.805061 -0.869908 1.206322 32.000000
2.764652 -0.892133 1.191778 31.000000
2.754783 -0.923851 1.190436 32.000000
2.718403 -0.946344 1.177544 31.000000
2.721024 -0.982189 1.181793 29.000000
2.675368 -1.000591 1.165442 29.000000
2.651491 -1.026082 1.158089 31.000000
2.631555 -1.053276 1.152916 32.000000
2.611227 -1.079991 1.147659 32.000000
2.586530 -1.104596 1.140440 33.000000
2.565822 -1.130590 1.135113 32.000000
2.532349 -1.150543 1.123993 29.000000
2.515515 -1.177599 1.120383 28.000000
2.490093 -1.200348 1.112953 29.000000
2.460012 -1.221018 1.103948 29.000000
2.446733 -1.249111 1.101960 33.000000
2.412275 -1.266776 1.091041 29.000000
2.410829 -1.300888 1.094547 35.000000
2.388211 -1.324292 1.089042 36.000000
2.361387 -1.345029 1.081611 31.000000
2.338547 -1.367652 1.076045 29.000000
2.307483 -1.385126 1.066718 26.000000
2.292199 -1.411807 1.064686 31.000000
2.272717 -1.435739 1.060731 36.000000
2.233589 -1.446845 1.047625 28.000000
2.233213 -1.482803 1.052666 32.000000
2.205494 -1.500698 1.044910 34.000000
2.189144 -1.526053 1.042637 30.000000
2.157366 -1.540318 1.033014 25.000000
2.136240 -1.562919 1.029119 27.000000
2.115608 -1.584565 1.024884 26.000000
2.116285 -1.623675 1.031740 33.000000
2.084152 -1.636328 1.021925 19.000000
2.058590 -1.654921 1.016081 15.000000
2.058827 -1.693239 1.022269 33.000000
2.025717 -1.705257 1.012772 27.000000
2.007462 -1.728357 1.009917 25.000000
1.963709 -1.730176 0.995056 24.000000
1.944482 -1.753162 0.992493 24.000000
1.939697 -1.787888 0.996656 32.000000
1.919903 -1.810607 0.993988 29.000000
1.896568 -1.829733 0.989562 27.000000
1.866382 -1.842029 0.981555 30.000000
1.849427 -1.867146 0.980569 27.000000
1.846133 -1.904774 0.986113 25.000000
1.818869 -1.919473 0.979702 23.000000
1.829660 -1.975052 0.994095 37.000000
1.789214 -1.975467 0.980757 33.000000
1.748961 -1.975181 0.967395 27.000000
1.730510 -1.999055 0.966024 26.000000
1.717881 -2.029917 0.968062 28.000000
1.680791 -2.031844 0.956343 25.000000
1.673490 -2.069645 0.961671 21.000000
1.636535 -2.070536 0.949923 10.000000
1.631371 -2.111975 0.956795 20.000000
1.610067 -2.135460 0.955536 23.000000
1.581425 -2.146596 0.948803 18.000000
1.566539 -2.176380 0.950359 22.000000
1.545808 -2.198469 0.948637 21.000000
1.522151 -2.216386 0.945071 18.000000
1.503577 -2.241881 0.944809 18.000000
1.488340 -2.276016 0.948164 11.000000
1.438491 -2.253429 0.928162 9.000000
1.376911 -2.210020 0.900033 10.000000
1.287053 -2.116916 0.852491 10.000000
1.190602 -2.010493 0.800745 9.000000
1.114615 -1.930111 0.760373 10.000000
1.031276 -1.831730 0.713871 9.000000
0.969316 -1.769691 0.682331 9.000000
0.981943 1.782768 0.708096 27.000000
0.994047 1.758603 0.706041 32.000000
1.014031 1.746064 0.708718 32.000000
1.030231 1.729931 0.709929 27.000000
1.046149 1.713594 0.711127 33.000000
1.061916 1.697186 0.712311 28.000000
1.083721 1.687853 0.716522 31.000000
1.088795 1.655324 0.710874 29.000000
1.106525 1.642347 0.713572 32.000000
1.124127 1.629178 0.716206 37.000000
1.141536 1.615816 0.718904 35.000000
1.156128 1.598456 0.719824 33.000000
1.173303 1.584677 0.722388 41.000000
1.187516 1.567030 0.723225 32.000000
1.207269 1.556607 0.727451 33.000000
1.224957 1.541675 0.729694 32.000000
1.241620 1.527127 0.732129 37.000000
1.261086 1.516052 0.736313 71.000000
1.270503 1.494529 0.735501 34.000000
1.289749 1.482971 0.739627 51.000000
1.280962 1.439699 0.727802 59.000000
1.321792 1.452145 0.744241 39.000000
1.324819 1.422827 0.739375 38.000000
1.356417 1.423997 0.750510 30.000000
1.358928 1.394496 0.745543 57.000000
1.380726 1.384945 0.751228 59.000000
1.398440 1.372357 0.755457 63.000000
1.413501 1.355759 0.757507 70.000000
1.431706 1.342156 0.761302 81.000000
1.435536 1.316200 0.758173 59.000000
1.443076 1.292891 0.756450 74.000000
1.474810 1.291021 0.767469 29.000000
1.488429 1.273998 0.769653 47.000000
1.498865 1.253284 0.769620 57.000000
1.519396 1.241801 0.775345 35.000000
1.536744 1.226607 0.778925 54.000000
1.557110 1.214508 0.784618 37.000000
1.566385 1.193600 0.784778 38.000000
1.594551 1.186052 0.793814 48.000000
1.607220 1.167504 0.795708 25.000000
1.623544 1.151445 0.799400 42.000000
1.639729 1.135167 0.803035 67.000000
1.663524 1.123860 0.810421 36.000000
1.679485 1.106986 0.814015 55.000000
1.691471 1.087318 0.815670 46.000000
1.699335 1.065123 0.815377 35.000000
1.722751 1.052478 0.822623 53.000000
1.722195 1.025217 0.818482 25.000000
1.741367 1.009641 0.823723 52.000000
1.748357 0.986990 0.823220 54.000000
1.770978 0.973541 0.830577 40.000000
1.789801 0.957097 0.835718 58.000000
1.816316 0.944998 0.844888 76.000000
1.834973 0.927808 0.849924 35.000000
1.865616 0.916809 0.860985 52.000000
1.887869 0.901148 0.868176 22.000000
1.893357 0.877364 0.867639 35.000000
1.919645 0.862932 0.876639 41.000000
1.937429 0.844354 0.881742 31.000000
1.942264 0.819986 0.881002 34.000000
1.972467 0.806117 0.891769 35.000000
1.985285 0.785184 0.895113 32.000000
2.006752 0.766949 0.901908 34.000000
2.019182 0.745436 0.905055 24.000000
2.048795 0.729866 0.915969 35.000000
2.074075 0.712155 0.924821 63.000000
2.090448 0.691005 0.929801 52.000000
2.102203 0.668258 0.932696 36.000000
2.127054 0.649223 0.941369 69.000000
2.129637 0.623314 0.940229 36.000000
2.140615 0.599991 0.943212 36.000000
2.182513 0.584831 0.959808 27.000000
2.206563 0.564217 0.968534 35.000000
2.217075 0.539851 0.971323 38.000000
2.240753 0.518341 0.979843 36.000000
2.259647 0.495509 0.986643 33.000000
2.300966 0.476801 1.002881 70.000000
2.306034 0.450291 1.003661 33.000000
2.342445 0.429506 1.018042 30.000000
2.351402 0.403331 1.020878 30.000000
2.373834 0.379066 1.029145 35.000000
2.391383 0.353791 1.035691 35.000000
2.422395 0.329984 1.048073 42.000000
2.444126 0.304330 1.056362 35.000000
2.497540 0.281780 1.078375 49.000000
2.504949 0.253530 1.080848 36.000000
2.516693 0.225502 1.085213 33.000000
2.578498 0.201108 1.111121 31.000000
2.598808 0.172689 1.119448 35.000000
2.605211 0.143005 1.121509 36.000000
2.638721 0.114410 1.135593 36.000000
2.667320 0.084841 1.147532 40.000000
2.690989 0.054633 1.157675 36.000000
2.705126 0.023817 1.163692 36.000000
2.723587 -0.007420 1.171685 33.000000
2.764739 -0.039315 1.189284 43.000000
2.810105 -0.072279 1.208853 37.000000
2.836618 -0.105615 1.220610 37.000000
2.862825 -0.139680 1.232270 37.000000
2.911547 -0.175668 1.253993 35.000000
2.941586 -0.211401 1.267327 32.000000
2.957350 -0.246824 1.274927 25.000000
3.023094 -0.287352 1.304127 33.000000
3.056416 -0.325946 1.319299 37.000000
3.084580 -0.364943 1.332793 46.000000
3.121361 -0.405757 1.350015 35.000000
3.157713 -0.447516 1.367117 34.000000
3.152736 -0.483839 1.366270 34.000000
3.133519 -0.517913 1.359837 32.000000
3.087190 -0.546653 1.341085 24.000000
3.053841 -0.577018 1.328461 29.000000
3.033922 -0.609372 1.321642 33.000000
3.013446 -0.641518 1.315034 33.000000
2.974982 -0.669110 1.300182 29.000000
2.963020 -0.702345 1.297312 34.000000
2.941749 -0.733049 1.290428 30.000000
2.920249 -0.763445 1.283452 28.000000
2.885208 -0.789688 1.270424 20.000000
2.832324 -0.810156 1.249609 25.000000
2.818831 -0.841554 1.246584 29.000000
2.787390 -0.867281 1.235669 32.000000
2.755810 -0.892305 1.224676 30.000000
2.728462 -0.918198 1.215553 30.000000
2.718353 -0.949574 1.214123 33.000000
2.694960 -0.976146 1.206776 27.000000
2.649711 -0.994134 1.189662 17.000000
2.629968 -1.021525 1.184480 29.000000
2.606017 -1.046440 1.176908 29.000000
2.598662 -1.078409 1.177444 35.000000
2.578267 -1.104839 1.172007 31.000000
2.549139 -1.127155 1.162637 32.000000
2.536697 -1.156555 1.160978 34.000000
2.498906 -1.173991 1.147621 24.000000
2.461096 -1.190667 1.134299 22.000000
2.456359 -1.223149 1.136228 31.000000
2.438470 -1.249683 1.132686 32.000000
2.420898 -1.275488 1.128699 37.000000
2.386210 -1.292661 1.117464 32.000000
2.368285 -1.317731 1.113414 33.000000
2.353621 -1.345271 1.111537 36.000000
2.322725 -1.363263 1.101995 26.000000
2.279873 -1.373539 1.086811 21.000000
2.272571 -1.404906 1.088566 31.000000
2.249252 -1.426270 1.082687 30.000000
2.237432 -1.454853 1.082373 34.000000
2.217579 -1.478210 1.078213 32.000000
2.197519 -1.501302 1.074060 32.000000
2.184940 -1.529362 1.073563 36.000000
2.156957 -1.546432 1.065605 25.000000
2.114008 -1.552078 1.050064 21.000000
2.111350 -1.588244 1.055414 32.000000
2.105200 -1.620969 1.058361 32.000000
2.080357 -1.639481 1.051964 23.000000
2.051153 -1.655250 1.044178 15.000000
2.044089 -1.687578 1.046919 32.000000
2.028768 -1.714673 1.046316 35.000000
1.982304 -1.713586 1.028822 26.000000
1.959659 -1.733782 1.024508 24.000000
1.936912 -1.753724 1.020117 32.000000
1.925175 -1.782140 1.020747 29.000000
1.908801 -1.807939 1.019806 34.000000
1.885400 -1.827155 1.015335 29.000000
1.862843 -1.845263 1.010358 32.000000
1.842519 -1.867130 1.007528 32.000000
1.821938 -1.888741 1.004613 25.000000
1.804390 -1.913492 1.003479 24.000000
1.796013 -1.948370 1.007581 35.000000
1.765254 -1.958974 0.999238 31.000000
1.737641 -1.972694 0.992607 31.000000
1.719085 -1.996564 0.991281 31.000000
1.704501 -2.023055 0.991181 31.000000
1.682516 -2.042969 0.987991 33.000000
1.654397 -2.055324 0.981229 24.000000
1.630772 -2.075427 0.978309 17.000000
1.602551 -2.087058 0.971495 27.000000
1.588401 -2.117065 0.973334 26.000000
1.568285 -2.139441 0.971611 28.000000
1.556033 -2.172994 0.975017 26.000000
1.537978 -2.198929 0.974872 25.000000
1.508975 -2.209112 0.967811 21.000000
1.490406 -2.234564 0.967640 18.000000
1.468927 -2.255933 0.965669 16.000000
1.430564 -2.254036 0.953854 9.000000
1.366738 -2.206741 0.923322 10.000000
1.277218 -2.113798 0.874639 10.000000
1.187551 -2.015000 0.824573 10.000000
1.112818 -1.939656 0.785106 10.000000
1.034394 -1.849754 0.740683 14.000000
0.969138 1.771811 0.722615 30.000000
0.991737 1.763541 0.727055 27.000000
1.008283 1.747526 0.728310 28.000000
1.022152 1.727260 0.727847 31.000000
1.040591 1.714946 0.730779 26.000000
1.061379 1.706488 0.735429 32.000000
1.075725 1.685188 0.734593 28.000000
1.088661 1.664402 0.733926 18.000000
1.096078 1.635818 0.729758 33.000000
1.116226 1.626544 0.734258 29.000000
1.133763 1.613182 0.736956 32.000000
1.151108 1.599628 0.739654 34.000000
1.168324 1.585816 0.742287 29.000000
1.182596 1.568143 0.743152 36.000000
1.202371 1.557679 0.747491 29.000000
1.219202 1.543290 0.750060 27.000000
1.232904 1.525140 0.750778 41.000000
1.243489 1.503208 0.749691 32.000000
1.265781 1.495468 0.755713 65.000000
1.263744 1.459196 0.747254 34.000000
1.294990 1.461539 0.758645 34.000000
1.310909 1.446067 0.761010 49.000000
1.329034 1.434393 0.765390 32.000000
1.341470 1.415186 0.765869 21.000000
1.347227 1.389121 0.762544 57.000000
1.365736 1.376299 0.766540 43.000000
1.383426 1.363781 0.770802 62.000000
1.405041 1.353708 0.776605 67.000000
1.409768 1.327304 0.773094 37.000000
1.430594 1.317303 0.779168 82.000000
1.448492 1.303271 0.782950 37.000000
1.465753 1.289479 0.787127 27.000000
1.483529 1.274963 0.790864 45.000000
1.493504 1.254726 0.791174 35.000000
1.507380 1.236867 0.792972 42.000000
1.534996 1.230850 0.802582 49.000000
1.537747 1.203874 0.798591 32.000000
1.565324 1.197215 0.808175 60.000000
1.578129 1.178884 0.810125 34.000000
1.594539 1.163148 0.813982 32.000000
1.618339 1.152489 0.821538 45.000000
1.626948 1.130890 0.821460 37.000000
1.654473 1.122208 0.830903 56.000000
1.666630 1.102784 0.832621 36.000000
1.682465 1.085662 0.836266 37.000000
1.702061 1.070840 0.841783 70.000000
1.701911 1.043584 0.837510 33.000000
1.713276 1.023565 0.839030 28.000000
1.728027 1.006062 0.842822 36.000000
1.759122 0.997088 0.853939 48.000000
1.766008 0.974098 0.853330 48.000000
1.780356 0.955824 0.856953 49.000000
1.802842 0.941584 0.864360 50.000000
1.829569 0.928600 0.873476 74.000000
1.856003 0.915504 0.882751 33.000000
1.857529 0.889902 0.880264 25.000000
1.887938 0.877992 0.891470 32.000000
1.905784 0.859721 0.896725 33.000000
1.915088 0.837504 0.897975 36.000000
1.928412 0.816940 0.901132 48.000000
1.932722 0.792931 0.900613 35.000000
1.958468 0.777070 0.909581 47.000000
1.992371 0.764310 0.922820 28.000000
2.013437 0.745961 0.929987 27.000000
2.042959 0.730329 0.941150 56.000000
2.055162 0.708078 0.944224 37.000000
2.075812 0.688541 0.951292 62.000000
2.087603 0.665842 0.954235 50.000000
2.112280 0.646923 0.963103 46.000000
2.127913 0.625088 0.968207 54.000000
2.130076 0.599181 0.967238 29.000000
2.172025 0.583857 0.983933 28.000000
2.195988 0.563235 0.992779 51.000000
2.206253 0.539019 0.995920 35.000000
2.225460 0.516543 1.002629 34.000000
2.248748 0.494818 1.011588 47.000000
2.272046 0.472373 1.020173 33.000000
2.290471 0.448709 1.026910 36.000000
2.313063 0.425641 1.035906 32.000000
2.349174 0.404249 1.050570 31.000000
2.371616 0.379955 1.059036 56.000000
2.380066 0.353230 1.061695 35.000000
2.406418 0.328796 1.072355 38.000000
2.432348 0.303839 1.083188 40.000000
2.476517 0.280334 1.101626 42.000000
2.483893 0.252188 1.104147 36.000000
2.491030 0.223938 1.106587 28.000000
2.561741 0.200494 1.137189 31.000000
2.577485 0.171735 1.143432 35.000000
2.606512 0.143499 1.155923 66.000000
2.617040 0.113838 1.160147 34.000000
2.650162 0.084607 1.174408 56.000000
2.678203 0.054544 1.186915 41.000000
2.715219 0.023928 1.203209 34.000000
2.710648 -0.007420 1.201274 36.000000
2.742462 -0.039093 1.215271 36.000000
2.796751 -0.072186 1.239390 47.000000
2.827796 -0.105692 1.253471 52.000000
2.863003 -0.140160 1.269480 37.000000
2.902352 -0.175653 1.287314 54.000000
2.927577 -0.211107 1.299360 35.000000
2.929586 -0.245285 1.301090 25.000000
2.985913 -0.284778 1.326995 38.000000
3.046365 -0.326024 1.354803 36.000000
3.069830 -0.364530 1.366523 42.000000
3.102088 -0.404539 1.381860 45.000000
3.147310 -0.447419 1.403447 32.000000
3.146741 -0.484384 1.404617 35.000000
3.123165 -0.517817 1.396016 32.000000
3.058691 -0.543523 1.369169 20.000000
3.043793 -0.577045 1.363896 33.000000
3.019340 -0.608551 1.355016 31.000000
2.981025 -0.636773 1.340211 30.000000
2.969547 -0.670114 1.337083 35.000000
2.953130 -0.702394 1.332151 34.000000
2.909900 -0.727400 1.314677 32.000000
2.892945 -0.758758 1.309567 33.000000
2.822438 -0.775349 1.280711 19.000000
2.827167 -0.811708 1.285352 30.000000
2.791913 -0.836342 1.271883 31.000000
2.751971 -0.859097 1.256829 27.000000
2.746637 -0.892474 1.257577 33.000000
2.719359 -0.918329 1.248256 31.000000
2.696251 -0.945299 1.240848 29.000000
2.690105 -0.977952 1.241316 30.000000
2.636501 -0.992822 1.219830 21.000000
2.621357 -1.021511 1.216160 31.000000
2.601337 -1.048571 1.210793 32.000000
2.573100 -1.071345 1.201015 29.000000
2.561152 -1.101262 1.199440 35.000000
2.536328 -1.125403 1.191945 33.000000
2.523886 -1.154804 1.190194 35.000000
2.507010 -1.182059 1.186475 32.000000
2.452676 -1.191049 1.164899 26.000000
2.443670 -1.221427 1.164960 33.000000
2.429984 -1.250068 1.163329 35.000000
2.395958 -1.267317 1.151469 32.000000
2.386252 -1.297107 1.151263 37.000000
2.363718 -1.320524 1.145566 35.000000
2.345008 -1.345955 1.141737 33.000000
2.334468 -1.375164 1.141349 34.000000
2.275829 -1.376203 1.117973 24.000000
2.264427 -1.405135 1.117882 33.000000
2.248905 -1.431594 1.115677 34.000000
2.221527 -1.450222 1.107693 32.000000
2.209394 -1.478672 1.107422 35.000000
2.177992 -1.493889 1.097375 32.000000
2.161583 -1.519200 1.095018 29.000000
2.156250 -1.552437 1.098305 32.000000
2.094670 -1.544522 1.072892 23.000000
2.099976 -1.585466 1.081722 32.000000
2.097427 -1.621093 1.086703 35.000000
2.064639 -1.634434 1.076860 20.000000
2.054209 -1.664139 1.077857 21.000000
2.035477 -1.688534 1.075417 29.000000
2.017354 -1.711972 1.072542 32.000000
1.977190 -1.717605 1.058771 33.000000
1.927624 -1.712642 1.039022 23.000000
1.935996 -1.760348 1.051304 31.000000
1.913836 -1.779391 1.046347 32.000000
1.890713 -1.798870 1.041830 28.000000
1.884047 -1.834128 1.046395 37.000000
1.848228 -1.839240 1.033984 30.000000
1.831114 -1.864386 1.032912 29.000000
1.813754 -1.889352 1.031829 30.000000
1.786595 -1.903955 1.025167 18.000000
1.782396 -1.941479 1.030850 32.000000
1.751729 -1.952064 1.022293 32.000000
1.730338 -1.972682 1.019200 27.000000
1.714760 -2.000122 1.019545 36.000000
1.686869 -2.013144 1.012757 28.000000
1.667920 -2.036600 1.011286 29.000000
1.648635 -2.059867 1.009717 32.000000
1.620377 -2.071904 1.002792 13.000000
1.600708 -2.094690 1.001131 27.000000
1.569509 -2.102295 0.992382 23.000000
1.566039 -2.147247 1.001211 24.000000
1.534576 -2.154269 0.992388 27.000000
1.524673 -2.191511 0.997517 23.000000
1.506283 -2.217181 0.997352 24.000000
1.482368 -2.234986 0.993599 20.000000
1.458192 -2.252442 0.989846 20.000000
1.427435 -2.262483 0.982993 10.000000
1.363698 -2.215290 0.951680 10.000000
1.291570 -2.150797 0.913738 12.000000
1.190043 -2.032178 0.853831 12.000000
1.100560 -1.927799 0.801167 10.000000
1.032615 -1.859286 0.764391 10.000000
0.988044 1.768975 0.748301 20.000000
0.997704 1.740644 0.744442 28.000000
1.011633 1.720420 0.743953 20.000000
1.027611 1.704124 0.745190 25.000000
1.045898 1.691738 0.748108 26.000000
1.061488 1.675077 0.749259 17.000000
1.085736 1.669523 0.755393 20.000000
1.093313 1.640839 0.751134 23.000000
1.116222 1.635353 0.757540 24.000000
1.123187 1.606595 0.753149 32.000000
1.145857 1.600659 0.759440 23.000000
1.165871 1.590639 0.763951 29.000000
1.171916 1.561660 0.759412 29.000000
1.197307 1.558610 0.767489 22.000000
1.214177 1.544251 0.770065 29.000000
1.225085 1.522385 0.768979 24.000000
1.238600 1.504055 0.769641 31.000000
1.254072 1.489734 0.772455 34.000000
1.276375 1.481748 0.778583 30.000000
1.292499 1.466395 0.781024 41.000000
1.302278 1.443957 0.779679 33.000000
1.321216 1.431702 0.783911 27.000000
1.342446 1.423130 0.790220 30.000000
1.358029 1.406967 0.792538 30.000000
1.366974 1.384021 0.790961 35.000000
1.378104 1.364870 0.791571 36.000000
1.406493 1.361183 0.801322 32.000000
1.408026 1.331560 0.795791 46.000000
1.428815 1.321407 0.801966 35.000000
1.443397 1.304190 0.804022 32.000000
1.457209 1.287360 0.806270 32.000000
1.474965 1.272774 0.810117 30.000000
1.484960 1.252542 0.810381 35.000000
1.501881 1.238067 0.814496 34.000000
1.512069 1.217082 0.814300 32.000000
1.528668 1.202200 0.818295 35.000000
1.548917 1.189847 0.824243 29.000000
1.572712 1.179958 0.832030 29.000000
1.589130 1.164173 0.835937 29.000000
1.601669 1.145430 0.837831 29.000000
1.621620 1.131821 0.843584 35.000000
1.637689 1.115315 0.847321 35.000000
1.653618 1.098523 0.851067 34.000000
1.680971 1.088936 0.860677 35.000000
1.692813 1.069110 0.862340 33.000000
1.700546 1.046679 0.861955 32.000000
1.715566 1.029326 0.865800 29.000000
1.726809 1.008969 0.867263 31.000000
1.741505 0.991212 0.871053 33.000000
1.752374 0.970541 0.872386 34.000000
1.774811 0.956659 0.880054 34.000000
1.801650 0.944083 0.889341 32.000000
1.815825 0.925159 0.892906 32.000000
1.833944 0.908037 0.898420 29.000000
1.847822 0.888535 0.901865 24.000000
1.865753 0.870735 0.907265 27.000000
1.887661 0.854559 0.914626 34.000000
1.905021 0.836393 0.920261 30.000000
1.939287 0.824772 0.933593 28.000000
1.952517 0.803720 0.936746 31.000000
1.973781 0.786163 0.944176 27.000000
1.977891 0.761533 0.943491 27.000000
2.015995 0.749664 0.959019 29.000000
2.019675 0.724622 0.958130 23.000000
2.040433 0.705574 0.965328 32.000000
2.056671 0.684639 0.970425 29.000000
2.072755 0.663357 0.975530 29.000000
2.092822 0.643359 0.982837 33.000000
2.112904 0.622765 0.989790 29.000000
2.128313 0.600700 0.994925 23.000000
2.156685 0.581845 1.006079 25.000000
2.176133 0.560207 1.013141 24.000000
2.199704 0.539347 1.022423 29.000000
2.214343 0.515782 1.027223 29.000000
2.228646 0.492086 1.032257 26.000000
2.251679 0.469893 1.041347 26.000000
2.301375 0.452558 1.062675 24.000000
2.297212 0.424108 1.059174 15.000000
2.337647 0.403613 1.076168 27.000000
2.341861 0.376504 1.076963 24.000000
2.372771 0.353419 1.089929 27.000000
2.399017 0.328928 1.100838 32.000000
2.434119 0.305046 1.115734 29.000000
2.455249 0.278891 1.124594 28.000000
2.476257 0.252316 1.133379 26.000000
2.460634 0.221969 1.125505 10.000000
2.544599 0.199795 1.163072 27.000000
2.555819 0.170869 1.167304 24.000000
2.571079 0.142070 1.173870 23.000000
2.613365 0.114059 1.192799 30.000000
2.618965 0.083848 1.194961 25.000000
2.674244 0.054640 1.220125 25.000000
2.683701 0.023767 1.224455 33.000000
2.720181 -0.007482 1.241058 29.000000
2.751838 -0.039419 1.255493 32.000000
2.783117 -0.072092 1.269739 33.000000
2.795727 -0.104821 1.275870 29.000000
2.839851 -0.139523 1.296425 35.000000
2.870018 -0.174259 1.310655 29.000000
2.899661 -0.209828 1.325075 26.000000
2.928863 -0.246134 1.339295 29.000000
2.971299 -0.284377 1.359626 27.000000
3.026915 -0.325129 1.385958 33.000000
3.050354 -0.363373 1.397667 31.000000
3.086746 -0.404017 1.415885 35.000000
3.140733 -0.448175 1.442157 32.000000
3.131235 -0.483746 1.439345 29.000000
3.094381 -0.514731 1.423922 26.000000
3.034703 -0.541096 1.398502 21.000000
3.024031 -0.575471 1.395612 24.000000
2.999780 -0.606826 1.386533 28.000000
2.975197 -0.637768 1.377261 26.000000
2.950391 -0.668195 1.367798 25.000000
2.925064 -0.698209 1.358752 27.000000
2.899829 -0.727510 1.349116 26.000000
2.891621 -0.761143 1.347915 21.000000
2.821681 -0.777716 1.317973 24.000000
2.808679 -0.809075 1.314649 21.000000
2.777745 -0.835274 1.303326 28.000000
2.751209 -0.861941 1.293683 26.000000
2.711201 -0.883961 1.278114 24.000000
2.696960 -0.914062 1.274736 26.000000
2.669644 -0.939328 1.265146 25.000000
2.646370 -0.965569 1.257518 14.000000
2.622916 -0.991417 1.249811 26.000000
2.603540 -1.018444 1.244059 26.000000
2.588191 -1.046800 1.240255 29.000000
2.563794 -1.071812 1.232681 28.000000
2.535038 -1.094437 1.223096 27.000000
2.510708 -1.118071 1.214912 27.000000
2.490014 -1.143507 1.209224 24.000000
2.452585 -1.160737 1.195302 12.000000
2.447965 -1.193250 1.197517 28.000000
2.414430 -1.211401 1.185474 23.000000
2.397037 -1.237299 1.181487 26.000000
2.387152 -1.267668 1.181783 29.000000
2.345219 -1.279938 1.165626 25.000000
2.350798 -1.318819 1.173829 30.000000
2.312690 -1.332181 1.159542 26.000000
2.278118 -1.347677 1.147643 10.000000
2.267514 -1.376295 1.147163 26.000000
2.248359 -1.400503 1.143153 25.000000
2.228906 -1.424355 1.138975 28.000000
2.201647 -1.442904 1.130857 25.000000
2.193363 -1.473824 1.132523 26.000000
2.169559 -1.494315 1.126223 28.000000
2.153122 -1.519583 1.123775 28.000000
2.099137 -1.517805 1.101757 10.000000
2.101052 -1.555985 1.108942 26.000000
2.084152 -1.580426 1.106341 24.000000
2.085099 -1.618819 1.113457 30.000000
2.056700 -1.634436 1.104845 16.000000
2.048989 -1.667694 1.108299 10.000000
2.016800 -1.679668 1.097697 26.000000
1.977664 -1.685065 1.083201 22.000000
1.958765 -1.708690 1.080710 10.000000
1.937020 -1.728208 1.075789 26.000000
1.910815 -1.745044 1.069311 21.000000
1.905789 -1.779712 1.073765 26.000000
1.879222 -1.795954 1.067213 27.000000
1.855933 -1.815101 1.062490 24.000000
1.843306 -1.842962 1.063013 29.000000
1.816385 -1.858244 1.056326 23.000000
1.792554 -1.876465 1.051453 10.000000
1.785564 -1.910522 1.055521 25.000000
1.751965 -1.917993 1.044873 21.000000
1.746313 -1.956068 1.051099 27.000000
1.715602 -1.966348 1.042345 25.000000
1.700021 -1.993742 1.042784 25.000000
1.673411 -2.005967 1.035398 28.000000
1.645581 -2.018567 1.028381 20.000000
1.649541 -2.070804 1.041436 16.000000
1.595514 -2.049928 1.017897 17.000000
1.587303 -2.087368 1.023582 15.000000
1.575654 -2.121145 1.027307 18.000000
1.544425 -2.128425 1.018257 17.000000
1.534762 -2.165787 1.023637 20.000000
1.516544 -2.191697 1.023576 22.000000
1.490231 -2.205775 1.018044 10.000000
1.486893 -2.254637 1.028451 15.000000
1.453381 -2.261272 1.019691 21.000000
1.431475 -2.282519 1.017510 10.000000
1.362901 -2.227623 0.981881 9.000000
1.305298 -2.187505 0.953511 10.000000
1.201616 -2.065416 0.890337 9.000000
1.089101 -1.920696 0.818946 9.000000
0.981941 1.770096 0.767872 23.000000
0.998657 1.753945 0.769197 20.000000
1.022220 1.749748 0.775870 23.000000
1.031433 1.721220 0.771803 21.000000
1.045052 1.700676 0.771218 20.000000
1.068242 1.695894 0.777840 17.000000
1.078902 1.671096 0.775410 23.000000
1.091812 1.650234 0.774696 22.000000
1.109646 1.636940 0.777550 26.000000
1.121980 1.615811 0.776731 24.000000
1.144859 1.609768 0.783192 29.000000
