x y z intensity
2.781989 0.116657 0.754794 95.000000
2.768663 0.085308 0.751045 68.000000
2.725942 0.053624 0.739269 10.000000
2.697421 0.023030 0.731589 10.000000
2.683029 -0.006957 0.727663 9.000000
2.644174 -0.036290 0.717109 9.000000
2.653236 -0.065964 0.719727 10.000000
2.628284 -0.094553 0.713100 9.000000
2.603018 -0.122690 0.706476 9.000000
2.596717 -0.151413 0.705085 10.000000
2.599722 -0.180615 0.706146 23.000000
2.592770 -0.209149 0.704674 24.000000
2.585579 -0.237493 0.703120 95.000000
2.582788 -0.266225 0.702874 95.000000
2.574955 -0.294409 0.701322 98.000000
2.552440 -0.320600 0.695773 88.000000
2.534434 -0.347101 0.691614 95.000000
2.521003 -0.373748 0.688520 87.000000
2.507280 -0.400263 0.685591 76.000000
2.498028 -0.427299 0.683807 30.000000
2.440982 -0.445562 0.669166 24.000000
2.421745 -0.470018 0.664871 10.000000
2.378689 -0.489139 0.654001 10.000000
2.387394 -0.518616 0.657361 25.000000
2.409844 -0.551562 0.664609 67.000000
2.403750 -0.578281 0.663984 95.000000
2.387979 -0.602637 0.660846 63.000000
2.339264 -0.618147 0.648649 25.000000
2.327728 -0.642776 0.646744 37.000000
2.404176 -0.692711 0.669315 15.000000
2.502918 -0.751288 0.698291 11.000000
2.660578 -0.831128 0.744053 10.000000
2.849014 -0.924664 0.798462 9.000000
2.857112 -0.962622 0.802756 9.000000
2.828201 -0.988049 0.796759 9.000000
2.853578 -1.032708 0.806082 8.000000
2.824072 -1.057646 0.799995 9.000000
2.803442 -1.085482 0.796387 10.000000
2.782507 -1.113116 0.792691 15.000000
2.779240 -1.147648 0.794109 10.000000
2.762169 -1.176504 0.791695 10.000000
2.749377 -1.207110 0.790464 14.000000
2.713893 -1.227939 0.783065 9.000000
2.665381 -1.241680 0.771597 8.000000
2.695263 -1.292372 0.783156 16.000000
2.672535 -1.317892 0.779211 12.000000
2.670816 -1.354346 0.781873 20.000000
2.634346 -1.373012 0.774339 10.000000
2.611011 -1.397395 0.770229 10.000000
2.616808 -1.438280 0.775204 14.000000
2.592467 -1.462802 0.771378 9.000000
2.580515 -1.494131 0.771222 6.000000
2.551579 -1.515476 0.766063 10.000000
2.526565 -1.538967 0.762072 10.000000
2.517905 -1.572253 0.763070 12.000000
2.472046 -1.582039 0.752877 10.000000
2.454663 -1.609595 0.751305 11.000000
2.424937 -1.628862 0.745929 18.000000
2.379144 -1.636599 0.735724 20.000000
2.341419 -1.649111 0.727928 20.000000
2.354925 -1.697849 0.736045 79.000000
2.327932 -1.718871 0.732130 62.000000
2.313034 -1.747664 0.731623 70.000000
2.305563 -1.782201 0.733459 70.000000
2.316646 -1.831851 0.741364 35.000000
2.322407 -1.879601 0.748287 39.000000
2.316959 -1.917728 0.751160 29.000000
2.292442 -1.940137 0.747965 15.000000
2.282483 -1.974975 0.749502 32.000000
2.289345 -2.026716 0.757315 29.000000
2.278224 -2.061770 0.758796 32.000000
2.244452 -2.077858 0.753278 32.000000
2.236162 -2.115913 0.755835 28.000000
2.220410 -2.147238 0.755890 29.000000
2.179172 -2.155390 0.748022 24.000000
2.166315 -2.189726 0.749257 18.000000
2.162109 -2.235254 0.754199 30.000000
2.118138 -2.237806 0.744710 15.000000
2.063465 -2.229786 0.732040 24.000000
1.980882 -2.187519 0.708642 27.000000
1.863048 -2.104440 0.672758 23.000000
1.792964 -2.069585 0.653065 26.000000
1.697553 -2.004565 0.624408 16.000000
1.611105 -1.944429 0.597987 9.000000
1.586422 -1.958940 0.594938 18.000000
1.507294 -1.904448 0.571289 15.000000
1.454335 -1.878475 0.556610 17.000000
1.392360 -1.840641 0.538834 19.000000
1.349804 -1.824437 0.527748 19.000000
1.301008 -1.800245 0.514614 29.000000
1.275420 -1.807105 0.510556 29.000000
1.261974 -1.828912 0.510787 15.000000
1.244379 -1.847358 0.510094 33.000000
1.227674 -1.864818 0.509114 27.000000
1.201717 -1.870591 0.505012 27.000000
1.191342 -1.900827 0.507547 27.000000
1.174025 -1.917832 0.506540 24.000000
1.160212 -1.943765 0.507854 26.000000
1.141143 -1.961222 0.506962 21.000000
1.135241 -1.998961 0.511275 9.000000
0.787041 1.413290 0.372497 8.000000
0.809897 1.416757 0.377396 14.000000
0.817183 1.395204 0.375638 27.000000
0.835091 1.389803 0.378243 21.000000
0.855595 1.388336 0.381997 32.000000
0.867413 1.374814 0.382487 27.000000
0.885243 1.368758 0.385115 24.000000
0.891450 1.346825 0.383237 29.000000
0.911803 1.344491 0.386972 26.000000
0.923860 1.329896 0.387186 18.000000
0.932150 1.311757 0.386426 29.000000
0.949505 1.304879 0.388961 28.000000
0.968985 1.302139 0.392782 32.000000
0.980413 1.287062 0.392978 29.000000
1.000563 1.283342 0.396667 29.000000
1.017085 1.276047 0.399338 32.000000
1.034253 1.268069 0.401812 25.000000
1.035188 1.241636 0.398517 27.000000
1.052006 1.233388 0.400988 35.000000
1.071431 1.229033 0.404773 31.000000
1.094705 1.227489 0.409628 35.000000
1.110956 1.218866 0.412238 30.000000
1.117830 1.198957 0.411050 36.000000
1.133862 1.190038 0.413611 35.000000
1.149918 1.180838 0.416180 32.000000
1.176674 1.181293 0.422231 25.000000
1.196133 1.174962 0.426006 52.000000
1.205678 1.157773 0.425933 46.000000
1.217997 1.144297 0.427196 62.000000
1.237395 1.137217 0.430944 36.000000
1.268008 1.139102 0.438281 67.000000
1.280200 1.124868 0.439517 59.000000
1.292231 1.110527 0.440752 49.000000
1.307860 1.099139 0.443189 29.000000
1.331306 1.093270 0.447988 35.000000
1.346812 1.081361 0.450444 37.000000
1.362220 1.069204 0.452853 46.000000
1.377584 1.056852 0.455269 44.000000
1.392847 1.044250 0.457635 54.000000
1.412240 1.033867 0.461117 42.000000
1.446990 1.034888 0.469883 30.000000
1.458108 1.018603 0.470950 32.000000
1.493067 1.018490 0.479655 39.000000
1.508102 1.004333 0.482025 74.000000
1.518974 0.987339 0.483055 55.000000
1.537833 0.975405 0.486609 36.000000
1.564788 0.968197 0.492761 66.000000
1.587656 0.958066 0.497637 63.000000
1.606115 0.945387 0.501348 34.000000
1.620551 0.929648 0.503532 35.000000
1.643289 0.918407 0.508388 42.000000
1.665944 0.906762 0.513138 36.000000
1.692654 0.897272 0.519451 70.000000
1.702407 0.878190 0.520239 37.000000
1.728982 0.867887 0.526520 54.000000
1.751410 0.854653 0.531261 58.000000
1.782323 0.845510 0.538772 32.000000
1.804637 0.831406 0.543478 31.000000
1.822368 0.815164 0.547001 44.000000
1.884161 0.817861 0.563766 35.000000
1.901758 0.800541 0.567262 38.000000
1.937093 0.790174 0.576075 34.000000
1.954536 0.772061 0.579528 35.000000
1.971856 0.753548 0.582922 53.000000
1.984463 0.733163 0.584989 33.000000
2.005915 0.715714 0.589729 37.000000
2.027270 0.697961 0.594411 68.000000
2.048389 0.679902 0.599238 22.000000
2.037281 0.651271 0.594633 9.000000
2.094974 0.643940 0.609920 9.000000
2.129494 0.628726 0.618667 21.000000
2.177881 0.616760 0.631390 65.000000
2.198422 0.596158 0.635998 35.000000
2.265296 0.587403 0.654219 53.000000
2.271599 0.562041 0.654813 54.000000
2.305574 0.543380 0.663497 34.000000
2.344240 0.524995 0.673546 23.000000
2.359216 0.500801 0.676781 10.000000
2.416406 0.484844 0.692109 30.000000
2.459399 0.465045 0.703400 42.000000
2.488014 0.441799 0.710724 29.000000
2.549554 0.423546 0.727379 41.000000
2.592110 0.400916 0.738714 91.000000
2.624850 0.376072 0.747183 60.000000
2.671741 0.352478 0.759814 31.000000
2.689747 0.324385 0.764228 9.000000
2.759979 0.301724 0.783673 19.000000
2.839769 0.278421 0.805585 75.000000
2.856955 0.248000 0.810024 79.000000
2.840310 0.214719 0.804949 65.000000
2.828074 0.182085 0.800959 68.000000
2.781826 0.147984 0.787538 95.000000
2.768818 0.116367 0.783633 75.000000
2.755447 0.085072 0.779726 45.000000
2.703321 0.053253 0.764843 10.000000
2.689317 0.023030 0.760846 9.000000
2.641292 -0.006869 0.747235 9.000000
2.641040 -0.036273 0.747235 9.000000
2.621216 -0.065281 0.741708 9.000000
2.581920 -0.093083 0.730738 10.000000
2.604802 -0.122979 0.737377 9.000000
2.569691 -0.150044 0.727690 9.000000
2.587095 -0.180116 0.733131 21.000000
2.580161 -0.208514 0.731442 56.000000
2.572988 -0.236806 0.729919 79.000000
2.565416 -0.264990 0.728396 64.000000
2.548048 -0.291891 0.723912 88.000000
2.525617 -0.317871 0.718157 66.000000
2.507762 -0.344080 0.713763 56.000000
2.503829 -0.372011 0.713442 76.000000
2.504408 -0.400702 0.714396 81.000000
2.471443 -0.423726 0.705865 59.000000
2.428875 -0.444225 0.694557 24.000000
2.386066 -0.463959 0.683340 10.000000
2.371397 -0.488678 0.680174 10.000000
2.380059 -0.518153 0.683690 25.000000
2.397807 -0.550017 0.689900 86.000000
2.377684 -0.573298 0.685229 64.000000
2.380586 -0.602170 0.687383 66.000000
2.364662 -0.626086 0.683989 41.000000
2.353044 -0.651156 0.682024 36.000000
2.401373 -0.693415 0.697454 21.000000
2.499770 -0.752015 0.727535 12.000000
2.615528 -0.818823 0.763170 10.000000
2.821798 -0.917947 0.825175 9.000000
2.820870 -0.952329 0.826816 9.000000
2.819403 -0.987009 0.828546 9.000000
2.799369 -1.015226 0.824930 8.000000
2.797171 -1.049826 0.826654 9.000000
2.781136 -1.079302 0.824282 10.000000
2.755814 -1.104901 0.819159 9.000000
2.756957 -1.141073 0.822015 14.000000
2.722320 -1.162305 0.814157 10.000000
2.713992 -1.194509 0.814263 10.000000
2.718420 -1.232597 0.818237 10.000000
2.674138 -1.248915 0.807957 9.000000
2.669199 -1.282696 0.809192 11.000000
2.654958 -1.312676 0.808067 13.000000
2.632022 -1.337723 0.803941 12.000000
2.630003 -1.373934 0.806568 18.000000
2.589569 -1.389337 0.797212 12.000000
2.578464 -1.420752 0.797125 11.000000
2.554331 -1.444854 0.793213 10.000000
2.517499 -1.461403 0.785218 8.000000
2.497617 -1.486628 0.782262 21.000000
2.481174 -1.514553 0.780792 29.000000
2.456360 -1.537262 0.776642 32.000000
2.427225 -1.556904 0.771210 49.000000
2.418174 -1.589357 0.772240 73.000000
2.388693 -1.608225 0.766735 45.000000
2.398898 -1.654165 0.774084 67.000000
2.361031 -1.667002 0.765932 31.000000
2.370205 -1.713194 0.773144 54.000000
2.358590 -1.745996 0.774218 47.000000
2.370344 -1.795658 0.782545 36.000000
2.366020 -1.833973 0.785745 37.000000
2.342301 -1.857225 0.782496 34.000000
2.333393 -1.892394 0.784304 33.000000
2.338135 -1.940748 0.791324 36.000000
2.287537 -1.941663 0.779163 28.000000
2.281062 -1.979707 0.782095 35.000000
2.256017 -2.001821 0.778655 36.000000
2.251413 -2.043855 0.782988 34.000000
2.232923 -2.072064 0.782027 36.000000
2.217589 -2.103398 0.782203 31.000000
2.204431 -2.138840 0.783890 30.000000
2.184847 -2.166631 0.782704 33.000000
2.150416 -2.181276 0.776885 28.000000
2.153906 -2.232812 0.784277 36.000000
2.106684 -2.231862 0.773188 23.000000
2.048877 -2.220274 0.758787 23.000000
1.973194 -2.185111 0.736891 30.000000
1.871692 -2.120420 0.705621 26.000000
1.801521 -2.085798 0.685126 25.000000
1.712547 -2.028464 0.657792 24.000000
1.613727 -1.953677 0.625498 10.000000
1.576733 -1.953187 0.617535 24.000000
1.519870 -1.924650 0.600967 24.000000
1.439178 -1.865077 0.575316 20.000000
1.394986 -1.850471 0.563934 24.000000
1.352411 -1.834393 0.552400 26.000000
1.292184 -1.794631 0.534036 27.000000
1.267703 -1.800705 0.529615 32.000000
1.255990 -1.827242 0.531244 24.000000
1.224833 -1.825422 0.524722 36.000000
1.221664 -1.863141 0.529521 32.000000
1.195664 -1.868921 0.525260 30.000000
1.183850 -1.894313 0.526544 32.000000
1.165301 -1.911987 0.525656 28.000000
1.146591 -1.929509 0.524759 27.000000
1.136247 -1.958810 0.527042 28.000000
1.131241 -2.001477 0.532887 9.000000
0.801285 1.445944 0.396207 7.000000
0.798085 1.402702 0.388455 20.000000
0.816088 1.397527 0.391149 19.000000
0.835558 1.396821 0.395236 26.000000
0.845965 1.378726 0.394401 24.000000
0.862928 1.373438 0.397267 26.000000
0.878116 1.363347 0.398745 33.000000
0.890527 1.349002 0.399025 21.000000
0.912751 1.351157 0.404260 32.000000
0.908395 1.312566 0.397294 16.000000
0.933361 1.318311 0.403699 22.000000
0.945098 1.303511 0.403906 29.000000
0.964551 1.300763 0.407919 25.000000
0.981854 1.293412 0.410571 32.000000
0.992480 1.278645 0.410875 29.000000
1.006648 1.267076 0.412200 25.000000
1.029162 1.267144 0.417445 30.000000
1.024577 1.232866 0.411326 13.000000
1.047012 1.232471 0.416532 33.000000
1.063846 1.223944 0.419057 34.000000
1.086473 1.222939 0.424254 32.000000
1.103240 1.213884 0.426802 34.000000
1.119412 1.205118 0.429514 35.000000
1.132797 1.192096 0.430707 33.000000
1.148825 1.182906 0.433378 35.000000
1.168229 1.176864 0.437333 11.000000
1.188201 1.170092 0.441042 37.000000
1.200677 1.156773 0.442410 46.000000
1.223597 1.153239 0.447585 37.000000
1.239947 1.142281 0.449989 73.000000
1.259371 1.134848 0.453907 35.000000
1.271529 1.120655 0.455192 35.000000
1.290893 1.112659 0.459025 42.000000
1.303228 1.097685 0.460102 17.000000
1.322475 1.089170 0.463955 33.000000
1.349263 1.086323 0.470388 46.000000
1.353349 1.065128 0.468966 35.000000
1.372489 1.055757 0.472743 72.000000
1.387738 1.043152 0.475214 35.000000
1.406771 1.033205 0.479014 41.000000
1.437514 1.031291 0.486750 54.000000
1.468394 1.028881 0.494517 19.000000
1.467644 1.004142 0.491598 47.000000
1.474504 0.984856 0.491333 56.000000
1.513424 0.986538 0.501709 48.000000
1.524124 0.969429 0.502739 51.000000
1.551022 0.962305 0.509085 62.000000
1.573792 0.952202 0.514105 41.000000
1.596608 0.941704 0.519141 55.000000
1.602363 0.921562 0.518906 17.000000
1.637636 0.917514 0.527907 48.000000
1.664472 0.908167 0.534223 66.000000
1.691148 0.898621 0.540740 59.000000
1.713746 0.886121 0.545672 75.000000
1.731763 0.871232 0.549439 59.000000
1.741295 0.851615 0.550239 37.000000
1.776394 0.844511 0.559429 40.000000
1.816001 0.838716 0.569956 22.000000
1.816177 0.814469 0.568100 48.000000
1.868975 0.813309 0.582728 53.000000
1.895423 0.799757 0.589075 36.000000
1.917390 0.783923 0.594059 37.000000
1.943681 0.769494 0.600435 53.000000
1.965373 0.752746 0.605311 43.000000
1.982471 0.734027 0.608813 37.000000
1.985735 0.710253 0.608301 33.000000
2.016143 0.695782 0.615906 58.000000
2.046315 0.680803 0.623664 61.000000
2.062794 0.660713 0.627062 19.000000
2.074403 0.639005 0.629211 10.000000
2.136484 0.632109 0.646553 36.000000
2.166305 0.614732 0.654236 73.000000
2.191277 0.595653 0.660537 63.000000
2.248810 0.584321 0.676489 32.000000
2.273576 0.563833 0.682825 49.000000
2.302888 0.543958 0.690423 71.000000
2.332095 0.523411 0.698033 71.000000
2.351725 0.500343 0.702773 37.000000
2.385227 0.479645 0.711654 21.000000
2.427972 0.460102 0.723512 23.000000
2.489531 0.443080 0.740853 34.000000
2.555722 0.425500 0.759622 65.000000
2.569654 0.398296 0.762849 59.000000
2.607029 0.374371 0.773204 55.000000
2.644258 0.349621 0.783317 30.000000
2.695530 0.325854 0.797924 9.000000
2.765655 0.302939 0.817926 25.000000
2.797395 0.274866 0.826745 70.000000
2.824150 0.245649 0.834070 91.000000
2.840933 0.215173 0.838485 76.000000
2.819176 0.181906 0.831696 85.000000
2.768290 0.147552 0.816340 73.000000
2.750533 0.115876 0.810954 82.000000
2.737291 0.084688 0.806889 36.000000
2.694832 0.053168 0.794171 10.000000
2.676077 0.022904 0.788604 10.000000
2.628202 -0.006857 0.774555 9.000000
2.627952 -0.036207 0.774471 9.000000
2.584216 -0.064480 0.761752 10.000000
2.583394 -0.093348 0.761670 9.000000
2.587033 -0.122443 0.762836 10.000000
2.561610 -0.149963 0.755691 10.000000
2.578952 -0.179870 0.761094 23.000000
2.572033 -0.208268 0.759600 35.000000
2.564876 -0.236560 0.757942 93.000000
2.538316 -0.262769 0.750641 71.000000
2.544762 -0.292194 0.753219 95.000000
2.517706 -0.317549 0.745682 88.000000
2.504569 -0.344412 0.742702 89.000000
2.505454 -0.373103 0.743628 95.000000
2.491710 -0.399540 0.740490 56.000000
2.444658 -0.420078 0.727347 34.000000
2.430565 -0.445564 0.724062 32.000000
2.387935 -0.465333 0.712272 24.000000
2.392073 -0.493964 0.714694 32.000000
2.386559 -0.520681 0.714150 36.000000
2.380734 -0.547321 0.713607 89.000000
2.374676 -0.573883 0.712985 88.000000
2.373038 -0.601469 0.713686 64.000000
2.352348 -0.624312 0.708946 50.000000
2.340914 -0.649177 0.706698 56.000000
2.366019 -0.684694 0.715770 15.000000
2.468761 -0.744340 0.748519 20.000000
2.607193 -0.817868 0.792255 10.000000
2.808021 -0.915612 0.855553 9.000000
2.820727 -0.954559 0.861374 9.000000
2.823729 -0.990929 0.864686 9.000000
2.785802 -1.012454 0.855135 8.000000
2.801580 -1.053765 0.862500 10.000000
2.785409 -1.083394 0.859976 10.000000
2.733320 -1.098398 0.846504 11.000000
2.761112 -1.145560 0.857699 12.000000
2.713139 -1.161275 0.845449 14.000000
2.691601 -1.187655 0.841481 13.000000
2.696128 -1.225590 0.845665 9.000000
2.665267 -1.247421 0.838773 9.000000
2.655965 -1.279203 0.838741 16.000000
2.641748 -1.309135 0.837618 18.000000
2.601720 -1.325404 0.827938 27.000000
2.548635 -1.334587 0.814384 21.000000
2.534127 -1.362874 0.812833 28.000000
2.518980 -1.391434 0.811465 36.000000
2.507746 -1.422186 0.811450 36.000000
2.454942 -1.428096 0.797548 47.000000
2.476395 -1.477849 0.808251 91.000000
2.443607 -1.495671 0.801401 90.000000
2.439321 -1.530860 0.803891 64.000000
2.434593 -1.566052 0.806365 49.000000
2.425397 -1.598682 0.807392 36.000000
2.427695 -1.639399 0.812417 35.000000
2.437441 -1.685863 0.819987 27.000000
2.418954 -1.713171 0.818205 28.000000
2.403994 -1.743121 0.817655 33.000000
2.392657 -1.775845 0.818424 36.000000
2.361710 -1.793781 0.812480 35.000000
2.349714 -1.826164 0.813145 32.000000
2.333531 -1.855433 0.812483 33.000000
2.320743 -1.887549 0.813031 33.000000
2.307634 -1.919643 0.813566 27.000000
2.267618 -1.930479 0.805237 25.000000
2.264829 -1.971558 0.809579 33.000000
2.243475 -1.996804 0.807302 31.000000
2.236124 -2.034767 0.810201 35.000000
2.209663 -2.057076 0.806904 28.000000
2.215442 -2.108326 0.814914 32.000000
2.168400 -2.109273 0.803514 31.000000
2.168790 -2.158069 0.810278 25.000000
2.145512 -2.182023 0.807767 32.000000
2.138900 -2.223206 0.811616 35.000000
2.113978 -2.247739 0.809377 24.000000
2.060355 -2.238970 0.795368 29.000000
1.970589 -2.190638 0.767848 26.000000
1.864041 -2.117930 0.732575 25.000000
1.796184 -2.087995 0.712813 29.000000
1.714722 -2.037323 0.686661 19.000000
1.624299 -1.974683 0.657100 11.000000
1.566833 -1.947283 0.639882 16.000000
1.518153 -1.930957 0.626710 21.000000
1.444556 -1.878445 0.602221 27.000000
1.391565 -1.852381 0.586705 19.000000
1.351926 -1.840275 0.575957 27.000000
1.286144 -1.792757 0.554517 29.000000
1.270045 -1.810822 0.553579 26.000000
1.241644 -1.813355 0.548002 26.000000
1.211771 -1.810771 0.540970 33.000000
1.202244 -1.841004 0.543785 31.000000
1.186932 -1.863017 0.544173 32.000000
1.177616 -1.892422 0.546715 27.000000
1.164094 -1.918467 0.548174 29.000000
1.141597 -1.926906 0.544736 29.000000
1.132291 -1.961102 0.548440 26.000000
1.124687 -1.999604 0.553341 10.000000
0.792858 1.435479 0.408317 6.000000
0.800696 1.413946 0.406482 9.000000
0.818826 1.408630 0.409285 21.000000
0.823516 1.382844 0.406185 20.000000
0.848972 1.389712 0.412668 21.000000
0.861781 1.375557 0.413025 28.000000
0.870964 1.357792 0.412236 18.000000
0.893987 1.359668 0.417539 23.000000
0.902783 1.341688 0.416736 23.000000
0.936897 1.358984 0.426978 10.000000
0.939996 1.332656 0.423667 24.000000
0.940589 1.302042 0.418850 20.000000
0.962890 1.303226 0.424271 20.000000
0.971521 1.284217 0.423160 24.000000
0.982079 1.269519 0.423460 18.000000
1.011165 1.276965 0.431226 26.000000
1.018556 1.258141 0.430251 22.000000
1.047922 1.264832 0.438074 14.000000
1.042527 1.230993 0.431872 30.000000
1.065723 1.229760 0.437088 25.000000
1.075532 1.214216 0.437278 24.000000
1.088401 1.202117 0.438765 26.000000
1.131294 1.221313 0.451833 23.000000
1.127713 1.191058 0.446738 31.000000
1.137018 1.174934 0.446820 25.000000
1.190816 1.202760 0.463922 19.000000
1.183042 1.169039 0.457413 34.000000
1.195571 1.155668 0.458782 27.000000
1.218924 1.151699 0.463993 35.000000
1.227705 1.134676 0.463983 36.000000
1.257749 1.136953 0.472012 27.000000
1.266387 1.119530 0.472010 36.000000
1.304371 1.126835 0.482570 31.000000
1.320120 1.115192 0.485233 28.000000
1.321039 1.091043 0.482427 32.000000
1.329029 1.073082 0.482318 26.000000
1.351950 1.066964 0.487650 30.000000
1.374902 1.060482 0.492949 32.000000
1.397881 1.053520 0.498212 28.000000
1.401524 1.031989 0.496634 33.000000
1.432194 1.030115 0.504670 27.000000
1.447327 1.016638 0.507168 21.000000
1.454370 0.997468 0.506910 36.000000
1.497116 1.002331 0.519047 35.000000
1.507988 0.985336 0.520134 37.000000
1.522451 0.971096 0.522726 37.000000
1.541162 0.958843 0.526545 32.000000
1.568021 0.951270 0.533166 35.000000
1.590792 0.940764 0.538293 34.000000
1.596621 0.920625 0.538066 25.000000
1.619192 0.909511 0.543215 32.000000
1.641504 0.898292 0.548497 31.000000
1.672494 0.890884 0.556433 32.000000
1.694731 0.878763 0.561752 37.000000
1.712891 0.863770 0.565430 31.000000
1.735023 0.850877 0.570654 35.000000
1.778809 0.847888 0.582986 33.000000
1.787840 0.827883 0.583927 22.000000
1.822975 0.819543 0.593405 32.000000
1.844934 0.804803 0.598572 32.000000
1.888892 0.798973 0.610822 34.000000
1.919680 0.786768 0.618817 33.000000
1.937043 0.768631 0.622538 29.000000
1.958756 0.751944 0.627633 35.000000
1.975690 0.733356 0.631372 33.000000
2.006153 0.719146 0.639294 22.000000
2.013758 0.696670 0.640176 56.000000
2.039327 0.680118 0.646753 36.000000
2.083194 0.668806 0.658834 41.000000
2.108602 0.651025 0.665375 47.000000
2.133781 0.632975 0.671999 34.000000
2.163609 0.615541 0.679871 38.000000
2.174825 0.592415 0.681964 33.000000
2.185708 0.569330 0.684132 10.000000
2.265980 0.563312 0.707993 48.000000
2.281249 0.540050 0.711568 32.000000
2.324344 0.522879 0.723717 34.000000
2.371998 0.505716 0.737338 34.000000
2.358657 0.475323 0.731981 9.000000
2.373044 0.450706 0.735508 8.000000
2.410703 0.429922 0.746172 8.000000
2.500145 0.417055 0.772890 9.000000
2.547041 0.395680 0.786590 28.000000
2.612684 0.376080 0.806067 45.000000
2.626124 0.348025 0.809410 14.000000
2.672480 0.323697 0.822903 9.000000
2.732864 0.299976 0.840706 18.000000
2.812066 0.276941 0.864460 52.000000
2.843438 0.247961 0.873692 95.000000
2.822153 0.214268 0.866555 30.000000
2.805238 0.181417 0.860969 53.000000
2.787937 0.148905 0.855290 62.000000
2.770257 0.116910 0.849609 36.000000
2.718760 0.084305 0.833670 32.000000
2.681305 0.053073 0.821948 9.000000
2.638627 0.022657 0.808931 8.000000
2.638711 -0.006907 0.808931 9.000000
2.595523 -0.035876 0.795659 9.000000
2.594943 -0.064876 0.795659 9.000000
2.570145 -0.093093 0.788250 9.000000
2.559446 -0.121372 0.785156 9.000000
2.534112 -0.148679 0.777670 9.000000
2.551487 -0.178371 0.783365 20.000000
2.539834 -0.206170 0.780274 16.000000
2.542236 -0.234994 0.781412 71.000000
2.530036 -0.262444 0.778160 43.000000
2.522201 -0.290229 0.776536 36.000000
2.476187 -0.313108 0.763055 28.000000
2.458471 -0.338867 0.758353 19.000000
2.445132 -0.364936 0.754958 15.000000
2.431665 -0.390714 0.751566 10.000000
2.380133 -0.409788 0.736587 8.000000
2.417845 -0.444229 0.749243 33.000000
2.408210 -0.470292 0.747238 52.000000
2.402887 -0.497298 0.746768 67.000000
2.392656 -0.523203 0.744844 78.000000
2.368227 -0.545703 0.738405 48.000000
2.366754 -0.573262 0.739237 74.000000
2.351188 -0.597390 0.735636 59.000000
2.302992 -0.612545 0.721893 18.000000
2.328428 -0.647355 0.731424 45.000000
2.357956 -0.684068 0.742306 13.000000
2.446739 -0.739367 0.771715 10.000000
2.575505 -0.809821 0.814210 10.000000
2.793992 -0.913186 0.885642 8.000000
2.811172 -0.953613 0.893256 9.000000
2.782603 -0.978667 0.886271 8.000000
2.771699 -1.009873 0.885331 7.000000
2.778628 -1.047556 0.889850 9.000000
2.740215 -1.068242 0.880208 9.000000
2.741741 -1.104435 0.883379 9.000000
2.729502 -1.135127 0.882155 10.000000
2.708174 -1.161946 0.878075 9.000000
2.669114 -1.180625 0.868208 10.000000
2.621213 -1.194645 0.855519 11.000000
2.573382 -1.207608 0.842774 9.000000
2.551537 -1.232212 0.838579 31.000000
2.550894 -1.267108 0.841385 36.000000
2.532483 -1.293749 0.838792 53.000000
2.514211 -1.319751 0.835842 62.000000
2.495265 -1.345928 0.833168 36.000000
2.489051 -1.378352 0.834268 37.000000
2.494526 -1.418261 0.839934 31.000000
2.466759 -1.438746 0.833995 9.000000
2.487850 -1.488802 0.845136 25.000000
2.504180 -1.536910 0.854742 27.000000
2.483027 -1.562648 0.851667 31.000000
2.486427 -1.603070 0.856663 32.000000
2.460741 -1.625878 0.852195 27.000000
2.450709 -1.658903 0.853185 30.000000
2.428526 -1.683799 0.850017 24.000000
2.382515 -1.691724 0.838486 10.000000
2.387289 -1.735401 0.844887 33.000000
2.356698 -1.753679 0.838894 25.000000
2.364178 -1.800551 0.846431 32.000000
2.344470 -1.827144 0.844450 32.000000
2.324478 -1.853359 0.842376 26.000000
2.322846 -1.894686 0.847005 32.000000
2.287436 -1.908401 0.839489 22.000000
2.252010 -1.921500 0.831812 10.000000
2.259345 -1.972732 0.840731 29.000000
2.241452 -2.001225 0.839795 24.000000
2.216186 -2.023020 0.836073 27.000000
2.211837 -2.064170 0.840387 28.000000
2.188647 -2.089660 0.838279 21.000000
2.183278 -2.130927 0.842442 29.000000
2.153465 -2.148362 0.837277 21.000000
2.136047 -2.180091 0.837709 23.000000
2.132600 -2.224741 0.842919 35.000000
2.095512 -2.234360 0.835027 16.000000
2.044332 -2.230033 0.822115 16.000000
1.949522 -2.173573 0.790684 21.000000
1.869038 -2.129864 0.764562 10.000000
1.785400 -2.081725 0.737648 18.000000
1.710441 -2.038589 0.713132 10.000000
1.638650 -1.998495 0.690220 9.000000
1.575020 -1.963846 0.669773 13.000000
1.493459 -1.905888 0.641998 12.000000
1.449677 -1.891629 0.629414 13.000000
1.379279 -1.842524 0.605749 13.000000
1.339816 -1.830385 0.594551 14.000000
1.280035 -1.790743 0.574860 21.000000
1.261081 -1.804837 0.572638 22.000000
1.243674 -1.823416 0.571879 18.000000
1.216414 -1.824967 0.565835 29.000000
1.198664 -1.843059 0.565075 27.000000
1.184462 -1.864398 0.565199 22.000000
1.171313 -1.890461 0.566816 22.000000
1.152737 -1.908127 0.565945 22.000000
1.140191 -1.933288 0.567164 28.000000
1.118573 -1.946499 0.564974 16.000000
1.119502 -1.996868 0.573507 9.000000
0.769460 1.399942 0.412802 8.000000
0.786438 1.395497 0.415871 24.000000
0.801944 1.386153 0.417538 24.000000
0.812410 1.368340 0.416672 22.000000
0.834205 1.371597 0.422244 29.000000
0.844336 1.353516 0.421312 22.000000
0.861087 1.348071 0.424356 28.000000
0.876087 1.337920 0.425922 31.000000
0.898196 1.340108 0.431515 24.000000
0.899409 1.309604 0.426561 23.000000
0.918715 1.307363 0.430872 27.000000
0.941668 1.308306 0.436306 32.000000
0.946847 1.286100 0.434003 30.000000
0.961140 1.274938 0.435518 21.000000
0.980464 1.271768 0.439776 29.000000
0.991603 1.256449 0.439874 26.000000
1.023036 1.267809 0.449474 27.000000
1.027246 1.245158 0.447069 28.000000
1.034883 1.225732 0.445772 26.000000
1.057332 1.224983 0.451377 35.000000
1.079859 1.223920 0.456959 34.000000
1.093515 1.211246 0.458304 29.000000
1.109659 1.202420 0.461160 35.000000
1.119172 1.186417 0.461304 32.000000
1.139043 1.180200 0.465326 31.000000
1.155064 1.170772 0.468152 34.000000
1.174416 1.164443 0.472307 34.000000
1.190833 1.154036 0.474944 40.000000
1.206692 1.143865 0.477746 35.000000
1.225986 1.136724 0.481888 34.000000
1.241811 1.126038 0.484657 41.000000
1.264678 1.121538 0.490166 35.000000
1.280390 1.110289 0.492905 35.000000
1.289116 1.092212 0.492637 30.000000
1.312020 1.086733 0.498135 30.000000
1.331178 1.077875 0.502195 34.000000
1.346597 1.065708 0.504912 37.000000
1.365710 1.056226 0.508942 35.000000
1.380962 1.043571 0.511567 37.000000
1.396111 1.030719 0.514199 36.000000
1.411211 1.017614 0.516783 34.000000
1.441487 1.015684 0.525249 33.000000
1.476232 1.015523 0.534954 41.000000
1.483269 0.996017 0.534662 52.000000
1.490134 0.976489 0.534307 47.000000
1.524955 0.974935 0.544021 33.000000
1.531217 0.955328 0.543847 49.000000
1.570254 0.955254 0.554941 35.000000
1.584800 0.939765 0.557385 33.000000
1.611356 0.931544 0.564423 36.000000
1.621506 0.913143 0.565372 35.000000
1.643881 0.901822 0.570809 34.000000
1.666105 0.890100 0.576323 40.000000
1.692840 0.879875 0.583011 35.000000
1.719342 0.869448 0.589963 61.000000
1.732917 0.852188 0.592413 44.000000
1.767912 0.845012 0.602212 32.000000
1.781318 0.827067 0.604685 29.000000
1.803290 0.812826 0.610046 33.000000
1.829579 0.800078 0.616833 32.000000
1.873370 0.794330 0.629549 35.000000
1.895138 0.778584 0.634833 36.000000
1.916894 0.762407 0.640063 37.000000
1.933848 0.744348 0.644020 33.000000
1.955351 0.727422 0.649205 30.000000
1.990039 0.715170 0.659065 35.000000
2.002119 0.694360 0.661366 42.000000
2.023150 0.676407 0.666653 36.000000
2.057564 0.662399 0.676431 70.000000
2.073799 0.641996 0.680112 45.000000
2.098964 0.624037 0.686791 63.000000
2.160666 0.616060 0.705393 73.000000
2.171808 0.593097 0.707683 33.000000
2.214990 0.578394 0.720410 36.000000
2.272044 0.566175 0.737594 49.000000
2.287317 0.542754 0.741275 52.000000
2.321017 0.523320 0.750906 61.000000
2.349888 0.502185 0.758892 39.000000
2.336502 0.472031 0.753555 9.000000
2.350827 0.447569 0.757106 9.000000
2.407114 0.430370 0.774244 7.000000
2.472848 0.413506 0.794265 9.000000
2.510067 0.390869 0.805404 9.000000
2.537719 0.366132 0.813452 9.000000
2.607715 0.346348 0.834957 22.000000
2.630259 0.319333 0.841347 18.000000
2.685585 0.295543 0.858425 27.000000
2.750345 0.271432 0.878461 65.000000
2.781569 0.243034 0.887816 62.000000
2.779232 0.211466 0.886658 60.000000
2.752847 0.178464 0.877830 69.000000
2.740342 0.146777 0.873457 83.000000
2.722708 0.115210 0.867566 86.000000
2.690509 0.083540 0.857121 35.000000
2.653093 0.052610 0.844985 19.000000
2.624934 0.022616 0.836051 16.000000
2.625019 -0.006894 0.836051 22.000000
2.643821 -0.036584 0.842036 32.000000
2.633787 -0.066070 0.839001 33.000000
2.623337 -0.095258 0.835883 37.000000
2.617401 -0.124458 0.834198 71.000000
2.582597 -0.151874 0.823498 88.000000
2.590280 -0.181539 0.826282 37.000000
2.493221 -0.202835 0.795719 10.000000
2.471840 -0.229035 0.789418 10.000000
2.464478 -0.256287 0.787665 10.000000
2.461542 -0.283899 0.787268 10.000000
2.444106 -0.309714 0.782489 10.000000
2.445356 -0.337819 0.783687 11.000000
2.422630 -0.362426 0.777165 10.000000
2.413924 -0.388805 0.775183 10.000000
2.376662 -0.410214 0.764219 10.000000
2.404844 -0.442895 0.774322 32.000000
2.399913 -0.469822 0.773774 95.000000
2.408672 -0.499655 0.777669 95.000000
2.398425 -0.525640 0.775690 98.000000
2.360011 -0.545083 0.764605 98.000000
2.344697 -0.569343 0.760977 95.000000
2.319881 -0.590886 0.754272 69.000000
2.304153 -0.614395 0.750504 59.000000
2.297363 -0.640182 0.749741 60.000000
2.331493 -0.677957 0.762537 18.000000
2.428971 -0.736030 0.796263 14.000000
2.552731 -0.804828 0.838812 14.000000
2.743345 -0.898878 0.903586 10.000000
2.737985 -0.931155 0.903970 9.000000
2.741225 -0.966524 0.907330 10.000000
2.717180 -0.992277 0.901658 9.000000
2.683756 -1.014444 0.893210 16.000000
2.672751 -1.044432 0.891926 27.000000
2.661105 -1.074511 0.890825 31.000000
2.658091 -1.108174 0.892594 63.000000
2.610661 -1.122979 0.879571 61.000000
2.615781 -1.160051 0.884296 81.000000
2.624712 -1.199410 0.890295 57.000000
2.589915 -1.218638 0.881554 43.000000
2.585081 -1.251869 0.883031 43.000000
2.584253 -1.287242 0.885964 51.000000
2.582917 -1.322718 0.888882 36.000000
2.572329 -1.354307 0.888955 42.000000
2.570198 -1.389797 0.891756 40.000000
2.550912 -1.416191 0.888528 31.000000
2.560118 -1.459353 0.895764 35.000000
2.540103 -1.485418 0.892527 11.000000
2.527690 -1.516783 0.892380 22.000000
2.506789 -1.542849 0.889336 34.000000
2.473983 -1.560504 0.881594 31.000000
2.460663 -1.591166 0.881356 32.000000
2.435123 -1.613704 0.876707 34.000000
2.417252 -1.641255 0.874939 29.000000
2.426632 -1.687768 0.883096 31.000000
2.377419 -1.692276 0.869416 27.000000
2.374234 -1.730423 0.873256 26.000000
2.366772 -1.765868 0.875461 30.000000
2.297778 -1.754732 0.855054 32.000000
2.323892 -1.816116 0.870005 31.000000
2.307744 -1.845293 0.869258 34.000000
2.283822 -1.868198 0.865688 27.000000
2.278180 -1.906228 0.869146 30.000000
2.252905 -1.929458 0.865762 24.000000
2.235488 -1.957988 0.864896 26.000000
2.224872 -1.992628 0.866715 31.000000
2.206775 -2.020929 0.865637 29.000000
2.188323 -2.048928 0.864646 27.000000
2.176552 -2.083367 0.866220 31.000000
2.156450 -2.111892 0.865397 25.000000
2.160824 -2.163250 0.873801 26.000000
2.123993 -2.173657 0.865702 23.000000
2.096176 -2.194770 0.861925 27.000000
2.092295 -2.239161 0.867399 26.000000
2.038968 -2.230523 0.852365 16.000000
1.972268 -2.207529 0.832375 24.000000
1.875745 -2.146108 0.798535 23.000000
1.790206 -2.093679 0.768939 18.000000
1.723401 -2.062700 0.747820 16.000000
1.622155 -1.984772 0.710540 10.000000
1.576893 -1.972676 0.697377 11.000000
1.516251 -1.941513 0.677892 16.000000
1.448836 -1.896961 0.654250 11.000000
1.395813 -1.871202 0.637569 17.000000
1.341904 -1.839933 0.619457 14.000000
1.284914 -1.804315 0.600364 18.000000
1.265864 -1.818532 0.598053 20.000000
1.231916 -1.813271 0.589460 18.000000
1.212726 -1.826848 0.587105 21.000000
1.194986 -1.844966 0.586246 26.000000
1.167795 -1.845906 0.580035 21.000000
1.162332 -1.884176 0.585569 20.000000
1.152533 -1.913533 0.588215 24.000000
1.140966 -1.943610 0.591033 19.000000
1.124083 -1.965306 0.591284 15.000000
1.098729 -1.969279 0.586197 9.000000
0.778630 1.423755 0.434714 8.000000
0.777921 1.384957 0.427365 23.000000
0.799655 1.388669 0.433136 29.000000
0.807741 1.366683 0.430879 34.000000
0.829493 1.369925 0.436682 29.000000
0.844742 1.360047 0.438303 32.000000
0.856440 1.346455 0.438801 36.000000
0.874023 1.340290 0.441748 29.000000
0.888157 1.330411 0.443521 35.000000
0.892070 1.303972 0.439779 24.000000
0.916779 1.309692 0.446865 27.000000
0.933412 1.303220 0.449938 35.000000
0.947944 1.292143 0.451513 32.000000
0.964449 1.285321 0.454551 34.000000
0.975789 1.270091 0.454715 30.000000
0.992225 1.262846 0.457762 30.000000
1.006291 1.251124 0.459240 34.000000
1.022594 1.243471 0.462251 23.000000
1.038875 1.235544 0.465220 35.000000
1.046349 1.216009 0.463878 45.000000
1.065637 1.211396 0.468245 35.000000
1.088135 1.210005 0.473977 42.000000
1.104886 1.200708 0.476776 34.000000
1.120988 1.191700 0.479739 36.000000
1.133735 1.178952 0.481248 46.000000
1.143018 1.162628 0.481342 16.000000
1.162213 1.156421 0.485634 46.000000
1.188900 1.156114 0.492581 58.000000
1.201307 1.142598 0.494059 36.000000
1.224131 1.138659 0.499781 72.000000
1.239922 1.127983 0.502602 47.000000
1.255676 1.117013 0.505430 50.000000
1.282173 1.115225 0.512598 71.000000
1.290553 1.097499 0.512505 18.000000
1.302436 1.082753 0.513855 34.000000
1.329007 1.079965 0.520973 36.000000
1.344442 1.067698 0.523742 58.000000
1.363610 1.058223 0.527927 68.000000
1.382686 1.048411 0.532071 37.000000
1.394096 1.032569 0.533345 35.000000
1.409156 1.019418 0.535980 54.000000
1.443675 1.019792 0.546001 20.000000
1.454797 1.003250 0.547186 40.000000
1.469372 0.989658 0.550024 35.000000
1.480128 0.972788 0.551099 34.000000
1.506844 0.966110 0.558128 59.000000
1.545405 0.966891 0.569829 49.000000
1.560028 0.951656 0.572373 36.000000
1.578338 0.939001 0.576654 37.000000
1.588618 0.920849 0.577594 19.000000
1.619247 0.914658 0.586285 34.000000
1.641778 0.902984 0.591755 46.000000
1.659837 0.888955 0.595911 38.000000
1.686265 0.879023 0.603042 49.000000
1.699951 0.862122 0.605591 37.000000
1.717775 0.847049 0.609662 33.000000
1.744036 0.835839 0.616781 44.000000
1.783243 0.830147 0.628360 14.000000
1.796531 0.811879 0.630829 29.000000
1.822754 0.799185 0.637881 35.000000
1.844509 0.784043 0.643359 32.000000
1.888200 0.777602 0.656435 37.000000
1.905289 0.759919 0.660482 34.000000
1.922389 0.741708 0.664339 30.000000
1.948083 0.726689 0.671410 32.000000
1.964769 0.707976 0.675421 16.000000
1.990309 0.692052 0.682454 31.000000
2.020225 0.677100 0.690977 38.000000
2.045573 0.660109 0.697905 37.000000
2.070842 0.642642 0.704846 36.000000
2.123295 0.632772 0.720943 60.000000
2.157403 0.616792 0.731090 67.000000
2.168542 0.593776 0.733433 38.000000
2.220801 0.581345 0.749676 27.000000
2.250045 0.562046 0.758107 33.000000
2.279117 0.542153 0.766551 48.000000
2.308083 0.521663 0.774857 36.000000
2.346074 0.502642 0.786520 35.000000
2.337422 0.473383 0.782460 10.000000
2.365732 0.451562 0.790795 9.000000
2.407933 0.431577 0.803744 8.000000
2.454651 0.411454 0.818270 8.000000
2.491817 0.388997 0.829769 8.000000
2.528771 0.365639 0.841118 9.000000
2.598450 0.345927 0.863427 24.000000
2.639783 0.321289 0.876453 36.000000
2.704473 0.298321 0.897061 53.000000
2.740610 0.271167 0.908551 59.000000
2.762273 0.241937 0.914995 83.000000
2.764679 0.210927 0.915352 55.000000
2.714703 0.176352 0.898373 31.000000
2.688007 0.144311 0.889139 16.000000
2.651446 0.112421 0.876764 13.000000
2.662045 0.082863 0.880072 26.000000
2.681802 0.053279 0.886347 59.000000
2.648916 0.022819 0.875536 65.000000
2.630012 -0.006932 0.869260 91.000000
2.639252 -0.036650 0.872313 79.000000
2.629251 -0.066105 0.869175 86.000000
2.623577 -0.095519 0.867522 95.000000
2.579717 -0.122935 0.853237 95.000000
2.564004 -0.151149 0.848449 95.000000
2.552716 -0.179294 0.845066 29.000000
2.512803 -0.204910 0.832280 8.000000
2.463096 -0.228796 0.816447 10.000000
2.441661 -0.254492 0.809706 10.000000
2.443380 -0.282570 0.811114 10.000000
2.444929 -0.310595 0.812205 10.000000
2.413141 -0.334167 0.802502 10.000000
2.381204 -0.357103 0.792729 10.000000
2.395936 -0.386821 0.798437 10.000000
2.358809 -0.408131 0.787192 9.000000
2.391562 -0.441563 0.799219 31.000000
2.414609 -0.473927 0.808031 91.000000
2.362802 -0.491443 0.791812 91.000000
2.357375 -0.517953 0.791115 95.000000
2.333046 -0.540176 0.784347 81.000000
2.331664 -0.567524 0.785364 98.000000
2.320741 -0.592624 0.783116 62.000000
2.305021 -0.616240 0.779243 26.000000
2.311938 -0.645891 0.783129 28.000000
2.368745 -0.690406 0.803889 19.000000
2.452049 -0.744727 0.834127 25.000000
2.561622 -0.809618 0.873502 26.000000
2.656569 -0.872633 0.908073 49.000000
2.637876 -0.899441 0.904001 79.000000
2.614497 -0.924281 0.898216 65.000000
2.666896 -0.976538 0.918602 33.000000
2.665137 -1.009789 0.920399 54.000000
2.649464 -1.038215 0.917859 69.000000
2.669031 -1.080370 0.927219 68.000000
2.652638 -1.108630 0.924488 35.000000
2.635917 -1.136698 0.921761 34.000000
2.645156 -1.176182 0.928105 36.000000
2.636497 -1.207945 0.928238 29.000000
2.636038 -1.243779 0.931410 22.000000
2.639543 -1.281798 0.935994 32.000000
2.616920 -1.307242 0.931456 33.000000
2.602586 -1.336660 0.929863 37.000000
2.571110 -1.356993 0.922130 32.000000
2.560502 -1.388119 0.921963 32.000000
2.549097 -1.419620 0.922072 36.000000
2.529549 -1.445736 0.918700 29.000000
2.521647 -1.479465 0.920211 10.000000
2.521909 -1.517457 0.924238 22.000000
2.492876 -1.538654 0.918152 31.000000
2.468133 -1.561377 0.913107 36.000000
2.446853 -1.586795 0.909936 32.000000
2.425256 -1.612028 0.906586 31.000000
2.407944 -1.638928 0.904445 34.000000
2.381958 -1.660830 0.899624 25.000000
2.359701 -1.685051 0.896199 25.000000
2.360368 -1.726013 0.901620 36.000000
2.329841 -1.744221 0.895249 31.000000
2.318287 -1.776427 0.896045 35.000000
2.283659 -1.790824 0.888141 32.000000
2.301323 -1.846688 0.900608 33.000000
2.280987 -1.872673 0.898348 33.000000
2.264127 -1.901546 0.897541 26.000000
2.239751 -1.924077 0.893735 25.000000
2.215066 -1.946149 0.889937 29.000000
2.208163 -1.983951 0.893256 33.000000
2.197079 -2.018552 0.895106 34.000000
2.171628 -2.039988 0.891202 29.000000
2.156426 -2.071113 0.891497 31.000000
2.153512 -2.116310 0.897762 34.000000
2.133919 -2.143933 0.896491 24.000000
2.104121 -2.161036 0.890962 27.000000
2.087415 -2.191593 0.891002 34.000000
2.063729 -2.214989 0.888210 29.000000
2.042023 -2.242512 0.887111 22.000000
1.963634 -2.204432 0.860433 24.000000
1.876897 -2.153897 0.829728 29.000000
1.796610 -2.109956 0.802162 25.000000
1.731026 -2.078262 0.780035 18.000000
1.620757 -1.989544 0.737330 10.000000
1.562511 -1.963314 0.718451 18.000000
1.509078 -1.938940 0.700816 15.000000
1.437843 -1.891395 0.675315 23.000000
1.389092 -1.868765 0.659208 18.000000
1.345432 -1.853855 0.646133 22.000000
1.286827 -1.813852 0.624732 23.000000
1.253863 -1.808307 0.615600 22.000000
1.222843 -1.806995 0.608069 19.000000
1.203696 -1.820543 0.605719 25.000000
1.185917 -1.838694 0.604839 30.000000
1.158812 -1.839620 0.598434 29.000000
1.145807 -1.865435 0.600128 24.000000
1.138605 -1.898866 0.604216 26.000000
1.119748 -1.916339 0.603287 28.000000
1.121117 -1.966499 0.612442 19.000000
1.099004 -1.979667 0.610081 9.000000
0.755287 1.388154 0.438328 8.000000
0.783934 1.404730 0.448282 18.000000
0.794843 1.386896 0.447371 30.000000
0.805463 1.369075 0.446388 22.000000
0.822247 1.364032 0.449660 30.000000
0.836541 1.354688 0.451529 35.000000
0.854266 1.348750 0.454565 26.000000
0.876298 1.351123 0.460564 37.000000
0.886056 1.332640 0.459491 27.000000
0.897377 1.318608 0.459884 23.000000
0.909321 1.303979 0.460115 33.000000
0.923109 1.293625 0.461883 30.000000
0.934671 1.278740 0.462099 34.000000
0.959659 1.283537 0.469433 32.000000
0.979094 1.280251 0.473987 26.000000
0.987485 1.261062 0.472694 34.000000
1.006831 1.257283 0.477268 27.000000
1.008016 1.231018 0.473258 26.000000
1.030978 1.230078 0.479017 34.000000
1.040947 1.214684 0.479218 32.000000
1.057047 1.206462 0.482288 48.000000
1.082704 1.208660 0.489651 32.000000
1.102672 1.202887 0.493944 51.000000
1.115576 1.190347 0.495557 37.000000
1.128272 1.177599 0.497118 29.000000
1.144262 1.168110 0.500089 27.000000
1.160744 1.157970 0.502912 40.000000
1.183409 1.154688 0.508789 41.000000
1.195869 1.141173 0.510268 72.000000
1.211609 1.130757 0.513225 36.000000
1.234421 1.126541 0.519104 61.000000
1.246597 1.112389 0.520546 55.000000
1.269402 1.107542 0.526408 41.000000
1.277730 1.089902 0.526313 28.000000
1.300536 1.084403 0.532153 30.000000
1.319684 1.075478 0.536513 34.000000
1.338800 1.066274 0.540834 70.000000
1.354175 1.053809 0.543658 34.000000
1.373187 1.044031 0.547949 37.000000
1.388003 1.031461 0.550958 54.000000
1.399247 1.015509 0.552177 33.000000
1.418095 1.004897 0.556389 27.000000
1.440813 0.996704 0.562141 34.000000
1.475033 0.996519 0.572733 38.000000
1.477987 0.974275 0.570806 63.000000
1.492660 0.959819 0.573421 36.000000
1.518964 0.953085 0.580894 57.000000
1.549660 0.948005 0.589647 37.000000
1.576135 0.940262 0.597058 33.000000
1.586148 0.922416 0.598295 25.000000
1.616956 0.915810 0.607059 44.000000
1.626800 0.897493 0.608193 33.000000
1.657331 0.890299 0.617118 50.000000
1.679507 0.878109 0.622950 37.000000
1.697409 0.863298 0.627174 66.000000
1.719478 0.850338 0.632914 55.000000
1.728602 0.830796 0.633901 31.000000
1.759107 0.821108 0.642745 26.000000
1.789582 0.810931 0.651550 34.000000
1.820082 0.800074 0.660378 33.000000
1.828522 0.779551 0.661465 41.000000
1.876418 0.775005 0.676522 34.000000
1.893454 0.757368 0.680733 32.000000
1.914989 0.740915 0.686275 35.000000
1.931733 0.722566 0.690374 29.000000
1.961792 0.708783 0.699249 26.000000
1.996166 0.695922 0.709669 44.000000
2.012637 0.676279 0.713672 34.000000
2.037917 0.659351 0.720803 46.000000
2.062980 0.642015 0.728086 35.000000
2.110721 0.630775 0.743166 37.000000
2.135605 0.612156 0.750417 46.000000
2.151252 0.590547 0.754408 31.000000
2.217053 0.581884 0.775969 30.000000
2.241631 0.561376 0.783052 45.000000
2.261480 0.539279 0.788465 35.000000
2.308655 0.523224 0.803680 42.000000
2.332815 0.501032 0.810648 52.000000
2.370595 0.481246 0.822531 36.000000
2.412856 0.461617 0.835963 33.000000
2.403633 0.431942 0.831839 11.000000
2.436281 0.409405 0.841910 9.000000
2.487256 0.389243 0.858607 9.000000
2.519494 0.365229 0.868701 9.000000
2.565481 0.342376 0.883650 21.000000
2.630127 0.320862 0.905164 53.000000
2.685101 0.296931 0.923379 46.000000
2.725901 0.270346 0.936670 75.000000
2.752114 0.241670 0.945204 78.000000
2.740548 0.209488 0.940437 44.000000
2.714264 0.176792 0.930988 36.000000
2.659336 0.143121 0.911817 10.000000
2.651259 0.112738 0.908834 9.000000
2.657014 0.082925 0.910626 29.000000
2.638869 0.052619 0.904145 77.000000
2.625021 0.022696 0.899368 90.000000
2.653485 -0.007019 0.909177 95.000000
2.639125 -0.036697 0.904230 95.000000
2.614886 -0.065902 0.896127 95.000000
2.604504 -0.095006 0.892802 95.000000
2.570337 -0.122852 0.881294 95.000000
2.554676 -0.150984 0.876104 95.000000
2.548141 -0.179379 0.874319 35.000000
2.428129 -0.198579 0.833763 9.000000
2.463533 -0.229435 0.846396 11.000000
2.442078 -0.255239 0.839605 10.000000
2.439148 -0.282719 0.839289 13.000000
2.421899 -0.308406 0.833965 21.000000
2.418356 -0.335728 0.833650 21.000000
2.414577 -0.362970 0.833256 26.000000
2.401140 -0.388700 0.829556 23.000000
2.387422 -0.414141 0.825938 28.000000
2.401428 -0.444461 0.831760 74.000000
2.405756 -0.473374 0.834431 95.000000
2.358754 -0.491711 0.819312 94.000000
2.353162 -0.518429 0.818846 98.000000
2.329044 -0.540554 0.811717 98.000000
2.313757 -0.564662 0.807888 92.000000
2.312051 -0.591932 0.808802 95.000000
2.291790 -0.614324 0.803300 26.000000
2.348839 -0.657973 0.824883 22.000000
2.364343 -0.691022 0.832019 30.000000
2.338440 -0.712240 0.824910 30.000000
2.353229 -0.745694 0.831870 77.000000
2.340460 -0.770764 0.829401 100.000000
2.260217 -0.772657 0.802958 100.000000
2.256148 -0.799696 0.803626 95.000000
2.703655 -1.027216 0.968204 36.000000
2.714179 -1.066603 0.975108 34.000000
2.720120 -1.104237 0.979939 36.000000
2.694718 -1.129622 0.974061 45.000000
2.678050 -1.157911 0.970885 42.000000
2.656527 -1.184358 0.966418 35.000000
2.647744 -1.216457 0.966589 35.000000
2.621475 -1.240348 0.960468 23.000000
2.624842 -1.278310 0.965254 35.000000
2.615011 -1.310090 0.965226 37.000000
2.579521 -1.328731 0.955806 35.000000
2.569081 -1.360041 0.955690 44.000000
2.554233 -1.388990 0.953915 39.000000
2.526659 -1.410803 0.947474 32.000000
2.535505 -1.453887 0.955307 35.000000
2.511545 -1.477594 0.950330 12.000000
2.495457 -1.505749 0.948365 24.000000
2.470627 -1.529271 0.943593 33.000000
2.445999 -1.551865 0.938460 30.000000
2.436691 -1.585024 0.939770 33.000000
2.407192 -1.604888 0.933301 30.000000
2.389936 -1.631792 0.931167 29.000000
2.391351 -1.672711 0.936860 36.000000
2.337993 -1.674972 0.921170 23.000000
2.350190 -1.724238 0.931316 34.000000
2.327983 -1.747432 0.927371 35.000000
2.316241 -1.779716 0.928348 32.000000
2.285359 -1.797255 0.921571 36.000000
2.284197 -1.838168 0.926967 32.000000
2.274971 -1.873256 0.929131 32.000000
2.269005 -1.911386 0.932867 34.000000
2.172132 -1.871706 0.898987 23.000000
2.212545 -1.950016 0.922059 31.000000
2.194779 -1.978295 0.921001 33.000000
2.183681 -2.012844 0.922996 30.000000
2.172184 -2.047348 0.924778 37.000000
2.139643 -2.062007 0.917776 26.000000
2.141072 -2.109592 0.925322 31.000000
2.117174 -2.134642 0.923018 31.000000
2.107360 -2.172267 0.925990 25.000000
2.087181 -2.199497 0.924648 35.000000
2.073147 -2.233524 0.926107 29.000000
2.035015 -2.243549 0.917684 18.000000
1.963217 -2.212734 0.893014 26.000000
1.873550 -2.158860 0.859845 26.000000
1.797720 -2.117828 0.832529 23.000000
1.715717 -2.068739 0.802859 21.000000
1.618076 -1.994951 0.764464 10.000000
1.564041 -1.971714 0.746132 18.000000
1.500735 -1.936990 0.723896 17.000000
1.436626 -1.896404 0.700073 16.000000
1.393573 -1.881603 0.686250 22.000000
1.333053 -1.843462 0.664393 17.000000
1.280200 -1.811385 0.645105 21.000000
1.246192 -1.806564 0.635962 23.000000
1.216345 -1.804576 0.627907 18.000000
1.198664 -1.822830 0.627076 28.000000
1.176807 -1.832225 0.623207 32.000000
1.158761 -1.850125 0.622296 27.000000
1.139226 -1.863079 0.619733 27.000000
1.119621 -1.875757 0.617170 26.000000
1.125179 -1.934686 0.629711 23.000000
1.110515 -1.960521 0.631346 21.000000
1.099120 -1.989810 0.634077 8.000000
0.759584 1.403209 0.457706 8.000000
0.774376 1.394445 0.459732 16.000000
0.782891 1.372507 0.457335 19.000000
0.809365 1.384294 0.466273 21.000000
0.817449 1.362163 0.463853 29.000000
0.836768 1.360993 0.468637 19.000000
0.852012 1.350932 0.470365 29.000000
0.863587 1.337149 0.470877 24.000000
0.883824 1.334756 0.475396 23.000000
0.897941 1.324666 0.477281 19.000000
0.898254 1.294695 0.471943 12.000000
0.923809 1.299562 0.479358 28.000000
0.931948 1.281251 0.478297 24.000000
0.948340 1.274433 0.481515 21.000000
0.965525 1.266890 0.484541 28.000000
0.976000 1.252092 0.484859 23.000000
1.004223 1.259636 0.493909 23.000000
1.009247 1.236548 0.491093 26.000000
1.025457 1.228647 0.494250 23.000000
1.041643 1.220574 0.497417 33.000000
1.054665 1.208628 0.499109 29.000000
1.068252 1.196067 0.500544 26.000000
1.087453 1.190860 0.505174 32.000000
1.113264 1.192376 0.512770 28.000000
1.126049 1.179591 0.514388 26.000000
1.128690 1.156415 0.511428 24.000000
1.141156 1.143432 0.512980 25.000000
1.177813 1.153210 0.524892 47.000000
1.186832 1.136401 0.524902 32.000000
1.206050 1.129275 0.529480 32.000000
