x y z intensity
0.941065 1.155902 0.621594 33.000000
0.962589 1.155048 0.629357 34.000000
0.972233 1.139801 0.629410 33.000000
0.984035 1.128395 0.631592 34.000000
1.005631 1.126699 0.639324 35.000000
1.033511 1.131426 0.651000 26.000000
1.051578 1.126004 0.657057 25.000000
1.051295 1.099882 0.651080 33.000000
1.063416 1.087053 0.652899 38.000000
1.074831 1.074578 0.654919 65.000000
1.103166 1.077480 0.666555 49.000000
1.134451 1.083466 0.680493 36.000000
1.146453 1.069637 0.682215 44.000000
1.164548 1.062297 0.688199 35.000000
1.151958 1.027157 0.676047 26.000000
1.173730 1.022137 0.683673 29.000000
1.184625 1.008234 0.685489 34.000000
1.216512 1.011719 0.699434 62.000000
1.241577 1.008835 0.709282 35.000000
1.259575 0.999775 0.715107 34.000000
1.284807 0.995981 0.724972 36.000000
1.310065 0.991681 0.734875 32.000000
1.306155 0.965235 0.728340 31.000000
1.324036 0.955034 0.734070 33.000000
1.345598 0.947118 0.741819 43.000000
1.367166 0.938771 0.749539 42.000000
1.388738 0.930044 0.757229 36.000000
1.410365 0.920935 0.764886 51.000000
1.443104 0.919116 0.779011 39.000000
1.441607 0.894651 0.774219 31.000000
1.458836 0.882454 0.780029 33.000000
1.480369 0.871922 0.787538 36.000000
1.493538 0.856763 0.791183 39.000000
1.514629 0.845825 0.798961 51.000000
1.551584 0.843162 0.815086 37.000000
1.581026 0.835182 0.826705 46.000000
1.598115 0.820690 0.832291 39.000000
1.615053 0.805826 0.837892 32.000000
1.647969 0.798926 0.852126 30.000000
1.664863 0.783242 0.857583 32.000000
1.694020 0.772945 0.869336 32.000000
1.714598 0.758688 0.877135 36.000000
1.731196 0.741914 0.882451 35.000000
1.751609 0.726805 0.890158 35.000000
1.784603 0.716396 0.904137 48.000000
1.830209 0.710177 0.924541 27.000000
1.858998 0.696588 0.936331 32.000000
1.875004 0.677758 0.941741 42.000000
1.912217 0.666094 0.957715 40.000000
1.936532 0.649281 0.967231 45.000000
1.960627 0.632205 0.976974 54.000000
1.980250 0.613321 0.984522 36.000000
2.021605 0.600211 1.002465 47.000000
2.049731 0.582726 1.014135 29.000000
2.086196 0.567102 1.030490 29.000000
2.118545 0.549414 1.044212 37.000000
2.172649 0.536445 1.068652 35.000000
2.200207 0.516243 1.080419 35.000000
2.227648 0.495376 1.092051 36.000000
2.259375 0.474922 1.105859 33.000000
2.313103 0.458072 1.130336 35.000000
2.304517 0.428625 1.124725 26.000000
2.402454 0.417786 1.170725 34.000000
2.424541 0.392600 1.180129 43.000000
2.464350 0.369674 1.198043 42.000000
2.499475 0.345129 1.213721 38.000000
2.556614 0.322762 1.240515 39.000000
2.591347 0.296409 1.255961 33.000000
2.643729 0.271251 1.280362 34.000000
2.682405 0.243631 1.298088 23.000000
2.779058 0.219790 1.344334 32.000000
2.826258 0.190324 1.366244 35.000000
2.868546 0.159558 1.386182 34.000000
2.946580 0.129429 1.423318 31.000000
2.992885 0.096499 1.445149 34.000000
3.056723 0.062890 1.475884 35.000000
3.093156 0.027570 1.493483 32.000000
3.039230 -0.008446 1.467396 30.000000
3.020913 -0.043617 1.458598 29.000000
2.988892 -0.078015 1.443077 32.000000
2.996776 -0.113209 1.447424 32.000000
2.977364 -0.147277 1.438529 29.000000
2.957667 -0.180926 1.429435 34.000000
2.937392 -0.214155 1.420646 29.000000
2.921533 -0.247244 1.413533 26.000000
2.923136 -0.281748 1.415306 32.000000
2.919952 -0.315872 1.414809 32.000000
2.902754 -0.348386 1.408002 32.000000
2.881025 -0.379800 1.398438 32.000000
2.863315 -0.411536 1.391444 30.000000
2.854160 -0.444248 1.388592 32.000000
2.849171 -0.477503 1.387712 30.000000
2.803767 -0.503683 1.367649 24.000000
2.815981 -0.539672 1.375237 32.000000
2.805449 -0.571671 1.372203 33.000000
2.794646 -0.603469 1.369075 31.000000
2.787874 -0.636070 1.368011 34.000000
2.772136 -0.666370 1.362538 32.000000
2.760240 -0.697763 1.359419 31.000000
2.752345 -0.730017 1.358456 29.000000
2.696606 -0.748700 1.333166 22.000000
2.701289 -0.783978 1.338382 35.000000
2.683710 -0.813111 1.333137 37.000000
2.679110 -0.845740 1.333766 32.000000
2.661319 -0.874051 1.327869 32.000000
2.647203 -0.903810 1.324405 30.000000
2.637097 -0.934885 1.323082 29.000000
2.635194 -0.968891 1.325841 32.000000
2.590677 -0.986809 1.307171 27.000000
2.588150 -1.020433 1.309747 32.000000
2.568602 -1.047233 1.303710 34.000000
2.548848 -1.073650 1.297499 30.000000
2.545031 -1.107377 1.300249 35.000000
2.533058 -1.136935 1.298098 31.000000
2.524449 -1.168676 1.298529 34.000000
2.507336 -1.196330 1.294543 31.000000
2.486383 -1.221422 1.287896 27.000000
2.497242 -1.262884 1.298472 36.000000
2.463184 -1.281693 1.285895 64.000000
2.456618 -1.315299 1.288411 35.000000
2.454123 -1.350629 1.292352 43.000000
2.435482 -1.377014 1.287814 35.000000
2.428302 -1.410058 1.289543 30.000000
2.412459 -1.438913 1.287469 21.000000
2.377507 -1.455052 1.274340 19.000000
2.368936 -1.488139 1.276245 31.000000
2.352983 -1.515635 1.273430 35.000000
2.339890 -1.546016 1.273057 34.000000
2.322783 -1.573744 1.270613 34.000000
2.312785 -1.606389 1.272098 35.000000
2.302484 -1.639023 1.273566 33.000000
2.284415 -1.666174 1.270822 34.000000
2.262501 -1.690406 1.265939 26.000000
2.243988 -1.717136 1.263011 33.000000
2.239477 -1.754849 1.268131 39.000000
2.231061 -1.789759 1.271180 32.000000
2.218736 -1.821733 1.272079 35.000000
2.195399 -1.844855 1.266801 36.000000
2.168560 -1.864624 1.259422 31.000000
2.164664 -1.905881 1.266614 33.000000
2.127075 -1.915932 1.253033 23.000000
2.126794 -1.959358 1.261499 35.000000
2.098074 -1.978678 1.254430 37.000000
2.096771 -2.022260 1.262617 32.000000
2.083897 -2.057223 1.265369 39.000000
2.062090 -2.081463 1.261475 34.000000
2.054802 -2.122795 1.267927 29.000000
2.043792 -2.160879 1.272261 31.000000
2.017962 -2.181196 1.266155 32.000000
2.006058 -2.219101 1.270226 31.000000
1.969267 -2.229398 1.258762 26.000000
1.894793 -2.192900 1.221413 26.000000
1.805180 -2.138152 1.175081 29.000000
1.731667 -2.099426 1.138570 27.000000
1.667988 -2.069912 1.108037 24.000000
1.597947 -2.027501 1.071411 25.000000
1.516491 -1.969804 1.027713 10.000000
1.483786 -1.973248 1.016650 21.000000
1.421121 -1.935163 0.984766 26.000000
1.375699 -1.918336 0.964265 24.000000
1.312188 -1.874209 0.930773 23.000000
1.265611 -1.851705 0.908682 25.000000
1.224863 -1.836133 0.890394 30.000000
1.192233 -1.831435 0.877807 33.000000
1.177303 -1.853575 0.878214 23.000000
1.145006 -1.848049 0.865646 34.000000
1.134626 -1.877744 0.869659 35.000000
1.121254 -1.903522 0.871780 26.000000
1.107548 -1.929184 0.873858 32.000000
1.091162 -1.950806 0.873999 33.000000
0.724876 1.290534 0.594085 18.000000
0.743478 1.289515 0.600210 23.000000
0.755029 1.276318 0.600684 26.000000
0.768848 1.266894 0.603027 21.000000
0.789905 1.269161 0.611046 26.000000
0.788679 1.236008 0.601969 14.000000
0.804559 1.230154 0.606149 23.000000
0.820475 1.224044 0.610294 27.000000
0.828536 1.206308 0.608644 24.000000
0.846127 1.204087 0.614918 25.000000
0.859221 1.193670 0.617060 29.000000
0.875000 1.186767 0.621143 22.000000
0.896264 1.187051 0.629134 30.000000
0.897966 1.161447 0.623388 15.000000
0.924895 1.168429 0.635235 29.000000
0.928282 1.146785 0.631655 34.000000
0.952595 1.149570 0.641560 27.000000
0.968161 1.141368 0.645523 33.000000
0.977043 1.126461 0.645775 32.000000
1.010701 1.138464 0.661660 30.000000
1.007854 1.109094 0.653591 38.000000
1.035068 1.113945 0.665763 10.000000
1.050533 1.104546 0.669648 45.000000
1.062118 1.092097 0.671782 60.000000
1.087115 1.092052 0.681652 32.000000
1.085593 1.066336 0.675644 38.000000
1.104075 1.059348 0.681440 42.000000
1.138574 1.068071 0.697714 33.000000
1.163400 1.066837 0.707881 49.000000
1.165141 1.043456 0.703418 20.000000
1.172859 1.026584 0.703246 32.000000
1.183818 1.012599 0.705124 35.000000
1.215632 1.015974 0.719354 32.000000
1.219521 0.995669 0.717014 42.000000
1.251572 0.998110 0.731221 35.000000
1.273127 0.991558 0.739240 32.000000
1.309223 0.995533 0.755529 37.000000
1.294469 0.960899 0.742599 14.000000
1.319627 0.956059 0.752609 36.000000
1.341150 0.948085 0.760500 61.000000
1.362735 0.939679 0.768362 36.000000
1.376353 0.926225 0.772310 40.000000
1.401671 0.919636 0.782275 35.000000
1.419408 0.907636 0.787923 34.000000
1.444424 0.900527 0.798116 36.000000
1.465953 0.890190 0.805872 20.000000
1.475437 0.872898 0.807492 47.000000
1.484748 0.855433 0.809053 57.000000
1.513652 0.848906 0.821250 33.000000
1.550493 0.846125 0.837712 72.000000
1.571587 0.834100 0.845643 50.000000
1.588628 0.819602 0.851325 35.000000
1.609613 0.806755 0.859114 42.000000
1.642717 0.799482 0.873331 18.000000
1.663663 0.785731 0.881045 33.000000
1.684237 0.771817 0.889028 42.000000
1.705059 0.757235 0.896655 33.000000
1.713082 0.737210 0.898044 34.000000
1.741763 0.725655 0.910233 36.000000
1.766201 0.711863 0.920213 33.000000
1.819944 0.708985 0.945335 37.000000
1.844471 0.693865 0.955251 27.000000
1.860413 0.675079 0.960687 34.000000
1.893200 0.661963 0.974808 49.000000
1.921443 0.646950 0.987044 35.000000
1.945636 0.629707 0.996632 52.000000
1.986627 0.617536 1.015285 51.000000
2.019027 0.601851 1.029516 35.000000
2.038424 0.581790 1.037109 33.000000
2.075014 0.566079 1.053367 28.000000
2.124377 0.553050 1.076552 33.000000
2.156486 0.534457 1.090517 42.000000
2.192726 0.516355 1.106857 36.000000
2.211301 0.493549 1.114397 33.000000
2.242876 0.473137 1.128417 34.000000
2.313931 0.459897 1.162263 36.000000
2.323075 0.433591 1.165437 28.000000
2.376161 0.414894 1.190584 29.000000
2.407227 0.391216 1.204277 34.000000
2.446586 0.368416 1.222998 37.000000
2.499377 0.346463 1.247885 42.000000
2.538639 0.321588 1.265965 33.000000
2.586379 0.296989 1.288757 39.000000
2.642965 0.272178 1.315918 35.000000
2.681463 0.244395 1.334037 27.000000
2.755486 0.218609 1.369835 30.000000
2.802251 0.189432 1.392515 32.000000
2.857735 0.159516 1.419556 33.000000
2.935364 0.129426 1.457622 38.000000
2.981431 0.096441 1.479842 31.000000
3.035978 0.062693 1.506920 34.000000
3.085655 0.027545 1.531578 33.000000
3.072324 -0.008583 1.524910 32.000000
3.004838 -0.043514 1.491464 32.000000
2.972985 -0.077914 1.475499 31.000000
2.980821 -0.113107 1.479944 33.000000
2.952557 -0.146631 1.466409 35.000000
2.924019 -0.179527 1.452779 30.000000
2.935327 -0.214736 1.458942 29.000000
2.897010 -0.246088 1.440979 18.000000
2.903057 -0.280919 1.445022 30.000000
2.904233 -0.315375 1.446744 34.000000
2.882955 -0.347157 1.437176 33.000000
2.874360 -0.380385 1.434564 31.000000
2.852273 -0.411588 1.425106 33.000000
2.843428 -0.444157 1.421812 32.000000
2.833718 -0.476818 1.419206 28.000000
2.784311 -0.502019 1.396103 19.000000
2.796438 -0.537855 1.403790 32.000000
2.790334 -0.570702 1.403015 32.000000
2.783939 -0.603452 1.402046 35.000000
2.764132 -0.633003 1.394361 31.000000
2.765817 -0.667414 1.397613 36.000000
2.749570 -0.697808 1.392336 33.000000
2.737613 -0.728669 1.388593 28.000000
2.681848 -0.747565 1.363251 21.000000
2.695084 -0.785351 1.373005 33.000000
2.677809 -0.814303 1.367280 33.000000
2.664494 -0.844221 1.363567 37.000000
2.655003 -0.875731 1.362428 32.000000
2.649670 -0.908130 1.362908 34.000000
2.609841 -0.928850 1.346184 33.000000
2.607847 -0.962607 1.349046 26.000000
2.567774 -0.982097 1.332181 24.000000
2.569514 -1.017181 1.337035 31.000000
2.562438 -1.049055 1.337430 33.000000
2.546841 -1.077329 1.333381 35.000000
2.526778 -1.103516 1.326984 34.000000
2.518467 -1.135251 1.327562 35.000000
2.514391 -1.168421 1.329641 42.000000
2.485078 -1.190376 1.319128 25.000000
2.463748 -1.215751 1.312952 25.000000
2.474414 -1.257101 1.323823 35.000000
2.460526 -1.286286 1.321664 35.000000
2.450333 -1.317422 1.321558 53.000000
2.431904 -1.344093 1.317160 34.000000
2.417171 -1.372620 1.314720 35.000000
2.406156 -1.403332 1.314320 33.000000
2.402573 -1.438503 1.318171 18.000000
2.355486 -1.448160 1.298897 16.000000
2.362800 -1.490249 1.308922 31.000000
2.346137 -1.518398 1.306568 35.000000
2.332965 -1.548866 1.306234 42.000000
2.320117 -1.578575 1.305325 35.000000
2.298923 -1.603560 1.300576 35.000000
2.273718 -1.625629 1.293641 32.000000
2.259427 -1.655382 1.293011 25.000000
2.233898 -1.676667 1.285911 28.000000
2.251530 -1.730919 1.303864 34.000000
2.236124 -1.760434 1.302893 33.000000
2.216829 -1.786893 1.299741 35.000000
2.186812 -1.804377 1.290375 31.000000
2.174187 -1.836109 1.291180 33.000000
2.157702 -1.864742 1.289902 34.000000
2.147791 -1.899208 1.292629 24.000000
2.126292 -1.925314 1.289557 26.000000
2.098866 -1.944067 1.281917 30.000000
2.094580 -1.984451 1.288475 34.000000
2.082140 -2.019353 1.291297 33.000000
2.060533 -2.043771 1.287421 29.000000
2.050405 -2.081801 1.292119 36.000000
2.047414 -2.125559 1.300216 31.000000
2.014283 -2.140359 1.290544 25.000000
2.013370 -2.187562 1.300456 32.000000
1.995138 -2.218740 1.300689 30.000000
1.955368 -2.225554 1.286855 24.000000
1.881165 -2.189253 1.248767 30.000000
1.809648 -2.155733 1.213260 23.000000
1.724619 -2.103020 1.168084 26.000000
1.656738 -2.065693 1.132471 25.000000
1.580076 -2.016932 1.091545 16.000000
1.518736 -1.984880 1.060630 16.000000
1.466539 -1.962692 1.035653 17.000000
1.415149 -1.939520 1.010821 24.000000
1.367090 -1.919135 0.987988 25.000000
1.305251 -1.874377 0.953277 21.000000
1.263944 -1.859615 0.934526 28.000000
1.218047 -1.836497 0.912062 30.000000
1.185474 -1.831866 0.899188 27.000000
1.165596 -1.846199 0.895803 26.000000
1.150355 -1.868270 0.896200 35.000000
1.130032 -1.882229 0.892800 34.000000
1.107222 -1.892043 0.887452 32.000000
1.095770 -1.921654 0.891391 27.000000
0.728723 1.308785 0.616745 13.000000
0.740668 1.295578 0.617256 24.000000
0.757101 1.290245 0.621639 16.000000
0.771092 1.280704 0.624012 16.000000
0.777716 1.259294 0.620635 19.000000
0.811104 1.280738 0.638512 10.000000
0.809964 1.247475 0.629184 26.000000
0.803121 1.206725 0.615859 23.000000
0.829199 1.215723 0.627930 16.000000
0.845113 1.209187 0.632096 23.000000
0.855664 1.194922 0.632324 17.000000
0.884144 1.206980 0.646667 22.000000
0.889117 1.185030 0.642885 23.000000
0.927215 1.206702 0.663027 14.000000
0.926274 1.177202 0.655138 28.000000
0.921229 1.144826 0.645468 19.000000
0.948363 1.151068 0.657561 25.000000
0.961047 1.139329 0.659601 27.000000
0.990792 1.148646 0.674071 23.000000
1.000435 1.132964 0.674061 30.000000
1.016071 1.123975 0.678022 27.000000
1.052591 1.138711 0.696643 20.000000
1.055799 1.115757 0.692450 32.000000
1.064407 1.099885 0.692549 27.000000
1.063184 1.074228 0.686381 33.000000
1.094570 1.080284 0.700642 32.000000
1.106019 1.067184 0.702705 26.000000
1.131215 1.065984 0.712796 33.000000
1.149221 1.058571 0.718959 30.000000
1.174054 1.056967 0.729337 26.000000
1.175146 1.033905 0.724997 30.000000
1.193077 1.025709 0.731106 27.000000
1.211084 1.017189 0.737184 32.000000
1.218552 0.999778 0.736930 29.000000
1.246994 0.999222 0.749349 30.000000
1.265002 0.989825 0.755383 31.000000
1.282914 0.980039 0.761381 28.000000
1.300838 0.969973 0.767345 24.000000
1.307757 0.951648 0.766846 29.000000
1.329182 0.943703 0.774925 29.000000
1.350226 0.935716 0.783253 33.000000
1.368032 0.924494 0.789065 29.000000
1.389493 0.915406 0.797053 29.000000
1.402969 0.901401 0.800963 33.000000
1.423963 0.891919 0.809165 33.000000
1.445399 0.881709 0.817050 26.000000
1.470285 0.873752 0.827365 29.000000
1.483572 0.858494 0.831170 35.000000
1.528079 0.860742 0.852351 35.000000
1.537303 0.842532 0.853899 32.000000
1.558363 0.830543 0.861906 32.000000
1.579323 0.818152 0.869875 30.000000
1.588205 0.799239 0.871205 26.000000
1.621102 0.792088 0.885693 30.000000
1.653765 0.784548 0.900531 25.000000
1.674579 0.770374 0.908344 28.000000
1.690984 0.754272 0.914214 29.000000
1.719556 0.743121 0.926685 30.000000
1.731661 0.724504 0.930244 27.000000
1.768456 0.715742 0.947021 32.000000
1.801208 0.704531 0.961611 26.000000
1.817163 0.686337 0.967189 16.000000
1.854076 0.675470 0.983865 29.000000
1.873803 0.658046 0.991913 25.000000
1.914876 0.647212 1.010751 30.000000
1.943031 0.631569 1.023118 32.000000
1.975324 0.616617 1.037681 26.000000
1.999016 0.598358 1.047714 27.000000
2.026973 0.580853 1.059940 25.000000
2.024623 0.554510 1.056309 10.000000
2.116759 0.553284 1.102380 25.000000
2.131480 0.530317 1.107631 23.000000
2.171860 0.513458 1.126633 26.000000
2.212113 0.495629 1.145512 26.000000
2.247939 0.475976 1.162082 21.000000
2.287806 0.456556 1.181171 24.000000
2.314673 0.433689 1.193108 22.000000
2.354324 0.412616 1.212003 9.000000
2.393862 0.390635 1.230840 25.000000
2.424461 0.366409 1.245003 21.000000
2.481303 0.345161 1.272681 23.000000
2.520190 0.320503 1.291580 24.000000
2.554486 0.294417 1.308058 23.000000
2.619532 0.270809 1.340247 20.000000
2.675573 0.244840 1.367920 21.000000
2.722563 0.216817 1.390792 10.000000
2.769164 0.187843 1.414051 19.000000
2.851030 0.159820 1.455298 22.000000
2.897097 0.128241 1.478200 17.000000
2.982980 0.096918 1.521342 23.000000
3.032682 0.062867 1.546735 25.000000
3.050913 0.027385 1.556029 20.000000
3.037656 -0.008533 1.549215 24.000000
2.979549 -0.043385 1.519582 24.000000
2.979038 -0.078398 1.519174 25.000000
2.960110 -0.112734 1.510091 27.000000
2.940792 -0.146651 1.500906 25.000000
2.943524 -0.181521 1.502773 27.000000
2.928174 -0.215088 1.495460 24.000000
2.889945 -0.246449 1.477107 14.000000
2.882629 -0.280090 1.474442 25.000000
2.866166 -0.312463 1.467143 24.000000
2.862612 -0.346128 1.466452 27.000000
2.858761 -0.379694 1.465662 29.000000
2.823437 -0.408887 1.449316 25.000000
2.827657 -0.443471 1.453160 30.000000
2.809470 -0.474453 1.445492 24.000000
2.769098 -0.501153 1.426432 10.000000
2.798355 -0.540560 1.443932 28.000000
2.770557 -0.568835 1.431376 29.000000
2.759813 -0.600488 1.428152 26.000000
2.753148 -0.632942 1.427090 28.000000
2.741759 -0.664248 1.423678 27.000000
2.721162 -0.693344 1.416056 25.000000
2.717894 -0.726361 1.416865 25.000000
2.658109 -0.744022 1.388746 10.000000
2.675537 -0.782856 1.400991 29.000000
2.649777 -0.809152 1.390591 25.000000
2.649308 -0.842988 1.393654 29.000000
2.627369 -0.869902 1.385326 25.000000
2.617451 -0.901071 1.384098 25.000000
2.607723 -0.931768 1.382209 26.000000
2.601434 -0.964114 1.383023 25.000000
2.544686 -0.977210 1.356906 10.000000
2.554711 -1.015495 1.366360 30.000000
2.543468 -1.045663 1.364580 31.000000
2.527820 -1.073891 1.360393 29.000000
2.520233 -1.105436 1.360645 30.000000
2.495892 -1.129496 1.351852 29.000000
2.503534 -1.168629 1.361129 30.000000
2.474764 -1.190176 1.349956 24.000000
2.437279 -1.207636 1.334872 12.000000
2.463868 -1.256984 1.354831 33.000000
2.442003 -1.281946 1.348278 31.000000
2.451486 -1.323706 1.359183 36.000000
2.417358 -1.341840 1.345876 34.000000
2.386998 -1.361455 1.334791 27.000000
2.395375 -1.403351 1.345357 28.000000
2.383981 -1.433915 1.344897 13.000000
2.344774 -1.448289 1.329692 9.000000
2.351919 -1.490306 1.339899 29.000000
2.328235 -1.513024 1.332649 28.000000
2.315068 -1.543442 1.332365 29.000000
2.305288 -1.576308 1.334133 32.000000
2.269990 -1.590276 1.320171 26.000000
2.244946 -1.612178 1.313163 24.000000
2.263501 -1.665760 1.331772 27.000000
2.219822 -1.673758 1.313969 10.000000
2.237129 -1.727867 1.332283 31.000000
2.214602 -1.751763 1.327104 28.000000
2.198887 -1.780987 1.325989 30.000000
2.182919 -1.810104 1.324863 32.000000
2.156235 -1.830220 1.317297 24.000000
2.150030 -1.867633 1.322388 29.000000
2.133202 -1.896233 1.320942 25.000000
2.082434 -1.893982 1.298541 10.000000
2.101909 -1.955809 1.320010 32.000000
2.086407 -1.987732 1.320898 23.000000
2.065027 -2.012400 1.317125 27.000000
2.039169 -2.034339 1.311667 28.000000
2.042933 -2.084404 1.324234 25.000000
2.023883 -2.111754 1.322185 29.000000
2.009621 -2.146424 1.324722 21.000000
1.996128 -2.180138 1.326632 22.000000
1.983976 -2.218070 1.330941 30.000000
1.929154 -2.207855 1.306708 16.000000
1.864471 -2.181844 1.273900 21.000000
1.796179 -2.151991 1.239731 22.000000
1.708720 -2.095860 1.191541 13.000000
1.652645 -2.072918 1.163195 18.000000
1.570567 -2.017148 1.117345 11.000000
1.503865 -1.977916 1.081751 9.000000
1.449300 -1.952078 1.054323 20.000000
1.402118 -1.931830 1.030542 10.000000
1.351643 -1.907740 1.005247 15.000000
1.304530 -1.886478 0.982071 16.000000
1.255593 -1.860455 0.956997 16.000000
1.217473 -1.848888 0.939893 23.000000
1.189821 -1.852162 0.930603 19.000000
1.157311 -1.847223 0.917405 19.000000
1.137175 -1.861369 0.913940 29.000000
1.114460 -1.871406 0.908551 28.000000
1.103278 -1.901138 0.912692 25.000000
1.089254 -1.926788 0.914863 25.000000
0.722798 1.273000 0.620511 21.000000
0.738992 1.267803 0.624897 22.000000
0.752767 1.258457 0.627330 25.000000
0.790522 1.288068 0.649456 16.000000
0.770293 1.223740 0.624174 22.000000
0.783607 1.214078 0.626482 20.000000
0.801013 1.212355 0.633023 23.000000
0.819404 1.209830 0.639304 26.000000
0.824813 1.188279 0.635558 18.000000
0.845786 1.189143 0.643831 24.000000
0.861475 1.182275 0.648047 27.000000
0.884603 1.186573 0.658619 20.000000
0.889343 1.164663 0.654676 29.000000
0.907748 1.160732 0.660874 23.000000
0.925468 1.156960 0.667347 30.000000
0.932489 1.138356 0.665359 34.000000
0.947933 1.130262 0.669446 27.000000
0.965674 1.125798 0.675917 37.000000
0.987161 1.124010 0.684145 28.000000
1.020161 1.135825 0.701008 29.000000
1.014331 1.103055 0.690454 35.000000
1.041508 1.107397 0.703114 31.000000
1.053827 1.094465 0.705056 34.000000
1.062250 1.078559 0.705092 37.000000
1.093005 1.084912 0.719885 33.000000
1.114844 1.080772 0.728069 36.000000
1.129642 1.070433 0.732291 30.000000
1.151089 1.066055 0.740743 33.000000
1.155773 1.046065 0.738473 31.000000
1.173751 1.038098 0.744767 25.000000
1.188391 1.026859 0.748824 35.000000
1.195989 1.009612 0.748579 35.000000
1.238199 1.020914 0.769896 31.000000
1.235244 0.994619 0.763071 46.000000
1.263739 0.993603 0.775762 32.000000
1.278150 0.980982 0.779684 30.000000
1.296057 0.970862 0.785742 33.000000
1.317603 0.963111 0.794007 32.000000
1.327684 0.947491 0.795946 35.000000
1.349156 0.939070 0.804143 36.000000
1.366523 0.928086 0.810447 31.000000
1.391708 0.921372 0.820732 39.000000
1.409063 0.909662 0.826971 35.000000
1.438137 0.904416 0.839472 34.000000
1.440154 0.882558 0.836710 30.000000
1.464969 0.874540 0.847274 32.000000
1.478256 0.859290 0.851071 36.000000
1.499207 0.848180 0.859341 36.000000
1.535796 0.845298 0.876461 34.000000
1.552830 0.831154 0.882436 45.000000
1.577704 0.820705 0.892791 34.000000
1.594299 0.806091 0.898987 34.000000
1.631204 0.800697 0.916023 28.000000
1.648020 0.784973 0.921773 31.000000
1.668532 0.770991 0.930043 33.000000
1.684844 0.754835 0.936010 31.000000
1.717465 0.745459 0.950986 37.000000
1.750126 0.735373 0.965936 44.000000
1.766244 0.717861 0.971777 31.000000
1.811320 0.711485 0.993412 28.000000
1.806567 0.685078 0.987718 28.000000
1.847489 0.675720 1.007004 37.000000
1.879746 0.662744 1.022041 35.000000
1.907845 0.647676 1.034761 41.000000
1.927647 0.628934 1.042449 35.000000
1.955536 0.612758 1.055005 36.000000
1.987686 0.597218 1.069805 37.000000
2.002424 0.576231 1.075674 33.000000
2.055762 0.565356 1.101782 31.000000
2.087465 0.547877 1.116741 35.000000
2.119318 0.529417 1.131204 31.000000
2.146467 0.509467 1.143685 32.000000
2.177906 0.489906 1.158337 35.000000
2.221953 0.472500 1.180234 33.000000
2.253129 0.451400 1.194697 36.000000
2.288303 0.430504 1.211803 26.000000
2.332094 0.410424 1.233392 30.000000
2.402042 0.393555 1.268792 37.000000
2.436912 0.369813 1.285563 37.000000
2.462849 0.344034 1.297638 35.000000
2.505926 0.319981 1.319151 42.000000
2.544361 0.294486 1.338371 37.000000
2.609150 0.270815 1.371240 36.000000
2.634011 0.241948 1.383186 22.000000
2.716056 0.217149 1.425172 32.000000
2.766833 0.188461 1.451140 30.000000
2.804030 0.157784 1.470072 31.000000
2.889656 0.128336 1.514327 35.000000
2.944078 0.095992 1.542257 34.000000
2.984643 0.062015 1.563438 32.000000
3.038200 0.027320 1.591483 31.000000
3.020589 -0.008533 1.582203 36.000000
2.962808 -0.043282 1.551942 33.000000
2.984437 -0.078882 1.563232 36.000000
2.961174 -0.113208 1.551636 56.000000
2.946371 -0.147557 1.544474 42.000000
2.931379 -0.181491 1.537214 52.000000
2.916000 -0.215112 1.529755 34.000000
2.895725 -0.248042 1.520283 30.000000
2.897232 -0.282605 1.522200 35.000000
2.885114 -0.315826 1.517066 36.000000
2.859520 -0.347237 1.504791 35.000000
2.855751 -0.380859 1.503998 36.000000
2.851288 -0.414680 1.503502 37.000000
2.837769 -0.446924 1.498184 35.000000
2.815240 -0.477477 1.488149 32.000000
2.788117 -0.506727 1.475620 31.000000
2.791171 -0.541274 1.479163 36.000000
2.750251 -0.567165 1.459930 34.000000
2.744165 -0.599426 1.458481 34.000000
2.737404 -0.631880 1.457515 42.000000
2.721727 -0.662042 1.451658 35.000000
2.705518 -0.692192 1.446193 35.000000
2.689357 -0.721754 1.440160 29.000000
2.651291 -0.745200 1.423041 28.000000
2.638986 -0.775072 1.419045 33.000000
2.638890 -0.808941 1.422304 33.000000
2.617183 -0.836058 1.413924 34.000000
2.599126 -0.864464 1.408220 33.000000
2.598135 -0.898012 1.411095 32.000000
2.575763 -0.924058 1.402368 30.000000
2.586298 -0.962411 1.412350 31.000000
2.550588 -0.983547 1.397090 28.000000
2.531354 -1.010506 1.390858 29.000000
2.544856 -1.050777 1.402702 42.000000
2.520960 -1.075612 1.394016 33.000000
2.505055 -1.103656 1.389688 34.000000
2.492970 -1.133262 1.387534 33.000000
2.472616 -1.158799 1.380773 29.000000
2.459542 -1.188402 1.378998 30.000000
2.434290 -1.211848 1.370287 31.000000
2.453087 -1.256671 1.385746 35.000000
2.454872 -1.294287 1.392550 95.000000
2.491654 -1.351178 1.419380 110.000000
2.457127 -1.369987 1.405787 98.000000
2.403234 -1.376920 1.380981 37.000000
2.399696 -1.412256 1.385112 31.000000
2.368987 -1.431464 1.373564 19.000000
2.342004 -1.452480 1.364175 16.000000
2.325488 -1.480726 1.361829 26.000000
2.324556 -1.518031 1.367758 32.000000
2.300005 -1.541088 1.360891 31.000000
2.294537 -1.575827 1.364386 32.000000
2.269596 -1.598279 1.357344 33.000000
2.248883 -1.622336 1.351853 31.000000
2.248979 -1.662722 1.359961 28.000000
2.209050 -1.673472 1.343928 24.000000
2.201202 -1.708257 1.347451 28.000000
2.199939 -1.748621 1.355193 35.000000
2.177211 -1.772151 1.349789 29.000000
2.168209 -1.806952 1.353041 31.000000
2.155300 -1.838694 1.353914 33.000000
2.124977 -1.855564 1.344013 27.000000
2.121693 -1.896075 1.351208 25.000000
2.087781 -1.909159 1.339000 20.000000
2.080357 -1.946448 1.343902 26.000000
2.065842 -1.977411 1.344311 33.000000
2.046703 -2.005942 1.343155 28.000000
2.031562 -2.036697 1.343426 27.000000
2.016188 -2.067315 1.343575 30.000000
1.995989 -2.095384 1.342082 24.000000
1.995351 -2.142290 1.352575 24.000000
1.965224 -2.160078 1.344653 19.000000
1.963509 -2.207100 1.354828 24.000000
1.932847 -2.224336 1.346803 22.000000
1.856374 -2.184851 1.304970 20.000000
1.800064 -2.169088 1.278312 23.000000
1.709899 -2.109772 1.226995 22.000000
1.645321 -2.076355 1.191947 19.000000
1.580475 -2.042440 1.157460 14.000000
1.491790 -1.974360 1.104742 10.000000
1.435991 -1.944198 1.074208 11.000000
1.398396 -1.939623 1.058513 19.000000
1.356024 -1.926928 1.038707 16.000000
1.293261 -1.883204 1.002934 13.000000
1.252149 -1.868746 0.983408 17.000000
1.202836 -1.837399 0.955500 18.000000
1.177798 -1.844503 0.948017 19.000000
1.155137 -1.855162 0.942543 13.000000
1.144336 -1.885181 0.946948 22.000000
1.126023 -1.903273 0.945251 22.000000
1.098285 -1.905333 0.935782 18.000000
0.716296 1.270379 0.633224 29.000000
0.729203 1.261645 0.635942 27.000000
0.747705 1.260205 0.642383 24.000000
0.766283 1.258500 0.648854 30.000000
0.763035 1.221625 0.637152 19.000000
0.786207 1.227305 0.647628 29.000000
0.792122 1.205926 0.643900 32.000000
0.807882 1.199682 0.648260 25.000000
0.827930 1.201172 0.656934 32.000000
0.835905 1.183281 0.655108 33.000000
0.854248 1.180078 0.661475 31.000000
0.875367 1.180298 0.669894 35.000000
0.882045 1.162459 0.668195 23.000000
0.900503 1.158563 0.674527 35.000000
0.915304 1.151224 0.679037 37.000000
0.925195 1.136188 0.679061 29.000000
0.943619 1.131569 0.685349 50.000000
0.964241 1.130503 0.694027 33.000000
0.979781 1.121801 0.698201 45.000000
0.991578 1.109953 0.700511 44.000000
1.009374 1.104630 0.706991 18.000000
1.037131 1.108498 0.719670 50.000000
1.045750 1.092676 0.719727 37.000000
1.060459 1.083223 0.724080 36.000000
1.072610 1.069944 0.725977 72.000000
1.090496 1.063213 0.732412 37.000000
1.108362 1.056171 0.738821 51.000000
1.146017 1.067269 0.758329 53.000000
1.147508 1.044223 0.753793 26.000000
1.162133 1.033259 0.757984 35.000000
1.183445 1.027946 0.766579 37.000000
1.194575 1.013568 0.768497 33.000000
1.212454 1.004701 0.774775 36.000000
1.216409 0.984332 0.772224 34.000000
1.255296 0.991697 0.791723 35.000000
1.283869 0.990065 0.804635 34.000000
1.291119 0.971686 0.804175 19.000000
1.294100 0.951019 0.801691 36.000000
1.322732 0.948213 0.814523 36.000000
1.343714 0.940124 0.823196 36.000000
1.361509 0.928693 0.829259 38.000000
1.389945 0.924785 0.842379 36.000000
1.403561 0.910549 0.846405 37.000000
1.424998 0.900472 0.854618 34.000000
1.415654 0.871658 0.845021 17.000000
1.459429 0.875261 0.867101 37.000000
1.472717 0.859962 0.871007 35.000000
1.489748 0.846652 0.877083 35.000000
1.518379 0.839438 0.890021 44.000000
1.547127 0.831636 0.902878 35.000000
1.563684 0.817431 0.909206 32.000000
1.580572 0.802554 0.915126 34.000000
1.616913 0.797491 0.932853 18.000000
1.633718 0.781747 0.938694 29.000000
1.666208 0.773470 0.954077 34.000000
1.678529 0.755392 0.957838 29.000000
1.702827 0.742405 0.968477 33.000000
1.727151 0.728903 0.979078 32.000000
1.763737 0.719969 0.996527 32.000000
1.771545 0.698776 0.997774 31.000000
1.799844 0.685396 1.010504 21.000000
1.840313 0.676235 1.030508 35.000000
1.876945 0.664467 1.047821 37.000000
1.900695 0.647859 1.058382 35.000000
1.928632 0.632091 1.071229 36.000000
1.952292 0.614427 1.081694 35.000000
1.971555 0.594944 1.089770 31.000000
2.003206 0.578909 1.105098 35.000000
2.039346 0.563228 1.122364 25.000000
2.070885 0.545788 1.137607 31.000000
2.085147 0.523293 1.143338 30.000000
2.133651 0.508709 1.167725 30.000000
2.169240 0.490111 1.185018 31.000000
2.221928 0.474404 1.211668 48.000000
2.240088 0.450531 1.219358 32.000000
2.283752 0.431340 1.241509 29.000000
2.322992 0.410377 1.261172 28.000000
2.379520 0.391370 1.290211 32.000000
2.414198 0.367722 1.307314 31.000000
2.444104 0.342822 1.322327 35.000000
2.478462 0.317692 1.339202 30.000000
2.542939 0.295394 1.372889 33.000000
2.585481 0.269360 1.394606 33.000000
2.645026 0.244012 1.426163 28.000000
2.691603 0.216069 1.450001 28.000000
2.750785 0.188079 1.481324 30.000000
2.800969 0.158239 1.507743 30.000000
2.859818 0.127548 1.538712 32.000000
2.927132 0.095789 1.574220 32.000000
2.976273 0.062096 1.600673 32.000000
3.020720 0.027216 1.624456 32.000000
2.981192 -0.008471 1.603247 31.000000
2.967776 -0.043606 1.595937 33.000000
2.927538 -0.077727 1.574322 32.000000
2.948425 -0.113275 1.586159 31.000000
2.933799 -0.147474 1.578955 35.000000
2.905592 -0.180641 1.564348 31.000000
2.899182 -0.214709 1.561478 34.000000
2.870131 -0.246887 1.547183 25.000000
2.863152 -0.280387 1.543920 30.000000
2.855485 -0.313783 1.541058 33.000000
2.847529 -0.347075 1.537999 33.000000
2.839088 -0.380264 1.535339 33.000000
2.839284 -0.414524 1.536708 43.000000
2.808392 -0.444067 1.521954 32.000000
2.790235 -0.475113 1.513994 28.000000
2.767594 -0.505057 1.503685 24.000000
2.766374 -0.538610 1.504871 30.000000
2.747175 -0.568786 1.497127 35.000000
2.714914 -0.595720 1.482042 34.000000
2.733977 -0.634001 1.495186 32.000000
2.705455 -0.661175 1.482276 35.000000
2.685309 -0.689941 1.473887 35.000000
2.664948 -0.718212 1.465416 24.000000
2.660997 -0.751169 1.466710 24.000000
2.614831 -0.771344 1.443834 27.000000
2.614618 -0.805014 1.447286 30.000000
2.614064 -0.838790 1.450447 35.000000
2.596388 -0.866974 1.444170 29.000000
2.578491 -0.894865 1.437809 33.000000
2.576742 -0.928746 1.441147 35.000000
2.558343 -0.956060 1.434514 26.000000
2.526965 -0.978569 1.421301 21.000000
2.524262 -1.012028 1.424353 31.000000
2.508926 -1.040405 1.420163 29.000000
2.505476 -1.073829 1.422920 35.000000
2.489597 -1.101782 1.418545 32.000000
2.477511 -1.131388 1.416483 32.000000
2.473268 -1.164493 1.418841 34.000000
2.460109 -1.194290 1.416962 27.000000
2.431247 -1.215390 1.405333 25.000000
2.433414 -1.252754 1.412450 46.000000
2.463283 -1.304305 1.434898 98.000000
2.479984 -1.350886 1.450977 133.000000
2.434007 -1.363143 1.430210 103.000000
2.399601 -1.381125 1.416337 40.000000
2.388249 -1.412055 1.416047 43.000000
2.342285 -1.422075 1.395236 18.000000
2.311667 -1.440515 1.383364 10.000000
2.321649 -1.485497 1.396950 29.000000
2.298063 -1.508136 1.389515 29.000000
2.292820 -1.542966 1.393166 35.000000
2.275535 -1.570735 1.390615 33.000000
2.251331 -1.592492 1.382921 32.000000
2.233537 -1.619794 1.380097 35.000000
2.209124 -1.640820 1.372245 23.000000
2.208637 -1.681122 1.380469 21.000000
2.186467 -1.705046 1.375125 34.000000
2.174580 -1.736992 1.376441 34.000000
2.158910 -1.766079 1.375431 35.000000
2.136109 -1.789203 1.369903 33.000000
2.143664 -1.838358 1.384192 35.000000
2.103348 -1.846394 1.367471 32.000000
2.109945 -1.895715 1.381372 26.000000
2.069473 -1.902866 1.364613 21.000000
2.058613 -1.936915 1.367425 29.000000
2.050702 -1.974132 1.372278 30.000000
2.019757 -1.989140 1.361829 33.000000
2.013077 -2.030201 1.369171 29.000000
2.010156 -2.073730 1.378027 32.000000
1.984784 -2.094476 1.371681 31.000000
1.976534 -2.135628 1.378680 22.000000
1.953835 -2.159212 1.374357 26.000000
1.933937 -2.185890 1.372062 32.000000
1.924232 -2.226936 1.378632 24.000000
1.856863 -2.197928 1.342360 29.000000
1.788971 -2.168430 1.306677 28.000000
1.707825 -2.119904 1.260681 25.000000
1.629480 -2.068887 1.214322 26.000000
1.562067 -2.031436 1.177123 16.000000
1.494451 -1.988233 1.137469 11.000000
1.437423 -1.958989 1.106769 17.000000
1.397110 -1.950920 1.088562 18.000000
1.333796 -1.908531 1.051926 24.000000
1.283210 -1.879169 1.023264 22.000000
1.239655 -1.860902 1.001294 20.000000
1.199263 -1.845671 0.981416 26.000000
1.164361 -1.837440 0.965640 18.000000
1.148977 -1.859748 0.966124 21.000000
1.128481 -1.874116 0.962550 26.000000
1.112402 -1.896094 0.962915 28.000000
1.086235 -1.897490 0.952894 28.000000
0.724973 1.262935 0.650646 22.000000
0.743478 1.261449 0.657223 34.000000
0.754932 1.247949 0.657666 23.000000
0.767676 1.238721 0.660352 16.000000
0.773974 1.217385 0.656579 29.000000
0.789759 1.211278 0.661028 24.000000
0.805580 1.205011 0.665492 32.000000
0.823121 1.202672 0.672260 29.000000
0.833789 1.188476 0.672510 26.000000
0.849522 1.181513 0.676865 33.000000
0.867136 1.178475 0.683645 23.000000
0.904722 1.199964 0.704973 18.000000
0.890345 1.152716 0.685950 32.000000
0.905135 1.145404 0.690545 29.000000
0.920693 1.137431 0.694808 39.000000
0.935486 1.129734 0.699333 34.000000
0.959700 1.131640 0.710099 33.000000
0.965742 1.113135 0.708078 42.000000
0.984098 1.107694 0.714467 31.000000
1.016982 1.119009 0.732026 24.000000
1.022753 1.100015 0.729912 35.000000
1.031936 1.083815 0.729708 32.000000
1.056005 1.084133 0.740684 49.000000
1.086582 1.090298 0.756070 35.000000
1.085446 1.064444 0.749425 36.000000
1.119474 1.072908 0.767065 47.000000
1.134305 1.062243 0.771399 32.000000
1.142440 1.045349 0.771235 26.000000
1.153738 1.031358 0.773294 35.000000
1.178398 1.028969 0.784210 45.000000
1.189560 1.014549 0.786186 46.000000
1.200562 0.999916 0.788109 38.000000
1.218433 0.990806 0.794438 35.000000
1.229228 0.975874 0.796265 41.000000
1.271124 0.985732 0.818772 32.000000
1.281975 0.970088 0.820535 24.000000
1.299823 0.959621 0.826853 32.000000
1.317177 0.949203 0.833358 34.000000
1.334922 0.938164 0.839604 62.000000
1.352219 0.927117 0.846094 32.000000
1.369455 0.915725 0.852548 32.000000
1.402015 0.913392 0.867832 42.000000
1.404305 0.891724 0.865002 29.000000
1.425171 0.881785 0.873652 23.000000
1.453665 0.875975 0.886903 33.000000
1.470773 0.862866 0.893179 36.000000
1.487862 0.849397 0.899355 44.000000
1.508679 0.837831 0.907874 38.000000
1.540772 0.832473 0.923654 34.000000
1.565613 0.821960 0.934448 53.000000
1.574219 0.803223 0.936157 26.000000
1.606877 0.795818 0.951501 23.000000
1.635195 0.786178 0.964849 32.000000
1.647598 0.768414 0.968705 29.000000
1.667890 0.754062 0.977216 30.000000
1.696188 0.742831 0.990399 34.000000
1.716372 0.727612 0.998829 30.000000
1.760932 0.721934 1.021333 35.000000
1.764748 0.699086 1.020218 28.000000
1.792606 0.685907 1.033517 25.000000
1.824896 0.673427 1.048819 35.000000
1.856914 0.660488 1.064424 30.000000
1.888919 0.646820 1.079926 35.000000
1.912550 0.629666 1.090699 36.000000
1.931901 0.610718 1.098899 32.000000
1.967877 0.596426 1.116656 35.000000
2.003616 0.581573 1.134663 28.000000
2.022689 0.561031 1.142704 24.000000
2.062548 0.545875 1.162941 31.000000
2.093868 0.527690 1.178350 27.000000
2.133636 0.510864 1.198502 33.000000
2.160521 0.490159 1.211334 34.000000
2.195781 0.470781 1.228828 28.000000
2.226493 0.449820 1.244256 33.000000
2.261307 0.428982 1.262032 24.000000
2.304635 0.408958 1.284481 26.000000
2.365164 0.390702 1.316419 34.000000
2.399742 0.367130 1.333857 32.000000
2.433745 0.342835 1.351567 33.000000
2.472271 0.318204 1.371188 34.000000
2.523428 0.294354 1.398315 29.000000
2.565731 0.268365 1.420553 31.000000
2.620571 0.242744 1.450228 24.000000
2.658149 0.214287 1.469718 24.000000
2.734452 0.187792 1.511318 29.000000
2.779977 0.157700 1.535751 31.000000
2.829638 0.126762 1.562609 27.000000
2.909781 0.095586 1.606082 32.000000
2.949881 0.061809 1.628230 33.000000
2.989688 0.027097 1.650076 32.000000
2.981038 -0.008521 1.645348 35.000000
2.954567 -0.043568 1.630646 32.000000
2.932068 -0.078209 1.618260 35.000000
2.913445 -0.112396 1.608599 36.000000
2.912022 -0.147049 1.608396 33.000000
2.905823 -0.181430 1.605676 43.000000
2.899427 -0.215707 1.602755 30.000000
2.848704 -0.246111 1.576104 22.000000
2.859190 -0.281174 1.582444 32.000000
2.847179 -0.314247 1.577120 33.000000
2.834891 -0.347012 1.571700 35.000000
2.830712 -0.380837 1.571303 37.000000
2.804858 -0.411286 1.558364 31.000000
2.804447 -0.445441 1.560081 36.000000
2.786444 -0.476644 1.552071 35.000000
2.737914 -0.501907 1.527135 21.000000
2.758209 -0.539416 1.540391 35.000000
2.739362 -0.569504 1.532014 32.000000
2.707235 -0.596550 1.516738 35.000000
2.700485 -0.628856 1.515677 34.000000
2.680660 -0.657928 1.507331 31.000000
2.673365 -0.689792 1.506083 34.000000
2.657307 -0.719267 1.499764 33.000000
2.602604 -0.737948 1.472512 21.000000
2.628310 -0.778762 1.489922 33.000000
2.602759 -0.804990 1.479047 34.000000
2.593771 -0.836114 1.477533 31.000000
2.576163 -0.864253 1.471164 33.000000
2.562486 -0.893452 1.467088 32.000000
2.560969 -0.926951 1.470050 34.000000
2.546270 -0.956195 1.466260 32.000000
2.519577 -0.979987 1.454709 24.000000
2.512608 -1.011894 1.455389 32.000000
2.505414 -1.043711 1.455969 34.000000
2.489804 -1.071952 1.451635 33.000000
2.481915 -1.103491 1.452021 36.000000
2.465874 -1.131260 1.447506 32.000000
2.461372 -1.164501 1.449954 34.000000
2.444788 -1.191846 1.445254 33.000000
2.411518 -1.211539 1.431565 26.000000
2.414168 -1.248280 1.438310 43.000000
2.407991 -1.281525 1.440916 76.000000
2.429265 -1.329161 1.459068 95.000000
2.383604 -1.341031 1.437970 75.000000
2.384036 -1.378563 1.444810 37.000000
2.353616 -1.398176 1.432972 33.000000
2.353380 -1.435699 1.439495 26.000000
2.288861 -1.433291 1.406714 10.000000
2.310483 -1.484689 1.426885 29.000000
2.289964 -1.510486 1.422222 31.000000
2.269878 -1.535345 1.416814 31.000000
2.264264 -1.570056 1.420486 42.000000
2.221208 -1.579549 1.401830 31.000000
2.218662 -1.616499 1.407588 30.000000
2.211285 -1.651511 1.411594 32.000000
2.171617 -1.662230 1.394935 21.000000
2.178560 -1.707144 1.407237 34.000000
2.156131 -1.730884 1.401755 32.000000
2.133574 -1.754255 1.396283 32.000000
2.121042 -1.785887 1.397383 35.000000
2.111579 -1.820317 1.400705 31.000000
2.108344 -1.860721 1.408378 30.000000
2.094636 -1.892249 1.409197 30.000000
2.050928 -1.896299 1.389851 20.000000
2.056295 -1.945780 1.403909 31.000000
2.032052 -1.967446 1.397740 29.000000
2.023520 -2.004626 1.402628 31.000000
2.008121 -2.035434 1.402963 34.000000
1.992487 -2.066103 1.403175 29.000000
1.978331 -2.100685 1.406040 30.000000
1.955898 -2.124588 1.401730 28.000000
1.933171 -2.148098 1.397322 24.000000
1.929789 -2.195782 1.408596 34.000000
1.909454 -2.222473 1.406105 24.000000
1.858368 -2.215174 1.382626 24.000000
1.780600 -2.171059 1.337087 27.000000
1.694183 -2.115784 1.285858 22.000000
1.630138 -2.082706 1.249338 21.000000
1.557399 -2.038262 1.207003 22.000000
1.483219 -1.988774 1.162878 10.000000
1.441132 -1.977292 1.141699 23.000000
1.382339 -1.943606 1.108327 19.000000
1.332371 -1.919855 1.081456 18.000000
1.276734 -1.883184 1.048082 22.000000
1.230871 -1.861329 1.023566 19.000000
1.183227 -1.834643 0.996973 22.000000
1.158094 -1.841805 0.989245 25.000000
1.141513 -1.859619 0.987294 16.000000
1.123315 -1.877856 0.985693 26.000000
1.093400 -1.876298 0.973775 28.000000
0.724077 1.272454 0.669687 25.000000
0.731253 1.251253 0.665979 21.000000
0.749748 1.249498 0.672701 16.000000
0.758754 1.232075 0.670992 17.000000
0.768943 1.218896 0.671606 17.000000
0.784796 1.212751 0.676152 24.000000
0.795679 1.198905 0.676410 24.000000
0.808878 1.188667 0.678788 21.000000
0.834065 1.197253 0.692072 27.000000
0.836830 1.171863 0.685838 22.000000
0.867629 1.187033 0.703475 24.000000
0.883513 1.179547 0.707928 24.000000
0.882925 1.150358 0.699363 21.000000
0.903252 1.150166 0.708359 34.000000
0.921683 1.145618 0.714913 29.000000
0.936564 1.137760 0.719552 24.000000
0.948525 1.126249 0.721954 33.000000
0.969929 1.124378 0.730679 24.000000
0.975865 1.105736 0.728623 30.000000
1.008626 1.117009 0.746484 20.000000
1.018096 1.100906 0.746307 25.000000
1.023705 1.081884 0.744088 29.000000
1.044565 1.078916 0.753047 30.000000
1.074960 1.085136 0.768738 31.000000
1.086597 1.071881 0.770930 33.000000
1.104552 1.064659 0.777643 31.000000
1.125727 1.060231 0.786543 32.000000
1.120831 1.031281 0.777296 18.000000
1.131998 1.017452 0.779332 19.000000
1.163115 1.021071 0.795022 31.000000
1.194458 1.024091 0.810728 29.000000
1.212451 1.015048 0.817264 29.000000
1.226970 1.002864 0.821466 30.000000
1.244416 0.993637 0.828259 29.000000
1.262310 0.983694 0.834746 32.000000
1.266108 0.962742 0.831875 19.000000
1.286907 0.955321 0.840870 27.000000
1.319018 0.954983 0.856548 35.000000
1.321902 0.933932 0.853847 31.000000
1.339121 0.922920 0.860422 29.000000
1.363667 0.916547 0.871705 32.000000
1.381328 0.904469 0.877875 27.000000
1.402187 0.894811 0.886700 26.000000
1.415597 0.880054 0.890782 20.000000
1.425114 0.862866 0.892455 24.000000
1.453432 0.856689 0.905896 29.000000
1.481464 0.850230 0.919676 29.000000
1.517654 0.847186 0.937836 30.000000
1.526936 0.828683 0.939282 30.000000
1.551166 0.818505 0.950620 29.000000
1.568058 0.803579 0.956731 30.000000
1.592290 0.792499 0.967943 14.000000
1.620518 0.782826 0.981520 24.000000
1.640821 0.768892 0.990214 27.000000
1.657062 0.752669 0.996466 24.000000
1.689242 0.743251 1.012286 25.000000
1.705400 0.726192 1.018450 24.000000
1.753777 0.722217 1.043849 24.000000
1.773911 0.705866 1.052279 23.000000
1.789467 0.687717 1.058576 23.000000
1.813160 0.672348 1.069727 22.000000
1.845361 0.659121 1.085205 24.000000
1.881346 0.646856 1.103411 26.000000
1.904889 0.629710 1.114302 21.000000
1.919661 0.609663 1.120705 26.000000
1.968058 0.599243 1.146021 24.000000
1.991440 0.580341 1.156624 21.000000
2.022686 0.563525 1.172555 22.000000
2.053937 0.546032 1.188296 16.000000
2.093644 0.529926 1.208874 23.000000
2.112032 0.507833 1.217112 18.000000
2.142938 0.488265 1.232622 21.000000
2.177847 0.469082 1.250911 22.000000
2.225714 0.451550 1.275948 18.000000
2.234685 0.425734 1.279352 10.000000
2.286330 0.407379 1.307125 15.000000
2.337998 0.387812 1.334766 18.000000
2.359119 0.362485 1.345584 16.000000
2.440668 0.345200 1.390213 20.000000
2.461395 0.318242 1.400821 14.000000
2.494969 0.292303 1.418640 16.000000
2.550003 0.267915 1.448593 17.000000
2.561547 0.238164 1.453783 9.000000
2.650563 0.214618 1.503633 13.000000
2.700370 0.186213 1.531273 15.000000
2.767435 0.157656 1.568589 13.000000
2.816807 0.126661 1.595874 16.000000
2.870279 0.094666 1.625427 16.000000
2.940583 0.061890 1.665244 18.000000
2.954048 0.026834 1.672841 18.000000
2.945450 -0.008471 1.667914 23.000000
2.940893 -0.043632 1.665244 24.000000
2.936028 -0.078587 1.662472 26.000000
2.917503 -0.113035 1.652620 26.000000
2.902930 -0.147287 1.645129 28.000000
2.888167 -0.181126 1.637335 25.000000
2.881697 -0.215302 1.634366 22.000000
2.844675 -0.246741 1.614075 22.000000
2.833009 -0.279818 1.608854 25.000000
2.825389 -0.313268 1.605896 28.000000
2.821802 -0.347046 1.605199 28.000000
2.796339 -0.377809 1.592117 25.000000
2.783273 -0.409960 1.586710 27.000000
2.761631 -0.440435 1.575808 26.000000
2.760928 -0.474185 1.577477 22.000000
2.729820 -0.502516 1.561882 21.000000
2.724279 -0.535078 1.560716 25.000000
2.709524 -0.565954 1.555138 27.000000
2.707580 -0.599258 1.556228 29.000000
2.692294 -0.629685 1.550367 26.000000
2.672526 -0.658768 1.541875 28.000000
2.652537 -0.687450 1.533203 26.000000
2.640755 -0.718023 1.529327 16.000000
2.628711 -0.748304 1.525359 26.000000
2.590816 -0.771200 1.507169 26.000000
2.607155 -0.810146 1.520443 27.000000
2.586004 -0.837103 1.511152 24.000000
2.560132 -0.862462 1.499831 27.000000
2.546481 -0.891664 1.495709 26.000000
2.556772 -0.929925 1.506596 26.000000
2.513956 -0.948132 1.485251 14.000000
2.511805 -0.981299 1.487927 28.000000
2.500714 -1.011565 1.486329 28.000000
2.485394 -1.040046 1.482134 29.000000
2.465712 -1.066502 1.475443 27.000000
2.453927 -1.096153 1.473385 28.000000
2.453717 -1.131125 1.478434 30.000000
2.437347 -1.158662 1.473782 27.000000
2.385252 -1.168624 1.447510 10.000000
2.419665 -1.220895 1.473679 29.000000
2.398027 -1.246216 1.466837 29.000000
2.411750 -1.289348 1.480781 32.000000
2.401178 -1.320700 1.480880 36.000000
2.367290 -1.338956 1.466637 29.000000
2.341628 -1.360421 1.456515 30.000000
2.334086 -1.393277 1.458615 28.000000
2.322498 -1.423731 1.458339 9.000000
2.288180 -1.439992 1.443734 13.000000
2.287295 -1.477162 1.450236 21.000000
2.277802 -1.510192 1.452576 30.000000
2.257714 -1.535099 1.447117 29.000000
2.233865 -1.557107 1.439238 26.000000
2.224238 -1.589132 1.440611 32.000000
2.195705 -1.608538 1.430802 25.000000
2.192606 -1.645447 1.436613 10.000000
2.188238 -1.683077 1.442855 24.000000
2.152005 -1.696162 1.428163 25.000000
2.140994 -1.727383 1.429095 28.000000
2.125212 -1.756417 1.428084 26.000000
2.122741 -1.796731 1.436143 26.000000
2.109591 -1.828440 1.437282 27.000000
2.089564 -1.854217 1.433641 25.000000
2.062564 -1.873721 1.425445 13.000000
2.042027 -1.898842 1.421720 22.000000
2.031082 -1.932897 1.424598 20.000000
2.022749 -1.970108 1.429698 27.000000
2.004565 -1.997889 1.427990 21.000000
1.986119 -2.025361 1.426076 24.000000
1.973501 -2.059170 1.428627 27.000000
1.951402 -2.083118 1.424343 21.000000
1.954940 -2.137383 1.440487 14.000000
1.920091 -2.147716 1.427166 26.000000
1.920736 -2.197979 1.440254 26.000000
1.890177 -2.215291 1.431769 19.000000
1.817713 -2.179540 1.389636 15.000000
1.763429 -2.163209 1.360901 16.000000
1.680267 -2.111389 1.310852 18.000000
1.613806 -2.074868 1.271440 10.000000
1.576930 -2.077247 1.256579 9.000000
1.475876 -1.992088 1.189865 12.000000
1.423316 -1.966110 1.159636 10.000000
1.375349 -1.947129 1.134294 15.000000
1.324250 -1.919174 1.104342 15.000000
1.265037 -1.879591 1.068570 11.000000
1.221817 -1.861516 1.045695 16.000000
1.191481 -1.861721 1.033471 16.000000
1.153052 -1.845337 1.012500 10.000000
1.134903 -1.863860 1.010866 18.000000
1.104940 -1.862699 0.998748 21.000000
1.095635 -1.896492 1.005466 28.000000
0.741758 1.280138 0.695803 14.000000
0.772110 1.297603 0.713348 13.000000
0.753467 1.233496 0.685986 12.000000
0.779125 1.242802 0.699234 22.000000
0.784610 1.221699 0.695531 18.000000
0.798072 1.211529 0.697988 19.000000
0.818153 1.212849 0.707218 24.000000
0.826524 1.194789 0.705281 21.000000
0.847582 1.195091 0.714219 21.000000
0.862656 1.188229 0.719055 19.000000
0.867843 1.166303 0.714782 13.000000
0.880054 1.155526 0.717303 31.000000
0.892908 1.144204 0.719577 28.000000
0.910558 1.140125 0.726506 26.000000
0.928956 1.135308 0.733165 32.000000
0.940918 1.123846 0.735618 28.000000
0.961544 1.122357 0.744770 26.000000
