x y z intensity
2.783107 -0.750987 -0.206025 24.000000
2.784329 -0.783942 -0.206561 83.000000
2.766173 -0.811225 -0.205496 62.000000
2.752407 -0.839756 -0.204965 48.000000
2.838246 -0.899836 -0.211796 67.000000
3.069932 -1.010127 -0.229592 39.000000
3.167428 -1.080280 -0.237434 95.000000
3.160151 -1.116343 -0.237480 78.000000
3.143162 -1.148879 -0.236820 95.000000
3.130569 -1.183076 -0.236410 95.000000
3.108171 -1.213440 -0.235399 95.000000
3.095003 -1.246821 -0.234991 95.000000
3.072011 -1.276578 -0.233983 98.000000
3.048796 -1.306033 -0.232876 83.000000
3.025362 -1.335186 -0.231872 82.000000
2.978906 -1.353621 -0.229023 54.000000
2.963992 -1.385952 -0.228623 75.000000
2.957767 -1.422407 -0.228918 78.000000
2.946776 -1.456344 -0.228864 45.000000
2.970814 -1.508749 -0.231582 62.000000
2.958622 -1.543265 -0.231520 52.000000
2.954868 -1.582485 -0.232148 35.000000
2.946179 -1.619488 -0.232325 35.000000
2.928387 -1.651473 -0.231914 29.000000
2.914604 -1.685852 -0.231846 29.000000
2.926098 -1.735387 -0.233730 26.000000
2.894267 -1.759457 -0.232287 15.000000
2.917232 -1.817225 -0.235183 10.000000
2.914077 -1.859709 -0.236019 10.000000
2.940029 -1.920811 -0.239229 9.000000
2.931305 -1.961144 -0.239709 9.000000
2.909729 -1.992968 -0.239169 8.000000
2.920616 -2.047595 -0.241330 9.000000
2.922352 -2.096792 -0.242805 9.000000
2.923486 -2.146301 -0.244160 9.000000
2.923790 -2.196114 -0.245616 9.000000
2.923479 -2.246228 -0.247063 8.000000
2.926242 -2.299605 -0.248720 8.000000
2.924304 -2.350230 -0.250146 6.000000
2.902341 -2.385182 -0.249790 3.000000
2.883783 -2.423198 -0.249762 3.000000
2.872308 -2.467653 -0.250390 3.000000
2.893940 -2.541606 -0.253972 2.000000
2.840151 -2.549727 -0.250969 2.000000
2.793756 -2.563794 -0.248633 2.000000
2.732826 -2.563457 -0.245001 6.000000
2.662547 -2.550687 -0.240297 7.000000
2.467024 -2.415601 -0.224380 8.000000
2.384196 -2.385846 -0.218470 20.000000
2.298797 -2.351086 -0.212373 20.000000
2.197172 -2.296703 -0.204603 21.000000
2.103897 -2.247659 -0.197614 21.000000
2.028774 -2.215245 -0.192167 23.000000
1.944676 -2.170306 -0.185797 23.000000
1.871633 -2.135052 -0.180417 20.000000
1.796305 -2.094761 -0.174753 12.000000
1.741368 -2.075938 -0.171013 21.000000
1.671269 -2.036880 -0.165725 22.000000
1.624127 -2.023871 -0.162659 24.000000
1.583584 -2.017852 -0.160154 34.000000
1.549393 -2.019113 -0.158363 32.000000
1.524452 -2.031852 -0.157509 34.000000
1.493463 -2.036245 -0.155963 33.000000
1.468396 -2.048326 -0.155038 22.000000
1.457581 -2.080472 -0.155723 32.000000
1.446178 -2.112712 -0.156320 31.000000
1.423165 -2.128289 -0.155694 32.000000
1.416369 -2.168704 -0.156882 32.000000
1.398136 -2.192404 -0.156930 29.000000
1.382200 -2.220220 -0.157194 35.000000
1.360565 -2.239437 -0.156853 28.000000
1.371844 -2.314206 -0.160295 9.000000
0.797233 1.361573 -0.082211 7.000000
0.791431 1.318597 -0.080412 11.000000
0.805718 1.309902 -0.080694 20.000000
0.825188 1.309515 -0.081502 25.000000
0.839331 1.300481 -0.081833 27.000000
0.858933 1.299587 -0.082646 27.000000
0.872977 1.290161 -0.082932 25.000000
0.886926 1.280592 -0.083218 27.000000
0.903619 1.275001 -0.083771 24.000000
0.902720 1.244858 -0.082715 17.000000
0.916208 1.234989 -0.082997 26.000000
0.944645 1.244865 -0.084631 26.000000
0.951944 1.226612 -0.084327 31.000000
0.968335 1.220131 -0.084884 32.000000
0.981475 1.209514 -0.085170 26.000000
1.007317 1.214123 -0.086503 31.000000
1.020433 1.203082 -0.086792 26.000000
1.017099 1.173083 -0.085656 16.000000
1.033129 1.165668 -0.086217 35.000000
1.055752 1.165437 -0.087286 34.000000
1.081424 1.168992 -0.088687 35.000000
1.087221 1.149860 -0.088373 37.000000
1.096231 1.134371 -0.088335 35.000000
1.119051 1.132972 -0.089417 35.000000
1.131317 1.120705 -0.089660 34.000000
1.161409 1.125665 -0.091313 21.000000
1.169998 1.109475 -0.091277 41.000000
1.182024 1.096611 -0.091524 36.000000
1.201294 1.090359 -0.092289 53.000000
1.216829 1.080482 -0.092822 51.000000
1.236106 1.073697 -0.093591 37.000000
1.247717 1.060134 -0.093842 69.000000
1.274585 1.059182 -0.095189 47.000000
1.293832 1.051497 -0.096017 29.000000
1.301289 1.034172 -0.095933 45.000000
1.324343 1.029082 -0.097002 34.000000
1.343418 1.020612 -0.097786 53.000000
1.346440 0.999910 -0.097412 36.000000
1.365389 0.991008 -0.098198 40.000000
1.384207 0.981827 -0.098987 52.000000
1.423560 0.986580 -0.101237 35.000000
1.442522 0.976557 -0.102033 22.000000
1.440576 0.952482 -0.101314 60.000000
1.471837 0.950286 -0.102993 49.000000
1.503233 0.947472 -0.104623 69.000000
1.509194 0.928397 -0.104546 55.000000
1.527556 0.917340 -0.105352 58.000000
1.559004 0.913230 -0.106994 68.000000
1.581893 0.903589 -0.108047 42.000000
1.591640 0.886324 -0.108270 24.000000
1.601163 0.868891 -0.108437 37.000000
1.619345 0.856068 -0.109200 71.000000
1.637460 0.842997 -0.109964 59.000000
1.673298 0.838509 -0.111923 86.000000
1.686768 0.822443 -0.112394 60.000000
1.727170 0.818994 -0.114603 61.000000
1.749593 0.806444 -0.115677 54.000000
1.776471 0.795520 -0.117055 22.000000
1.766614 0.768395 -0.116031 36.000000
1.797851 0.758839 -0.117653 44.000000
1.852153 0.758116 -0.120846 37.000000
1.874208 0.743445 -0.121873 53.000000
1.900796 0.730199 -0.123204 35.000000
1.936708 0.719901 -0.125206 35.000000
1.958505 0.703866 -0.126240 33.000000
1.961299 0.680913 -0.126064 25.000000
1.992195 0.667641 -0.127708 41.000000
2.037318 0.658202 -0.130266 66.000000
2.053853 0.638976 -0.131005 36.000000
2.108504 0.630923 -0.134179 51.000000
2.124826 0.610734 -0.134922 37.000000
2.164993 0.597038 -0.137192 49.000000
2.190611 0.578584 -0.138481 35.000000
2.235486 0.564458 -0.141062 25.000000
2.260885 0.544814 -0.142354 37.000000
2.295829 0.526981 -0.144331 36.000000
2.320950 0.506244 -0.145627 42.000000
2.350688 0.486094 -0.147303 58.000000
2.409701 0.471010 -0.150747 42.000000
2.395099 0.441193 -0.149596 10.000000
2.443973 0.422787 -0.152431 9.000000
2.497711 0.404217 -0.155575 15.000000
2.526562 0.380781 -0.157187 8.000000
2.579972 0.360181 -0.160337 8.000000
2.613493 0.335962 -0.162180 8.000000
2.686347 0.315676 -0.166563 8.000000
2.734317 0.291155 -0.169413 8.000000
2.791906 0.266696 -0.172795 9.000000
2.849349 0.240965 -0.176265 30.000000
2.961291 0.217986 -0.183032 34.000000
3.003314 0.188253 -0.185493 67.000000
3.050101 0.157912 -0.188262 64.000000
3.126390 0.127819 -0.192876 29.000000
3.187492 0.095554 -0.196567 42.000000
3.293051 0.062943 -0.203027 93.000000
3.328486 0.027378 -0.205181 95.000000
3.358531 -0.008831 -0.207026 98.000000
3.283474 -0.044378 -0.202312 95.000000
3.247848 -0.079269 -0.200159 22.000000
3.196882 -0.112774 -0.196987 10.000000
3.160616 -0.145982 -0.194836 13.000000
3.193752 -0.182316 -0.196889 86.000000
3.181545 -0.216361 -0.196177 42.000000
3.114335 -0.245773 -0.192186 18.000000
3.116535 -0.280129 -0.192398 27.000000
3.068594 -0.309396 -0.189542 15.000000
3.040213 -0.340005 -0.187915 10.000000
3.021518 -0.371197 -0.186809 10.000000
3.012383 -0.403392 -0.186410 10.000000
3.027585 -0.438966 -0.187540 74.000000
3.022628 -0.471797 -0.187353 62.000000
2.948386 -0.493104 -0.182983 26.000000
2.942902 -0.525094 -0.182800 78.000000
2.941956 -0.558014 -0.183014 81.000000
2.911265 -0.585049 -0.181307 58.000000
2.909611 -0.617590 -0.181430 81.000000
2.897829 -0.648058 -0.180944 81.000000
2.871223 -0.674903 -0.179547 47.000000
2.800746 -0.690485 -0.175421 9.000000
2.768911 -0.714676 -0.173729 8.000000
2.717675 -0.733055 -0.170828 14.000000
2.772041 -0.779975 -0.174502 64.000000
2.763412 -0.809998 -0.174326 73.000000
2.744884 -0.837109 -0.173546 77.000000
2.745187 -0.869867 -0.173885 33.000000
2.967902 -0.976119 -0.188461 32.000000
3.169783 -1.080485 -0.201701 95.000000
3.134375 -1.106579 -0.199893 35.000000
3.117492 -1.138910 -0.199390 98.000000
3.114248 -1.176227 -0.199685 95.000000
3.092022 -1.206388 -0.198782 94.000000
3.074100 -1.238110 -0.198179 95.000000
3.060524 -1.271444 -0.197875 95.000000
3.032777 -1.298782 -0.196678 59.000000
3.023224 -1.333273 -0.196673 37.000000
2.999387 -1.361975 -0.195676 25.000000
3.025179 -1.413520 -0.198038 52.000000
3.005164 -1.444228 -0.197436 50.000000
3.025063 -1.494532 -0.199388 61.000000
3.008662 -1.527333 -0.199078 45.000000
2.996274 -1.562339 -0.198960 35.000000
2.996728 -1.604303 -0.199823 27.000000
2.983438 -1.639231 -0.199701 16.000000
2.948042 -1.661791 -0.198219 9.000000
2.968725 -1.716347 -0.200431 13.000000
2.962738 -1.756270 -0.200885 10.000000
2.969385 -1.803402 -0.202101 10.000000
3.000487 -1.867337 -0.205153 10.000000
2.996797 -1.910588 -0.205878 9.000000
2.996617 -1.956827 -0.206886 9.000000
3.004220 -2.008852 -0.208464 9.000000
2.978006 -2.038733 -0.207735 8.000000
2.984227 -2.091109 -0.209189 9.000000
2.961281 -2.123523 -0.208743 8.000000
2.974222 -2.182405 -0.210753 7.000000
3.006094 -2.256610 -0.214286 6.000000
2.981391 -2.289356 -0.213712 5.000000
2.940524 -2.309424 -0.212119 4.000000
2.926829 -2.350803 -0.212395 3.000000
2.881722 -2.366746 -0.210413 2.000000
2.909255 -2.443036 -0.213776 2.000000
2.852130 -2.448606 -0.210954 1.000000
2.885393 -2.532316 -0.214850 2.000000
2.835287 -2.543644 -0.212591 2.000000
2.748476 -2.520509 -0.207563 2.000000
2.750031 -2.577686 -0.209095 4.000000
2.667731 -2.555719 -0.204376 7.000000
2.497040 -2.444916 -0.192795 6.000000
2.406710 -2.408479 -0.187213 15.000000
2.307085 -2.359633 -0.180944 17.000000
2.219143 -2.319710 -0.175428 19.000000
2.135732 -2.281782 -0.170217 22.000000
2.044381 -2.230335 -0.164224 22.000000
1.963393 -2.189247 -0.159077 23.000000
1.880216 -2.142992 -0.153693 18.000000
1.808001 -2.106464 -0.149147 10.000000
1.759410 -2.095388 -0.146499 21.000000
1.692217 -2.060352 -0.142267 19.000000
1.629079 -2.028081 -0.138327 20.000000
1.585466 -2.018165 -0.135998 28.000000
1.554302 -2.023384 -0.134658 34.000000
1.526316 -2.032163 -0.133665 35.000000
1.471675 -2.004356 -0.130321 32.000000
1.473157 -2.052614 -0.131874 26.000000
1.453710 -2.072607 -0.131670 32.000000
1.431198 -2.088234 -0.131129 32.000000
1.425122 -2.128603 -0.132211 32.000000
1.399219 -2.139766 -0.131406 32.000000
1.394749 -2.184304 -0.132648 28.000000
1.381558 -2.216302 -0.133112 30.000000
1.354861 -2.226879 -0.132380 26.000000
1.317823 -2.220064 -0.130560 9.000000
0.807666 1.379443 -0.068848 6.000000
0.794330 1.323444 -0.066717 9.000000
0.806047 1.310466 -0.066736 16.000000
0.822856 1.305857 -0.067188 19.000000
0.837001 1.296851 -0.067424 12.000000
0.859266 1.300206 -0.068317 24.000000
0.864913 1.278369 -0.067896 17.000000
0.884463 1.277104 -0.068572 21.000000
0.901113 1.271499 -0.069031 17.000000
0.914872 1.261644 -0.069269 10.000000
0.928488 1.251647 -0.069507 19.000000
0.938989 1.237480 -0.069474 17.000000
0.958496 1.235122 -0.070159 18.000000
0.965658 1.216789 -0.069948 25.000000
0.985098 1.213964 -0.070589 15.000000
0.994995 1.199374 -0.070602 22.000000
1.011223 1.192281 -0.071019 20.000000
1.063381 1.226486 -0.073990 10.000000
1.040230 1.173715 -0.071677 31.000000
1.049574 1.158610 -0.071640 23.000000
1.068874 1.154478 -0.072338 26.000000
1.081370 1.142750 -0.072530 29.000000
1.104188 1.141648 -0.073415 24.000000
1.116562 1.129566 -0.073609 30.000000
1.142988 1.131392 -0.074732 23.000000
1.176748 1.139712 -0.076324 17.000000
1.163733 1.102752 -0.074892 32.000000
1.179347 1.093413 -0.075321 27.000000
1.194887 1.083797 -0.075703 26.000000
1.210353 1.074001 -0.076135 34.000000
1.225742 1.064026 -0.076569 25.000000
1.248718 1.060284 -0.077426 34.000000
1.287073 1.068906 -0.079282 31.000000
1.306430 1.061095 -0.079961 21.000000
1.294484 1.028163 -0.078689 31.000000
1.317429 1.023160 -0.079555 22.000000
1.332465 1.011758 -0.079998 29.000000
1.351425 1.003091 -0.080630 33.000000
1.382539 1.002945 -0.081983 26.000000
1.405616 0.996476 -0.082860 31.000000
1.416355 0.981104 -0.083018 30.000000
1.439398 0.973971 -0.083899 18.000000
1.441579 0.952693 -0.083575 34.000000
1.485443 0.958624 -0.085670 34.000000
1.491535 0.939703 -0.085589 32.000000
1.514260 0.931556 -0.086479 52.000000
1.528591 0.917558 -0.086886 28.000000
1.547125 0.905881 -0.087537 31.000000
1.582896 0.903867 -0.089111 32.000000
1.583915 0.881689 -0.088789 24.000000
1.597832 0.866788 -0.089200 34.000000
1.615994 0.854015 -0.089802 32.000000
1.638473 0.843223 -0.090651 34.000000
1.665398 0.834264 -0.091804 52.000000
1.678880 0.818296 -0.092165 32.000000
1.728280 0.819228 -0.094499 36.000000
1.764318 0.812949 -0.096158 33.000000
1.777602 0.795758 -0.096524 25.000000
1.781532 0.774427 -0.096395 33.000000
1.817448 0.766663 -0.098003 34.000000
1.839511 0.752505 -0.098868 27.000000
1.861515 0.738047 -0.099736 32.000000
1.892655 0.726867 -0.101104 26.000000
1.914504 0.711519 -0.101975 27.000000
1.959714 0.704184 -0.104034 28.000000
1.962505 0.681167 -0.103911 14.000000
1.984010 0.664597 -0.104788 32.000000
2.033875 0.656799 -0.107104 36.000000
2.064705 0.642140 -0.108488 29.000000
2.105066 0.629694 -0.110309 47.000000
2.121311 0.609558 -0.110945 27.000000
2.156670 0.594521 -0.112520 34.000000
2.196825 0.579997 -0.114416 35.000000
2.173953 0.548781 -0.112976 9.000000
2.257452 0.543787 -0.117073 34.000000
2.297269 0.527053 -0.118907 34.000000
2.307694 0.503198 -0.119232 29.000000
2.337485 0.483208 -0.120565 32.000000
2.401401 0.469244 -0.123666 31.000000
2.376870 0.437724 -0.122226 9.000000
2.435648 0.421236 -0.125079 8.000000
2.464752 0.398712 -0.126419 9.000000
2.503436 0.377140 -0.128189 9.000000
2.551891 0.356120 -0.130543 7.000000
2.620058 0.336679 -0.133832 7.000000
2.683042 0.315176 -0.136951 8.000000
2.711171 0.288680 -0.138216 7.000000
2.768766 0.264408 -0.141086 8.000000
2.841147 0.240124 -0.144632 32.000000
2.933226 0.215878 -0.149191 17.000000
2.985220 0.187096 -0.151724 32.000000
3.041995 0.157489 -0.154510 36.000000
3.128303 0.127914 -0.158912 30.000000
3.189442 0.095651 -0.161856 17.000000
3.270103 0.062466 -0.165909 36.000000
3.330522 0.027480 -0.168948 71.000000
3.350597 -0.008805 -0.169962 98.000000
3.260417 -0.044041 -0.165402 39.000000
3.229866 -0.078782 -0.163784 23.000000
3.188857 -0.112422 -0.161759 9.000000
3.147586 -0.145291 -0.159637 10.000000
3.135786 -0.178903 -0.159131 21.000000
3.103783 -0.210943 -0.157518 9.000000
3.051531 -0.240763 -0.154896 8.000000
3.058672 -0.274768 -0.155308 9.000000
3.030733 -0.305484 -0.153952 8.000000
3.012308 -0.336769 -0.153102 8.000000
2.988685 -0.367030 -0.152001 9.000000
2.974645 -0.398093 -0.151405 9.000000
3.019572 -0.437627 -0.153831 52.000000
2.999829 -0.468042 -0.152983 34.000000
2.935438 -0.490725 -0.149873 22.000000
2.939814 -0.524400 -0.150193 83.000000
2.909442 -0.551594 -0.148847 35.000000
2.903289 -0.583173 -0.148757 48.000000
2.891890 -0.613625 -0.148325 68.000000
2.870404 -0.641612 -0.147394 36.000000
2.863304 -0.672799 -0.147304 64.000000
2.797661 -0.689466 -0.144127 9.000000
2.765825 -0.713603 -0.142703 7.000000
2.729039 -0.735828 -0.141120 10.000000
2.764187 -0.777447 -0.143101 34.000000
2.750796 -0.805961 -0.142677 44.000000
2.732309 -0.832916 -0.142005 52.000000
2.727905 -0.864012 -0.142078 32.000000
2.922372 -0.960620 -0.152552 31.000000
3.143367 -1.071229 -0.164484 62.000000
3.122178 -1.101999 -0.163787 35.000000
3.119420 -1.139316 -0.164079 75.000000
3.092822 -1.167813 -0.163035 35.000000
3.084747 -1.202861 -0.163079 33.000000
3.076127 -1.238110 -0.163021 32.000000
3.053325 -1.267614 -0.162328 27.000000
3.076115 -1.316466 -0.163983 33.000000
3.079876 -1.357852 -0.164756 26.000000
3.033132 -1.376827 -0.162740 10.000000
3.049743 -1.424495 -0.164139 31.000000
3.025005 -1.453184 -0.163345 23.000000
3.018067 -1.490522 -0.163625 24.000000
3.014972 -1.530006 -0.164044 12.000000
3.015952 -1.571986 -0.164701 9.000000
3.042737 -1.628177 -0.166803 10.000000
3.016057 -1.656476 -0.166005 9.000000
3.010922 -1.696528 -0.166411 8.000000
3.000881 -1.734259 -0.166469 7.000000
3.016192 -1.787242 -0.168066 7.000000
3.052082 -1.853615 -0.170851 9.000000
3.070283 -1.909868 -0.172560 8.000000
3.040980 -1.937863 -0.171753 8.000000
3.040519 -1.984563 -0.172498 8.000000
3.060300 -2.045260 -0.174534 6.000000
3.066661 -2.098290 -0.175737 4.000000
3.056002 -2.140148 -0.176104 5.000000
3.028348 -2.170521 -0.175413 5.000000
3.012613 -2.209326 -0.175427 5.000000
2.988302 -2.241968 -0.175084 4.000000
2.951876 -2.265375 -0.173927 3.000000
2.970198 -2.331354 -0.176034 2.000000
3.026501 -2.429192 -0.180450 1.000000
3.088623 -2.535034 -0.185303 1.000000
2.957489 -2.481913 -0.178577 1.000000
2.983313 -2.559527 -0.181331 1.000000
2.917662 -2.559016 -0.178434 1.000000
2.889682 -2.590672 -0.177960 1.000000
2.802309 -2.567980 -0.173831 1.000000
2.675780 -2.506213 -0.167215 3.000000
2.659165 -2.545583 -0.167336 5.000000
2.527738 -2.473074 -0.160320 5.000000
2.412427 -2.412219 -0.154138 9.000000
2.330164 -2.381256 -0.150120 10.000000
2.235021 -2.334337 -0.145125 10.000000
2.134323 -2.278328 -0.139713 10.000000
2.041930 -2.227762 -0.134781 10.000000
1.974297 -2.201482 -0.131523 14.000000
1.877792 -2.140196 -0.126201 10.000000
1.818609 -2.118854 -0.123339 8.000000
1.769798 -2.107867 -0.121153 14.000000
1.686609 -2.053610 -0.116570 10.000000
1.639179 -2.040638 -0.114417 12.000000
1.580000 -2.011172 -0.111328 18.000000
1.545875 -2.012435 -0.110071 21.000000
1.523938 -2.029101 -0.109683 33.000000
1.490021 -2.029428 -0.108435 26.000000
1.465037 -2.041365 -0.107759 17.000000
1.439987 -2.053086 -0.107162 26.000000
1.420444 -2.072680 -0.106992 20.000000
1.414553 -2.112937 -0.107802 30.000000
1.407967 -2.153246 -0.108680 26.000000
1.395303 -2.185255 -0.109049 26.000000
1.374188 -2.204462 -0.108783 24.000000
1.352822 -2.223567 -0.108595 18.000000
1.366826 -2.302552 -0.111230 9.000000
0.798679 1.362200 -0.053763 7.000000
0.790220 1.314878 -0.052419 17.000000
0.807081 1.310466 -0.052731 22.000000
0.823893 1.305857 -0.053091 24.000000
0.835326 1.292654 -0.053107 29.000000
0.846527 1.279323 -0.053122 23.000000
0.865951 1.278369 -0.053656 32.000000
0.885460 1.277104 -0.054193 29.000000
0.902113 1.271499 -0.054510 24.000000
0.904130 1.245469 -0.054000 24.000000
0.911613 1.227577 -0.053836 22.000000
0.936963 1.233501 -0.054681 25.000000
0.950255 1.223283 -0.054871 31.000000
0.963499 1.212877 -0.055013 26.000000
0.979752 1.206207 -0.055380 33.000000
0.999139 1.203218 -0.055879 28.000000
1.018597 1.199899 -0.056429 23.000000
1.018476 1.173653 -0.055854 25.000000
1.021246 1.151287 -0.055504 26.000000
1.043769 1.151254 -0.056187 31.000000
1.069787 1.154478 -0.057053 36.000000
1.085720 1.146426 -0.057379 35.000000
1.105062 1.141696 -0.057888 46.000000
1.113921 1.126062 -0.057899 31.000000
1.122558 1.110311 -0.057861 36.000000
1.145335 1.108488 -0.058557 27.000000
1.160937 1.099365 -0.058887 27.000000
1.176517 1.090017 -0.059218 36.000000
1.192023 1.080490 -0.059500 37.000000
1.203766 1.067421 -0.059648 32.000000
1.237958 1.073898 -0.060909 46.000000
1.257188 1.066800 -0.061432 34.000000
1.264875 1.049862 -0.061396 37.000000
1.272391 1.032858 -0.061310 23.000000
1.287465 1.022000 -0.061647 28.000000
1.314043 1.020554 -0.062549 33.000000
1.337007 1.015239 -0.063215 35.000000
1.348030 1.000576 -0.063369 30.000000
1.354803 0.982877 -0.063283 36.000000
1.377663 0.976670 -0.064004 33.000000
1.404665 0.972990 -0.064866 33.000000
1.435844 0.971649 -0.065920 35.000000
1.442212 0.953168 -0.065889 29.000000
1.465101 0.945510 -0.066566 35.000000
1.488008 0.937471 -0.067246 46.000000
1.493850 0.918579 -0.067162 32.000000
1.512326 0.907439 -0.067653 44.000000
1.530753 0.895950 -0.068144 37.000000
1.562091 0.891595 -0.069214 31.000000
1.584802 0.881855 -0.069901 34.000000
1.603057 0.869281 -0.070398 35.000000
1.616831 0.854127 -0.070703 35.000000
1.639374 0.843392 -0.071395 52.000000
1.661841 0.832198 -0.072089 35.000000
1.688776 0.822844 -0.072921 37.000000
1.715671 0.812985 -0.073813 35.000000
1.737982 0.800585 -0.074512 33.000000
1.755693 0.785732 -0.074960 29.000000
1.787063 0.776596 -0.076053 30.000000
1.818352 0.766843 -0.077088 33.000000
1.835858 0.750796 -0.077600 37.000000
1.848499 0.732707 -0.077856 31.000000
1.898373 0.728720 -0.079741 33.000000
1.929553 0.716738 -0.080783 36.000000
1.937222 0.695740 -0.080846 29.000000
1.968177 0.682995 -0.081954 30.000000
1.994444 0.667962 -0.082805 34.000000
2.011083 0.649319 -0.083263 35.000000
2.046613 0.636404 -0.084509 37.000000
2.067781 0.618442 -0.085232 34.000000
2.122391 0.609760 -0.087272 35.000000
2.148131 0.591935 -0.088130 42.000000
2.164121 0.571143 -0.088525 29.000000
2.199270 0.554961 -0.089780 32.000000
2.248873 0.541589 -0.091631 35.000000
2.269204 0.520496 -0.092296 35.000000
2.313730 0.504406 -0.093952 60.000000
2.343545 0.484292 -0.095016 35.000000
2.373177 0.463646 -0.096008 35.000000
2.353485 0.433275 -0.095090 9.000000
2.358090 0.407694 -0.095090 7.000000
2.480692 0.401258 -0.099931 19.000000
2.554076 0.384658 -0.102791 37.000000
2.567995 0.358270 -0.103189 21.000000
2.581707 0.331667 -0.103586 9.000000
2.634744 0.309431 -0.105656 8.000000
2.687665 0.286118 -0.107645 8.000000
2.755207 0.263069 -0.110232 10.000000
2.767868 0.233901 -0.110630 10.000000
2.889822 0.212668 -0.115405 37.000000
2.941808 0.184375 -0.117485 36.000000
3.018538 0.156198 -0.120472 52.000000
3.059949 0.125058 -0.121971 37.000000
3.101115 0.092957 -0.123563 9.000000
3.186885 0.060942 -0.126946 19.000000
3.272201 0.026985 -0.130328 72.000000
3.282293 -0.008622 -0.130726 91.000000
3.272101 -0.044176 -0.130228 95.000000
3.231446 -0.078782 -0.128638 46.000000
3.210389 -0.113125 -0.127843 78.000000
3.174080 -0.146442 -0.126354 95.000000
3.142406 -0.179187 -0.125162 10.000000
3.125241 -0.212298 -0.124470 9.000000
3.072949 -0.242334 -0.122391 9.000000
3.035387 -0.272534 -0.121002 9.000000
3.032222 -0.305577 -0.120909 9.000000
3.008825 -0.336215 -0.120024 9.000000
2.975281 -0.365295 -0.118744 9.000000
2.961257 -0.396197 -0.118257 10.000000
2.991397 -0.433330 -0.119549 42.000000
2.966759 -0.462745 -0.118758 79.000000
2.946749 -0.492463 -0.117983 69.000000
2.936355 -0.523523 -0.117695 83.000000
2.920708 -0.553545 -0.117210 95.000000
2.899749 -0.582280 -0.116528 85.000000
2.893335 -0.613716 -0.116438 91.000000
2.871842 -0.641702 -0.115668 95.000000
2.845287 -0.668319 -0.114793 55.000000
2.808772 -0.691945 -0.113528 10.000000
2.762383 -0.712443 -0.111785 9.000000
2.744894 -0.739728 -0.111306 10.000000
2.775122 -0.780327 -0.112695 78.000000
2.752110 -0.806224 -0.112022 49.000000
2.719368 -0.828721 -0.110872 82.000000
2.714928 -0.859749 -0.110893 59.000000
2.819361 -0.926584 -0.115472 20.000000
3.036216 -1.034473 -0.124607 30.000000
3.133220 -1.105323 -0.128868 33.000000
3.139817 -1.146169 -0.129439 34.000000
3.131935 -1.181926 -0.129428 35.000000
3.128159 -1.219394 -0.129609 32.000000
3.124099 -1.257065 -0.129789 35.000000
3.105601 -1.288986 -0.129391 32.000000
3.114397 -1.332392 -0.130146 21.000000
3.136386 -1.382342 -0.131472 18.000000
3.084809 -1.399741 -0.129732 9.000000
3.110138 -1.452181 -0.131245 9.000000
3.125732 -1.501076 -0.132370 10.000000
3.136093 -1.548233 -0.133194 9.000000
3.150301 -1.598021 -0.134310 10.000000
3.154872 -1.643762 -0.135043 10.000000
3.145648 -1.682589 -0.135095 10.000000
3.157896 -1.733630 -0.136200 10.000000
3.095219 -1.743326 -0.133985 7.000000
3.071799 -1.774458 -0.133580 6.000000
3.069494 -1.817902 -0.134006 7.000000
3.100810 -1.882353 -0.136036 6.000000
3.071609 -1.910752 -0.135330 4.000000
3.101182 -1.976338 -0.137236 3.000000
3.075323 -2.007298 -0.136826 1.000000
3.103191 -2.073923 -0.138717 1.000000
3.138126 -2.147163 -0.140969 1.000000
3.016329 -2.112397 -0.136186 1.000000
3.074388 -2.203450 -0.139535 1.000000
3.050131 -2.236832 -0.139188 1.000000
3.005544 -2.254990 -0.137925 1.000000
2.976910 -2.284536 -0.137398 1.000000
2.983953 -2.340721 -0.138514 1.000000
3.071271 -2.463702 -0.143445 1.000000
2.905256 -2.383047 -0.136433 1.000000
2.917380 -2.446595 -0.137899 1.000000
3.027081 -2.595302 -0.144048 1.000000
2.904765 -2.545842 -0.139182 1.000000
2.780049 -2.490646 -0.134044 1.000000
2.822825 -2.584970 -0.137103 1.000000
2.743464 -2.567673 -0.134138 1.000000
2.675632 -2.559399 -0.131837 5.000000
2.568986 -2.511497 -0.127484 6.000000
2.428443 -2.426346 -0.121496 8.000000
2.328500 -2.377686 -0.117375 16.000000
2.219512 -2.316298 -0.112754 10.000000
2.149806 -2.292909 -0.110182 13.000000
2.063952 -2.249855 -0.106656 18.000000
1.986027 -2.212638 -0.103500 14.000000
1.922309 -2.189008 -0.101057 10.000000
1.830084 -2.130139 -0.097074 10.000000
1.765050 -2.100216 -0.094493 13.000000
1.710447 -2.080631 -0.092443 14.000000
1.653384 -2.056216 -0.090234 13.000000
1.584651 -2.015100 -0.087358 16.000000
1.544379 -2.008396 -0.086027 23.000000
1.507547 -2.005059 -0.084872 25.000000
1.494595 -2.033377 -0.085071 27.000000
1.469564 -2.045347 -0.084595 23.000000
1.461697 -2.081637 -0.085123 27.000000
1.422132 -2.072680 -0.083736 25.000000
1.416262 -2.112859 -0.084424 22.000000
1.398747 -2.136444 -0.084444 22.000000
1.372897 -2.147282 -0.083890 24.000000
1.360136 -2.178947 -0.084234 23.000000
1.351971 -2.219220 -0.084821 19.000000
1.335511 -2.246707 -0.084991 8.000000
0.798872 1.362538 -0.039490 7.000000
0.787832 1.310968 -0.038381 24.000000
0.802027 1.302330 -0.038521 25.000000
0.818795 1.297780 -0.038787 33.000000
0.835514 1.293030 -0.039008 27.000000
0.849472 1.283866 -0.039149 33.000000
0.860533 1.270469 -0.039162 35.000000
0.888497 1.281592 -0.039895 33.000000
0.896567 1.263727 -0.039781 33.000000
0.895509 1.233710 -0.039233 21.000000
0.908866 1.223937 -0.039372 32.000000
0.940223 1.237859 -0.040289 34.000000
0.950539 1.223614 -0.040254 30.000000
0.963736 1.213255 -0.040349 35.000000
0.983141 1.210466 -0.040752 32.000000
0.999426 1.203600 -0.040978 35.000000
1.012417 1.192663 -0.041121 35.000000
1.008933 1.162707 -0.040558 17.000000
1.028162 1.159142 -0.040916 33.000000
1.054125 1.162695 -0.041588 46.000000
1.066678 1.151196 -0.041684 35.000000
1.079135 1.139505 -0.041780 47.000000
1.098449 1.134902 -0.042142 34.000000
1.117775 1.129954 -0.042506 47.000000
1.137109 1.124756 -0.042920 42.000000
1.138493 1.101877 -0.042614 21.000000
1.154070 1.092834 -0.042846 46.000000
1.162243 1.076821 -0.042808 52.000000
1.192416 1.080884 -0.043581 57.000000
1.211589 1.074446 -0.043951 61.000000
1.230757 1.067698 -0.044322 37.000000
1.253780 1.063919 -0.044780 64.000000
1.265276 1.050214 -0.044880 47.000000
1.288314 1.045808 -0.045391 24.000000
1.295696 1.028567 -0.045355 34.000000
1.318703 1.023568 -0.045868 44.000000
1.333743 1.012167 -0.046056 41.000000
1.348696 1.000576 -0.046296 40.000000
1.363560 0.988744 -0.046537 36.000000
1.378334 0.976670 -0.046727 52.000000
1.388907 0.961610 -0.046830 47.000000
1.399325 0.946447 -0.046933 24.000000
1.442899 0.953168 -0.048097 37.000000
1.453194 0.937383 -0.048202 36.000000
1.471736 0.926818 -0.048534 44.000000
1.486030 0.913398 -0.048780 54.000000
1.500168 0.899727 -0.048973 38.000000
1.540031 0.900998 -0.050007 42.000000
1.562805 0.891650 -0.050537 39.000000
1.581099 0.879425 -0.050873 22.000000
1.599387 0.866955 -0.051210 36.000000
1.613138 0.851849 -0.051462 35.000000
1.635605 0.841162 -0.051941 35.000000
1.675930 0.838966 -0.052986 62.000000
1.675984 0.816336 -0.052760 32.000000
1.707333 0.808764 -0.053525 35.000000
1.734143 0.798553 -0.054208 39.000000
1.760960 0.787891 -0.054835 22.000000
1.774026 0.770681 -0.055036 31.000000
1.805260 0.761079 -0.055807 34.000000
1.827333 0.747134 -0.056294 31.000000
1.853874 0.734609 -0.056925 34.000000
1.861789 0.714457 -0.056986 35.000000
1.916251 0.711643 -0.058414 31.000000
1.933273 0.694177 -0.058763 31.000000
1.940610 0.673293 -0.058825 14.000000
1.985736 0.664917 -0.060034 37.000000
2.016614 0.650984 -0.060815 45.000000
2.023536 0.629116 -0.060880 32.000000
2.058995 0.615710 -0.061742 35.000000
2.099182 0.602929 -0.062813 34.000000
2.139311 0.589417 -0.063887 33.000000
2.164941 0.571279 -0.064463 35.000000
2.204947 0.556322 -0.065540 15.000000
2.240003 0.539390 -0.066404 30.000000
2.265186 0.519521 -0.067051 32.000000
2.285370 0.498093 -0.067484 35.000000
2.329739 0.481331 -0.068710 35.000000
2.359349 0.460846 -0.069431 32.000000
2.359350 0.434253 -0.069360 9.000000
2.398365 0.414651 -0.070372 8.000000
2.486624 0.402133 -0.072828 17.000000
2.535333 0.381838 -0.074207 32.000000
2.583874 0.360420 -0.075509 39.000000
2.607446 0.334930 -0.076088 29.000000
2.630752 0.308929 -0.076666 10.000000
2.673746 0.284532 -0.077823 8.000000
2.701577 0.257845 -0.078547 10.000000
2.808726 0.237352 -0.081584 36.000000
2.890884 0.212668 -0.083899 32.000000
2.923025 0.183125 -0.084767 34.000000
3.009663 0.155774 -0.087226 39.000000
3.051084 0.124650 -0.088383 34.000000
3.107248 0.093201 -0.089974 9.000000
3.173062 0.060655 -0.091855 24.000000
3.243515 0.026738 -0.093880 61.000000
3.263605 -0.008569 -0.094359 78.000000
3.253311 -0.043906 -0.094070 87.000000
3.227634 -0.078660 -0.093347 91.000000
3.166711 -0.111542 -0.091517 80.000000
3.160267 -0.145751 -0.091372 65.000000
3.103641 -0.176912 -0.089785 10.000000
3.106539 -0.210943 -0.089834 9.000000
3.054243 -0.240763 -0.088392 7.000000
3.001658 -0.269499 -0.086858 9.000000
3.023394 -0.304575 -0.087485 9.000000
2.995126 -0.334642 -0.086766 9.000000
2.971419 -0.364687 -0.086099 9.000000
2.947491 -0.394300 -0.085433 9.000000
2.957881 -0.428407 -0.085864 61.000000
2.953045 -0.460526 -0.085773 59.000000
2.933055 -0.490083 -0.085252 24.000000
2.922687 -0.520983 -0.085018 76.000000
2.897244 -0.548894 -0.084355 62.000000
2.891123 -0.580313 -0.084265 87.000000
2.884640 -0.611642 -0.084175 95.000000
2.858288 -0.638613 -0.083515 78.000000
2.846359 -0.668408 -0.083283 84.000000
2.795273 -0.688535 -0.081914 12.000000
2.734391 -0.705043 -0.080264 7.000000
2.707242 -0.729499 -0.079610 10.000000
2.747310 -0.772387 -0.080942 35.000000
2.714789 -0.795074 -0.080146 87.000000
2.696418 -0.821611 -0.079691 89.000000
2.673087 -0.846259 -0.079182 68.000000
2.787211 -0.915754 -0.082762 26.000000
2.980522 -1.015233 -0.088728 18.000000
3.190999 -1.125372 -0.095141 24.000000
3.183298 -1.161692 -0.095178 32.000000
3.151764 -1.189085 -0.094411 22.000000
3.148017 -1.226859 -0.094588 17.000000
3.139245 -1.262764 -0.094521 10.000000
3.143764 -1.304412 -0.094976 10.000000
3.184568 -1.362081 -0.096438 10.000000
3.178806 -1.400584 -0.096610 9.000000
3.195291 -1.449396 -0.097369 7.000000
3.206505 -1.496678 -0.097985 10.000000
3.185578 -1.529302 -0.097739 10.000000
3.200122 -1.579198 -0.098489 13.000000
3.187257 -1.616212 -0.098409 17.000000
3.191748 -1.662231 -0.098877 12.000000
3.191141 -1.706265 -0.099316 9.000000
3.189888 -1.750461 -0.099642 8.000000
3.144538 -1.770297 -0.098601 5.000000
3.003952 -1.734470 -0.094565 6.000000
3.019298 -1.787349 -0.095441 5.000000
3.063792 -1.859019 -0.097262 3.000000
3.085779 -1.918669 -0.098396 2.000000
3.153228 -2.008447 -0.101010 2.000000
3.089339 -2.015379 -0.099435 2.000000
3.142079 -2.098911 -0.101629 1.000000
3.048871 -2.084978 -0.099118 1.000000
3.054643 -2.138193 -0.099829 1.000000
2.990561 -2.142212 -0.098267 1.000000
2.979184 -2.183532 -0.098442 1.000000
2.919176 -2.188908 -0.096909 1.000000
2.930922 -2.247919 -0.097878 1.000000
2.910159 -2.282803 -0.097784 1.000000
2.994258 -2.401992 -0.101250 1.000000
2.784267 -2.334995 -0.095290 1.000000
2.807971 -2.407461 -0.096655 1.000000
2.702613 -2.368764 -0.093693 1.000000
2.743732 -2.458091 -0.095814 1.000000
2.786781 -2.551915 -0.097938 1.000000
2.729671 -2.554815 -0.096673 1.000000
2.618633 -2.504910 -0.093369 3.000000
2.587624 -2.529846 -0.092908 6.000000
2.446856 -2.444744 -0.088591 8.000000
2.336206 -2.385540 -0.085212 10.000000
2.254780 -2.353074 -0.082873 18.000000
2.164057 -2.308167 -0.080265 17.000000
2.078027 -2.265241 -0.077701 17.000000
2.003265 -2.231873 -0.075531 19.000000
1.909650 -2.174607 -0.072622 14.000000
1.846799 -2.149783 -0.070858 10.000000
1.771984 -2.108456 -0.068606 16.000000
1.723554 -2.096651 -0.067444 17.000000
1.647522 -2.048989 -0.065092 16.000000
1.597402 -2.031364 -0.063741 16.000000
1.557031 -2.024787 -0.062768 24.000000
1.504926 -2.001600 -0.061310 31.000000
1.483139 -2.017806 -0.061004 31.000000
1.467032 -2.041902 -0.061018 21.000000
1.450596 -2.065818 -0.061029 29.000000
1.425267 -2.077339 -0.060677 25.000000
1.413867 -2.109251 -0.060927 29.000000
1.388185 -2.120262 -0.060574 25.000000
1.373209 -2.147827 -0.060699 31.000000
1.363097 -2.183815 -0.060980 26.000000
1.347088 -2.211238 -0.061098 24.000000
1.305180 -2.195703 -0.060039 9.000000
0.796440 1.358514 -0.025186 7.000000
0.777672 1.294062 -0.024239 20.000000
0.802167 1.302564 -0.024607 27.000000
0.816221 1.293832 -0.024700 29.000000
0.838368 1.297464 -0.024989 31.000000
0.846855 1.279979 -0.024921 30.000000
0.863477 1.274843 -0.025049 34.000000
0.882991 1.273613 -0.025307 29.000000
0.896709 1.263963 -0.025354 34.000000
0.898632 1.237989 -0.025120 21.000000
0.909006 1.224170 -0.025085 27.000000
0.937341 1.234163 -0.025543 42.000000
0.950680 1.223898 -0.025638 34.000000
0.963925 1.213492 -0.025685 30.000000
0.980180 1.206871 -0.025863 31.000000
0.996423 1.199993 -0.025994 32.000000
1.012608 1.192902 -0.026125 31.000000
1.009121 1.162989 -0.025801 19.000000
1.025034 1.155685 -0.025932 32.000000
1.050959 1.159279 -0.026316 36.000000
1.060074 1.144102 -0.026279 35.000000
1.082764 1.143423 -0.026628 47.000000
1.095165 1.131551 -0.026676 34.000000
1.110937 1.123137 -0.026809 34.000000
1.140859 1.128516 -0.027282 35.000000
1.145919 1.109072 -0.027161 21.000000
1.154264 1.093125 -0.027124 37.000000
1.169770 1.083858 -0.027307 62.000000
1.181550 1.071056 -0.027356 45.000000
1.208096 1.071377 -0.027748 77.000000
1.219678 1.058168 -0.027797 47.000000
1.254031 1.064220 -0.028364 43.000000
1.265578 1.050465 -0.028414 58.000000
1.261398 1.024006 -0.028118 20.000000
1.295999 1.028819 -0.028688 31.000000
1.311060 1.017692 -0.028825 34.000000
1.326085 1.006378 -0.028963 37.000000
1.340974 0.994824 -0.029101 43.000000
1.359822 0.986016 -0.029275 35.000000
1.370486 0.971147 -0.029326 37.000000
1.385106 0.959022 -0.029465 36.000000
1.399634 0.946654 -0.029604 22.000000
1.451558 0.958943 -0.030533 36.000000
1.461912 0.943066 -0.030586 43.000000
1.472108 0.927083 -0.030586 60.000000
1.482090 0.910994 -0.030639 48.000000
1.504775 0.902512 -0.030957 60.000000
1.527468 0.893697 -0.031275 46.000000
1.537083 0.877006 -0.031275 54.000000
1.590223 0.884562 -0.032214 25.000000
1.586591 0.860030 -0.032004 36.000000
1.613472 0.852071 -0.032359 52.000000
1.644890 0.845959 -0.032858 49.000000
1.662920 0.832482 -0.033093 39.000000
1.685371 0.820942 -0.033360 39.000000
1.712255 0.811135 -0.033773 50.000000
1.720929 0.792513 -0.033773 59.000000
1.747683 0.781943 -0.034188 24.000000
1.765269 0.766933 -0.034425 33.000000
1.801132 0.759376 -0.034962 40.000000
1.827755 0.747315 -0.035380 35.000000
1.854361 0.734853 -0.035738 34.000000
1.885551 0.723657 -0.036186 32.000000
1.888570 0.701388 -0.036158 36.000000
1.938417 0.696055 -0.036965 32.000000
1.950621 0.676633 -0.037118 29.000000
1.972026 0.660220 -0.037388 36.000000
1.998102 0.644907 -0.037747 35.000000
2.033666 0.632084 -0.038351 45.000000
2.054730 0.614279 -0.038622 37.000000
2.080496 0.597476 -0.038982 36.000000
2.130214 0.586829 -0.039859 35.000000
2.155821 0.568797 -0.040220 32.000000
2.195808 0.553946 -0.040851 28.000000
2.221125 0.534780 -0.041212 36.000000
2.265754 0.519592 -0.042004 35.000000
2.295711 0.500293 -0.042456 42.000000
2.320601 0.479381 -0.042817 36.000000
2.345289 0.458044 -0.043179 31.000000
2.345187 0.431612 -0.043088 9.000000
2.364477 0.408691 -0.043359 8.000000
2.506979 0.405324 -0.045889 26.000000
2.501355 0.376628 -0.045785 38.000000
2.574609 0.359119 -0.047052 36.000000
2.613047 0.335567 -0.047685 36.000000
2.646376 0.310759 -0.048228 42.000000
2.679374 0.285143 -0.048771 19.000000
2.697264 0.257453 -0.048960 11.000000
2.774631 0.234406 -0.050315 26.000000
2.881710 0.212023 -0.052212 31.000000
2.908773 0.182276 -0.052664 35.000000
2.990430 0.154740 -0.054109 36.000000
3.036938 0.124131 -0.054922 34.000000
3.083023 0.092452 -0.055735 9.000000
3.163841 0.060464 -0.057084 23.000000
3.239308 0.026697 -0.058436 85.000000
3.259403 -0.008556 -0.058797 95.000000
3.209118 -0.043299 -0.057895 95.000000
3.208433 -0.078075 -0.057797 90.000000
3.162489 -0.111366 -0.056987 94.000000
3.121090 -0.143909 -0.056267 58.000000
3.079445 -0.175490 -0.055452 10.000000
3.087349 -0.209589 -0.055632 9.000000
3.000171 -0.236442 -0.054104 7.000000
3.022311 -0.271286 -0.054461 9.000000
2.989318 -0.301069 -0.053923 9.000000
2.961084 -0.330757 -0.053383 9.000000
2.942379 -0.361034 -0.053114 9.000000
2.948217 -0.394300 -0.053203 10.000000
2.943768 -0.426258 -0.053203 39.000000
2.943896 -0.458986 -0.053201 39.000000
2.904287 -0.485141 -0.052487 30.000000
2.913569 -0.519229 -0.052754 87.000000
2.893053 -0.548053 -0.052397 75.000000
2.882040 -0.578436 -0.052218 86.000000
2.856018 -0.605511 -0.051863 73.000000
2.849246 -0.636433 -0.051774 82.000000
2.827605 -0.663927 -0.051419 86.000000
2.776560 -0.683754 -0.050623 17.000000
2.706035 -0.697641 -0.049387 9.000000
2.736976 -0.737301 -0.050007 24.000000
2.723944 -0.765623 -0.049832 42.000000
2.701087 -0.790946 -0.049482 64.000000
2.673282 -0.814327 -0.049131 85.000000
2.664240 -0.843242 -0.049046 77.000000
2.721435 -0.893914 -0.050186 23.000000
3.201151 -1.129007 -0.059263 8.000000
3.254465 -1.187710 -0.060379 9.000000
3.232104 -1.219393 -0.060100 9.000000
3.237345 -1.261554 -0.060342 9.000000
3.209539 -1.291059 -0.059976 9.000000
3.264546 -1.354537 -0.061168 9.000000
3.240465 -1.385989 -0.060887 9.000000
3.271046 -1.441215 -0.061642 9.000000
3.296202 -1.495150 -0.062307 8.000000
3.261621 -1.522375 -0.061853 10.000000
3.249429 -1.559915 -0.061829 9.000000
3.214334 -1.586271 -0.061376 9.000000
3.219232 -1.632366 -0.061694 9.000000
3.205709 -1.669599 -0.061559 9.000000
3.205030 -1.713668 -0.061789 8.000000
3.225727 -1.770146 -0.062441 7.000000
3.193230 -1.797716 -0.062075 4.000000
3.013246 -1.739894 -0.058835 6.000000
2.968318 -1.757217 -0.058118 6.000000
3.043079 -1.846489 -0.059862 3.000000
3.073818 -1.911194 -0.060760 2.000000
3.069695 -1.955300 -0.060874 2.000000
3.069080 -2.002172 -0.061180 2.000000
3.067943 -2.049387 -0.061485 1.000000
3.024788 -2.068609 -0.060845 1.000000
3.083995 -2.158716 -0.062390 1.000000
2.974978 -2.131016 -0.060538 1.000000
2.959587 -2.169206 -0.060480 1.000000
2.883846 -2.162362 -0.059299 1.000000
2.939419 -2.254568 -0.060717 1.000000
2.973774 -2.332738 -0.061831 1.000000
2.916967 -2.339897 -0.060948 1.000000
2.837172 -2.327238 -0.059696 1.000000
2.834619 -2.377313 -0.059958 1.000000
2.709857 -2.323420 -0.057742 1.000000
2.748277 -2.408744 -0.058894 1.000000
2.710782 -2.428629 -0.058541 1.000000
2.717305 -2.488342 -0.059040 1.000000
2.726591 -2.551969 -0.059613 1.000000
2.622799 -2.508918 -0.057827 2.000000
2.613200 -2.554752 -0.058002 6.000000
2.468498 -2.466474 -0.055170 8.000000
2.354103 -2.403909 -0.053092 9.000000
2.258637 -2.357181 -0.051315 18.000000
2.178218 -2.323238 -0.049863 17.000000
2.088635 -2.276763 -0.048187 18.000000
2.010310 -2.239771 -0.046848 19.000000
1.926498 -2.193832 -0.045269 16.000000
1.850403 -2.154007 -0.043855 10.000000
1.778669 -2.116531 -0.042528 13.000000
1.736585 -2.112514 -0.041900 18.000000
1.676038 -2.084456 -0.040817 19.000000
1.610079 -2.047478 -0.039670 19.000000
1.554217 -2.021214 -0.038676 21.000000
1.505156 -2.001982 -0.037841 30.000000
1.486406 -2.022217 -0.037763 27.000000
1.467339 -2.042286 -0.037685 22.000000
1.436462 -2.045746 -0.037308 28.000000
1.419841 -2.069479 -0.037304 25.000000
1.405749 -2.097180 -0.037373 24.000000
1.391155 -2.124831 -0.037440 27.000000
1.365363 -2.135580 -0.037211 27.000000
1.352743 -2.167243 -0.037349 26.000000
1.344724 -2.207442 -0.037630 21.000000
1.295118 -2.178902 -0.036747 9.000000
0.796488 1.358659 -0.011007 7.000000
0.798320 1.328531 -0.010832 16.000000
0.799592 1.298493 -0.010658 19.000000
0.818982 1.298201 -0.010774 21.000000
0.830275 1.285054 -0.010739 27.000000
0.852419 1.288459 -0.010844 17.000000
0.869179 1.283310 -0.010927 24.000000
0.874493 1.261475 -0.010821 22.000000
0.899696 1.268230 -0.010962 21.000000
0.895742 1.234129 -0.010797 21.000000
0.912079 1.228324 -0.010833 16.000000
0.922316 1.214397 -0.010797 22.000000
0.947708 1.220092 -0.010986 24.000000
0.954691 1.201936 -0.010915 15.000000
0.973970 1.199252 -0.010986 28.000000
0.993277 1.196289 -0.011057 22.000000
1.015939 1.196905 -0.011212 26.000000
1.012492 1.166907 -0.011033 24.000000
1.021810 1.152086 -0.010997 16.000000
1.037622 1.144605 -0.011033 30.000000
1.063615 1.147960 -0.011224 24.000000
1.079471 1.139936 -0.011259 24.000000
1.091784 1.128102 -0.011259 31.000000
1.107518 1.119727 -0.011295 25.000000
1.123233 1.111130 -0.011379 24.000000
1.131647 1.095357 -0.011343 21.000000
1.150779 1.089833 -0.011415 22.000000
1.169917 1.084004 -0.011487 37.000000
1.174239 1.064487 -0.011415 31.000000
1.204503 1.068207 -0.011645 28.000000
1.223602 1.061592 -0.011717 44.000000
1.238934 1.051430 -0.011753 29.000000
1.257984 1.044229 -0.011825 30.000000
1.257665 1.021003 -0.011717 21.000000
1.276571 1.013427 -0.011789 22.000000
1.311211 1.017844 -0.012057 31.000000
1.318272 1.000485 -0.012021 28.000000
1.333096 0.989019 -0.012057 25.000000
1.355928 0.983234 -0.012166 39.000000
1.366560 0.968410 -0.012166 27.000000
1.385260 0.959177 -0.012238 32.000000
1.403930 0.949610 -0.012311 26.000000
1.422516 0.939758 -0.012384 24.000000
1.457870 0.940515 -0.012602 31.000000
1.459575 0.919249 -0.012582 29.000000
1.473731 0.905916 -0.012618 29.000000
1.504936 0.902672 -0.012800 36.000000
1.540576 0.901379 -0.013019 32.000000
1.545984 0.882123 -0.012983 26.000000
1.564174 0.870090 -0.013056 30.000000
1.591152 0.862578 -0.013202 29.000000
1.600431 0.845234 -0.013202 30.000000
1.636223 0.841499 -0.013420 34.000000
1.658676 0.830414 -0.013530 29.000000
1.681048 0.818867 -0.013639 35.000000
1.707910 0.809168 -0.013785 32.000000
1.721161 0.792629 -0.013822 26.000000
1.738789 0.777976 -0.013895 26.000000
1.765504 0.767051 -0.014040 26.000000
1.792156 0.755611 -0.014186 29.000000
1.823368 0.745543 -0.014369 30.000000
1.854605 0.734974 -0.014551 26.000000
1.853123 0.711239 -0.014478 30.000000
1.898190 0.704993 -0.014770 29.000000
1.919846 0.689421 -0.014879 22.000000
1.946149 0.675120 -0.015025 34.000000
1.972280 0.660283 -0.015171 29.000000
1.988842 0.641963 -0.015244 30.000000
2.024377 0.629246 -0.015463 35.000000
2.050202 0.612977 -0.015609 28.000000
2.090371 0.600368 -0.015864 33.000000
2.130551 0.586964 -0.016119 32.000000
2.136756 0.563831 -0.016119 18.000000
2.181541 0.550346 -0.016411 32.000000
2.226265 0.536020 -0.016633 26.000000
2.261164 0.518545 -0.016851 29.000000
2.286227 0.498235 -0.016996 34.000000
2.306201 0.476419 -0.017105 29.000000
2.330860 0.455242 -0.017250 25.000000
2.325809 0.428064 -0.017177 8.000000
2.354990 0.407061 -0.017359 6.000000
2.467804 0.399017 -0.018158 26.000000
2.511552 0.378194 -0.018371 26.000000
2.555120 0.356435 -0.018660 29.000000
2.608490 0.335010 -0.019022 35.000000
2.621872 0.307844 -0.019094 26.000000
2.694700 0.286730 -0.019601 30.000000
2.727457 0.260303 -0.019818 26.000000
2.769989 0.234070 -0.020022 8.000000
2.852145 0.209822 -0.020598 30.000000
2.884179 0.180713 -0.020814 27.000000
2.965921 0.153539 -0.021390 26.000000
3.017327 0.123314 -0.021658 31.000000
3.198437 0.095898 -0.022949 9.000000
3.154326 0.060273 -0.022626 10.000000
3.229803 0.026713 -0.023164 46.000000
3.239901 -0.008405 -0.023137 72.000000
3.209608 -0.043201 -0.022923 66.000000
3.158939 -0.076859 -0.022566 54.000000
3.132895 -0.110311 -0.022387 36.000000
3.126561 -0.144140 -0.022256 92.000000
3.089900 -0.176058 -0.022007 9.000000
3.072762 -0.208573 -0.021901 8.000000
3.005523 -0.236835 -0.021346 8.000000
2.967996 -0.266370 -0.021099 8.000000
2.999726 -0.302070 -0.021346 9.000000
2.951510 -0.329648 -0.020937 8.000000
2.932906 -0.359906 -0.020831 8.000000
2.918936 -0.390324 -0.020761 9.000000
2.899688 -0.419900 -0.020566 22.000000
2.924590 -0.455906 -0.020776 37.000000
2.929304 -0.489350 -0.020847 71.000000
2.889409 -0.514933 -0.020511 34.000000
2.849200 -0.539767 -0.020267 81.000000
2.852986 -0.572622 -0.020337 37.000000
2.822137 -0.598342 -0.020074 33.000000
2.815534 -0.628893 -0.020074 33.000000
2.769551 -0.650301 -0.019709 15.000000
2.781764 -0.685036 -0.019847 23.000000
2.764474 -0.712704 -0.019691 65.000000
2.751805 -0.741289 -0.019656 35.000000
2.709936 -0.761651 -0.019415 58.000000
2.696718 -0.789626 -0.019295 42.000000
2.668840 -0.812955 -0.019157 48.000000
2.655133 -0.840395 -0.019038 62.000000
2.645784 -0.869123 -0.019038 10.000000
3.248717 -1.145845 -0.023445 8.000000
3.330037 -1.215240 -0.024017 8.000000
3.312052 -1.249501 -0.023983 8.000000
3.302990 -1.287183 -0.023909 7.000000
3.339844 -1.343408 -0.024280 8.000000
3.343484 -1.387328 -0.024304 8.000000
3.314448 -1.417554 -0.024203 8.000000
3.367568 -1.483657 -0.024595 8.000000
3.314746 -1.503633 -0.024327 6.000000
3.293775 -1.537398 -0.024183 7.000000
3.281421 -1.575282 -0.024216 8.000000
3.268575 -1.613042 -0.024138 9.000000
3.237511 -1.641631 -0.024039 9.000000
3.201716 -1.667510 -0.023796 8.000000
3.223110 -1.723320 -0.023981 7.000000
3.230448 -1.772776 -0.024178 4.000000
3.245847 -1.827374 -0.024327 1.000000
3.039543 -1.755107 -0.022923 3.000000
2.977344 -1.762522 -0.022491 6.000000
2.940818 -1.784458 -0.022361 2.000000
3.103872 -1.929895 -0.023647 1.000000
3.065811 -1.952836 -0.023407 1.000000
3.174217 -2.070806 -0.024405 1.000000
3.222111 -2.152370 -0.024834 1.000000
3.095284 -2.116814 -0.023918 1.000000
3.182646 -2.227757 -0.024779 1.000000
3.093188 -2.215790 -0.024153 1.000000
2.732959 -2.343164 -0.022302 1.000000
2.774311 -2.485569 -0.022849 1.000000
2.732392 -2.502187 -0.022727 1.000000
2.788875 -2.610395 -0.023315 1.000000
2.633860 -2.519620 -0.022136 2.000000
2.584822 -2.527124 -0.021954 5.000000
2.525409 -2.523339 -0.021572 6.000000
2.385793 -2.436264 -0.020501 8.000000
2.276132 -2.375431 -0.019679 10.000000
2.192092 -2.338022 -0.019171 10.000000
2.105724 -2.295468 -0.018537 10.000000
2.013834 -2.243768 -0.017850 9.000000
1.972863 -2.246697 -0.017611 9.000000
1.857092 -2.161766 -0.016786 10.000000
1.804572 -2.147407 -0.016436 10.000000
1.727227 -2.101177 -0.015854 10.000000
1.666721 -2.073011 -0.015424 10.000000
1.597796 -2.031996 -0.014910 10.000000
1.548278 -2.013520 -0.014650 13.000000
1.508313 -2.006207 -0.014401 16.000000
1.480560 -2.014389 -0.014267 23.000000
1.458664 -2.030334 -0.014191 17.000000
1.448108 -2.062342 -0.014227 21.000000
1.417166 -2.065585 -0.014066 24.000000
1.400258 -2.089105 -0.014122 17.000000
1.385756 -2.116698 -0.014129 21.000000
1.357361 -2.123174 -0.013997 21.000000
1.350174 -2.163235 -0.014085 18.000000
1.339600 -2.199060 -0.014145 21.000000
1.333515 -2.243606 -0.014258 7.000000
0.768674 1.311260 0.003108 6.000000
0.785444 1.307150 0.003165 10.000000
0.807457 1.311312 0.003196 17.000000
0.813600 1.289790 0.003211 22.000000
0.838415 1.297700 0.003300 19.000000
0.852419 1.288506 0.003348 22.000000
0.860767 1.270938 0.003373 24.000000
0.883038 1.273849 0.003453 23.000000
0.893910 1.260122 0.003489 24.000000
0.892805 1.230129 0.003433 10.000000
0.912079 1.228370 0.003502 24.000000
0.931388 1.226389 0.003572 21.000000
0.941574 1.212242 0.003607 20.000000
0.957753 1.205898 0.003666 26.000000
0.977122 1.203180 0.003690 19.000000
0.999665 1.204030 0.003773 26.000000
1.009468 1.189329 0.003809 26.000000
1.015768 1.170731 0.003831 10.000000
1.031763 1.163355 0.003891 30.000000
1.054412 1.163174 0.003929 32.000000
1.070412 1.155343 0.003989 27.000000
1.082909 1.143615 0.004037 31.000000
1.091784 1.128150 0.004073 27.000000
1.111034 1.123329 0.004099 35.000000
1.130342 1.118211 0.004173 34.000000
1.149609 1.112793 0.004248 22.000000
1.158040 1.096757 0.004235 45.000000
1.173584 1.087451 0.004297 32.000000
1.192760 1.081326 0.004373 34.000000
1.219466 1.081527 0.004477 63.000000
1.227379 1.064919 0.004463 47.000000
1.242746 1.054715 0.004527 46.000000
1.254137 1.041085 0.004576 35.000000
1.280955 1.039961 0.004633 24.000000
1.300066 1.032130 0.004711 42.000000
1.307262 1.014829 0.004748 30.000000
1.326238 1.006581 0.004776 35.000000
1.345142 0.998007 0.004856 34.000000
1.355979 0.983285 0.004907 32.000000
1.370691 0.971353 0.004922 36.000000
1.385312 0.959177 0.004988 33.000000
