x y z intensity
1.452618 1.040496 -0.288612 34.000000
1.463665 1.024643 -0.289275 33.000000
1.487101 1.016705 -0.292285 20.000000
1.489698 0.995015 -0.291348 52.000000
1.525357 0.994570 -0.296727 33.000000
1.552820 0.988163 -0.300456 34.000000
1.584305 0.984279 -0.305175 72.000000
1.595034 0.966629 -0.305695 32.000000
1.630840 0.964277 -0.311191 35.000000
1.654151 0.953505 -0.314154 33.000000
1.660007 0.933018 -0.313931 21.000000
1.696158 0.928799 -0.319290 53.000000
1.706028 0.910256 -0.319888 45.000000
1.724712 0.895843 -0.322001 35.000000
1.760681 0.890320 -0.327515 55.000000
1.801181 0.886276 -0.333805 40.000000
1.824092 0.872664 -0.336703 33.000000
1.855836 0.863106 -0.341380 35.000000
1.860524 0.840685 -0.341125 21.000000
1.910264 0.837919 -0.348929 34.000000
1.941922 0.826598 -0.353575 37.000000
1.973528 0.814716 -0.358235 29.000000
2.000561 0.800438 -0.362011 35.000000
2.027553 0.785558 -0.365863 35.000000
2.063596 0.773738 -0.371318 28.000000
2.099728 0.761106 -0.376717 36.000000
2.107885 0.738088 -0.377200 16.000000
2.162471 0.730714 -0.385951 34.000000
2.203053 0.717593 -0.392216 37.000000
2.238949 0.702277 -0.397587 35.000000
2.279466 0.687768 -0.403949 37.000000
2.334107 0.676431 -0.412689 44.000000
2.365074 0.657379 -0.417178 35.000000
2.400645 0.639075 -0.422666 36.000000
2.450402 0.623716 -0.430605 26.000000
2.490582 0.605011 -0.436877 40.000000
2.540227 0.587715 -0.444762 64.000000
2.599393 0.571509 -0.454422 33.000000
2.648831 0.551965 -0.462247 65.000000
2.683708 0.528612 -0.467638 95.000000
2.684452 0.498326 -0.467133 95.000000
2.684838 0.468062 -0.466543 35.000000
2.660549 0.433854 -0.461732 8.000000
2.670012 0.405381 -0.462827 9.000000
2.640033 0.371310 -0.457162 9.000000
2.653687 0.343683 -0.459101 33.000000
2.662143 0.315098 -0.460112 92.000000
2.670363 0.286404 -0.461124 95.000000
2.663464 0.256188 -0.459515 76.000000
2.666115 0.227023 -0.459681 89.000000
2.658607 0.197047 -0.458153 29.000000
2.665506 0.168217 -0.459082 92.000000
2.667160 0.139023 -0.459165 95.000000
2.653795 0.109139 -0.456624 71.000000
2.664633 0.080321 -0.458400 95.000000
2.665376 0.051098 -0.458400 95.000000
2.655934 0.021795 -0.456706 36.000000
2.646161 -0.007293 -0.455011 10.000000
2.621279 -0.035961 -0.450693 8.000000
2.610858 -0.064455 -0.448999 9.000000
2.590351 -0.092300 -0.445450 9.000000
2.598992 -0.121172 -0.447063 9.000000
2.636898 -0.151960 -0.453755 21.000000
2.669513 -0.183193 -0.459515 30.000000
2.593674 -0.206572 -0.446660 10.000000
2.640416 -0.239381 -0.454955 95.000000
2.637625 -0.268360 -0.454709 49.000000
2.629691 -0.296704 -0.453700 49.000000
2.621440 -0.324858 -0.452692 10.000000
2.598224 -0.350927 -0.449070 8.000000
2.608876 -0.381478 -0.451276 9.000000
2.594894 -0.408517 -0.449345 8.000000
2.575679 -0.434523 -0.446492 6.000000
2.629034 -0.473142 -0.456270 9.000000
2.599619 -0.497210 -0.451652 8.000000
2.598878 -0.526704 -0.452246 8.000000
2.588147 -0.554158 -0.450996 9.000000
2.610851 -0.588935 -0.455704 8.000000
2.589917 -0.614108 -0.452774 9.000000
2.640564 -0.656645 -0.462330 33.000000
2.647632 -0.689262 -0.464335 19.000000
2.620983 -0.712964 -0.460484 76.000000
2.613080 -0.741718 -0.460063 50.000000
2.642660 -0.781488 -0.466317 64.000000
2.638843 -0.811768 -0.466553 32.000000
2.606390 -0.833144 -0.461794 15.000000
2.601838 -0.863235 -0.462117 16.000000
2.606324 -0.896468 -0.464014 13.000000
2.573205 -0.916768 -0.459272 8.000000
2.604785 -0.960268 -0.466131 24.000000
2.594219 -0.988703 -0.465530 16.000000
2.592486 -1.020666 -0.466494 18.000000
2.585933 -1.050800 -0.466629 18.000000
2.597102 -1.088573 -0.470054 15.000000
2.603275 -1.124714 -0.472557 19.000000
2.599828 -1.157504 -0.473584 13.000000
2.569215 -1.177633 -0.469514 9.000000
2.596514 -1.224548 -0.476090 25.000000
2.591803 -1.257450 -0.477013 12.000000
2.600152 -1.296706 -0.480198 20.000000
2.599214 -1.331765 -0.481741 18.000000
2.580124 -1.358193 -0.480206 10.000000
2.587038 -1.397875 -0.483268 18.000000
2.571487 -1.426522 -0.482449 10.000000
2.547449 -1.449561 -0.479833 8.000000
2.586715 -1.510090 -0.489501 17.000000
2.570414 -1.538062 -0.488390 12.000000
2.587024 -1.587142 -0.493982 17.000000
2.569757 -1.615201 -0.492856 14.000000
2.564376 -1.651652 -0.494223 10.000000
2.554321 -1.685474 -0.494876 16.000000
2.556515 -1.726818 -0.497627 10.000000
2.533381 -1.752334 -0.495784 9.000000
2.546670 -1.802573 -0.500886 18.000000
2.550695 -1.848113 -0.504571 13.000000
2.546115 -1.888011 -0.506657 15.000000
2.537640 -1.924489 -0.507646 19.000000
2.539690 -1.970701 -0.511176 11.000000
2.533407 -2.011095 -0.513118 16.000000
2.523324 -2.047615 -0.513962 10.000000
2.512135 -2.084990 -0.515095 9.000000
2.526693 -2.144690 -0.521557 21.000000
2.510400 -2.179219 -0.521776 20.000000
2.428061 -2.153576 -0.507767 21.000000
2.309058 -2.094154 -0.486421 20.000000
2.231609 -2.069281 -0.473542 16.000000
2.158569 -2.046319 -0.461494 26.000000
2.041050 -1.976562 -0.439392 12.000000
1.984087 -1.964344 -0.430544 10.000000
1.945081 -1.968665 -0.425452 30.000000
1.878810 -1.943913 -0.414323 28.000000
1.834415 -1.938730 -0.407620 55.000000
1.799643 -1.944488 -0.403374 52.000000
1.781615 -1.967946 -0.402897 37.000000
1.766538 -1.995014 -0.403082 60.000000
1.734868 -2.003211 -0.399530 30.000000
1.736231 -2.047933 -0.403256 24.000000
1.716934 -2.070879 -0.402671 33.000000
1.697304 -2.093563 -0.402081 31.000000
1.692785 -2.135529 -0.405078 35.000000
1.666382 -2.150200 -0.403000 30.000000
1.639812 -2.164636 -0.400843 29.000000
1.643706 -2.217577 -0.405796 32.000000
1.625244 -2.243640 -0.405713 26.000000
1.592145 -2.249384 -0.402095 19.000000
1.581568 -2.287241 -0.404160 29.000000
1.567520 -2.321053 -0.405569 27.000000
1.555752 -2.358982 -0.407583 28.000000
1.529875 -2.376059 -0.406015 22.000000
1.526395 -2.425517 -0.409937 27.000000
1.507662 -2.454957 -0.410373 31.000000
1.485842 -2.480057 -0.410179 22.000000
1.491134 -2.551934 -0.417579 9.000000
0.786260 1.360078 -0.210072 7.000000
0.797667 1.347542 -0.210326 14.000000
0.802042 1.321630 -0.208473 23.000000
0.824318 1.325301 -0.211246 21.000000
0.830702 1.303586 -0.210044 26.000000
0.863845 1.323342 -0.215584 24.000000
0.872746 1.305468 -0.215006 25.000000
0.881323 1.287570 -0.214419 26.000000
0.912364 1.302054 -0.219287 24.000000
0.908480 1.268248 -0.216053 17.000000
0.931058 1.270137 -0.218838 25.000000
0.941916 1.255791 -0.218924 27.000000
0.967614 1.261009 -0.222421 34.000000
0.984386 1.254128 -0.223851 29.000000
0.997996 1.243171 -0.224588 34.000000
1.014649 1.235893 -0.226025 29.000000
1.033875 1.232685 -0.228268 29.000000
1.037646 1.209908 -0.226848 20.000000
1.050814 1.198361 -0.227536 31.000000
1.070442 1.194038 -0.229691 33.000000
1.086788 1.185772 -0.231045 35.000000
1.113216 1.188117 -0.234591 33.000000
1.135931 1.186894 -0.237541 42.000000
1.145388 1.170692 -0.237482 31.000000
1.165165 1.164961 -0.239577 34.000000
1.167256 1.141626 -0.238074 22.000000
1.186843 1.135424 -0.240175 35.000000
1.216853 1.139566 -0.244512 62.000000
1.221951 1.119308 -0.243726 44.000000
1.248904 1.118913 -0.247256 44.000000
1.261111 1.104998 -0.247877 44.000000
1.276556 1.094614 -0.249335 36.000000
1.311227 1.099464 -0.254315 36.000000
1.319387 1.081705 -0.254212 23.000000
1.335038 1.070110 -0.255530 33.000000
1.354171 1.061746 -0.257697 54.000000
1.377521 1.055689 -0.260454 35.000000
1.396950 1.046299 -0.262531 37.000000
1.435968 1.051611 -0.268396 52.000000
1.447449 1.035626 -0.268945 43.000000
1.462762 1.022363 -0.270243 36.000000
1.477971 1.008845 -0.271544 29.000000
1.496968 0.998256 -0.273655 34.000000
1.511941 0.984346 -0.274964 47.000000
1.526582 0.970512 -0.276332 40.000000
1.583336 0.982250 -0.285155 37.000000
1.581351 0.956971 -0.283342 60.000000
1.634121 0.964863 -0.291562 42.000000
1.657458 0.954154 -0.294313 36.000000
1.667615 0.936085 -0.294903 29.000000
1.686442 0.922284 -0.296902 34.000000
1.709377 0.910854 -0.299730 58.000000
1.723633 0.894168 -0.300975 55.000000
1.737577 0.877626 -0.302281 37.000000
1.769247 0.869281 -0.306544 40.000000
1.814223 0.866962 -0.313187 57.000000
1.846003 0.857306 -0.317474 32.000000
1.882199 0.849318 -0.322608 32.000000
1.909354 0.836646 -0.326210 35.000000
1.927461 0.819391 -0.328145 34.000000
1.968161 0.811479 -0.334022 38.000000
1.990601 0.795472 -0.336877 34.000000
2.022109 0.782531 -0.341160 35.000000
2.053744 0.768884 -0.345452 51.000000
2.094450 0.758158 -0.351311 31.000000
2.111825 0.738434 -0.353284 37.000000
2.161818 0.729488 -0.360726 44.000000
2.197820 0.714968 -0.365839 42.000000
2.233737 0.699760 -0.370891 55.000000
2.264754 0.682511 -0.375242 51.000000
2.324240 0.672763 -0.384233 36.000000
2.359966 0.655193 -0.389316 44.000000
2.395561 0.636998 -0.394409 35.000000
2.450156 0.622891 -0.402578 45.000000
2.490386 0.604243 -0.408478 68.000000
2.530396 0.584783 -0.414308 58.000000
2.560769 0.562308 -0.418571 10.000000
2.629522 0.547354 -0.429150 21.000000
2.688620 0.529035 -0.438082 89.000000
2.723336 0.504965 -0.443075 98.000000
2.714051 0.472635 -0.441046 69.000000
2.709244 0.441332 -0.439720 25.000000
2.699267 0.409417 -0.437600 9.000000
2.698682 0.379113 -0.436978 9.000000
2.673181 0.345832 -0.432394 9.000000
2.681749 0.317086 -0.433437 32.000000
2.704638 0.289810 -0.436690 62.000000
2.707665 0.260215 -0.436859 95.000000
2.700434 0.229699 -0.435440 31.000000
2.707703 0.200493 -0.436234 85.000000
2.699863 0.170247 -0.434814 91.000000
2.691759 0.140132 -0.433228 72.000000
2.693092 0.110640 -0.433311 88.000000
2.694092 0.081147 -0.433394 79.000000
2.699777 0.051749 -0.434104 87.000000
2.700195 0.022202 -0.434188 95.000000
2.660786 -0.007238 -0.427838 16.000000
2.660539 -0.036434 -0.427756 10.000000
2.674851 -0.065914 -0.430054 24.000000
2.693676 -0.095893 -0.433144 34.000000
2.707303 -0.126075 -0.435440 66.000000
2.695854 -0.155162 -0.433771 36.000000
2.708878 -0.185638 -0.435982 37.000000
2.696853 -0.214481 -0.434229 36.000000
2.699261 -0.244443 -0.434938 47.000000
2.701324 -0.274513 -0.435478 51.000000
2.698219 -0.304054 -0.435310 68.000000
2.665381 -0.329956 -0.430313 23.000000
2.651860 -0.357689 -0.428482 9.000000
2.633152 -0.384577 -0.425864 8.000000
2.663016 -0.418731 -0.431145 8.000000
2.687479 -0.452812 -0.435630 8.000000
2.643550 -0.475137 -0.428901 8.000000
2.652786 -0.506886 -0.431016 8.000000
2.627836 -0.531931 -0.427533 8.000000
2.670156 -0.571007 -0.435069 8.000000
2.678278 -0.603374 -0.437005 9.000000
2.647551 -0.626954 -0.432655 8.000000
2.688581 -0.667694 -0.440079 24.000000
2.681134 -0.697141 -0.439736 45.000000
2.640072 -0.717268 -0.433742 37.000000
2.670135 -0.756954 -0.439577 35.000000
2.676025 -0.790393 -0.441406 52.000000
2.672039 -0.820897 -0.441583 34.000000
2.653561 -0.847084 -0.439506 21.000000
2.667708 -0.883853 -0.442882 16.000000
2.657984 -0.912939 -0.442361 13.000000
2.619991 -0.932005 -0.437095 16.000000
2.628310 -0.967437 -0.439595 17.000000
2.626815 -0.999848 -0.440624 18.000000
2.643372 -1.039345 -0.444656 18.000000
2.650363 -1.075553 -0.447043 22.000000
2.638525 -1.104443 -0.446424 19.000000
2.635405 -1.137425 -0.447346 17.000000
2.627419 -1.168067 -0.447405 13.000000
2.646168 -1.211056 -0.451978 17.000000
2.641626 -1.244386 -0.452881 19.000000
2.632546 -1.275217 -0.452834 18.000000
2.631724 -1.310823 -0.454403 18.000000
2.626177 -1.343924 -0.455019 18.000000
2.628825 -1.381999 -0.457334 20.000000
2.635530 -1.422254 -0.460215 18.000000
2.632780 -1.458567 -0.461749 14.000000
2.616890 -1.487095 -0.460820 13.000000
2.604712 -1.518391 -0.460739 16.000000
2.609546 -1.559271 -0.463483 19.000000
2.604924 -1.595733 -0.464896 16.000000
2.595569 -1.629752 -0.465454 15.000000
2.619553 -1.684589 -0.471904 16.000000
2.617417 -1.724307 -0.473933 13.000000
2.611140 -1.760848 -0.475009 13.000000
2.583466 -1.784096 -0.472549 11.000000
2.612247 -1.846837 -0.480393 18.000000
2.607834 -1.887260 -0.482270 21.000000
2.611318 -1.932925 -0.485512 18.000000
2.597849 -1.967769 -0.485884 17.000000
2.595675 -2.011575 -0.488354 19.000000
2.581847 -2.045580 -0.488504 19.000000
2.570816 -2.083377 -0.489480 13.000000
2.589636 -2.146478 -0.496283 18.000000
2.588620 -2.194308 -0.499406 23.000000
2.550215 -2.208987 -0.495037 27.000000
2.451691 -2.171480 -0.479207 24.000000
2.328734 -2.108883 -0.458499 23.000000
2.247389 -2.080775 -0.445719 27.000000
2.164172 -2.046870 -0.432100 24.000000
2.091771 -2.022596 -0.420884 19.000000
2.016726 -1.993469 -0.408924 21.000000
1.949524 -1.969861 -0.398450 27.000000
1.900364 -1.962946 -0.391578 35.000000
1.831889 -1.932781 -0.380416 36.000000
1.800613 -1.942004 -0.377070 60.000000
1.775899 -1.958092 -0.375224 75.000000
1.751183 -1.973945 -0.373302 53.000000
1.732713 -1.996959 -0.372780 37.000000
1.726813 -2.034820 -0.375037 30.000000
1.718169 -2.068232 -0.376411 36.000000
1.689222 -2.079353 -0.373787 33.000000
1.675679 -2.109560 -0.374531 35.000000
1.658678 -2.135728 -0.374659 35.000000
1.638262 -2.157919 -0.374009 35.000000
1.620545 -2.183820 -0.374036 34.000000
1.616944 -2.229650 -0.377363 29.000000
1.585268 -2.234411 -0.373808 23.000000
1.580554 -2.280298 -0.377173 34.000000
1.563936 -2.309953 -0.377733 31.000000
1.541413 -2.331182 -0.376941 35.000000
1.523916 -2.360626 -0.377475 31.000000
1.521914 -2.415058 -0.381973 34.000000
1.498055 -2.435980 -0.381139 31.000000
1.484040 -2.473695 -0.382932 27.000000
1.493729 -2.548933 -0.390416 10.000000
0.790487 1.365436 -0.196663 7.000000
0.785075 1.322523 -0.192426 10.000000
0.796876 1.309535 -0.192559 24.000000
0.813740 1.304832 -0.193939 20.000000
0.835943 1.308338 -0.196532 25.000000
0.846650 1.295398 -0.196714 26.000000
0.882812 1.318945 -0.202490 23.000000
0.877495 1.280446 -0.198777 28.000000
0.911377 1.299121 -0.203955 19.000000
0.908135 1.264845 -0.200850 18.000000
0.910095 1.238751 -0.198953 29.000000
0.941404 1.252457 -0.203527 24.000000
0.964068 1.253784 -0.206141 28.000000
0.980762 1.246973 -0.207471 25.000000
0.999912 1.244301 -0.209554 25.000000
1.013423 1.233197 -0.210241 29.000000
1.036404 1.233330 -0.212894 29.000000
1.036873 1.206787 -0.210911 21.000000
1.050000 1.195276 -0.211548 33.000000
1.069602 1.190994 -0.213556 29.000000
1.085916 1.182766 -0.214860 33.000000
1.108445 1.181992 -0.217548 32.000000
1.131606 1.180449 -0.220198 34.000000
1.147914 1.171399 -0.221471 33.000000
1.160692 1.158621 -0.222128 31.000000
1.173268 1.145742 -0.222734 21.000000
1.189326 1.136133 -0.224015 52.000000
1.208518 1.130135 -0.226027 63.000000
1.228162 1.123367 -0.227996 72.000000
1.244107 1.113032 -0.229240 36.000000
1.263646 1.105723 -0.231169 48.000000
1.283225 1.098145 -0.233105 47.000000
1.310017 1.097024 -0.236524 35.000000
1.321967 1.082442 -0.237051 26.000000
1.329893 1.064659 -0.236941 35.000000
1.349292 1.056014 -0.238846 36.000000
1.376213 1.053429 -0.242249 48.000000
1.403555 1.050019 -0.245557 50.000000
1.434992 1.049019 -0.249573 51.000000
1.454444 1.038889 -0.251460 50.000000
1.469520 1.025969 -0.252764 38.000000
1.460227 0.995673 -0.249763 25.000000
1.487550 0.990469 -0.253057 42.000000
1.506370 0.979728 -0.255068 45.000000
1.542136 0.978917 -0.259735 48.000000
1.552721 0.961857 -0.260241 40.000000
1.584147 0.957770 -0.264281 58.000000
1.624436 0.957848 -0.269693 41.000000
1.651947 0.949693 -0.272994 47.000000
1.657793 0.929297 -0.272871 24.000000
1.680901 0.918074 -0.275416 58.000000
1.703750 0.906743 -0.278087 52.000000
1.722357 0.892491 -0.279932 52.000000
1.736466 0.875639 -0.281066 50.000000
1.763590 0.865469 -0.284411 43.000000
1.817576 0.867272 -0.292010 54.000000
1.835807 0.851626 -0.293944 33.000000
1.894665 0.853702 -0.302234 26.000000
1.881102 0.823148 -0.299079 39.000000
1.917164 0.814236 -0.303853 35.000000
1.957988 0.806222 -0.309297 39.000000
1.989583 0.794036 -0.313373 37.000000
2.016497 0.779433 -0.316668 35.000000
2.038800 0.762427 -0.319177 36.000000
2.070184 0.748547 -0.323212 35.000000
2.129568 0.743811 -0.331619 32.000000
2.160938 0.728472 -0.335677 51.000000
2.201605 0.715540 -0.341131 49.000000
2.232849 0.698789 -0.345136 47.000000
2.263965 0.681450 -0.349149 43.000000
2.295017 0.663521 -0.353170 41.000000
2.359286 0.654250 -0.362247 54.000000
2.385280 0.633648 -0.365555 34.000000
2.411232 0.612325 -0.368792 34.000000
2.475436 0.599901 -0.377905 53.000000
2.515534 0.580655 -0.383360 41.000000
2.555483 0.560593 -0.388823 9.000000
2.624320 0.545672 -0.398709 9.000000
2.673783 0.525559 -0.405582 36.000000
2.718233 0.503506 -0.411727 77.000000
2.757626 0.479670 -0.417055 95.000000
2.777278 0.451911 -0.419526 46.000000
2.747828 0.416338 -0.414537 28.000000
2.717921 0.381427 -0.409627 9.000000
2.712093 0.350435 -0.408320 9.000000
2.730454 0.322557 -0.410705 9.000000
2.753515 0.294800 -0.413831 33.000000
2.751584 0.264164 -0.413177 72.000000
2.744459 0.233217 -0.411869 37.000000
2.761633 0.204309 -0.414172 56.000000
2.763684 0.174060 -0.414258 77.000000
2.770331 0.144068 -0.415083 95.000000
2.766760 0.113562 -0.414343 69.000000
2.762928 0.083164 -0.413689 77.000000
2.729088 0.052306 -0.408508 26.000000
2.689951 0.022080 -0.402588 13.000000
2.655420 -0.007211 -0.397408 9.000000
2.714507 -0.037110 -0.406204 26.000000
2.738638 -0.067373 -0.409819 36.000000
2.742734 -0.097474 -0.410474 44.000000
2.746404 -0.127682 -0.411129 49.000000
2.749813 -0.157999 -0.411784 50.000000
2.747944 -0.188086 -0.411614 33.000000
2.701368 -0.214564 -0.404879 23.000000
2.748109 -0.248535 -0.412097 61.000000
2.735460 -0.277593 -0.410450 43.000000
2.727321 -0.306988 -0.409543 35.000000
2.733665 -0.338011 -0.410764 43.000000
2.700435 -0.363797 -0.406087 10.000000
2.696399 -0.393307 -0.405834 8.000000
2.696829 -0.423585 -0.406403 8.000000
2.687235 -0.452160 -0.405330 7.000000
2.701577 -0.485083 -0.408018 8.000000
2.715589 -0.518262 -0.410618 8.000000
2.700178 -0.545985 -0.408894 8.000000
2.708569 -0.578491 -0.410669 9.000000
2.692510 -0.605885 -0.408862 9.000000
2.700223 -0.638589 -0.410632 10.000000
2.726809 -0.676459 -0.415409 21.000000
2.613945 -0.678918 -0.398986 9.000000
2.668505 -0.724168 -0.407974 9.000000
2.665246 -0.754687 -0.408276 9.000000
2.694915 -0.794936 -0.413676 30.000000
2.709719 -0.831574 -0.416880 37.000000
2.709965 -0.864220 -0.417809 22.000000
2.695792 -0.892145 -0.416556 14.000000
2.704700 -0.927908 -0.418930 15.000000
2.671161 -0.949084 -0.414781 10.000000
2.697905 -0.991856 -0.419952 18.000000
2.686912 -1.021466 -0.419420 18.000000
2.703374 -1.061573 -0.423124 18.000000
2.700902 -1.094669 -0.423937 21.000000
2.675073 -1.118600 -0.421241 17.000000
2.671911 -1.151578 -0.421961 17.000000
2.686487 -1.192604 -0.425542 19.000000
2.668844 -1.220095 -0.424192 11.000000
2.682411 -1.261688 -0.427753 21.000000
2.681792 -1.297585 -0.429252 22.000000
2.676508 -1.331019 -0.429849 19.000000
2.683889 -1.371681 -0.432756 22.000000
2.681796 -1.408134 -0.434141 18.000000
2.679646 -1.444221 -0.435425 18.000000
2.676592 -1.480876 -0.436794 17.000000
2.651951 -1.504846 -0.434441 10.000000
2.652426 -1.544040 -0.436505 21.000000
2.660901 -1.588402 -0.439870 21.000000
2.660600 -1.627487 -0.441719 14.000000
2.676181 -1.677846 -0.446452 19.000000
2.670083 -1.715273 -0.447671 17.000000
2.659871 -1.749471 -0.447989 16.000000
2.652862 -1.787106 -0.449093 17.000000
2.624897 -1.810660 -0.446818 10.000000
2.662081 -1.878838 -0.455327 19.000000
2.641297 -1.908156 -0.454323 16.000000
2.640123 -1.951993 -0.456763 17.000000
2.642272 -1.998956 -0.459774 20.000000
2.624753 -2.030365 -0.459235 18.000000
2.614016 -2.068415 -0.460161 17.000000
2.633571 -2.131446 -0.466534 17.000000
2.629062 -2.176254 -0.468788 17.000000
2.639866 -2.233119 -0.473527 29.000000
2.600276 -2.249231 -0.469543 28.000000
2.479008 -2.192487 -0.450831 26.000000
2.374003 -2.146696 -0.434800 24.000000
2.273941 -2.102184 -0.419521 25.000000
2.186686 -2.065074 -0.406142 24.000000
2.110518 -2.037439 -0.394932 25.000000
2.017571 -1.991037 -0.380542 17.000000
1.967752 -1.985050 -0.374101 29.000000
1.904491 -1.963956 -0.365046 31.000000
1.835173 -1.934587 -0.354721 36.000000
1.801321 -1.939351 -0.350780 67.000000
1.770054 -1.948145 -0.347756 62.000000
1.748664 -1.967510 -0.346621 70.000000
1.723778 -1.982971 -0.344836 62.000000
1.714950 -2.016922 -0.346298 25.000000
1.708637 -2.054806 -0.348389 35.000000
1.683056 -2.069629 -0.346594 32.000000
1.673819 -2.102797 -0.347847 34.000000
1.659882 -2.132815 -0.348525 40.000000
1.636597 -2.151027 -0.347278 33.000000
1.618982 -2.176866 -0.347300 32.000000
1.601027 -2.202584 -0.347314 33.000000
1.582645 -2.228180 -0.347318 20.000000
1.572404 -2.265877 -0.349112 34.000000
1.553198 -2.291311 -0.349091 29.000000
1.530904 -2.312392 -0.348351 31.000000
1.520500 -2.349082 -0.349918 32.000000
1.502720 -2.378275 -0.350482 29.000000
1.489787 -2.415831 -0.352089 30.000000
1.473574 -2.449160 -0.353145 26.000000
1.489467 -2.538003 -0.362119 9.000000
0.794677 1.370703 -0.183069 6.000000
0.791807 1.332008 -0.179766 10.000000
0.811448 1.331683 -0.181589 12.000000
0.823287 1.318463 -0.181727 17.000000
0.850995 1.330208 -0.185309 12.000000
0.851848 1.299980 -0.183064 19.000000
0.877003 1.307064 -0.186081 12.000000
0.902421 1.313712 -0.189115 19.000000
0.893829 1.271180 -0.185070 20.000000
0.907631 1.261294 -0.185739 9.000000
0.914739 1.243744 -0.185264 20.000000
0.940155 1.249454 -0.188271 18.000000
0.956785 1.242958 -0.189496 16.000000
0.985590 1.251849 -0.193131 25.000000
0.996094 1.237060 -0.193164 18.000000
1.015831 1.233737 -0.195010 25.000000
1.029195 1.222486 -0.195649 21.000000
1.042510 1.211087 -0.196238 10.000000
1.055089 1.199983 -0.196926 32.000000
1.068158 1.188289 -0.197565 25.000000
1.087745 1.183755 -0.199385 24.000000
1.100649 1.171692 -0.199979 27.000000
1.123663 1.170266 -0.202379 19.000000
1.143387 1.164874 -0.204219 26.000000
1.159552 1.155675 -0.205394 23.000000
1.189900 1.160150 -0.209119 11.000000
1.180537 1.126871 -0.205976 35.000000
1.207288 1.127310 -0.209040 29.000000
1.219584 1.113946 -0.209599 26.000000
1.242773 1.110293 -0.212000 34.000000
1.266077 1.106343 -0.214461 29.000000
1.277716 1.092739 -0.215082 34.000000
1.304882 1.091292 -0.218143 29.000000
1.324441 1.083073 -0.219942 19.000000
1.328486 1.062192 -0.219138 34.000000
1.351774 1.056647 -0.221582 28.000000
1.375050 1.050685 -0.223983 28.000000
1.394124 1.041763 -0.225856 33.000000
1.409482 1.029263 -0.226982 25.000000
1.448906 1.033790 -0.231989 32.000000
1.460136 1.017740 -0.232428 25.000000
1.487316 1.013128 -0.235627 22.000000
1.490083 0.991186 -0.234769 37.000000
1.513353 0.982760 -0.237164 29.000000
1.519830 0.963388 -0.236956 27.000000
1.546937 0.957316 -0.240071 34.000000
1.587000 0.958170 -0.245107 29.000000
1.623013 0.955740 -0.249503 32.000000
1.641814 0.943051 -0.251282 32.000000
1.664989 0.932187 -0.253725 20.000000
1.679444 0.916173 -0.254797 34.000000
1.702290 0.904893 -0.257252 35.000000
1.716486 0.888414 -0.258270 29.000000
1.734858 0.874188 -0.260073 35.000000
1.753209 0.859410 -0.261821 30.000000
1.802726 0.859302 -0.268171 29.000000
1.838865 0.852187 -0.272600 33.000000
1.852557 0.833939 -0.273642 18.000000
1.875061 0.819686 -0.276085 30.000000
1.920440 0.814557 -0.281754 32.000000
1.952023 0.803040 -0.285556 28.000000
1.979079 0.788863 -0.288565 32.000000
2.015209 0.778049 -0.292991 32.000000
2.037449 0.761230 -0.295409 29.000000
2.092218 0.755687 -0.302480 31.000000
2.081524 0.726276 -0.300125 10.000000
2.154994 0.725732 -0.309917 32.000000
2.195752 0.712908 -0.315070 44.000000
2.217545 0.693309 -0.317385 32.000000
2.248636 0.676254 -0.321130 32.000000
2.289183 0.661140 -0.326093 31.000000
2.343893 0.649487 -0.333322 30.000000
2.379588 0.631412 -0.337698 33.000000
2.376658 0.602964 -0.336566 10.000000
2.479365 0.600294 -0.350479 38.000000
2.514690 0.579940 -0.354880 36.000000
2.525650 0.553414 -0.355800 10.000000
2.594590 0.538951 -0.364906 8.000000
2.653685 0.521123 -0.372659 29.000000
2.703017 0.500242 -0.379056 34.000000
2.752271 0.478319 -0.385461 52.000000
2.801261 0.455350 -0.391787 50.000000
2.810967 0.425490 -0.392646 39.000000
2.766385 0.387870 -0.386063 23.000000
2.775342 0.358298 -0.386920 8.000000
2.759374 0.325629 -0.384352 8.000000
2.757788 0.294971 -0.383752 8.000000
2.785515 0.267171 -0.387351 26.000000
2.808014 0.238415 -0.390180 71.000000
2.795627 0.206584 -0.388210 18.000000
2.787814 0.175475 -0.386924 32.000000
2.774697 0.144153 -0.384866 20.000000
2.726582 0.111821 -0.378089 9.000000
2.732626 0.082207 -0.378776 9.000000
2.758142 0.052780 -0.382207 8.000000
2.708959 0.022285 -0.375345 7.000000
2.718947 -0.007372 -0.376717 8.000000
2.703923 -0.036908 -0.374575 8.000000
2.747900 -0.067495 -0.380749 28.000000
2.771716 -0.098437 -0.384094 34.000000
2.755678 -0.127997 -0.381952 32.000000
2.768982 -0.158936 -0.383923 35.000000
2.772043 -0.189522 -0.384438 29.000000
2.720445 -0.215907 -0.377501 10.000000
2.777115 -0.250934 -0.385550 42.000000
2.764425 -0.280260 -0.384010 31.000000
2.756250 -0.309924 -0.383154 32.000000
2.772409 -0.342345 -0.385633 35.000000
2.748901 -0.369995 -0.382727 21.000000
2.730010 -0.397845 -0.380422 8.000000
2.745164 -0.430748 -0.382982 7.000000
2.725631 -0.458245 -0.380679 5.000000
2.744900 -0.492333 -0.383832 8.000000
2.729670 -0.520373 -0.382126 8.000000
2.738415 -0.553105 -0.383826 12.000000
2.766217 -0.590116 -0.388241 26.000000
2.769261 -0.622522 -0.389339 28.000000
2.772083 -0.654964 -0.390259 32.000000
2.764801 -0.685146 -0.389908 28.000000
2.675652 -0.694179 -0.378040 8.000000
2.730146 -0.740237 -0.386498 8.000000
2.717276 -0.768512 -0.385300 8.000000
2.737178 -0.806660 -0.389004 21.000000
2.775667 -0.850977 -0.395310 36.000000
2.737955 -0.872177 -0.390732 20.000000
2.737805 -0.905112 -0.391635 15.000000
2.755981 -0.944500 -0.395134 10.000000
2.689541 -0.954580 -0.386543 8.000000
2.725504 -1.001107 -0.392807 15.000000
2.705241 -1.027186 -0.390842 10.000000
2.726305 -1.069167 -0.394986 13.000000
2.732863 -1.106546 -0.397115 10.000000
2.729934 -1.139962 -0.397812 10.000000
2.730927 -1.175720 -0.399261 12.000000
2.718109 -1.205383 -0.398529 10.000000
2.682294 -1.224845 -0.394663 8.000000
2.736232 -1.285509 -0.403868 15.000000
2.717529 -1.313323 -0.402648 10.000000
2.725224 -1.354180 -0.405298 14.000000
2.710515 -1.383599 -0.404455 11.000000
2.717192 -1.424901 -0.407088 10.000000
2.714796 -1.461229 -0.408206 12.000000
2.720355 -1.503017 -0.410818 10.000000
2.673523 -1.515753 -0.405475 8.000000
2.712871 -1.576994 -0.413107 14.000000
2.704002 -1.611820 -0.413638 10.000000
2.707324 -1.654492 -0.416113 10.000000
2.685251 -1.680963 -0.414488 10.000000
2.708458 -1.737176 -0.420083 9.000000
2.705821 -1.777875 -0.421776 10.000000
2.690305 -1.810335 -0.421623 9.000000
2.679014 -1.844900 -0.421812 8.000000
2.695068 -1.899942 -0.426685 12.000000
2.674165 -1.929571 -0.425671 9.000000
2.708706 -2.000240 -0.433700 12.000000
2.687259 -2.029250 -0.432560 10.000000
2.688428 -2.076971 -0.435337 13.000000
2.684994 -2.121821 -0.437462 25.000000
2.669230 -2.157643 -0.437568 22.000000
2.679879 -2.215334 -0.442190 26.000000
2.685688 -2.270475 -0.446046 59.000000
2.612761 -2.256881 -0.436593 28.000000
2.509827 -2.216595 -0.422287 21.000000
2.378636 -2.147682 -0.403060 16.000000
2.282069 -2.106503 -0.389531 12.000000
2.208340 -2.083953 -0.379698 19.000000
2.118426 -2.041876 -0.366734 13.000000
2.028829 -1.998875 -0.353933 9.000000
1.992860 -2.007037 -0.350423 23.000000
1.908534 -1.964883 -0.338346 16.000000
1.859624 -1.956992 -0.332446 26.000000
1.797578 -1.933711 -0.324139 35.000000
1.763035 -1.938669 -0.320654 29.000000
1.738466 -1.954297 -0.319002 35.000000
1.711441 -1.965065 -0.316669 32.000000
1.709205 -2.006402 -0.319235 10.000000
1.699957 -2.040373 -0.320579 32.000000
1.668263 -2.047359 -0.317645 21.000000
1.664421 -2.088838 -0.320160 31.000000
1.641517 -2.107063 -0.319011 28.000000
1.624548 -2.132858 -0.319043 24.000000
1.613091 -2.166504 -0.320244 29.000000
1.596444 -2.191298 -0.320172 21.000000
1.572533 -2.208711 -0.319005 10.000000
1.571059 -2.258487 -0.322412 31.000000
1.549166 -2.279755 -0.321808 24.000000
1.529761 -2.304883 -0.321693 26.000000
1.504604 -2.321542 -0.320418 23.000000
1.503178 -2.375808 -0.324386 24.000000
1.487622 -2.409123 -0.325374 25.000000
1.474087 -2.446663 -0.326912 20.000000
1.485173 -2.526964 -0.334000 9.000000
0.787212 1.353900 -0.166642 7.000000
0.781553 1.310990 -0.163066 16.000000
0.792361 1.298595 -0.163235 24.000000
0.803827 1.285602 -0.163306 19.000000
0.833876 1.301781 -0.167136 26.000000
0.845291 1.288371 -0.167213 21.000000
0.873104 1.299683 -0.170535 27.000000
0.873105 1.269545 -0.168443 29.000000
0.912618 1.296424 -0.173966 23.000000
0.894730 1.241992 -0.168531 19.000000
0.917065 1.244123 -0.170790 21.000000
0.924558 1.226032 -0.170257 24.000000
0.943877 1.223670 -0.171929 32.000000
0.978708 1.240586 -0.176381 26.000000
0.979094 1.214776 -0.174833 35.000000
1.011230 1.226953 -0.178711 26.000000
1.021310 1.211972 -0.178737 24.000000
1.044230 1.211971 -0.181007 25.000000
1.054065 1.196697 -0.180984 22.000000
1.073742 1.192423 -0.182654 33.000000
1.079976 1.173235 -0.182061 31.000000
1.113135 1.182990 -0.186013 29.000000
1.129402 1.174296 -0.187133 40.000000
1.141664 1.162234 -0.187733 32.000000
1.164884 1.160136 -0.190006 31.000000
1.166838 1.136809 -0.188784 28.000000
1.193581 1.137603 -0.191593 27.000000
1.216839 1.134592 -0.193835 33.000000
1.229158 1.121097 -0.194347 54.000000
1.237669 1.104194 -0.194276 29.000000
1.253030 1.094209 -0.195420 42.000000
1.276268 1.089980 -0.197686 35.000000
1.288130 1.075848 -0.198150 32.000000
1.319066 1.077318 -0.201552 30.000000
1.334669 1.065814 -0.202612 26.000000
1.354044 1.057175 -0.204265 36.000000
1.373128 1.048630 -0.205977 34.000000
1.404438 1.048238 -0.209368 32.000000
1.431846 1.044428 -0.212230 36.000000
1.439188 1.025695 -0.212070 31.000000
1.462546 1.018288 -0.214296 32.000000
1.473337 1.002511 -0.214789 32.000000
1.492507 0.991736 -0.216426 30.000000
1.519905 0.986072 -0.219214 40.000000
1.547372 0.979875 -0.222067 49.000000
1.566458 0.968033 -0.223667 31.000000
1.576705 0.951106 -0.224119 33.000000
1.599898 0.941220 -0.226331 36.000000
1.640191 0.940873 -0.230974 33.000000
1.658852 0.927929 -0.232654 33.000000
1.677619 0.914445 -0.234280 27.000000
1.696314 0.900595 -0.235852 42.000000
1.728040 0.893329 -0.239258 38.000000
1.746415 0.879009 -0.240899 35.000000
1.769284 0.866317 -0.243097 36.000000
1.796411 0.855649 -0.245975 38.000000
1.832667 0.848393 -0.250028 29.000000
1.859961 0.836412 -0.252799 28.000000
1.887054 0.824098 -0.255702 31.000000
1.923331 0.815007 -0.259720 32.000000
1.950359 0.801609 -0.262577 34.000000
1.991250 0.793059 -0.267231 32.000000
2.022832 0.780300 -0.270658 34.000000
2.054475 0.766769 -0.274092 39.000000
2.071968 0.747746 -0.275671 27.000000
2.108139 0.734779 -0.279671 36.000000
2.125371 0.715009 -0.281259 33.000000
2.184866 0.708672 -0.288457 33.000000
2.216102 0.692259 -0.291929 35.000000
2.252035 0.676471 -0.295888 35.000000
2.278260 0.657381 -0.298677 33.000000
2.318729 0.641772 -0.303347 37.000000
2.335127 0.619005 -0.304895 27.000000
2.380208 0.603266 -0.310206 34.000000
2.425124 0.586613 -0.315450 32.000000
2.484511 0.572462 -0.322662 33.000000
2.534239 0.554874 -0.328551 42.000000
2.549778 0.529118 -0.329967 24.000000
2.608927 0.511824 -0.337126 32.000000
2.653345 0.490576 -0.342407 43.000000
2.682926 0.465849 -0.345806 17.000000
2.795579 0.454022 -0.359837 37.000000
2.839517 0.429462 -0.365056 70.000000
2.853847 0.399828 -0.366494 81.000000
2.833418 0.365449 -0.363516 32.000000
2.827433 0.333350 -0.362341 10.000000
2.825917 0.301993 -0.361885 10.000000
2.819191 0.270183 -0.360709 22.000000
2.812007 0.238588 -0.359532 14.000000
2.779814 0.205296 -0.355195 9.000000
2.796809 0.175873 -0.357177 8.000000
2.798533 0.145354 -0.357177 8.000000
2.780090 0.113936 -0.354734 9.000000
2.781203 0.083633 -0.354734 8.000000
2.781973 0.053244 -0.354734 8.000000
2.767437 0.022733 -0.352837 9.000000
2.772481 -0.007506 -0.353469 8.000000
2.807027 -0.038260 -0.357809 9.000000
2.781631 -0.068225 -0.354648 10.000000
2.840169 -0.100723 -0.362147 56.000000
2.814172 -0.130612 -0.358900 85.000000
2.837371 -0.162713 -0.361972 52.000000
2.830499 -0.193326 -0.361253 43.000000
2.828230 -0.224223 -0.361078 66.000000
2.805852 -0.253249 -0.358467 55.000000
2.822644 -0.285843 -0.360817 79.000000
2.848989 -0.319974 -0.364425 71.000000
2.835527 -0.349805 -0.362900 44.000000
2.856152 -0.384047 -0.365873 93.000000
2.822357 -0.410877 -0.361919 23.000000
2.812807 -0.440905 -0.361027 19.000000
2.842144 -0.477311 -0.365164 33.000000
2.851384 -0.510964 -0.366782 39.000000
2.860389 -0.544759 -0.368398 83.000000
2.844573 -0.573878 -0.366785 85.000000
2.842998 -0.605976 -0.367144 85.000000
2.841131 -0.638090 -0.367502 91.000000
2.848540 -0.672321 -0.369020 62.000000
2.836252 -0.702188 -0.368035 43.000000
2.770896 -0.718080 -0.360185 35.000000
2.767672 -0.749576 -0.360368 36.000000
2.792889 -0.789093 -0.364375 59.000000
2.803178 -0.825136 -0.366417 35.000000
2.812986 -0.861594 -0.368544 45.000000
2.798757 -0.890584 -0.367471 32.000000
2.789001 -0.921025 -0.367019 14.000000
2.807049 -0.960928 -0.370191 15.000000
2.768316 -0.981729 -0.366116 13.000000
2.771540 -1.016846 -0.367426 13.000000
2.774199 -1.052449 -0.368823 23.000000
2.771942 -1.086090 -0.369415 15.000000
2.759949 -1.116394 -0.368958 17.000000
2.770670 -1.155885 -0.371386 20.000000
2.776165 -1.194006 -0.373377 13.000000
2.772136 -1.228041 -0.373950 10.000000
2.772163 -1.264520 -0.375224 10.000000
2.780664 -1.305420 -0.377713 13.000000
2.784374 -1.344085 -0.379393 21.000000
2.773989 -1.376807 -0.379431 16.000000
2.776726 -1.415721 -0.381097 18.000000
2.769900 -1.450703 -0.381638 17.000000
2.753847 -1.481081 -0.380965 11.000000
2.772266 -1.530359 -0.385121 10.000000
2.768675 -1.567582 -0.386149 13.000000
2.768532 -1.607874 -0.387870 14.000000
2.780670 -1.655966 -0.391284 23.000000
2.762763 -1.685912 -0.390388 16.000000
2.769411 -1.731949 -0.393177 20.000000
2.775414 -1.778340 -0.395952 23.000000
2.780659 -1.825181 -0.398712 16.000000
2.785240 -1.872265 -0.401458 19.000000
2.756945 -1.896448 -0.399241 18.000000
2.760425 -1.943835 -0.401965 24.000000
2.767142 -1.994455 -0.405160 32.000000
2.757115 -2.033697 -0.405981 32.000000
2.754506 -2.078870 -0.407969 52.000000
2.740098 -2.114313 -0.408079 70.000000
2.720705 -2.147487 -0.407600 42.000000
2.670012 -2.155474 -0.402563 35.000000
2.676926 -2.209973 -0.406157 49.000000
2.652608 -2.239411 -0.405091 71.000000
2.627970 -2.268422 -0.404024 47.000000
2.544158 -2.243803 -0.393630 29.000000
2.441994 -2.201784 -0.380517 26.000000
2.348359 -2.164591 -0.368516 28.000000
2.223388 -2.094919 -0.351530 20.000000
2.175352 -2.095103 -0.346509 20.000000
2.038975 -2.007422 -0.327305 20.000000
1.981898 -1.994507 -0.320672 21.000000
1.926266 -1.979800 -0.313904 26.000000
1.853166 -1.946860 -0.304527 27.000000
1.797926 -1.930725 -0.297926 28.000000
1.766741 -1.939314 -0.295356 37.000000
1.738860 -1.951231 -0.293275 40.000000
1.724040 -1.977664 -0.293423 35.000000
1.683023 -1.973828 -0.289133 26.000000
1.680535 -2.015046 -0.291489 29.000000
1.667964 -2.044888 -0.292092 32.000000
1.634170 -2.046773 -0.288846 24.000000
1.642399 -2.103720 -0.293262 27.000000
1.628503 -2.133435 -0.293829 29.000000
1.614185 -2.163101 -0.294385 26.000000
1.605134 -2.200830 -0.296008 28.000000
1.578251 -2.214258 -0.294383 18.000000
1.562569 -2.243607 -0.294907 24.000000
1.554842 -2.285305 -0.297021 28.000000
1.535488 -2.310469 -0.296897 25.000000
1.515613 -2.335583 -0.296851 26.000000
1.492810 -2.356275 -0.296182 24.000000
1.477504 -2.389456 -0.297087 24.000000
1.463220 -2.421654 -0.297888 21.000000
1.446926 -2.454678 -0.298758 7.000000
0.788798 1.354669 -0.152607 7.000000
0.777951 1.303194 -0.148321 20.000000
0.789502 1.290339 -0.148391 26.000000
0.811393 1.294266 -0.150418 29.000000
0.821964 1.281599 -0.150581 29.000000
0.844073 1.284970 -0.152576 30.000000
0.855253 1.271506 -0.152646 32.000000
0.869023 1.262106 -0.153210 32.000000
0.888431 1.260605 -0.154773 34.000000
0.890461 1.234674 -0.153289 19.000000
0.909722 1.232827 -0.154808 31.000000
0.920072 1.218847 -0.154868 32.000000
0.957603 1.240178 -0.159432 31.000000
0.961813 1.217941 -0.158437 35.000000
0.978125 1.211194 -0.159471 32.000000
0.991259 1.200400 -0.159996 31.000000
1.020292 1.208464 -0.163037 33.000000
1.030143 1.193442 -0.163056 13.000000
1.032660 1.171367 -0.162088 37.000000
1.052064 1.167352 -0.163603 36.000000
1.081592 1.174019 -0.166681 36.000000
1.097736 1.165688 -0.167692 35.000000
1.127655 1.171514 -0.170795 36.000000
1.140329 1.159040 -0.171294 42.000000
1.160004 1.153478 -0.172793 36.000000
1.158298 1.126759 -0.171188 23.000000
1.181302 1.124247 -0.173219 61.000000
1.189476 1.108295 -0.173240 37.000000
1.234570 1.125264 -0.178469 65.000000
1.243113 1.108317 -0.178347 66.000000
1.251430 1.091300 -0.178273 47.000000
1.278434 1.090392 -0.180872 43.000000
1.290244 1.076261 -0.181285 45.000000
1.301952 1.062026 -0.181749 29.000000
1.309618 1.044537 -0.181623 35.000000
1.348054 1.051852 -0.185868 33.000000
1.387161 1.058099 -0.190079 37.000000
1.410631 1.051694 -0.192135 60.000000
1.422028 1.036083 -0.192513 36.000000
1.441361 1.026183 -0.194036 35.000000
1.460657 1.015943 -0.195508 36.000000
1.479694 1.005798 -0.197095 24.000000
1.498851 0.994981 -0.198576 37.000000
1.522133 0.986574 -0.200612 45.000000
1.545425 0.977725 -0.202654 52.000000
1.564494 0.965932 -0.204094 55.000000
1.583282 0.954181 -0.205651 40.000000
1.589329 0.934237 -0.205438 45.000000
1.616650 0.926628 -0.208054 47.000000
1.648410 0.920950 -0.211176 22.000000
1.675781 0.912305 -0.213750 48.000000
1.689897 0.896469 -0.214718 35.000000
1.721663 0.889307 -0.217804 36.000000
1.744561 0.877078 -0.219839 52.000000
1.762781 0.862556 -0.221320 36.000000
1.785583 0.849552 -0.223365 36.000000
1.826319 0.844595 -0.227602 36.000000
1.857938 0.834940 -0.230788 22.000000
1.885160 0.822491 -0.233355 32.000000
1.907729 0.807645 -0.235364 32.000000
1.934701 0.794450 -0.237943 31.000000
1.989403 0.791618 -0.243924 35.000000
2.016362 0.777127 -0.246519 36.000000
2.038689 0.760231 -0.248487 32.000000
2.070141 0.746467 -0.251662 32.000000
2.078117 0.723823 -0.251932 19.000000
2.114074 0.710675 -0.255618 32.000000
2.154825 0.698236 -0.259882 36.000000
2.214359 0.691065 -0.266436 34.000000
2.250243 0.675477 -0.270148 34.000000
2.281397 0.657746 -0.273222 52.000000
2.297900 0.635522 -0.274658 34.000000
2.362330 0.625735 -0.281825 48.000000
2.364121 0.598766 -0.281477 24.000000
2.423596 0.585830 -0.288013 36.000000
2.463682 0.567126 -0.292262 37.000000
2.513331 0.549806 -0.297667 34.000000
2.553223 0.529438 -0.301849 31.000000
2.588074 0.507373 -0.305542 11.000000
2.652030 0.489923 -0.312613 35.000000
2.696315 0.467798 -0.317471 30.000000
2.794423 0.453488 -0.328592 34.000000
2.838405 0.428984 -0.333380 53.000000
2.887170 0.404225 -0.338661 95.000000
2.896305 0.373332 -0.339417 95.000000
2.895321 0.341079 -0.338929 54.000000
2.903752 0.310078 -0.339686 80.000000
2.897094 0.277459 -0.338620 62.000000
2.885021 0.244548 -0.336976 40.000000
2.852842 0.210498 -0.333018 8.000000
2.855039 0.179385 -0.333018 8.000000
2.861757 0.148529 -0.333684 9.000000
2.848279 0.116664 -0.331949 8.000000
2.824597 0.084826 -0.329057 8.000000
2.830343 0.054185 -0.329723 8.000000
2.845590 0.023432 -0.331458 8.000000
2.825812 -0.007640 -0.329057 8.000000
2.850468 -0.038800 -0.331949 8.000000
2.834961 -0.069441 -0.330127 8.000000
2.824076 -0.100020 -0.328884 14.000000
2.877432 -0.133371 -0.335242 41.000000
2.880798 -0.165073 -0.335731 63.000000
2.888757 -0.197133 -0.336709 35.000000
2.846836 -0.225487 -0.332001 10.000000
2.893668 -0.261008 -0.337685 60.000000
2.865927 -0.290018 -0.334622 32.000000
2.837975 -0.318489 -0.331562 21.000000
2.849165 -0.351196 -0.333116 10.000000
2.830429 -0.380257 -0.331211 9.000000
2.840875 -0.413285 -0.332763 9.000000
2.895084 -0.453375 -0.339401 35.000000
2.850855 -0.478399 -0.334533 16.000000
2.889440 -0.517269 -0.339526 63.000000
2.898306 -0.551527 -0.340977 81.000000
2.892233 -0.582979 -0.340615 73.000000
2.890565 -0.615555 -0.340916 83.000000
2.883665 -0.647059 -0.340643 71.000000
2.890996 -0.681802 -0.342087 93.000000
2.888336 -0.714475 -0.342294 71.000000
2.880384 -0.745825 -0.341928 19.000000
2.852978 -0.771986 -0.339281 37.000000
2.830103 -0.798896 -0.337209 26.000000
2.840312 -0.835397 -0.339124 29.000000
2.826377 -0.864773 -0.338192 21.000000
2.849983 -0.905995 -0.341711 18.000000
2.849406 -0.940248 -0.342478 21.000000
2.857886 -0.977554 -0.344282 17.000000
2.800205 -0.992135 -0.338163 9.000000
2.817333 -1.032687 -0.341096 20.000000
2.833778 -1.074034 -0.344019 16.000000
2.835929 -1.110183 -0.345149 19.000000
2.828282 -1.143005 -0.345244 18.000000
2.820408 -1.175459 -0.345243 18.000000
2.825718 -1.214085 -0.347016 19.000000
2.816849 -1.246982 -0.347104 14.000000
2.794183 -1.273229 -0.345324 9.000000
2.825118 -1.324879 -0.350337 23.000000
2.815028 -1.357894 -0.350319 18.000000
2.822507 -1.399258 -0.352426 22.000000
2.802698 -1.427862 -0.351291 19.000000
2.813371 -1.472305 -0.354036 18.000000
2.828024 -1.518991 -0.357224 24.000000
2.833026 -1.561939 -0.359294 16.000000
2.820167 -1.595378 -0.359149 10.000000
2.828348 -1.641185 -0.361852 21.000000
2.814546 -1.674650 -0.361698 22.000000
2.821907 -1.720338 -0.364078 26.000000
2.811464 -1.756452 -0.364460 26.000000
2.812954 -1.800688 -0.366475 27.000000
2.855511 -1.872331 -0.373921 36.000000
2.838987 -1.906340 -0.373625 34.000000
2.802129 -1.925420 -0.370514 31.000000
2.801165 -1.970404 -0.372381 89.000000
2.771440 -1.995294 -0.370462 63.000000
2.753428 -2.028538 -0.370161 66.000000
2.747051 -2.070636 -0.371469 89.000000
2.732011 -2.106801 -0.371589 77.000000
2.713465 -2.139000 -0.371064 84.000000
2.701534 -2.178055 -0.371814 62.000000
2.650717 -2.185418 -0.367136 35.000000
2.645684 -2.230437 -0.368837 79.000000
2.624811 -2.262676 -0.368303 87.000000
2.562622 -2.258517 -0.362076 32.000000
2.460204 -2.216613 -0.350093 34.000000
2.381053 -2.193012 -0.341215 32.000000
2.263641 -2.129555 -0.326538 31.000000
2.175664 -2.092305 -0.316208 26.000000
2.049847 -2.014921 -0.300218 17.000000
2.003240 -2.012650 -0.295711 29.000000
1.936005 -1.988199 -0.288127 26.000000
1.869612 -1.962502 -0.280583 29.000000
1.807463 -1.939217 -0.273511 31.000000
1.766048 -1.936928 -0.269547 42.000000
1.718411 -1.926452 -0.264663 57.000000
1.701489 -1.948175 -0.264142 35.000000
1.686607 -1.974227 -0.264282 27.000000
1.674671 -2.003998 -0.264919 29.000000
1.659017 -2.029966 -0.265044 31.000000
1.639929 -2.051865 -0.264580 30.000000
1.620595 -2.073590 -0.264193 32.000000
1.622160 -2.122894 -0.267205 29.000000
1.601949 -2.144497 -0.266718 29.000000
1.593223 -2.181992 -0.268202 29.000000
1.566471 -2.195259 -0.266716 23.000000
1.548262 -2.220459 -0.266704 28.000000
1.538031 -2.257789 -0.268150 27.000000
1.518916 -2.282745 -0.268118 29.000000
1.504875 -2.316000 -0.268964 26.000000
1.486331 -2.339900 -0.268743 27.000000
1.473946 -2.377112 -0.270126 27.000000
1.450539 -2.397406 -0.269490 24.000000
1.419363 -2.404555 -0.267420 9.000000
0.780252 1.338084 -0.136717 7.000000
0.781949 1.308073 -0.135033 16.000000
0.790940 1.290989 -0.134707 24.000000
0.810198 1.290657 -0.136060 30.000000
0.821512 1.277550 -0.136127 28.000000
0.840812 1.276793 -0.137535 30.000000
0.856710 1.272164 -0.138547 30.000000
0.864827 1.254518 -0.138115 30.000000
0.889897 1.261267 -0.140440 32.000000
0.894776 1.239364 -0.139550 21.000000
0.911179 1.233485 -0.140521 26.000000
0.921525 1.219502 -0.140533 30.000000
0.943869 1.221155 -0.142380 28.000000
0.960201 1.214654 -0.143314 28.000000
0.973346 1.204119 -0.143788 34.000000
0.992739 1.201069 -0.145190 30.000000
1.021845 1.209143 -0.147946 35.000000
1.031643 1.194119 -0.147965 18.000000
1.041311 1.179021 -0.147932 33.000000
1.050753 1.163850 -0.147897 34.000000
1.073522 1.163241 -0.149790 35.000000
1.085604 1.151886 -0.150276 33.000000
1.125749 1.168578 -0.154504 35.000000
1.138433 1.156192 -0.154951 32.000000
1.161560 1.154131 -0.156779 35.000000
1.166973 1.134391 -0.156275 16.000000
1.168478 1.111229 -0.155237 36.000000
1.187829 1.105155 -0.156643 55.000000
1.210858 1.102072 -0.158486 35.000000
1.241441 1.105264 -0.161302 37.000000
1.238406 1.078532 -0.159773 50.000000
1.269080 1.080970 -0.162603 32.000000
1.295769 1.080169 -0.164958 48.000000
1.295889 1.056460 -0.163909 24.000000
1.303482 1.039054 -0.163779 51.000000
1.326553 1.033815 -0.165658 66.000000
1.381334 1.052389 -0.171422 34.000000
1.400712 1.043102 -0.172779 37.000000
1.420058 1.033533 -0.174141 37.000000
1.439371 1.023626 -0.175507 35.000000
1.458375 1.013868 -0.176877 42.000000
1.465262 0.995003 -0.176761 23.000000
1.492657 0.989868 -0.179077 36.000000
1.520073 0.984260 -0.181456 40.000000
1.539148 0.972858 -0.182788 35.000000
1.558115 0.961103 -0.184124 44.000000
1.576858 0.949446 -0.185519 46.000000
1.604292 0.942191 -0.187867 47.000000
1.618824 0.927029 -0.188656 42.000000
1.641868 0.916507 -0.190511 25.000000
1.647362 0.896134 -0.190295 42.000000
1.700861 0.901599 -0.195756 71.000000
1.719445 0.887501 -0.197064 47.000000
1.742335 0.875325 -0.198883 49.000000
1.760723 0.860552 -0.200198 42.000000
1.792444 0.851930 -0.203043 42.000000
1.815060 0.838768 -0.204877 36.000000
1.855840 0.833153 -0.208756 26.000000
1.869386 0.814857 -0.209517 33.000000
1.905503 0.806216 -0.212964 36.000000
1.932605 0.792883 -0.215268 36.000000
1.982724 0.788272 -0.220143 32.000000
2.000386 0.770310 -0.221498 33.000000
2.036568 0.758829 -0.224848 34.000000
2.058673 0.741815 -0.226660 32.000000
2.080753 0.724161 -0.228476 28.000000
2.121529 0.712463 -0.232292 35.000000
2.157470 0.698584 -0.235668 35.000000
2.183905 0.680917 -0.237946 35.000000
2.238768 0.671480 -0.243405 41.000000
2.260275 0.651227 -0.245247 32.000000
2.295964 0.634491 -0.248505 34.000000
2.345953 0.620946 -0.253472 34.000000
2.371864 0.600286 -0.255775 30.000000
2.397581 0.579131 -0.258005 35.000000
2.442481 0.561786 -0.262397 33.000000
2.516413 0.550043 -0.269844 41.000000
2.536870 0.525643 -0.271646 26.000000
2.542435 0.498057 -0.271805 8.000000
2.601471 0.480242 -0.277706 10.000000
2.689795 0.466268 -0.286747 26.000000
2.773273 0.449769 -0.295277 36.000000
2.841845 0.429161 -0.302247 68.000000
2.890663 0.404404 -0.307132 79.000000
2.929394 0.377323 -0.310886 73.000000
2.958074 0.348235 -0.313594 98.000000
2.941862 0.313951 -0.311591 67.000000
2.940180 0.281338 -0.311158 52.000000
2.952990 0.250183 -0.312296 33.000000
2.945619 0.217257 -0.311339 29.000000
2.913055 0.182900 -0.307759 9.000000
2.904916 0.150677 -0.306711 8.000000
2.856750 0.116955 -0.301468 8.000000
2.907504 0.087300 -0.306800 8.000000
2.903336 0.055516 -0.306276 8.000000
2.873948 0.023636 -0.303129 8.000000
2.903871 -0.007753 -0.306186 8.000000
2.903603 -0.039387 -0.306186 8.000000
2.902980 -0.071111 -0.306097 8.000000
2.857365 -0.101162 -0.301380 8.000000
2.890818 -0.133831 -0.304960 23.000000
2.904112 -0.166209 -0.306443 31.000000
2.921992 -0.199251 -0.308448 17.000000
2.894871 -0.229105 -0.305652 8.000000
2.862483 -0.257973 -0.302423 9.000000
2.913993 -0.294608 -0.307999 8.000000
2.920461 -0.327442 -0.308955 8.000000
2.921699 -0.359883 -0.309297 9.000000
2.907778 -0.390356 -0.308072 9.000000
2.908287 -0.422671 -0.308414 12.000000
2.947723 -0.461243 -0.312836 32.000000
2.947501 -0.494108 -0.313174 26.000000
2.932117 -0.524454 -0.311949 60.000000
2.960464 -0.562854 -0.315317 70.000000
2.939643 -0.592088 -0.313480 83.000000
2.962203 -0.630224 -0.316320 92.000000
2.964938 -0.664645 -0.317079 95.000000
2.947799 -0.694715 -0.315763 90.000000
2.944914 -0.727875 -0.316002 40.000000
2.883949 -0.746191 -0.309938 10.000000
2.880524 -0.778748 -0.310089 17.000000
2.900544 -0.818252 -0.312913 21.000000
2.891575 -0.849691 -0.312543 21.000000
2.886992 -0.882491 -0.312688 18.000000
2.886654 -0.916994 -0.313347 20.000000
2.886065 -0.951331 -0.313909 19.000000
2.880236 -0.984358 -0.314050 13.000000
2.869310 -1.015829 -0.313676 10.000000
2.876878 -1.053674 -0.315256 17.000000
2.883923 -1.092114 -0.316925 18.000000
2.872003 -1.123239 -0.316452 18.000000
2.864222 -1.156415 -0.316489 18.000000
2.874388 -1.197152 -0.318559 18.000000
2.884156 -1.238006 -0.320622 19.000000
2.884228 -1.275430 -0.321663 12.000000
2.870104 -1.306870 -0.321082 10.000000
