x y z intensity
1.988584 -2.300785 0.946519 18.000000
1.923816 -2.275825 0.924155 14.000000
1.874995 -2.268079 0.909205 10.000000
1.747261 -2.163673 0.856358 10.000000
1.670761 -2.115860 0.826946 10.000000
1.613145 -2.089288 0.806488 13.000000
1.540607 -2.043312 0.779120 10.000000
1.490421 -2.022102 0.761753 10.000000
1.412915 -1.961252 0.730037 12.000000
1.374275 -1.954320 0.718927 10.000000
1.339927 -1.950040 0.709009 9.000000
1.260448 -1.877600 0.674841 10.000000
1.236720 -1.888499 0.671040 11.000000
1.203753 -1.882175 0.661285 23.000000
1.182563 -1.896396 0.658868 19.000000
1.172490 -1.926085 0.661798 24.000000
1.146006 -1.931671 0.656483 26.000000
1.125582 -1.944525 0.653769 18.000000
1.113092 -1.974613 0.656836 16.000000
1.110718 -2.020898 0.665112 6.000000
0.706887 1.312601 0.441899 8.000000
0.750872 1.358915 0.462349 12.000000
0.766148 1.349769 0.464178 17.000000
0.782745 1.345058 0.467545 19.000000
0.792024 1.327811 0.466639 18.000000
0.806859 1.318200 0.468413 27.000000
0.825840 1.317039 0.473248 21.000000
0.837982 1.303000 0.473522 21.000000
0.862291 1.309327 0.481270 19.000000
0.857456 1.271637 0.472860 14.000000
0.866230 1.253444 0.471520 25.000000
0.890547 1.259107 0.479305 26.000000
0.903903 1.248855 0.481080 23.000000
0.920742 1.241796 0.484200 29.000000
0.936825 1.235016 0.487480 21.000000
0.949917 1.224255 0.489216 25.000000
0.969584 1.220312 0.493823 26.000000
0.967582 1.190647 0.487943 15.000000
0.989391 1.190533 0.494225 32.000000
1.002136 1.179127 0.495911 29.000000
1.024750 1.177899 0.501940 29.000000
1.037362 1.166088 0.503591 35.000000
1.053025 1.157695 0.506783 29.000000
1.075190 1.155992 0.513026 33.000000
1.084326 1.140136 0.513046 27.000000
1.096599 1.127610 0.514612 15.000000
1.115420 1.121721 0.519296 59.000000
1.127513 1.108814 0.520821 35.000000
1.146349 1.102337 0.525482 37.000000
1.161767 1.092349 0.528538 43.000000
1.180545 1.085338 0.533128 37.000000
1.199411 1.078012 0.537735 36.000000
1.211084 1.064108 0.539188 35.000000
1.219057 1.047012 0.538998 16.000000
1.215919 1.020703 0.533968 35.000000
1.241714 1.018614 0.541688 33.000000
1.282400 1.027932 0.555795 35.000000
1.304382 1.022240 0.562149 52.000000
1.323061 1.012827 0.566650 35.000000
1.337916 1.000300 0.569553 34.000000
1.348473 0.985164 0.571007 33.000000
1.363151 0.972236 0.573867 25.000000
1.377673 0.959111 0.576626 62.000000
1.395675 0.948771 0.581291 37.000000
1.421889 0.943042 0.588905 39.000000
1.435881 0.929415 0.591862 53.000000
1.453812 0.918109 0.596465 36.000000
1.471964 0.906120 0.600804 40.000000
1.485729 0.891796 0.603677 45.000000
1.503454 0.879596 0.608150 24.000000
1.508757 0.860085 0.607681 52.000000
1.534523 0.851951 0.615421 54.000000
1.552018 0.838898 0.619871 54.000000
1.590252 0.836519 0.632578 64.000000
1.632903 0.835445 0.646929 52.000000
1.650366 0.820947 0.651269 44.000000
1.676231 0.810179 0.658956 62.000000
1.685030 0.790952 0.659920 26.000000
1.710557 0.779662 0.667821 51.000000
1.727636 0.763868 0.672025 36.000000
1.753088 0.751650 0.679841 33.000000
1.782990 0.740535 0.689047 39.000000
1.808407 0.727292 0.696780 40.000000
1.824951 0.710112 0.701099 36.000000
1.845720 0.694263 0.707114 36.000000
1.875315 0.681262 0.716393 24.000000
1.891506 0.662960 0.720617 49.000000
1.934179 0.653622 0.735209 52.000000
1.954617 0.635869 0.741025 50.000000
1.979305 0.619349 0.748683 51.000000
2.008415 0.603641 0.758056 68.000000
2.019330 0.582077 0.760574 35.000000
2.066319 0.570348 0.776653 45.000000
2.086077 0.550427 0.782393 20.000000
2.123864 0.534717 0.794965 36.000000
2.152330 0.516091 0.804285 48.000000
2.176117 0.495831 0.811840 37.000000
2.227406 0.480959 0.829375 44.000000
2.259981 0.461361 0.840460 42.000000
2.292528 0.440987 0.851261 42.000000
2.320264 0.419150 0.860515 34.000000
2.371094 0.400547 0.877969 31.000000
2.403069 0.378051 0.888811 77.000000
2.434902 0.354845 0.899745 62.000000
2.461929 0.330302 0.908654 60.000000
2.525904 0.309804 0.931480 86.000000
2.561793 0.284821 0.943929 81.000000
2.592755 0.258463 0.954499 60.000000
2.623438 0.231553 0.965246 37.000000
2.714679 0.208685 0.998291 74.000000
2.721487 0.178194 1.000278 98.000000
2.709110 0.146581 0.995466 98.000000
2.687162 0.114799 0.986855 95.000000
2.674223 0.083844 0.981775 95.000000
2.660754 0.053295 0.976867 95.000000
2.628332 0.022815 0.964893 95.000000
2.609643 -0.006957 0.958085 81.000000
2.595309 -0.036284 0.952747 88.000000
2.580727 -0.065376 0.947411 86.000000
2.565815 -0.094149 0.942159 95.000000
2.550498 -0.122520 0.937075 81.000000
2.549087 -0.151406 0.936743 95.000000
2.537896 -0.179630 0.933134 80.000000
2.502996 -0.205719 0.920837 29.000000
2.500629 -0.234046 0.920429 87.000000
2.474589 -0.260002 0.911584 90.000000
2.462270 -0.286978 0.907822 92.000000
2.449733 -0.313661 0.903982 91.000000
2.441471 -0.340782 0.901943 91.000000
2.433063 -0.367718 0.899586 91.000000
2.424270 -0.394469 0.897390 72.000000
2.387335 -0.416431 0.885064 25.000000
2.378072 -0.442578 0.882720 61.000000
2.368513 -0.468620 0.880457 37.000000
2.367934 -0.496329 0.881384 47.000000
2.362355 -0.523283 0.880913 37.000000
2.356540 -0.550001 0.880206 35.000000
2.350489 -0.576640 0.879341 33.000000
2.348518 -0.604530 0.880419 25.000000
2.355441 -0.634812 0.884745 10.000000
2.357442 -0.664129 0.887360 26.000000
2.372602 -0.697470 0.894993 24.000000
2.378385 -0.728408 0.899048 29.000000
2.379356 -0.758143 0.901394 27.000000
2.384324 -0.789641 0.905672 23.000000
2.389034 -0.821118 0.909531 26.000000
2.388802 -0.851399 0.911849 21.000000
2.419074 -0.893209 0.925988 15.000000
2.448774 -0.935756 0.940005 35.000000
2.499780 -0.987767 0.962412 34.000000
2.506413 -1.023113 0.967751 33.000000
2.633766 -1.110339 1.020404 34.000000
2.677780 -1.164487 1.040649 31.000000
2.660521 -1.193211 1.037649 35.000000
2.647581 -1.223152 1.035854 30.000000
2.599938 -1.237178 1.021068 15.000000
2.603165 -1.275119 1.026157 35.000000
2.580668 -1.300530 1.021230 32.000000
2.574637 -1.334239 1.022967 35.000000
2.547416 -1.356866 1.016202 34.000000
2.544889 -1.392702 1.019401 34.000000
2.521366 -1.416983 1.014215 35.000000
2.501845 -1.443246 1.010693 27.000000
2.469815 -1.461924 1.002139 13.000000
2.465965 -1.497293 1.005032 33.000000
2.457107 -1.530723 1.006638 25.000000
2.460458 -1.571215 1.012680 21.000000
2.431529 -1.591271 1.005512 31.000000
2.409774 -1.616603 1.002003 33.000000
2.384555 -1.638419 0.996405 34.000000
2.385584 -1.679484 1.002568 28.000000
2.336253 -1.684842 0.987525 14.000000
2.344778 -1.730714 0.996338 37.000000
2.321828 -1.754837 0.992562 31.000000
2.317283 -1.793169 0.996845 35.000000
2.301916 -1.821988 0.995712 33.000000
2.285446 -1.851364 0.995044 29.000000
2.268626 -1.880635 0.994179 36.000000
2.240707 -1.900510 0.988522 28.000000
2.205478 -1.913721 0.979701 10.000000
2.212793 -1.964187 0.989854 34.000000
2.187668 -1.986326 0.985605 28.000000
2.172852 -2.017784 0.986099 32.000000
2.154263 -2.045943 0.984907 33.000000
2.128506 -2.067280 0.980568 25.000000
2.112643 -2.098196 0.980931 31.000000
2.113107 -2.145999 0.988980 27.000000
2.073312 -2.152974 0.978206 10.000000
2.082483 -2.211188 0.990735 32.000000
2.052152 -2.227886 0.984523 27.000000
2.043965 -2.268885 0.989117 32.000000
2.016231 -2.288531 0.984446 29.000000
1.993417 -2.316004 0.983141 18.000000
1.940842 -2.305849 0.966075 27.000000
1.849520 -2.246872 0.929329 23.000000
1.828361 -2.271561 0.927675 16.000000
1.672989 -2.128353 0.858292 17.000000
1.615332 -2.101968 0.837190 18.000000
1.549877 -2.063008 0.811715 20.000000
1.489914 -2.031321 0.789631 18.000000
1.423672 -1.986172 0.762891 18.000000
1.375107 -1.963159 0.745156 19.000000
1.326019 -1.939968 0.727835 14.000000
1.257616 -1.883458 0.698459 9.000000
1.224527 -1.877689 0.688443 21.000000
1.195575 -1.880113 0.681551 23.000000
1.175666 -1.893623 0.678849 29.000000
1.151857 -1.903537 0.674838 29.000000
1.131706 -1.916522 0.672070 30.000000
1.106633 -1.921066 0.666424 27.000000
1.099004 -1.959343 0.672484 22.000000
1.089746 -1.992816 0.676761 10.000000
0.714720 1.336473 0.463872 8.000000
0.743675 1.352750 0.474525 13.000000
0.748581 1.327430 0.470644 26.000000
0.773098 1.334760 0.478369 22.000000
0.784708 1.321686 0.478902 26.000000
0.793652 1.304443 0.477881 27.000000
0.810827 1.298822 0.481138 29.000000
0.822021 1.285400 0.481592 27.000000
0.852158 1.299304 0.492363 22.000000
0.847295 1.261767 0.483689 22.000000
0.857983 1.248010 0.484065 30.000000
0.888459 1.260978 0.494879 27.000000
0.885156 1.227533 0.487510 35.000000
0.912331 1.236435 0.497048 25.000000
0.931221 1.233479 0.501961 31.000000
0.947965 1.225982 0.505097 34.000000
0.961047 1.214989 0.506888 22.000000
0.962079 1.189124 0.502437 26.000000
0.986864 1.192604 0.510420 34.000000
0.999648 1.181163 0.512161 37.000000
1.000501 1.154780 0.507350 52.000000
1.025465 1.157435 0.515344 33.000000
1.050636 1.159602 0.523329 36.000000
1.063124 1.147417 0.524991 40.000000
1.078720 1.138520 0.528198 33.000000
1.090993 1.125994 0.529814 24.000000
1.106498 1.116731 0.532985 36.000000
1.125293 1.110513 0.537776 46.000000
1.144131 1.104038 0.542534 60.000000
1.156077 1.090708 0.544072 36.000000
1.178348 1.086894 0.550430 82.000000
1.190193 1.073186 0.551930 53.000000
1.208922 1.065625 0.556643 32.000000
1.202168 1.036516 0.550122 29.000000
1.209887 1.019476 0.549865 33.000000
1.235558 1.017372 0.557775 39.000000
1.276100 1.026662 0.572315 50.000000
1.301789 1.023875 0.580465 45.000000
1.312983 1.008664 0.581804 37.000000
1.331614 0.999007 0.586412 39.000000
1.349776 0.989446 0.591251 33.000000
1.345332 0.962711 0.585768 32.000000
1.367148 0.955491 0.592233 36.000000
1.393248 0.950118 0.600126 37.000000
1.411194 0.939441 0.604852 49.000000
1.429142 0.928420 0.609538 35.000000
1.439361 0.911739 0.610643 42.000000
1.465150 0.905115 0.618675 38.000000
1.482927 0.893159 0.623291 35.000000
1.488473 0.873764 0.622829 33.000000
1.510182 0.863687 0.629106 40.000000
1.527654 0.850930 0.633699 39.000000
1.545113 0.837813 0.638247 53.000000
1.574964 0.831029 0.647879 42.000000
1.621600 0.832173 0.664329 50.000000
1.651612 0.824007 0.673970 55.000000
1.664773 0.806986 0.676706 33.000000
1.673370 0.788108 0.677909 31.000000
1.690444 0.772712 0.682256 36.000000
1.720110 0.762950 0.692033 35.000000
1.749797 0.752639 0.701715 41.000000
1.775357 0.739597 0.709505 35.000000
1.800637 0.726345 0.717437 35.000000
1.817207 0.709160 0.721855 37.000000
1.829211 0.690058 0.724545 29.000000
1.854081 0.675735 0.732587 34.000000
1.870182 0.657581 0.736907 37.000000
1.930538 0.654199 0.758542 46.000000
1.946349 0.635136 0.763030 53.000000
1.975498 0.620011 0.772704 52.000000
1.999977 0.602892 0.780514 42.000000
2.019938 0.583927 0.786586 47.000000
2.048736 0.567154 0.796107 33.000000
2.081989 0.550925 0.807260 33.000000
2.114975 0.534148 0.818643 35.000000
2.143490 0.515372 0.828002 34.000000
2.167202 0.495106 0.835758 33.000000
2.195288 0.475415 0.845215 43.000000
2.246182 0.459749 0.863422 36.000000
2.273936 0.438684 0.872912 35.000000
2.292353 0.415279 0.878886 26.000000
2.352026 0.398593 0.900687 33.000000
2.393189 0.377577 0.915289 62.000000
2.424987 0.354365 0.926291 36.000000
2.479649 0.333640 0.946307 35.000000
2.520207 0.310044 0.960955 69.000000
2.542027 0.283366 0.968368 35.000000
2.586822 0.258674 0.984640 55.000000
2.668626 0.236244 1.015183 29.000000
2.694293 0.207701 1.024306 71.000000
2.705740 0.177621 1.028116 93.000000
2.693506 0.146064 1.023150 95.000000
2.680990 0.114825 1.017743 77.000000
2.658679 0.083610 1.009051 95.000000
2.654700 0.053302 1.007538 92.000000
2.603628 0.022693 0.988111 70.000000
2.617737 -0.007007 0.993433 47.000000
2.598869 -0.036481 0.986252 37.000000
2.593687 -0.065886 0.984309 49.000000
2.555382 -0.093982 0.970037 51.000000
2.544791 -0.122578 0.966573 46.000000
2.529377 -0.150684 0.960922 35.000000
2.555538 -0.181451 0.971392 37.000000
2.497533 -0.205858 0.949875 29.000000
2.490506 -0.233801 0.947777 32.000000
2.487730 -0.262128 0.947532 34.000000
2.475421 -0.289370 0.943664 32.000000
2.472168 -0.317428 0.943176 31.000000
2.468590 -0.345487 0.942688 30.000000
2.473852 -0.375029 0.945818 27.000000
2.497386 -0.407632 0.955930 27.000000
2.465118 -0.431194 0.944756 21.000000
2.474097 -0.461769 0.949397 26.000000
2.478186 -0.491583 0.952185 27.000000
2.458928 -0.516876 0.946240 24.000000
2.476034 -0.549890 0.954388 29.000000
2.479028 -0.580142 0.957080 25.000000
2.486105 -0.611803 0.961774 26.000000
2.520139 -0.650544 0.976665 32.000000
2.544479 -0.687771 0.988102 24.000000
2.550351 -0.720541 0.992504 29.000000
2.587324 -0.762803 1.009072 33.000000
2.601273 -0.799035 1.016768 29.000000
2.650504 -0.847095 1.038340 36.000000
2.641168 -0.877187 1.037071 31.000000
2.666819 -0.919498 1.049936 35.000000
2.691926 -0.962619 1.062772 33.000000
2.698992 -0.999474 1.068148 27.000000
2.701070 -1.035237 1.072049 30.000000
2.689678 -1.065929 1.070637 35.000000
2.664983 -1.091195 1.063932 32.000000
2.656936 -1.123659 1.064539 34.000000
2.666144 -1.163162 1.071585 33.000000
2.653467 -1.193341 1.069882 33.000000
2.631611 -1.219856 1.065017 33.000000
2.592988 -1.237429 1.052809 26.000000
2.596118 -1.275406 1.058186 35.000000
2.573542 -1.300965 1.053064 37.000000
2.555039 -1.328216 1.049665 32.000000
2.544498 -1.359614 1.049691 45.000000
2.525388 -1.386396 1.046204 35.000000
2.501952 -1.410588 1.040833 28.000000
2.486383 -1.439210 1.038968 33.000000
2.462539 -1.462656 1.033616 25.000000
2.458608 -1.498063 1.036560 31.000000
2.446257 -1.528478 1.036196 29.000000
2.436971 -1.561899 1.037794 19.000000
2.419986 -1.589582 1.035542 35.000000
2.394905 -1.611725 1.029835 36.000000
2.380824 -1.642180 1.029548 31.000000
2.374569 -1.677224 1.032131 33.000000
2.313833 -1.674323 1.011695 26.000000
2.307260 -1.708817 1.014102 35.000000
2.295725 -1.741186 1.015288 36.000000
2.298687 -1.785116 1.022998 31.000000
2.290753 -1.819717 1.025229 35.000000
2.270602 -1.846112 1.022769 36.000000
2.250168 -1.872317 1.020309 32.000000
2.229450 -1.898334 1.017850 30.000000
2.198609 -1.913909 1.010006 24.000000
2.195261 -1.954854 1.015533 35.000000
2.180706 -1.986562 1.016133 37.000000
2.155442 -2.008380 1.011748 32.000000
2.143660 -2.042886 1.013849 36.000000
2.117920 -2.064228 1.009369 33.000000
2.098670 -2.091888 1.008118 31.000000
2.099053 -2.139620 1.016397 32.000000
2.065938 -2.153416 1.008600 21.000000
2.058789 -2.194343 1.013504 36.000000
2.060492 -2.245830 1.023035 58.000000
2.032994 -2.265848 1.018309 34.000000
2.014760 -2.296196 1.018140 45.000000
1.979357 -2.309267 1.010561 26.000000
1.939171 -2.313671 0.999282 30.000000
1.848015 -2.255000 0.961530 30.000000
1.740582 -2.172284 0.914463 10.000000
1.673287 -2.136022 0.888005 23.000000
1.614409 -2.110580 0.866614 23.000000
1.543397 -2.064258 0.837282 21.000000
1.479212 -2.024177 0.811134 26.000000
1.421547 -1.990715 0.788223 21.000000
1.371819 -1.968596 0.770273 25.000000
1.310546 -1.925154 0.744513 23.000000
1.261081 -1.896362 0.724994 10.000000
1.213632 -1.871472 0.707327 25.000000
1.183506 -1.869141 0.698520 28.000000
1.172428 -1.899536 0.701971 33.000000
1.137517 -1.888366 0.690152 33.000000
1.127172 -1.917728 0.693283 35.000000
1.103041 -1.927165 0.689170 27.000000
1.084935 -1.943966 0.687737 28.000000
1.071944 -1.973848 0.690987 10.000000
0.739995 1.355306 0.489688 16.000000
0.757702 1.350266 0.493134 21.000000
0.760107 1.320752 0.487598 24.000000
0.779795 1.319573 0.492512 19.000000
0.801144 1.322693 0.499134 24.000000
0.805096 1.297205 0.494999 28.000000
0.827353 1.299342 0.501454 19.000000
0.843742 1.293682 0.504986 26.000000
0.844287 1.264111 0.499170 15.000000
0.861228 1.257678 0.502444 23.000000
0.869150 1.239863 0.501212 31.000000
0.893356 1.245208 0.509419 26.000000
0.903856 1.230937 0.509709 27.000000
0.928366 1.235583 0.517931 29.000000
0.939404 1.220535 0.517979 27.000000
0.955377 1.213347 0.521413 27.000000
0.956478 1.187454 0.516784 12.000000
0.978233 1.187260 0.523384 32.000000
0.981782 1.165049 0.520322 35.000000
1.009750 1.171514 0.530148 30.000000
1.012945 1.149099 0.527014 35.000000
1.041780 1.154382 0.536603 32.000000
1.060638 1.149176 0.541582 32.000000
1.076254 1.140287 0.544890 35.000000
1.085286 1.124327 0.544916 15.000000
1.100773 1.115008 0.548183 41.000000
1.102775 1.092232 0.544786 38.000000
1.134438 1.099474 0.556561 36.000000
1.146400 1.086184 0.558095 46.000000
1.168580 1.082398 0.564640 48.000000
1.180339 1.068731 0.566136 37.000000
1.202574 1.064272 0.572669 64.000000
1.196426 1.034824 0.565708 16.000000
1.207244 1.021238 0.567349 44.000000
1.229299 1.016079 0.573759 40.000000
1.266087 1.022330 0.587032 34.000000
1.291618 1.019569 0.595421 58.000000
1.310278 1.010195 0.600166 37.000000
1.324720 0.998037 0.603433 31.000000
1.343275 0.988037 0.608098 65.000000
1.346157 0.967173 0.606180 18.000000
1.356822 0.951391 0.607419 50.000000
1.382493 0.946429 0.615718 59.000000
1.404657 0.938013 0.622046 36.000000
1.426499 0.929545 0.628614 69.000000
1.444383 0.918181 0.633414 37.000000
1.462210 0.906524 0.638229 35.000000
1.467943 0.887244 0.637719 45.000000
1.481529 0.872644 0.640693 19.000000
1.503125 0.862558 0.647173 49.000000
1.516585 0.847510 0.650110 71.000000
1.538093 0.836672 0.656509 47.000000
1.567851 0.829872 0.666384 71.000000
1.610158 0.828847 0.681513 52.000000
1.635630 0.818919 0.689870 34.000000
1.652991 0.804038 0.694418 52.000000
1.661747 0.784909 0.695378 13.000000
1.678581 0.769797 0.700122 34.000000
1.712400 0.762032 0.711919 52.000000
1.741991 0.751648 0.721849 34.000000
1.771785 0.740460 0.731617 52.000000
1.784080 0.721893 0.734403 35.000000
1.813558 0.709910 0.744270 33.000000
1.834167 0.694254 0.750778 33.000000
1.837281 0.671566 0.749886 25.000000
1.866516 0.658165 0.759675 37.000000
1.917690 0.651901 0.778585 55.000000
1.937881 0.634335 0.784968 39.000000
1.966932 0.619202 0.794826 62.000000
1.986937 0.600726 0.801103 54.000000
2.006758 0.581875 0.807256 35.000000
2.039938 0.566322 0.818829 34.000000
2.086594 0.553741 0.835697 28.000000
2.106016 0.533366 0.841966 36.000000
2.129759 0.513704 0.849982 42.000000
2.162467 0.495567 0.861559 35.000000
2.213237 0.480690 0.880326 37.000000
2.236687 0.459151 0.888170 40.000000
2.259770 0.437195 0.896099 34.000000
2.291794 0.416412 0.907669 31.000000
2.355921 0.400390 0.931816 32.000000
2.378550 0.376374 0.939555 42.000000
2.405536 0.352535 0.949040 45.000000
2.469199 0.333150 0.973247 38.000000
2.505063 0.308977 0.986477 46.000000
2.536055 0.283466 0.997732 48.000000
2.575963 0.258334 1.012891 36.000000
2.629521 0.233424 1.033363 33.000000
2.687646 0.207795 1.055498 36.000000
2.740868 0.180414 1.075821 47.000000
2.747317 0.149427 1.077644 36.000000
2.762713 0.118644 1.083387 53.000000
2.754585 0.086899 1.079829 35.000000
2.741345 0.055183 1.074627 32.000000
2.727740 0.023785 1.069332 29.000000
2.690589 -0.007232 1.054734 23.000000
2.690413 -0.037836 1.054645 28.000000
2.652653 -0.067580 1.039787 28.000000
2.670305 -0.098534 1.047084 24.000000
2.678379 -0.129375 1.050469 29.000000
2.662855 -0.159128 1.044998 25.000000
2.679419 -0.190790 1.052116 24.000000
2.593700 -0.214436 1.019039 10.000000
2.646852 -0.249272 1.040566 27.000000
2.653325 -0.280310 1.043686 28.000000
2.659340 -0.311646 1.046978 32.000000
2.655743 -0.342003 1.046539 30.000000
2.684255 -0.376716 1.058658 38.000000
2.666089 -0.405254 1.052848 32.000000
2.712059 -0.444012 1.072310 26.000000
2.624430 -0.460403 1.038984 16.000000
2.715534 -0.508252 1.076405 34.000000
2.705264 -0.538289 1.073777 36.000000
2.726568 -0.574951 1.083930 52.000000
2.752023 -0.613068 1.095879 35.000000
2.790566 -0.655108 1.113149 63.000000
2.783247 -0.686920 1.112116 34.000000
2.820873 -0.730228 1.129150 33.000000
2.808171 -0.761243 1.126487 21.000000
2.817548 -0.798415 1.132750 32.000000
2.808732 -0.830613 1.131600 33.000000
2.795075 -0.861245 1.128650 36.000000
2.767738 -0.887406 1.120214 30.000000
2.758041 -0.918872 1.118883 36.000000
2.743554 -0.948717 1.115663 33.000000
2.737318 -0.981708 1.116316 26.000000
2.717633 -1.009731 1.111501 27.000000
2.680584 -1.030474 1.099072 31.000000
2.673569 -1.062792 1.099449 32.000000
2.666141 -1.095115 1.099728 43.000000
2.662410 -1.129550 1.102159 32.000000
2.637100 -1.154248 1.095126 36.000000
2.615983 -1.180387 1.089884 35.000000
2.615867 -1.216093 1.093420 30.000000
2.576910 -1.234101 1.081295 28.000000
2.575791 -1.269954 1.085106 35.000000
2.553673 -1.294860 1.079517 32.000000
2.543441 -1.326346 1.079597 48.000000
2.520505 -1.351107 1.074396 33.000000
2.513790 -1.384619 1.076042 37.000000
2.494374 -1.411122 1.072419 35.000000
2.486974 -1.444403 1.073957 30.000000
2.438943 -1.453694 1.057929 24.000000
2.438939 -1.491399 1.062865 34.000000
2.418679 -1.516739 1.058985 26.000000
2.417915 -1.554481 1.063696 24.000000
2.393152 -1.576912 1.057988 29.000000
2.379326 -1.607322 1.057758 35.000000
2.369581 -1.639744 1.058779 35.000000
2.370270 -1.680961 1.065323 28.000000
2.321737 -1.685713 1.049037 31.000000
2.299135 -1.709947 1.045180 34.000000
2.284537 -1.738855 1.044283 35.000000
2.279974 -1.776890 1.048773 37.000000
2.271953 -1.811490 1.051060 33.000000
2.259155 -1.843747 1.052096 35.000000
2.245847 -1.875984 1.052928 36.000000
2.200866 -1.879834 1.038169 24.000000
2.190762 -1.914653 1.040593 26.000000
2.183587 -1.952577 1.044671 32.000000
2.165613 -1.981002 1.043593 33.000000
2.157513 -2.018883 1.047519 42.000000
2.121695 -2.030815 1.037985 30.000000
2.103772 -2.057783 1.036318 35.000000
2.084637 -2.085304 1.035023 31.000000
2.084936 -2.132961 1.043625 24.000000
2.051813 -2.146735 1.035600 27.000000
2.038069 -2.180697 1.037357 31.000000
2.030282 -2.221569 1.042356 35.000000
2.017503 -2.259971 1.046065 35.000000
2.005389 -2.297399 1.049149 33.000000
1.980588 -2.320429 1.045802 30.000000
1.925173 -2.306836 1.026197 26.000000
1.849304 -2.266578 0.995329 24.000000
1.745153 -2.187843 0.948598 12.000000
1.657529 -2.125675 0.910160 17.000000
1.616082 -2.122847 0.897728 25.000000
1.542293 -2.072939 0.865949 24.000000
1.472673 -2.025359 0.835876 19.000000
1.423520 -2.003519 0.817042 26.000000
1.369542 -1.973088 0.795103 23.000000
1.317865 -1.946283 0.775175 14.000000
1.262955 -1.909878 0.751948 12.000000
1.206562 -1.868401 0.727251 21.000000
1.180288 -1.874851 0.721583 30.000000
1.157817 -1.884309 0.717197 30.000000
1.140255 -1.901658 0.715824 31.000000
1.113909 -1.907231 0.710061 34.000000
1.091232 -1.915838 0.705634 33.000000
1.078641 -1.945786 0.709023 22.000000
0.728196 1.340553 0.498526 9.000000
0.760903 1.365127 0.513109 20.000000
0.764566 1.335037 0.507239 17.000000
0.788369 1.342410 0.515653 16.000000
0.800136 1.329086 0.516177 24.000000
0.807627 1.307104 0.513320 17.000000
0.831611 1.313632 0.521759 19.000000
0.840469 1.295922 0.520617 20.000000
0.867350 1.305747 0.530673 10.000000
0.868773 1.275527 0.524447 21.000000
0.871526 1.249804 0.519978 20.000000
0.895833 1.254983 0.528377 16.000000
0.909264 1.244487 0.530317 32.000000
0.917677 1.225778 0.528794 17.000000
0.939397 1.226300 0.535586 25.000000
0.952519 1.215273 0.537482 23.000000
0.983258 1.226240 0.549224 11.000000
0.957519 1.167285 0.529590 35.000000
0.991289 1.181343 0.543021 25.000000
1.007082 1.173295 0.546433 25.000000
1.013477 1.154401 0.544892 27.000000
1.032257 1.149572 0.549987 21.000000
1.054224 1.147863 0.556734 28.000000
1.069871 1.138920 0.560139 29.000000
1.088701 1.133141 0.565195 23.000000
1.094390 1.113641 0.563482 34.000000
1.106498 1.100824 0.565103 27.000000
1.128560 1.097634 0.571794 33.000000
1.137117 1.081158 0.571667 33.000000
1.162133 1.081006 0.580319 27.000000
1.173943 1.067338 0.581866 37.000000
1.185651 1.053517 0.583362 31.000000
1.207778 1.048818 0.590048 24.000000
1.204512 1.022889 0.584824 33.000000
1.230152 1.020669 0.593170 26.000000
1.259593 1.020905 0.603293 32.000000
1.281378 1.015218 0.610122 32.000000
1.296265 1.002960 0.613258 25.000000
1.321882 0.999352 0.621834 35.000000
1.329136 0.981016 0.621370 27.000000
1.350970 0.973926 0.628171 26.000000
1.357522 0.955644 0.627924 31.000000
1.364285 0.937018 0.627343 31.000000
1.397626 0.936859 0.639404 35.000000
1.419409 0.928382 0.646117 32.000000
1.433317 0.914499 0.649286 30.000000
1.455042 0.905292 0.655925 32.000000
1.464842 0.888492 0.657269 31.000000
1.474417 0.871524 0.658501 29.000000
1.500055 0.863700 0.666867 32.000000
1.513464 0.848602 0.669857 31.000000
1.534939 0.837708 0.676460 37.000000
1.577035 0.837403 0.692002 34.000000
1.594141 0.823624 0.696967 31.000000
1.623949 0.815575 0.707089 33.000000
1.641009 0.801035 0.711971 29.000000
1.662368 0.787939 0.718385 26.000000
1.683496 0.774672 0.725055 29.000000
1.704507 0.760992 0.731683 33.000000
1.721187 0.745110 0.736439 31.000000
1.750635 0.734246 0.746634 29.000000
1.771472 0.719325 0.753128 29.000000
1.800894 0.707383 0.763242 32.000000
1.817205 0.689927 0.767868 28.000000
1.842000 0.675537 0.776311 19.000000
1.875569 0.663591 0.788198 36.000000
1.904616 0.649606 0.798397 31.000000
1.920383 0.630636 0.803080 34.000000
1.953667 0.616994 0.815032 32.000000
1.969152 0.597214 0.819607 27.000000
1.993411 0.579758 0.827758 28.000000
2.048826 0.570543 0.848896 29.000000
2.041376 0.543478 0.844238 11.000000
2.087632 0.530439 0.861787 30.000000
2.111413 0.510732 0.869716 26.000000
2.170972 0.499072 0.892969 28.000000
2.194454 0.478121 0.901075 29.000000
2.217728 0.456681 0.909043 24.000000
2.245341 0.435708 0.919109 25.000000
2.281799 0.415802 0.932770 24.000000
2.313659 0.394309 0.944503 9.000000
2.363635 0.375095 0.963642 32.000000
2.413375 0.354755 0.983039 27.000000
2.444638 0.330876 0.994740 25.000000
2.480258 0.306856 1.008322 29.000000
2.515719 0.282098 1.021750 28.000000
2.564764 0.257995 1.040973 25.000000
2.609039 0.232256 1.057996 27.000000
2.685316 0.208159 1.088311 20.000000
2.724359 0.179928 1.103746 30.000000
2.767904 0.151015 1.120703 31.000000
2.815581 0.121348 1.139629 32.000000
2.858483 0.090381 1.156593 32.000000
2.887041 0.058273 1.168125 30.000000
2.845709 0.024921 1.151437 13.000000
2.878246 -0.007770 1.164564 23.000000
2.878057 -0.040651 1.164470 26.000000
2.900656 -0.074124 1.173654 30.000000
2.927397 -0.108297 1.184807 29.000000
2.926047 -0.141760 1.184614 28.000000
2.989091 -0.179203 1.210757 35.000000
2.987020 -0.213309 1.210264 29.000000
2.975218 -0.246649 1.206223 20.000000
2.976885 -0.281184 1.207997 35.000000
2.950683 -0.312695 1.198144 29.000000
2.965490 -0.348650 1.205240 32.000000
2.956862 -0.381958 1.202878 34.000000
2.947953 -0.415063 1.200321 31.000000
2.966272 -0.452256 1.208979 35.000000
2.933678 -0.481709 1.197180 28.000000
2.896224 -0.509630 1.183429 13.000000
2.922430 -0.548708 1.195713 32.000000
2.889068 -0.576612 1.183649 27.000000
2.882576 -0.609750 1.182970 30.000000
2.880225 -0.643705 1.184057 33.000000
2.855167 -0.672252 1.175356 29.000000
2.851958 -0.706156 1.176540 29.000000
2.835244 -0.736372 1.171764 27.000000
2.800274 -0.761414 1.159382 13.000000
2.818491 -0.801170 1.169549 31.000000
2.787274 -0.826821 1.159231 27.000000
2.764791 -0.854610 1.152535 28.000000
2.764225 -0.889111 1.154995 32.000000
2.741181 -0.916258 1.148122 27.000000
2.735512 -0.949102 1.148542 29.000000
2.711743 -0.975845 1.141876 26.000000
2.679364 -0.998568 1.131072 10.000000
2.681212 -1.034369 1.135269 33.000000
2.665482 -1.063387 1.132020 26.000000
2.636510 -1.086893 1.123278 29.000000
2.637288 -1.122572 1.127178 28.000000
2.620713 -1.150873 1.123753 26.000000
2.616620 -1.184648 1.125618 29.000000
2.586748 -1.206713 1.116544 26.000000
2.547999 -1.224540 1.104133 10.000000
2.551458 -1.261791 1.109451 30.000000
2.533134 -1.289139 1.106053 29.000000
2.527526 -1.322221 1.107532 30.000000
2.508665 -1.349242 1.104044 32.000000
2.489667 -1.375888 1.100375 27.000000
2.486571 -1.411464 1.103823 30.000000
2.454920 -1.430689 1.094669 26.000000
2.407081 -1.439774 1.078271 10.000000
2.435076 -1.494327 1.095952 31.000000
2.418640 -1.522249 1.093711 18.000000
2.398093 -1.547451 1.089686 13.000000
2.400610 -1.587843 1.096254 25.000000
2.379447 -1.612667 1.092128 24.000000
2.349816 -1.632535 1.084746 28.000000
2.354937 -1.675604 1.092835 24.000000
2.291456 -1.669422 1.069118 10.000000
2.283936 -1.704635 1.072180 32.000000
2.284231 -1.744863 1.078266 28.000000
2.275809 -1.780126 1.081181 30.000000
2.264012 -1.811871 1.081852 32.000000
2.229300 -1.826344 1.072421 23.000000
2.219806 -1.861374 1.075107 29.000000
2.182110 -1.871195 1.063415 22.000000
2.161438 -1.896637 1.060796 10.000000
2.164834 -1.943744 1.070166 29.000000
2.136445 -1.962557 1.063979 25.000000
2.132817 -2.002676 1.069260 28.000000
2.100693 -2.017630 1.061273 26.000000
2.101927 -2.065093 1.070289 21.000000
2.069304 -2.079492 1.062122 26.000000
2.066130 -2.123712 1.069258 21.000000
2.046206 -2.151057 1.067778 11.000000
2.025821 -2.178190 1.066288 33.000000
2.024273 -2.226009 1.074783 29.000000
1.993735 -2.242369 1.068017 33.000000
1.987888 -2.286743 1.074741 30.000000
1.956959 -2.302616 1.067877 19.000000
1.901877 -2.288935 1.047751 18.000000
1.838365 -2.263278 1.022770 10.000000
1.740562 -2.192080 0.978048 9.000000
1.676322 -2.159941 0.951689 15.000000
1.595985 -2.103927 0.915574 10.000000
1.529834 -2.066148 0.888184 16.000000
1.463247 -2.022539 0.858999 12.000000
1.425113 -2.016282 0.846131 10.000000
1.357742 -1.966492 0.815493 16.000000
1.306308 -1.939713 0.795016 10.000000
1.243868 -1.891475 0.766349 9.000000
1.205673 -1.877862 0.752180 19.000000
1.175624 -1.875739 0.742870 16.000000
1.151845 -1.885872 0.738649 29.000000
1.129294 -1.895094 0.734084 28.000000
1.106687 -1.904045 0.729531 33.000000
1.087360 -1.921701 0.728336 28.000000
1.066855 -1.934260 0.725285 16.000000
0.724372 1.342960 0.513541 17.000000
0.739702 1.333822 0.515556 22.000000
0.758584 1.333207 0.520933 21.000000
0.772773 1.324210 0.523059 27.000000
0.782890 1.306454 0.521796 19.000000
0.796746 1.297217 0.523908 27.000000
0.815537 1.295782 0.529239 23.000000
0.831940 1.290062 0.532955 20.000000
0.825682 1.248245 0.521674 21.000000
0.846973 1.250244 0.528613 21.000000
0.857614 1.236359 0.528957 25.000000
0.879044 1.237766 0.535897 26.000000
0.889490 1.223587 0.536192 21.000000
0.908240 1.220664 0.541504 29.000000
0.924944 1.213220 0.544911 26.000000
0.940842 1.206005 0.548477 23.000000
0.933242 1.169209 0.538508 27.000000
0.948784 1.161836 0.542051 27.000000
0.970383 1.161462 0.548966 33.000000
0.982912 1.150014 0.550784 33.000000
1.001475 1.145489 0.555985 30.000000
1.020143 1.140672 0.561208 31.000000
1.041981 1.139020 0.568129 30.000000
1.060739 1.133620 0.573300 30.000000
1.073012 1.121095 0.575018 34.000000
1.071522 1.095472 0.569965 34.000000
1.090074 1.089421 0.575107 42.000000
1.135466 1.109292 0.594243 37.000000
1.147570 1.095843 0.595898 34.000000
1.162991 1.085483 0.599213 53.000000
1.167445 1.065843 0.597545 48.000000
1.182589 1.055133 0.600812 35.000000
1.194176 1.041167 0.602313 28.000000
1.208697 1.030490 0.605853 32.000000
1.220007 1.016171 0.607254 36.000000
1.238038 1.008007 0.612496 32.000000
1.282026 1.019483 0.630060 35.000000
1.303895 1.013288 0.637066 51.000000
1.315076 0.997840 0.638470 32.000000
1.333262 0.988159 0.643653 34.000000
1.340405 0.969620 0.643145 32.000000
1.350751 0.954127 0.644608 33.000000
1.376324 0.948992 0.653350 51.000000
1.401961 0.943448 0.662125 37.000000
1.412153 0.927163 0.663510 35.000000
1.429958 0.915786 0.668558 52.000000
1.447762 0.904060 0.673565 50.000000
1.457506 0.887204 0.674909 34.000000
1.467138 0.870236 0.676141 31.000000
1.492695 0.862455 0.684756 32.000000
1.506141 0.847297 0.687794 45.000000
1.527557 0.836449 0.694542 47.000000
1.552815 0.827675 0.703338 50.000000
1.574199 0.815923 0.709955 43.000000
1.620178 0.816652 0.728054 59.000000
1.637460 0.801759 0.732797 34.000000
1.641787 0.780878 0.732129 27.000000
1.671209 0.771695 0.742679 35.000000
1.696430 0.759952 0.751324 31.000000
1.717321 0.745911 0.758055 32.000000
1.738146 0.731390 0.764740 32.000000
1.763194 0.718259 0.773259 34.000000
1.783897 0.702971 0.779914 35.000000
1.808659 0.689098 0.788597 31.000000
1.833500 0.674507 0.797045 30.000000
1.845010 0.654935 0.799967 35.000000
1.878250 0.642754 0.812361 37.000000
1.902700 0.626877 0.820861 53.000000
1.940241 0.614722 0.835004 35.000000
1.969011 0.599028 0.845375 49.000000
1.988711 0.580234 0.851826 35.000000
2.008222 0.561135 0.858494 29.000000
2.058940 0.549801 0.878162 31.000000
2.082694 0.530731 0.886633 35.000000
2.110754 0.512198 0.896956 36.000000
2.156728 0.497229 0.914863 37.000000
2.170944 0.474497 0.919563 33.000000
2.225847 0.459749 0.941118 34.000000
2.226117 0.433341 0.939955 35.000000
2.267033 0.414361 0.955879 26.000000
2.316891 0.396103 0.975578 32.000000
2.352927 0.374623 0.989703 36.000000
2.388917 0.352253 1.003529 36.000000
2.420036 0.328526 1.015606 42.000000
2.455494 0.304739 1.029454 43.000000
2.509058 0.282197 1.051249 38.000000
2.539534 0.256181 1.062949 37.000000
2.555941 0.228217 1.069139 24.000000
2.645741 0.205746 1.105938 34.000000
2.675299 0.177218 1.118010 35.000000
2.750886 0.150489 1.148799 35.000000
2.784616 0.120365 1.162545 33.000000
2.822618 0.089555 1.178036 35.000000
2.892565 0.058552 1.207197 36.000000
2.939088 0.025758 1.226645 34.000000
2.994554 -0.008120 1.249753 33.000000
3.068177 -0.043430 1.280462 34.000000
3.118310 -0.079941 1.301333 35.000000
3.144946 -0.116761 1.312883 34.000000
3.138880 -0.152543 1.310750 56.000000
3.123087 -0.187770 1.304873 36.000000
3.102502 -0.222246 1.296660 34.000000
3.081534 -0.256300 1.288760 30.000000
3.069379 -0.290803 1.284404 34.000000
3.061324 -0.325480 1.282277 35.000000
3.043907 -0.358971 1.275801 35.000000
3.030699 -0.392638 1.271453 39.000000
2.994254 -0.422868 1.257409 35.000000
2.984793 -0.456551 1.255090 36.000000
2.970591 -0.489279 1.250257 34.000000
2.956024 -0.521698 1.245827 29.000000
2.909324 -0.547925 1.227794 35.000000
2.930336 -0.586719 1.238398 36.000000
2.914684 -0.618466 1.233881 34.000000
2.894368 -0.648799 1.227065 37.000000
2.864634 -0.676696 1.216536 33.000000
2.857052 -0.709549 1.215564 33.000000
2.849179 -0.742305 1.214495 31.000000
2.814062 -0.767857 1.202189 28.000000
2.801239 -0.798747 1.198938 30.000000
2.801163 -0.833589 1.201683 35.000000
2.774139 -0.860319 1.193024 33.000000
2.747043 -0.886450 1.184187 34.000000
2.737236 -0.917966 1.182854 34.000000
2.709662 -0.943301 1.173758 32.000000
2.716670 -0.980618 1.179902 30.000000
2.679704 -1.002213 1.167331 30.000000
2.668765 -1.032766 1.165634 32.000000
2.653055 -1.061881 1.162336 34.000000
2.628350 -1.087073 1.155185 33.000000
2.612097 -1.115515 1.151713 35.000000
2.599750 -1.145540 1.150123 33.000000
2.570334 -1.167801 1.140853 30.000000
2.561710 -1.199225 1.140958 28.000000
2.552763 -1.230559 1.140963 26.000000
2.538965 -1.260206 1.139378 31.000000
2.533526 -1.293421 1.141050 35.000000
2.502684 -1.314253 1.131932 31.000000
2.500725 -1.349396 1.135360 35.000000
2.481628 -1.376092 1.131640 37.000000
2.454228 -1.397910 1.124136 30.000000
2.446851 -1.430991 1.125879 30.000000
2.431027 -1.459286 1.123831 28.000000
2.414925 -1.487396 1.121690 29.000000
2.410339 -1.522679 1.124962 27.000000
2.381975 -1.542964 1.117223 18.000000
2.380543 -1.580626 1.122113 27.000000
2.355606 -1.602839 1.116030 32.000000
2.334323 -1.627257 1.111782 29.000000
2.312817 -1.651308 1.107449 26.000000
2.279158 -1.667480 1.097968 25.000000
2.268589 -1.699145 1.098994 28.000000
2.260577 -1.734380 1.102086 35.000000
2.238261 -1.757324 1.097490 28.000000
2.233170 -1.795268 1.102251 29.000000
2.221081 -1.826682 1.102833 35.000000
2.211497 -1.861647 1.105654 28.000000
2.195108 -1.889914 1.104318 24.000000
2.156573 -1.900104 1.092785 23.000000
2.145875 -1.934739 1.095286 25.000000
2.142608 -1.974918 1.100916 32.000000
2.117340 -1.996804 1.096207 26.000000
2.095321 -2.021481 1.093264 27.000000
2.079683 -2.052546 1.093733 31.000000
2.053820 -2.073498 1.088938 26.000000
2.051621 -2.116790 1.095874 24.000000
2.018816 -2.130478 1.087400 19.000000
2.011351 -2.171181 1.092812 23.000000
2.003415 -2.211967 1.098171 30.000000
1.966803 -2.221200 1.087889 26.000000
1.973335 -2.279562 1.101576 28.000000
1.966761 -2.324004 1.108312 27.000000
1.926469 -2.328834 1.096130 26.000000
1.862718 -2.303668 1.070412 21.000000
1.802814 -2.280912 1.046440 10.000000
1.654388 -2.141773 0.970295 10.000000
1.595894 -2.116662 0.947124 15.000000
1.528338 -2.074537 0.916953 13.000000
1.472932 -2.046333 0.893571 16.000000
1.410211 -2.005621 0.865424 13.000000
1.353913 -1.971417 0.840616 10.000000
1.322202 -1.971444 0.830837 12.000000
1.245451 -1.904582 0.793429 9.000000
1.204673 -1.887147 0.777295 10.000000
1.179496 -1.893157 0.770990 21.000000
1.151961 -1.894721 0.763012 21.000000
1.123119 -1.896538 0.755359 22.000000
1.100416 -1.905524 0.750687 26.000000
1.082375 -1.922492 0.749243 20.000000
1.067158 -1.948322 0.751204 15.000000
0.735888 1.336042 0.530661 22.000000
0.738568 1.306626 0.524582 29.000000
0.767631 1.321787 0.536506 29.000000
0.767245 1.288333 0.528706 28.000000
0.785840 1.287207 0.534180 30.000000
0.807056 1.289861 0.541356 26.000000
0.814062 1.267871 0.538232 32.000000
0.817243 1.242476 0.533578 25.000000
0.838436 1.244439 0.540688 30.000000
0.843763 1.222851 0.537580 32.000000
0.859541 1.216660 0.541313 33.000000
0.875354 1.210259 0.545010 32.000000
0.907913 1.226238 0.558990 33.000000
0.918270 1.211737 0.559248 30.000000
0.922699 1.189692 0.555980 34.000000
0.939134 1.181951 0.559432 21.000000
0.940084 1.156253 0.554326 35.000000
0.970527 1.166748 0.566664 67.000000
0.979409 1.152107 0.566985 34.000000
0.988808 1.136945 0.567047 36.000000
1.019795 1.146168 0.579415 36.000000
1.041698 1.144429 0.586533 36.000000
1.054123 1.132105 0.588301 47.000000
1.060003 1.112815 0.586503 15.000000
1.072152 1.100214 0.588210 62.000000
1.094036 1.097379 0.595245 35.000000
1.112093 1.091351 0.600768 36.000000
1.124070 1.078151 0.602399 54.000000
1.156247 1.083926 0.614828 50.000000
1.164226 1.067444 0.614882 43.000000
1.179437 1.056689 0.618253 61.000000
1.191058 1.042630 0.619809 23.000000
1.205592 1.031908 0.623401 40.000000
1.216935 1.017547 0.624858 37.000000
1.245761 1.018160 0.635710 35.000000
1.253373 1.000424 0.635294 52.000000
1.296981 1.011614 0.653541 33.000000
1.304090 0.993728 0.653365 35.000000
1.326309 0.986529 0.660275 37.000000
1.325581 0.962918 0.656273 19.000000
1.347277 0.955511 0.663372 41.000000
1.365170 0.945092 0.668573 57.000000
1.394594 0.942174 0.679406 36.000000
1.404731 0.925889 0.680847 44.000000
1.430346 0.919460 0.689749 37.000000
1.440314 0.902772 0.691093 35.000000
1.461967 0.893158 0.698097 36.000000
1.483554 0.883154 0.705067 22.000000
1.481163 0.858775 0.700638 40.000000
1.494563 0.843717 0.703720 36.000000
1.519718 0.835419 0.712738 36.000000
1.537027 0.821926 0.717690 44.000000
1.566214 0.814874 0.728549 62.000000
1.604055 0.811050 0.742968 32.000000
1.633450 0.802717 0.753840 37.000000
1.625317 0.775822 0.747437 18.000000
1.654593 0.766723 0.758224 30.000000
1.692318 0.760743 0.772827 32.000000
1.708998 0.744801 0.777781 30.000000
1.725512 0.728478 0.782685 31.000000
1.746188 0.713641 0.789467 31.000000
1.770891 0.700391 0.798448 28.000000
1.800048 0.687950 0.809008 31.000000
1.798672 0.664028 0.806216 11.000000
1.836102 0.654096 0.820879 33.000000
1.873639 0.643333 0.835448 51.000000
1.898021 0.627398 0.844213 35.000000
1.931043 0.613849 0.856757 32.000000
1.955305 0.596801 0.865358 42.000000
1.979414 0.579346 0.873906 33.000000
2.003226 0.561483 0.882675 35.000000
2.035827 0.545524 0.895300 18.000000
2.072832 0.530022 0.909835 32.000000
2.100857 0.511552 0.920407 34.000000
2.128716 0.492424 0.930851 31.000000
2.151831 0.471866 0.939567 29.000000
2.183891 0.452541 0.951854 37.000000
2.229317 0.435310 0.970271 31.000000
2.256525 0.413752 0.980701 28.000000
2.297034 0.394005 0.997274 26.000000
2.346601 0.374718 1.017339 34.000000
2.368652 0.350428 1.025846 34.000000
2.399629 0.326882 1.038223 34.000000
2.457806 0.306033 1.062275 33.000000
2.497540 0.281780 1.078375 36.000000
2.523234 0.255381 1.088738 33.000000
2.548724 0.228372 1.099024 28.000000
2.638037 0.205752 1.136777 30.000000
2.658392 0.176648 1.145114 31.000000
2.733637 0.150055 1.176794 34.000000
2.767215 0.119982 1.190892 32.000000
2.818820 0.089660 1.212710 34.000000
2.879267 0.058456 1.238673 32.000000
2.930170 0.025798 1.260502 34.000000
2.980789 -0.008120 1.282333 31.000000
3.031110 -0.043103 1.303867 33.000000
3.099380 -0.079720 1.333294 35.000000
3.148737 -0.117236 1.354917 32.000000
3.115157 -0.151992 1.340884 35.000000
3.094952 -0.186733 1.332985 33.000000
3.083625 -0.221609 1.328522 30.000000
3.053487 -0.254847 1.316372 25.000000
3.055109 -0.290395 1.317938 32.000000
3.019867 -0.322048 1.303522 34.000000
3.002446 -0.355225 1.297305 36.000000
2.998330 -0.389764 1.296803 32.000000
2.989362 -0.423658 1.294231 34.000000
2.961936 -0.454558 1.283585 34.000000
2.952128 -0.487932 1.281120 30.000000
2.937810 -0.520202 1.276194 22.000000
2.918316 -0.551410 1.269506 30.000000
2.894172 -0.581303 1.260764 32.000000
2.887511 -0.614708 1.260078 33.000000
2.871777 -0.645898 1.255078 30.000000
2.864551 -0.679004 1.254199 37.000000
2.834614 -0.706352 1.243432 32.000000
2.822314 -0.737841 1.240409 27.000000
2.809749 -0.769035 1.237197 21.000000
2.792495 -0.798763 1.232037 28.000000
2.774718 -0.828384 1.227076 30.000000
2.756615 -0.857705 1.222026 35.000000
2.738285 -0.886631 1.216888 32.000000
2.706635 -0.910852 1.205829 32.000000
2.705305 -0.945016 1.208295 34.000000
2.686295 -0.973007 1.202896 28.000000
2.654027 -0.995753 1.191600 20.000000
2.647157 -1.028202 1.192222 32.000000
2.623134 -1.053313 1.184638 30.000000
2.615702 -1.085480 1.185165 35.000000
2.590988 -1.110290 1.177790 31.000000
2.574461 -1.138351 1.174187 30.000000
2.561896 -1.168043 1.172511 32.000000
2.544872 -1.195586 1.168731 24.000000
2.523455 -1.220835 1.163040 22.000000
2.522523 -1.256096 1.166834 31.000000
2.516600 -1.289724 1.168978 33.000000
2.494507 -1.314270 1.163017 53.000000
2.475642 -1.341108 1.159345 33.000000
2.465280 -1.371699 1.159015 34.000000
2.454031 -1.402663 1.158957 36.000000
2.442453 -1.433535 1.158799 29.000000
2.398823 -1.445202 1.143514 21.000000
2.402545 -1.485255 1.150824 32.000000
2.393987 -1.518047 1.152356 27.000000
2.373387 -1.543256 1.148142 25.000000
2.360275 -1.573330 1.147593 26.000000
2.350656 -1.605922 1.148908 35.000000
2.325536 -1.627773 1.142644 34.000000
2.304023 -1.651870 1.138260 24.000000
2.259931 -1.659212 1.122546 22.000000
2.259775 -1.699896 1.129609 33.000000
2.234015 -1.720154 1.123120 33.000000
2.229997 -1.757408 1.127631 34.000000
2.206708 -1.780780 1.123366 30.000000
2.201878 -1.817847 1.127734 33.000000
2.188653 -1.849805 1.128776 35.000000
2.182999 -1.887076 1.132983 29.000000
2.151441 -1.903459 1.124771 23.000000
2.126805 -1.925658 1.120128 34.000000
2.123506 -1.965736 1.125904 29.000000
2.118634 -2.006685 1.131912 34.000000
2.079634 -2.015388 1.119934 27.000000
2.068352 -2.048833 1.121821 32.000000
2.055622 -2.083080 1.124057 32.000000
2.032660 -2.107189 1.120805 25.000000
2.015917 -2.137809 1.121117 24.000000
2.001905 -2.171728 1.123088 29.000000
1.990605 -2.209056 1.126800 33.000000
1.975717 -2.242974 1.128605 37.000000
1.945039 -2.258990 1.121573 31.000000
1.963947 -2.330988 1.142051 35.000000
1.929683 -2.343087 1.133130 58.000000
1.845402 -2.292618 1.094515 28.000000
1.778498 -2.263432 1.066930 14.000000
1.651114 -2.150302 1.000934 18.000000
1.594034 -2.124573 0.976785 17.000000
1.521098 -2.075068 0.942377 21.000000
1.468523 -2.050787 0.920183 21.000000
1.405997 -2.010229 0.891214 18.000000
1.349856 -1.976165 0.865757 17.000000
1.297254 -1.944970 0.842237 13.000000
1.230098 -1.889147 0.808663 10.000000
1.198444 -1.888302 0.799084 18.000000
1.165820 -1.882338 0.787588 18.000000
1.133409 -1.875794 0.776159 26.000000
1.110935 -1.885000 0.771374 25.000000
1.098732 -1.915104 0.775168 29.000000
1.071254 -1.915670 0.767077 31.000000
0.716123 1.309240 0.533960 31.000000
0.744956 1.324706 0.546137 24.000000
0.752100 1.303516 0.543262 29.000000
0.773197 1.306569 0.550573 30.000000
0.792019 1.305286 0.556213 26.000000
0.793555 1.275879 0.549854 32.000000
0.818157 1.281693 0.558704 26.000000
0.829334 1.267929 0.559099 18.000000
0.827278 1.234653 0.550793 31.000000
0.837832 1.220874 0.551129 25.000000
0.861768 1.226172 0.560156 34.000000
0.869483 1.208270 0.558693 29.000000
0.899138 1.220438 0.571262 28.000000
0.903841 1.198509 0.567980 35.000000
0.928196 1.202484 0.577042 27.000000
0.941189 1.191376 0.579025 23.000000
0.945226 1.169274 0.575597 30.000000
0.960878 1.161570 0.579306 33.000000
0.970432 1.146526 0.579380 58.000000
0.989017 1.141979 0.584808 29.000000
1.013739 1.144116 0.593879 34.000000
1.029330 1.135456 0.597547 36.000000
1.047406 1.130439 0.603200 31.000000
1.066132 1.124718 0.608674 25.000000
1.078429 1.111965 0.610402 33.000000
1.097174 1.105659 0.615806 35.000000
1.112036 1.096245 0.619592 56.000000
1.134069 1.092636 0.626831 36.000000
1.146070 1.079031 0.628487 37.000000
1.160864 1.068933 0.632260 66.000000
1.165691 1.048823 0.630088 33.000000
1.180262 1.038322 0.633815 25.000000
1.198776 1.030243 0.639063 32.000000
1.220345 1.025239 0.646470 33.000000
1.220942 1.001833 0.642289 36.000000
1.267726 1.016537 0.662838 37.000000
1.271739 0.995621 0.660446 34.000000
1.300762 0.994869 0.671582 44.000000
1.315108 0.982404 0.675104 34.000000
1.318202 0.961572 0.672917 28.000000
1.347362 0.959514 0.683978 34.000000
1.361479 0.946363 0.687422 45.000000
1.383185 0.938197 0.694658 59.000000
1.404896 0.929598 0.701863 35.000000
1.418853 0.915558 0.705238 47.000000
1.436602 0.903828 0.710496 53.000000
1.450359 0.889336 0.713721 33.000000
1.456086 0.869912 0.713079 28.000000
1.473202 0.857703 0.718535 33.000000
1.490645 0.844913 0.723611 37.000000
1.503929 0.829540 0.726694 40.000000
1.528916 0.820833 0.735925 35.000000
1.558112 0.813767 0.747026 55.000000
1.603950 0.814086 0.765760 55.000000
1.616785 0.797506 0.768975 32.000000
1.621192 0.776678 0.768266 22.000000
1.650383 0.767516 0.779299 29.000000
1.683792 0.759577 0.792272 30.000000
1.704639 0.745470 0.799296 34.000000
1.721192 0.729154 0.804299 35.000000
1.737326 0.712767 0.809562 33.000000
1.762195 0.699194 0.818425 35.000000
1.782422 0.683770 0.825576 24.000000
1.811233 0.671046 0.836591 27.000000
1.831321 0.654672 0.843652 36.000000
1.855716 0.639362 0.852591 33.000000
1.888684 0.626471 0.865536 48.000000
1.926010 0.614302 0.880372 36.000000
1.950134 0.597263 0.889172 34.000000
1.974035 0.579885 0.898192 37.000000
1.993363 0.560724 0.905159 29.000000
2.034891 0.546994 0.921811 26.000000
2.062898 0.529099 0.932611 35.000000
2.081706 0.508590 0.939699 30.000000
2.113964 0.490664 0.952397 32.000000
2.150393 0.473176 0.967343 34.000000
2.195863 0.456534 0.985967 31.000000
2.218613 0.434632 0.994694 33.000000
2.236561 0.411563 1.001644 25.000000
2.290558 0.394162 1.024356 26.000000
2.321925 0.371994 1.036847 35.000000
2.357442 0.349872 1.051603 35.000000
2.383759 0.325700 1.062257 32.000000
2.432348 0.303839 1.083188 35.000000
2.471973 0.279819 1.099604 32.000000
2.515738 0.255422 1.118303 35.000000
2.522908 0.226804 1.120748 23.000000
2.616440 0.204775 1.161471 29.000000
2.645914 0.176294 1.173788 32.000000
2.725197 0.150033 1.208557 41.000000
2.749491 0.119599 1.218863 31.000000
2.791808 0.089129 1.237178 34.000000
2.870156 0.058453 1.271984 33.000000
2.907204 0.025620 1.288284 31.000000
2.971199 -0.008133 1.316742 34.000000
3.034992 -0.043263 1.344900 33.000000
3.084652 -0.079617 1.366974 35.000000
3.115600 -0.116449 1.381046 35.000000
3.100445 -0.151785 1.374764 35.000000
3.089453 -0.186977 1.370301 48.000000
3.068940 -0.221301 1.362102 33.000000
3.038933 -0.254440 1.349653 23.000000
3.017775 -0.287817 1.341155 35.000000
3.014538 -0.322618 1.340649 32.000000
2.983547 -0.354284 1.328115 33.000000
2.984173 -0.389161 1.329333 36.000000
2.970698 -0.422312 1.324692 33.000000
2.947809 -0.453762 1.315819 36.000000
2.938122 -0.487137 1.313304 31.000000
2.892017 -0.513906 1.294560 23.000000
2.904418 -0.550622 1.301443 33.000000
2.884748 -0.581424 1.294614 33.000000
2.860172 -0.610958 1.285878 32.000000
2.853445 -0.643914 1.284806 35.000000
2.846229 -0.676968 1.283928 33.000000
2.821049 -0.705190 1.274535 33.000000
2.817631 -0.739004 1.275474 32.000000
2.756184 -0.757148 1.250647 21.000000
