x y z intensity
1.487426 1.607800 -0.143216 39.000000
1.501415 1.587830 -0.143291 35.000000
1.522058 1.574910 -0.144020 35.000000
1.542645 1.561780 -0.144751 35.000000
1.563109 1.548372 -0.145484 35.000000
1.572699 1.524268 -0.145226 33.000000
1.595879 1.514457 -0.146358 65.000000
1.608643 1.493500 -0.146362 44.000000
1.628583 1.479196 -0.147099 65.000000
1.644598 1.461297 -0.147435 58.000000
1.675472 1.456286 -0.149180 62.000000
1.702695 1.447578 -0.150527 62.000000
1.714582 1.425726 -0.150532 35.000000
1.733936 1.409980 -0.151211 36.000000
1.760893 1.400291 -0.152568 54.000000
1.783978 1.387077 -0.153590 39.000000
1.802949 1.370465 -0.154275 53.000000
1.821777 1.353697 -0.154962 44.000000
1.836496 1.333633 -0.155309 42.000000
1.842801 1.307725 -0.154903 44.000000
1.861001 1.290384 -0.155591 35.000000
1.891514 1.281137 -0.157242 35.000000
1.909512 1.263202 -0.157935 53.000000
1.948025 1.258926 -0.160355 66.000000
1.957429 1.234907 -0.160293 51.000000
1.970740 1.213455 -0.160576 45.000000
1.983909 1.191860 -0.160859 61.000000
2.005330 1.175168 -0.161837 52.000000
2.022389 1.155671 -0.162469 34.000000
2.065360 1.150572 -0.165194 36.000000
2.086495 1.132766 -0.166109 66.000000
2.107515 1.114550 -0.167099 62.000000
2.132852 1.098426 -0.168441 77.000000
2.135751 1.070616 -0.167960 37.000000
2.169492 1.058528 -0.170009 52.000000
2.207901 1.047650 -0.172415 56.000000
2.210133 1.019397 -0.171935 33.000000
2.248388 1.007508 -0.174275 35.000000
2.268389 0.986914 -0.175208 47.000000
2.288174 0.966045 -0.176142 37.000000
2.316970 0.948604 -0.177787 55.000000
2.340911 0.929152 -0.179080 41.000000
2.364894 0.908937 -0.180377 44.000000
2.407305 0.895293 -0.183098 61.000000
2.449742 0.880859 -0.185746 32.000000
2.449799 0.850903 -0.185272 52.000000
2.487135 0.833914 -0.187651 62.000000
2.505615 0.809853 -0.188525 48.000000
2.542807 0.791434 -0.190831 71.000000
2.560836 0.766591 -0.191709 60.000000
2.583311 0.743000 -0.193029 42.000000
2.615244 0.721504 -0.194985 55.000000
2.637429 0.696771 -0.196228 32.000000
2.683454 0.677914 -0.199267 42.000000
2.710044 0.653372 -0.200874 55.000000
2.736395 0.628410 -0.202483 40.000000
2.767457 0.603916 -0.204368 62.000000
2.798289 0.578893 -0.206342 52.000000
2.838669 0.555078 -0.208951 55.000000
2.869031 0.528710 -0.210931 68.000000
2.869652 0.496707 -0.210659 24.000000
2.953674 0.478180 -0.216522 81.000000
2.963641 0.446788 -0.216975 60.000000
2.978196 0.415887 -0.217789 10.000000
3.007251 0.386680 -0.219687 10.000000
3.070673 0.360916 -0.224118 22.000000
3.119086 0.332275 -0.227467 51.000000
3.157194 0.301716 -0.229999 60.000000
3.195083 0.270304 -0.232628 19.000000
3.267456 0.240601 -0.237693 31.000000
3.324711 0.208444 -0.241673 31.000000
3.356630 0.173910 -0.243947 87.000000
3.433015 0.140353 -0.249376 98.000000
3.444351 0.103329 -0.250099 95.000000
3.450286 0.065889 -0.250461 88.000000
3.455694 0.028445 -0.250823 95.000000
3.391077 -0.009027 -0.246014 34.000000
3.365833 -0.045525 -0.244205 20.000000
3.375083 -0.082435 -0.244929 9.000000
3.393881 -0.119811 -0.246272 32.000000
3.402390 -0.157160 -0.246891 47.000000
3.410471 -0.194726 -0.247614 41.000000
3.438024 -0.233862 -0.249678 77.000000
3.450197 -0.272470 -0.250656 66.000000
3.451987 -0.310404 -0.250911 95.000000
3.433497 -0.346443 -0.249722 98.000000
3.399853 -0.380390 -0.247348 95.000000
3.355860 -0.412473 -0.244360 71.000000
3.331433 -0.446344 -0.242712 89.000000
3.242494 -0.470274 -0.236490 13.000000
3.217472 -0.502484 -0.234851 9.000000
3.172543 -0.530873 -0.231876 9.000000
3.132173 -0.559185 -0.229164 11.000000
3.140642 -0.595949 -0.230046 34.000000
3.124212 -0.628119 -0.229134 54.000000
3.078166 -0.653665 -0.226072 53.000000
3.070945 -0.687171 -0.225880 42.000000
3.014791 -0.708972 -0.222016 9.000000
2.953664 -0.728619 -0.217897 9.000000
2.931079 -0.756805 -0.216548 24.000000
2.942004 -0.793864 -0.217788 62.000000
2.913944 -0.820435 -0.216177 70.000000
2.904960 -0.851927 -0.215807 55.000000
2.943215 -0.897972 -0.219174 30.000000
3.056938 -0.969170 -0.228115 30.000000
3.136257 -1.031951 -0.234553 31.000000
3.242955 -1.106039 -0.243096 47.000000
3.258906 -1.151228 -0.244902 80.000000
3.204058 -1.171137 -0.241408 92.000000
3.191221 -1.205997 -0.240991 95.000000
3.154631 -1.231578 -0.238918 87.000000
3.136640 -1.263594 -0.238152 95.000000
3.099645 -1.288061 -0.236088 63.000000
3.085473 -1.321744 -0.235677 34.000000
3.107499 -1.371435 -0.238167 33.000000
3.078809 -1.399016 -0.236704 29.000000
3.090503 -1.445109 -0.238381 35.000000
3.074639 -1.478611 -0.237964 32.000000
3.063038 -1.513802 -0.237894 21.000000
3.055313 -1.551662 -0.238169 13.000000
3.091296 -1.612470 -0.241902 10.000000
3.091179 -1.655487 -0.242858 9.000000
3.121026 -1.715600 -0.246113 9.000000
3.119557 -1.759284 -0.247054 9.000000
3.039824 -1.758281 -0.241807 8.000000
3.029069 -1.796456 -0.241955 6.000000
3.051980 -1.855333 -0.244945 7.000000
3.065422 -1.909537 -0.247130 7.000000
3.103302 -1.980470 -0.251345 6.000000
3.056962 -1.997206 -0.248743 4.000000
3.047397 -2.038813 -0.249202 2.000000
2.992042 -2.049347 -0.245935 1.000000
2.990057 -2.096279 -0.247068 2.000000
3.060160 -2.195670 -0.254255 3.000000
2.999891 -2.202394 -0.250541 3.000000
2.955701 -2.220083 -0.248296 2.000000
2.935347 -2.255347 -0.248065 1.000000
2.887017 -2.268779 -0.245386 1.000000
2.854307 -2.293974 -0.244159 1.000000
2.832962 -2.328165 -0.243819 1.000000
2.742458 -2.304445 -0.237522 1.000000
2.773916 -2.383122 -0.241813 1.000000
2.597798 -2.281520 -0.227983 1.000000
2.606256 -2.339750 -0.230301 1.000000
2.540112 -2.331028 -0.226060 1.000000
2.510852 -2.355240 -0.225101 1.000000
2.590489 -2.481656 -0.233793 1.000000
2.481284 -2.429564 -0.225677 1.000000
2.387722 -2.389375 -0.218794 2.000000
2.434842 -2.490225 -0.224941 6.000000
2.207519 -2.307519 -0.205566 8.000000
2.059568 -2.200301 -0.193450 9.000000
1.914192 -2.090132 -0.181313 9.000000
1.781510 -1.988209 -0.170208 9.000000
1.694009 -1.932429 -0.163295 9.000000
1.562428 -1.822025 -0.152001 9.000000
1.513675 -1.804498 -0.148652 13.000000
1.465526 -1.786128 -0.145323 28.000000
1.439851 -1.794239 -0.144203 31.000000
1.404891 -1.790156 -0.142083 37.000000
1.385339 -1.805325 -0.141595 33.000000
1.368713 -1.824276 -0.141418 32.000000
1.345887 -1.835035 -0.140552 29.000000
1.343364 -1.873914 -0.141837 24.000000
1.320127 -1.884278 -0.141038 32.000000
1.310863 -1.915031 -0.141694 34.000000
1.292777 -1.933300 -0.141430 33.000000
1.269001 -1.943058 -0.140559 33.000000
1.247857 -1.956752 -0.140062 30.000000
1.231846 -1.978707 -0.140094 36.000000
1.212847 -1.996298 -0.139823 30.000000
1.224225 -2.065182 -0.143046 9.000000
0.925900 1.581321 -0.095480 6.000000
0.814557 1.357127 -0.082762 10.000000
0.863269 1.403467 -0.086458 11.000000
0.936987 1.486934 -0.092544 14.000000
1.042395 1.615113 -0.101631 27.000000
1.194798 1.807759 -0.114963 30.000000
1.228324 1.815323 -0.116690 30.000000
1.253636 1.810068 -0.117625 32.000000
1.278924 1.804554 -0.118564 31.000000
1.289600 1.778369 -0.118164 29.000000
1.288046 1.736202 -0.116681 31.000000
1.321900 1.742015 -0.118429 32.000000
1.334558 1.719624 -0.118221 33.000000
1.343875 1.693322 -0.117804 33.000000
1.362111 1.678589 -0.118200 30.000000
1.393031 1.679025 -0.119626 34.000000
1.401480 1.652333 -0.119202 28.000000
1.422631 1.640808 -0.119808 30.000000
1.437108 1.621474 -0.119930 37.000000
1.461295 1.613112 -0.120815 41.000000
1.488230 1.608738 -0.122049 37.000000
1.488497 1.574256 -0.120990 35.000000
1.519460 1.572325 -0.122439 47.000000
1.532994 1.552065 -0.122493 42.000000
1.556890 1.542288 -0.123388 36.000000
1.573637 1.525206 -0.123723 33.000000
1.590183 1.507924 -0.124058 50.000000
1.606527 1.490440 -0.124393 38.000000
1.630063 1.479533 -0.125229 51.000000
1.646079 1.461633 -0.125565 55.000000
1.669497 1.450146 -0.126405 47.000000
1.692787 1.438292 -0.127316 63.000000
1.716083 1.426067 -0.128161 70.000000
1.727692 1.404094 -0.128214 32.000000
1.746776 1.388213 -0.128774 53.000000
1.777615 1.381298 -0.130202 35.000000
1.804473 1.370881 -0.131345 52.000000
1.811283 1.345117 -0.131042 43.000000
1.825904 1.325253 -0.131318 42.000000
1.844252 1.308140 -0.131885 65.000000
1.862525 1.290799 -0.132454 46.000000
1.876518 1.270363 -0.132731 31.000000
1.894398 1.252541 -0.133231 60.000000
1.937290 1.250803 -0.135563 51.000000
1.946602 1.226923 -0.135481 70.000000
1.972581 1.213455 -0.136646 64.000000
1.981117 1.189716 -0.136634 79.000000
2.006894 1.175595 -0.137732 65.000000
2.023957 1.156099 -0.138242 53.000000
2.049509 1.141293 -0.139417 35.000000
2.048612 1.111705 -0.138740 66.000000
2.091470 1.105658 -0.141037 79.000000
2.112279 1.087444 -0.141850 62.000000
2.146283 1.075527 -0.143560 85.000000
2.171264 1.058676 -0.144677 53.000000
2.205186 1.045661 -0.146321 53.000000
2.220985 1.023724 -0.146844 42.000000
2.236531 1.001539 -0.147369 32.000000
2.256324 0.981396 -0.148195 42.000000
2.271453 0.958738 -0.148646 39.000000
2.304799 0.943391 -0.150379 37.000000
2.328843 0.923785 -0.151436 56.000000
2.352701 0.903800 -0.152496 46.000000
2.395156 0.890312 -0.154844 42.000000
2.428171 0.872658 -0.156514 37.000000
2.428050 0.842957 -0.156065 34.000000
2.479597 0.830983 -0.158953 65.000000
2.507468 0.810095 -0.160327 81.000000
2.525619 0.785748 -0.161096 52.000000
2.553155 0.763975 -0.162475 72.000000
2.575692 0.740325 -0.163552 48.000000
2.602803 0.717773 -0.164935 50.000000
2.648998 0.699653 -0.167458 35.000000
2.670970 0.674418 -0.168541 33.000000
2.702388 0.651204 -0.170153 52.000000
2.723865 0.625232 -0.171240 47.000000
2.754910 0.600899 -0.172855 47.000000
2.785638 0.576036 -0.174559 54.000000
2.840704 0.555255 -0.177710 74.000000
2.851542 0.525272 -0.178105 57.000000
2.891460 0.500198 -0.180341 35.000000
2.946019 0.476768 -0.183499 50.000000
2.955881 0.445484 -0.183897 59.000000
2.960542 0.413311 -0.183988 10.000000
2.979779 0.383047 -0.184910 8.000000
3.043205 0.357611 -0.188690 9.000000
3.071765 0.327087 -0.190321 9.000000
3.134684 0.299440 -0.194010 24.000000
3.162629 0.267458 -0.195645 30.000000
3.249954 0.239235 -0.200874 24.000000
3.312113 0.207610 -0.204565 10.000000
3.349131 0.173394 -0.206719 16.000000
3.400634 0.139031 -0.209795 32.000000
3.441893 0.103180 -0.212256 83.000000
3.492630 0.066757 -0.215332 98.000000
3.503145 0.028814 -0.215947 95.000000
3.528203 -0.009278 -0.217485 33.000000
3.443156 -0.046536 -0.212151 13.000000
3.452398 -0.084261 -0.212765 10.000000
3.481160 -0.122802 -0.214504 31.000000
3.494624 -0.161409 -0.215426 55.000000
3.512629 -0.200519 -0.216547 82.000000
3.515134 -0.239046 -0.216747 81.000000
3.477508 -0.274433 -0.214598 32.000000
3.439621 -0.309170 -0.212343 91.000000
3.416169 -0.344441 -0.211011 95.000000
3.377463 -0.377721 -0.208760 81.000000
3.348436 -0.411360 -0.207021 83.000000
3.319062 -0.444460 -0.205387 66.000000
3.244900 -0.470474 -0.201002 21.000000
3.214932 -0.501814 -0.199273 16.000000
3.160040 -0.528502 -0.196119 13.000000
3.173814 -0.566295 -0.197144 59.000000
3.133183 -0.594285 -0.194910 59.000000
3.102088 -0.623397 -0.193191 52.000000
3.056067 -0.648676 -0.190562 59.000000
3.029327 -0.677465 -0.189155 39.000000
2.978105 -0.700026 -0.186231 9.000000
2.975187 -0.733491 -0.186347 9.000000
2.889719 -0.745858 -0.181309 10.000000
2.929692 -0.790244 -0.184155 68.000000
2.901755 -0.816473 -0.182667 54.000000
2.883144 -0.845093 -0.181879 45.000000
2.897643 -0.883695 -0.183204 33.000000
2.983072 -0.945245 -0.188953 26.000000
3.091170 -1.016661 -0.196288 30.000000
3.212298 -1.094977 -0.204407 32.000000
3.237912 -1.143132 -0.206497 44.000000
3.201875 -1.169738 -0.204787 91.000000
3.179614 -1.200915 -0.203876 91.000000
3.157118 -1.231786 -0.202966 47.000000
3.171323 -1.277267 -0.204446 42.000000
3.175754 -1.319315 -0.205325 42.000000
3.156657 -1.351833 -0.204712 34.000000
3.146527 -1.387651 -0.204694 32.000000
3.103911 -1.409438 -0.202495 12.000000
3.124662 -1.460003 -0.204550 16.000000
3.113134 -1.496116 -0.204529 11.000000
3.114562 -1.538749 -0.205287 11.000000
3.137732 -1.592855 -0.207619 10.000000
3.146752 -1.640803 -0.208952 10.000000
3.172748 -1.698535 -0.211561 9.000000
3.184667 -1.749795 -0.213170 9.000000
3.152405 -1.776989 -0.211960 7.000000
3.137256 -1.813781 -0.211809 8.000000
3.009970 -1.784268 -0.204088 6.000000
2.999249 -1.821540 -0.204133 5.000000
3.106436 -1.933274 -0.212397 5.000000
3.093603 -1.972307 -0.212528 3.000000
3.063487 -2.000494 -0.211503 2.000000
3.020818 -2.019951 -0.209615 2.000000
3.105694 -2.126148 -0.216642 1.000000
2.971963 -2.082515 -0.208329 2.000000
2.961281 -2.123523 -0.208743 2.000000
3.074839 -2.256234 -0.217883 6.000000
2.938227 -2.205664 -0.209448 2.000000
2.953676 -2.268074 -0.211725 1.000000
2.787413 -2.189174 -0.201074 1.000000
2.837311 -2.278904 -0.205899 1.000000
2.789137 -2.290706 -0.203653 1.000000
2.687525 -2.256839 -0.197483 1.000000
2.719561 -2.334793 -0.201149 1.000000
2.611487 -2.291928 -0.194454 1.000000
2.526861 -2.266943 -0.189465 1.000000
2.538753 -2.328181 -0.191725 1.000000
2.640759 -2.475262 -0.200787 1.000000
2.563184 -2.455562 -0.196367 1.000000
2.522010 -2.469365 -0.194723 1.000000
2.357305 -2.359038 -0.183370 2.000000
2.411794 -2.466727 -0.189156 5.000000
2.250204 -2.352178 -0.177883 7.000000
2.105027 -2.248977 -0.167769 9.000000
1.949921 -2.127283 -0.156636 9.000000
1.813389 -2.021987 -0.146924 9.000000
1.712280 -1.951587 -0.139966 9.000000
1.586879 -1.848839 -0.130906 9.000000
1.521825 -1.812434 -0.126716 10.000000
1.460884 -1.778694 -0.122819 21.000000
1.438342 -1.790628 -0.122131 29.000000
1.409646 -1.794361 -0.120916 33.000000
1.387009 -1.805603 -0.120165 35.000000
1.367388 -1.820563 -0.119747 33.000000
1.347557 -1.835314 -0.119330 31.000000
1.347968 -1.878182 -0.120667 28.000000
1.313214 -1.872296 -0.118945 30.000000
1.290054 -1.882294 -0.118197 32.000000
1.269553 -1.896240 -0.117778 32.000000
1.265309 -1.934983 -0.118830 30.000000
1.246943 -1.952827 -0.118591 29.000000
1.230986 -1.974755 -0.118605 29.000000
1.206917 -1.983714 -0.117925 27.000000
1.169982 -1.971005 -0.115913 9.000000
1.037346 1.771723 -0.088426 5.000000
0.835461 1.391972 -0.070171 8.000000
0.889792 1.446619 -0.073669 10.000000
0.956004 1.517161 -0.078060 10.000000
1.105166 1.712347 -0.089026 18.000000
1.209032 1.829457 -0.096125 24.000000
1.214797 1.795508 -0.095361 25.000000
1.239955 1.790410 -0.096133 22.000000
1.285242 1.813516 -0.098457 25.000000
1.284339 1.771155 -0.097243 10.000000
1.306430 1.761131 -0.097800 19.000000
1.331492 1.754754 -0.098514 25.000000
1.344344 1.732327 -0.098403 18.000000
1.341365 1.690202 -0.097163 24.000000
1.372213 1.691017 -0.098329 22.000000
1.393631 1.679892 -0.098888 21.000000
1.402143 1.653194 -0.098474 27.000000
1.446198 1.668021 -0.100626 10.000000
1.434458 1.618530 -0.098842 29.000000
1.458673 1.610209 -0.099564 32.000000
1.482850 1.601609 -0.100355 25.000000
1.486455 1.570827 -0.099700 32.000000
1.513919 1.565278 -0.100657 28.000000
1.541417 1.559369 -0.101618 27.000000
1.547648 1.531948 -0.101190 30.000000
1.582152 1.532357 -0.102619 10.000000
1.587897 1.504689 -0.102188 32.000000
1.607867 1.490708 -0.102690 33.000000
1.616612 1.466313 -0.102422 26.000000
1.643689 1.458521 -0.103394 36.000000
1.655695 1.437253 -0.103427 29.000000
1.686531 1.432030 -0.104572 30.000000
1.702011 1.413509 -0.104842 36.000000
1.728985 1.404298 -0.105824 13.000000
1.740318 1.382273 -0.105791 31.000000
1.763145 1.369319 -0.106471 30.000000
1.785901 1.356057 -0.107221 28.000000
1.804573 1.339439 -0.107666 34.000000
1.827215 1.325529 -0.108351 30.000000
1.849709 1.311305 -0.109039 29.000000
1.859736 1.288232 -0.109006 35.000000
1.869562 1.265043 -0.108972 12.000000
1.883218 1.244559 -0.109179 32.000000
1.921844 1.240254 -0.110838 37.000000
1.935193 1.219218 -0.111048 29.000000
1.969389 1.211546 -0.112472 53.000000
1.982459 1.189998 -0.112684 33.000000
2.003936 1.173356 -0.113383 32.000000
2.033912 1.161408 -0.114502 35.000000
2.028983 1.129436 -0.113738 18.000000
2.063135 1.119205 -0.115176 36.000000
2.092844 1.106019 -0.116301 51.000000
2.104706 1.083164 -0.116446 34.000000
2.134210 1.069111 -0.117647 49.000000
2.159201 1.052408 -0.118533 36.000000
2.184041 1.035265 -0.119420 34.000000
2.217870 1.021934 -0.120877 36.000000
2.206049 0.987556 -0.119789 17.000000
2.248668 0.977490 -0.121671 32.000000
2.272961 0.958813 -0.122565 36.000000
2.297078 0.939686 -0.123461 29.000000
2.325733 0.922098 -0.124608 36.000000
2.344841 0.900528 -0.125259 34.000000
2.368555 0.880265 -0.126160 33.000000
2.429670 0.873053 -0.128982 33.000000
2.382368 0.826897 -0.126142 10.000000
2.457521 0.823212 -0.129798 32.000000
2.490071 0.804118 -0.131128 42.000000
2.512932 0.781542 -0.132039 35.000000
2.545216 0.761357 -0.133373 60.000000
2.562851 0.736434 -0.134038 33.000000
2.604371 0.717938 -0.135877 35.000000
2.631361 0.694722 -0.137048 41.000000
2.629079 0.663670 -0.136628 10.000000
2.679814 0.645527 -0.138977 33.000000
2.725574 0.625317 -0.141077 51.000000
2.746790 0.598943 -0.141918 31.000000
2.762927 0.571156 -0.142509 36.000000
2.798367 0.546813 -0.144109 36.000000
2.838494 0.522736 -0.145964 33.000000
2.878494 0.497825 -0.147821 35.000000
2.893619 0.468088 -0.148416 22.000000
2.937958 0.442600 -0.150439 33.000000
2.937643 0.409952 -0.150276 9.000000
2.971710 0.381866 -0.151794 7.000000
3.035160 0.356539 -0.154924 8.000000
3.063723 0.326218 -0.156189 8.000000
3.136610 0.299536 -0.159830 7.000000
3.134715 0.264935 -0.159576 8.000000
3.246967 0.238969 -0.165149 10.000000
3.294208 0.206462 -0.167429 9.000000
3.351182 0.173496 -0.170215 9.000000
3.397726 0.138931 -0.172598 9.000000
3.414051 0.102387 -0.173254 10.000000
3.439848 0.065708 -0.174521 27.000000
3.510280 0.028963 -0.178067 66.000000
3.555328 -0.009343 -0.180347 82.000000
3.530037 -0.047683 -0.179080 35.000000
3.534382 -0.086210 -0.179225 36.000000
3.553155 -0.125265 -0.180238 41.000000
3.551635 -0.163942 -0.180129 80.000000
3.534614 -0.201656 -0.179370 94.000000
3.497360 -0.237692 -0.177492 36.000000
3.454751 -0.272576 -0.175364 36.000000
3.421733 -0.307383 -0.173743 71.000000
3.393427 -0.342042 -0.172376 46.000000
3.364654 -0.376161 -0.171010 64.000000
3.330674 -0.409028 -0.169395 42.000000
3.266666 -0.437173 -0.166269 21.000000
3.256789 -0.472007 -0.165916 29.000000
3.211988 -0.501144 -0.163803 33.000000
3.161999 -0.528600 -0.161440 26.000000
3.151205 -0.562107 -0.160993 62.000000
3.105695 -0.588801 -0.158887 32.000000
3.069751 -0.616610 -0.157286 47.000000
3.067748 -0.650941 -0.157345 62.000000
3.036098 -0.678649 -0.155902 30.000000
2.975114 -0.699071 -0.153056 10.000000
2.972212 -0.732483 -0.153119 8.000000
2.843190 -0.733564 -0.146695 7.000000
2.912261 -0.785230 -0.150594 40.000000
2.889176 -0.812601 -0.149571 34.000000
2.875397 -0.842468 -0.149139 40.000000
2.866058 -0.873688 -0.148956 27.000000
2.946899 -0.933374 -0.153484 22.000000
3.050463 -1.002725 -0.159239 26.000000
3.167001 -1.079283 -0.165721 24.000000
3.188106 -1.125269 -0.167246 26.000000
3.217928 -1.175294 -0.169260 32.000000
3.204948 -1.210151 -0.168946 27.000000
3.201064 -1.248218 -0.169229 29.000000
3.201210 -1.288455 -0.169650 28.000000
3.187081 -1.323144 -0.169439 21.000000
3.200078 -1.369517 -0.170591 17.000000
3.189546 -1.406203 -0.170623 9.000000
3.169555 -1.438754 -0.170060 8.000000
3.235261 -1.511149 -0.174124 9.000000
3.196062 -1.535358 -0.172581 8.000000
3.228526 -1.594460 -0.175035 9.000000
3.219830 -1.633965 -0.175190 8.000000
3.193101 -1.664320 -0.174375 8.000000
3.218872 -1.722428 -0.176459 8.000000
3.256816 -1.788706 -0.179257 6.000000
3.241528 -1.826464 -0.179156 6.000000
3.160870 -1.826719 -0.175344 4.000000
2.964633 -1.756691 -0.165193 4.000000
2.966709 -1.801765 -0.166072 5.000000
3.036357 -1.888765 -0.170653 3.000000
3.078887 -1.962019 -0.173894 2.000000
3.119982 -2.036429 -0.177007 1.000000
3.101824 -2.073012 -0.176902 1.000000
3.194439 -2.185719 -0.183060 1.000000
2.978273 -2.085713 -0.171625 1.000000
3.044586 -2.182159 -0.176353 1.000000
2.976365 -2.182743 -0.173316 2.000000
2.988302 -2.241968 -0.175084 1.000000
2.848404 -2.235756 -0.168816 1.000000
2.995340 -2.404181 -0.178592 1.000000
2.743234 -2.302111 -0.165640 1.000000
2.647300 -2.321887 -0.161900 1.000000
2.670260 -2.393954 -0.164447 1.000000
2.526129 -2.314894 -0.156699 1.000000
2.690362 -2.519871 -0.168127 1.000000
2.468941 -2.468728 -0.157749 1.000000
2.393047 -2.445518 -0.154171 3.000000
2.369744 -2.475047 -0.153873 6.000000
2.130908 -2.274683 -0.139490 8.000000
1.994679 -2.176210 -0.131662 7.000000
1.867578 -2.082483 -0.124414 8.000000
1.746017 -1.990007 -0.117345 8.000000
1.623410 -1.891427 -0.110100 7.000000
1.538536 -1.832429 -0.105322 9.000000
1.474198 -1.794978 -0.101889 10.000000
1.438974 -1.791400 -0.100443 22.000000
1.410273 -1.795128 -0.099369 28.000000
1.381549 -1.798515 -0.098370 24.000000
1.361945 -1.813409 -0.098024 33.000000
1.336288 -1.820042 -0.097247 23.000000
1.339795 -1.866855 -0.098547 16.000000
1.302299 -1.856775 -0.096916 27.000000
1.304662 -1.903734 -0.098271 24.000000
1.283936 -1.917833 -0.097848 27.000000
1.260336 -1.927469 -0.097284 26.000000
1.247439 -1.953677 -0.097493 25.000000
1.228841 -1.971298 -0.097277 26.000000
1.212607 -1.993101 -0.097339 19.000000
1.221473 -2.057692 -0.099402 9.000000
0.993294 1.694129 -0.066863 8.000000
0.927619 1.506185 -0.060606 19.000000
1.007869 1.597456 -0.064946 24.000000
1.160778 1.796286 -0.073798 32.000000
1.199476 1.812721 -0.075270 30.000000
1.221859 1.803782 -0.075709 29.000000
1.244199 1.794517 -0.076150 33.000000
1.266428 1.784989 -0.076524 27.000000
1.271065 1.750936 -0.075915 26.000000
1.281024 1.725026 -0.075652 31.000000
1.302681 1.714964 -0.076025 24.000000
1.327291 1.708651 -0.076642 35.000000
1.342683 1.690202 -0.076663 31.000000
1.357792 1.671624 -0.076748 31.000000
1.388580 1.672204 -0.077660 35.000000
1.406634 1.657004 -0.077925 25.000000
1.411457 1.626509 -0.077406 29.000000
1.429082 1.611055 -0.077669 33.000000
1.449866 1.599170 -0.078047 29.000000
1.473928 1.590614 -0.078607 37.000000
1.491146 1.574521 -0.078806 36.000000
1.508166 1.558164 -0.079004 33.000000
1.528567 1.545227 -0.079452 37.000000
1.548846 1.531948 -0.079834 31.000000
1.561821 1.511575 -0.079850 32.000000
1.578149 1.494450 -0.080049 33.000000
1.601675 1.483917 -0.080617 35.000000
1.617746 1.466380 -0.080751 50.000000
1.633682 1.448643 -0.080951 33.000000
1.660675 1.440595 -0.081708 47.000000
1.683871 1.428865 -0.082281 57.000000
1.699315 1.410453 -0.082484 34.000000
1.718504 1.394988 -0.082806 32.000000
1.733578 1.376128 -0.083008 33.000000
1.759950 1.366869 -0.083775 33.000000
1.790634 1.359695 -0.084663 70.000000
1.805397 1.340057 -0.084869 35.000000
1.815841 1.317348 -0.084818 38.000000
1.838243 1.303190 -0.085402 44.000000
1.848244 1.280251 -0.085350 30.000000
1.886873 1.276864 -0.086627 57.000000
1.900719 1.256199 -0.086836 35.000000
1.918485 1.238103 -0.087166 34.000000
1.931874 1.217114 -0.087305 57.000000
1.949239 1.198602 -0.087636 33.000000
1.979305 1.187639 -0.088542 38.000000
1.992135 1.165997 -0.088683 57.000000
2.000345 1.141738 -0.088632 29.000000
2.030118 1.129649 -0.089543 36.000000
2.046643 1.109822 -0.089878 53.000000
2.067424 1.092162 -0.090406 37.000000
2.088092 1.074239 -0.090936 66.000000
2.121975 1.062618 -0.092049 50.000000
2.155884 1.050439 -0.093091 34.000000
2.189738 1.037626 -0.094209 43.000000
2.200838 1.013796 -0.094357 31.000000
2.234519 1.000023 -0.095404 32.000000
2.254450 0.979706 -0.095944 35.000000
2.269488 0.957098 -0.096214 33.000000
2.298291 0.939914 -0.097146 43.000000
2.312946 0.916804 -0.097418 36.000000
2.336818 0.897024 -0.098157 33.000000
2.369790 0.880265 -0.099214 53.000000
2.374508 0.852789 -0.099095 26.000000
2.411843 0.836956 -0.100428 32.000000
2.439759 0.817104 -0.101293 42.000000
2.448482 0.790543 -0.101372 35.000000
2.499826 0.777333 -0.103223 52.000000
2.536860 0.758737 -0.104567 53.000000
2.559353 0.735299 -0.105240 40.000000
2.586426 0.712711 -0.106112 55.000000
2.579555 0.680782 -0.105519 24.000000
2.620716 0.661308 -0.106985 34.000000
2.681162 0.645696 -0.109244 43.000000
2.692854 0.617670 -0.109527 40.000000
2.733521 0.595923 -0.110999 55.000000
2.764307 0.571242 -0.112076 43.000000
2.789955 0.545072 -0.112869 37.000000
2.810425 0.517397 -0.113552 42.000000
2.830692 0.489403 -0.114147 16.000000
2.890031 0.467469 -0.116420 42.000000
2.909769 0.438227 -0.117106 42.000000
2.884665 0.402449 -0.115913 9.000000
2.948399 0.378775 -0.118299 9.000000
2.991997 0.351388 -0.119982 8.000000
3.050325 0.324726 -0.122170 8.000000
3.043658 0.290610 -0.121772 9.000000
3.106384 0.262507 -0.124160 6.000000
3.188769 0.234668 -0.127344 21.000000
3.235988 0.202812 -0.129234 52.000000
3.253036 0.168333 -0.129831 26.000000
3.274595 0.133831 -0.130527 10.000000
3.355796 0.100591 -0.133711 9.000000
3.396680 0.064954 -0.135303 9.000000
3.472031 0.028633 -0.138287 36.000000
3.547075 -0.009317 -0.141272 76.000000
3.591818 -0.048492 -0.142953 98.000000
3.616023 -0.088158 -0.143947 98.000000
3.584851 -0.126320 -0.142754 95.000000
3.563354 -0.164402 -0.141850 79.000000
3.511514 -0.200234 -0.139863 13.000000
3.449230 -0.234306 -0.137374 21.000000
3.421582 -0.269827 -0.136276 60.000000
3.388686 -0.304255 -0.135086 52.000000
3.375211 -0.340142 -0.134586 57.000000
3.286868 -0.367284 -0.131115 16.000000
3.252974 -0.399390 -0.129827 9.000000
3.218758 -0.430649 -0.128540 9.000000
3.204009 -0.464128 -0.128046 22.000000
3.213577 -0.501243 -0.128638 79.000000
3.188205 -0.532815 -0.127651 52.000000
3.157689 -0.562984 -0.126566 63.000000
3.112149 -0.589828 -0.124892 81.000000
3.085881 -0.619656 -0.124008 52.000000
3.054619 -0.647926 -0.122929 68.000000
3.047371 -0.680923 -0.122738 95.000000
2.991199 -0.702592 -0.120680 15.000000
2.954304 -0.727797 -0.119410 9.000000
2.897841 -0.747379 -0.117266 10.000000
2.918560 -0.786529 -0.118349 42.000000
2.880933 -0.810079 -0.116992 77.000000
2.852797 -0.835720 -0.116120 57.000000
2.857965 -0.870958 -0.116523 45.000000
2.900686 -0.918574 -0.118481 28.000000
2.980738 -0.979621 -0.122081 25.000000
3.107156 -1.058643 -0.127518 28.000000
3.241587 -1.143552 -0.133325 27.000000
3.275922 -1.195853 -0.135050 32.000000
3.253473 -1.227792 -0.134451 31.000000
3.258499 -1.270203 -0.135010 17.000000
3.253884 -1.309287 -0.135181 9.000000
3.267111 -1.356020 -0.136121 9.000000
3.288950 -1.407068 -0.137440 8.000000
3.319265 -1.462945 -0.139138 9.000000
3.303202 -1.498837 -0.138917 9.000000
3.300278 -1.540960 -0.139268 9.000000
3.287874 -1.578941 -0.139236 10.000000
3.279457 -1.619009 -0.139283 8.000000
3.297345 -1.672610 -0.140579 7.000000
3.278940 -1.708404 -0.140353 4.000000
3.269007 -1.748573 -0.140393 2.000000
3.249873 -1.784124 -0.140167 2.000000
3.169226 -1.785008 -0.137189 1.000000
3.197267 -1.846936 -0.139036 2.000000
2.987813 -1.769527 -0.130440 5.000000
2.917153 -1.770864 -0.127979 5.000000
2.948575 -1.834216 -0.129910 4.000000
2.974775 -1.895781 -0.131642 1.000000
2.995825 -1.955409 -0.133289 1.000000
3.136425 -2.096134 -0.140203 1.000000
3.204105 -2.192307 -0.143933 1.000000
2.999958 -2.100933 -0.135447 1.000000
2.838834 -2.034626 -0.128844 1.000000
2.880903 -2.112728 -0.131466 1.000000
2.773734 -2.081068 -0.127287 1.000000
2.850065 -2.187192 -0.131543 1.000000
2.783450 -2.183439 -0.129207 1.000000
2.814033 -2.257352 -0.131431 1.000000
2.804809 -2.300654 -0.131716 1.000000
2.702979 -2.266793 -0.127764 1.000000
2.659128 -2.279833 -0.126539 1.000000
2.562807 -2.246138 -0.122797 1.000000
2.582803 -2.313933 -0.124534 1.000000
2.535383 -2.321748 -0.123142 1.000000
2.531868 -2.369635 -0.123792 1.000000
2.523977 -2.414332 -0.124364 1.000000
2.533256 -2.476567 -0.125711 1.000000
2.382489 -2.380433 -0.119196 1.000000
2.391432 -2.441947 -0.120547 2.000000
2.371628 -2.475047 -0.120481 5.000000
2.207909 -2.354880 -0.113160 7.000000
2.043684 -2.227762 -0.105609 9.000000
1.885891 -2.101077 -0.098282 8.000000
1.800310 -2.050083 -0.094644 8.000000
1.660753 -1.933044 -0.088092 8.000000
1.559288 -1.855382 -0.083478 9.000000
1.478791 -1.798838 -0.079923 9.000000
1.440448 -1.791400 -0.078613 18.000000
1.408579 -1.791200 -0.077651 24.000000
1.370750 -1.782600 -0.076355 29.000000
1.363399 -1.813340 -0.076757 27.000000
1.349575 -1.836079 -0.076816 24.000000
1.323774 -1.842435 -0.076202 21.000000
1.320984 -1.881244 -0.076929 25.000000
1.283595 -1.870769 -0.075579 26.000000
1.277140 -1.905309 -0.076131 24.000000
1.256409 -1.919037 -0.075851 21.000000
1.235608 -1.932554 -0.075501 26.000000
1.217242 -1.950030 -0.075385 22.000000
1.216774 -1.997298 -0.076338 20.000000
1.187405 -1.997550 -0.075565 8.000000
1.026399 1.750602 -0.050738 7.000000
0.930456 1.510873 -0.044689 18.000000
1.029494 1.631736 -0.048768 35.000000
1.171890 1.813601 -0.054712 33.000000
1.194225 1.804915 -0.055037 34.000000
1.208110 1.783623 -0.054980 36.000000
1.233075 1.778619 -0.055367 34.000000
1.255193 1.769217 -0.055694 33.000000
1.256649 1.731240 -0.055054 32.000000
1.275392 1.717525 -0.055250 34.000000
1.303010 1.715490 -0.055835 32.000000
1.321555 1.701219 -0.055966 31.000000
1.336795 1.682902 -0.055968 34.000000
1.361272 1.676030 -0.056426 35.000000
1.379399 1.661199 -0.056558 36.000000
1.397329 1.646103 -0.056755 34.000000
1.405300 1.619485 -0.056492 34.000000
1.422843 1.604102 -0.056623 33.000000
1.453618 1.603334 -0.057349 60.000000
1.470929 1.587477 -0.057481 42.000000
1.484670 1.567727 -0.057480 61.000000
1.505153 1.555103 -0.057746 37.000000
1.525516 1.542138 -0.058011 47.000000
1.552865 1.535995 -0.058613 46.000000
1.558694 1.508563 -0.058343 33.000000
1.575051 1.491478 -0.058475 42.000000
1.591210 1.474259 -0.058607 91.000000
1.610873 1.460200 -0.058875 60.000000
1.630410 1.445860 -0.059144 68.000000
1.653594 1.434514 -0.059549 52.000000
1.676788 1.422870 -0.059888 53.000000
1.692163 1.404541 -0.060022 59.000000
1.707404 1.386011 -0.060156 26.000000
1.738033 1.379709 -0.060839 36.000000
1.756954 1.363736 -0.061111 67.000000
1.783633 1.353584 -0.061592 45.000000
1.794248 1.331124 -0.061591 52.000000
1.820778 1.320282 -0.062141 62.000000
1.830982 1.297411 -0.062072 50.000000
1.853245 1.283095 -0.062486 63.000000
1.854727 1.254463 -0.062207 26.000000
1.884943 1.245179 -0.062831 35.000000
1.902592 1.227267 -0.063109 56.000000
1.920023 1.209124 -0.063317 36.000000
1.941632 1.193437 -0.063735 56.000000
1.967363 1.179927 -0.064225 62.000000
1.984354 1.160950 -0.064435 43.000000
2.001259 1.141808 -0.064716 47.000000
2.035337 1.132078 -0.065489 28.000000
2.034385 1.102748 -0.065138 37.000000
2.063932 1.089899 -0.065843 66.000000
2.088953 1.074310 -0.066338 45.000000
2.109437 1.055979 -0.066692 54.000000
2.134296 1.039570 -0.067188 48.000000
2.177075 1.031281 -0.068252 37.000000
2.206266 1.015961 -0.068967 47.000000
2.226292 0.996090 -0.069325 25.000000
2.227846 0.967832 -0.069115 32.000000
2.265785 0.955232 -0.070043 37.000000
2.280697 0.932499 -0.070261 37.000000
2.309212 0.915039 -0.070907 41.000000
2.337735 0.897100 -0.071554 56.000000
2.351976 0.873460 -0.071697 32.000000
2.380136 0.854632 -0.072345 35.000000
2.384448 0.827283 -0.072279 28.000000
2.417006 0.809326 -0.073073 36.000000
2.454181 0.792235 -0.074011 62.000000
2.472151 0.768590 -0.074377 35.000000
2.504313 0.748876 -0.075095 37.000000
2.545918 0.731241 -0.076181 48.000000
2.568137 0.707565 -0.076694 35.000000
2.595030 0.684770 -0.077269 42.000000
2.641091 0.666364 -0.078503 26.000000
2.643301 0.636504 -0.078359 33.000000
2.688995 0.616721 -0.079596 35.000000
2.705332 0.589622 -0.079884 34.000000
2.750658 0.568294 -0.081124 37.000000
2.776281 0.542284 -0.081701 47.000000
2.801729 0.515675 -0.082365 35.000000
2.836670 0.490430 -0.083232 52.000000
2.871458 0.464367 -0.084099 31.000000
2.891169 0.435429 -0.084622 34.000000
2.880872 0.401848 -0.084188 9.000000
2.929660 0.376319 -0.085490 8.000000
2.973247 0.349149 -0.086647 8.000000
2.991812 0.318380 -0.087081 8.000000
3.059798 0.292035 -0.088962 8.000000
3.072667 0.259657 -0.089251 8.000000
3.165020 0.232835 -0.091855 15.000000
3.202359 0.200625 -0.092867 36.000000
3.269203 0.169207 -0.094748 58.000000
3.315745 0.135463 -0.096050 48.000000
3.317062 0.099495 -0.096050 26.000000
3.337961 0.063807 -0.096628 10.000000
3.443423 0.028386 -0.099666 31.000000
3.488509 -0.009160 -0.100862 74.000000
3.578143 -0.048290 -0.103463 95.000000
3.597363 -0.087671 -0.104041 98.000000
3.586275 -0.126320 -0.103642 98.000000
3.534706 -0.163021 -0.102198 34.000000
3.482864 -0.198528 -0.100755 10.000000
3.470548 -0.235660 -0.100360 15.000000
3.407997 -0.268649 -0.098630 17.000000
3.350110 -0.300784 -0.096941 10.000000
3.321755 -0.334632 -0.096119 9.000000
3.273280 -0.365720 -0.094824 8.000000
3.259135 -0.399998 -0.094436 9.000000
3.229855 -0.432073 -0.093618 9.000000
3.170571 -0.459212 -0.092038 21.000000
3.199955 -0.499032 -0.092944 39.000000
3.140094 -0.524677 -0.091269 25.000000
3.119501 -0.556066 -0.090743 53.000000
3.093668 -0.586107 -0.090074 55.000000
3.077330 -0.617689 -0.089692 83.000000
3.045985 -0.645853 -0.088883 86.000000
3.024127 -0.675665 -0.088361 72.000000
2.958266 -0.694687 -0.086558 20.000000
2.945713 -0.725592 -0.086323 9.000000
2.874740 -0.741231 -0.084383 8.000000
2.890621 -0.778912 -0.085002 46.000000
2.867595 -0.806204 -0.084485 55.000000
2.834701 -0.830192 -0.083687 67.000000
2.839845 -0.865313 -0.083930 36.000000
2.887506 -0.914141 -0.085533 25.000000
2.967644 -0.975037 -0.088120 27.000000
3.056218 -1.041017 -0.090982 24.000000
3.223993 -1.137008 -0.096125 9.000000
3.291286 -1.201100 -0.098407 10.000000
3.306079 -1.247304 -0.099034 9.000000
3.320319 -1.294010 -0.099765 9.000000
3.343272 -1.344834 -0.100665 8.000000
3.337653 -1.384860 -0.100833 9.000000
3.350001 -1.432838 -0.101448 9.000000
3.389202 -1.493284 -0.103005 9.000000
3.386462 -1.536112 -0.103195 7.000000
3.328786 -1.553755 -0.101722 8.000000
3.338774 -1.602847 -0.102439 7.000000
3.365955 -1.661033 -0.103593 6.000000
3.329904 -1.688546 -0.102813 4.000000
3.293707 -1.715330 -0.102036 2.000000
3.288110 -1.758113 -0.102334 2.000000
3.246850 -1.781720 -0.101422 2.000000
3.357949 -1.890442 -0.105293 1.000000
3.255002 -1.879426 -0.102468 2.000000
2.941880 -1.741520 -0.092994 3.000000
2.927054 -1.776050 -0.092921 6.000000
2.928731 -1.821020 -0.093388 5.000000
2.917158 -1.858082 -0.093448 2.000000
2.963756 -1.933453 -0.095392 1.000000
3.000768 -2.004515 -0.097058 1.000000
2.939992 -2.057939 -0.096082 1.000000
2.860537 -2.049072 -0.093994 1.000000
2.761490 -2.023978 -0.091248 1.000000
2.779215 -2.083961 -0.092262 1.000000
2.784177 -2.135371 -0.092977 1.000000
2.693864 -2.113136 -0.090517 1.000000
2.799319 -2.245612 -0.094658 1.000000
2.728295 -2.237922 -0.092753 1.000000
2.665543 -2.235429 -0.091227 1.000000
2.747258 -2.355408 -0.094565 1.000000
2.646230 -2.319346 -0.091738 1.000000
2.557590 -2.291328 -0.089313 1.000000
2.502942 -2.291998 -0.087962 1.000000
2.466921 -2.308896 -0.087368 1.000000
2.535559 -2.425443 -0.090406 1.000000
2.437513 -2.383087 -0.087519 1.000000
2.376138 -2.374087 -0.086030 1.000000
2.357190 -2.406966 -0.085978 2.000000
2.358528 -2.461344 -0.086686 5.000000
2.249525 -2.399327 -0.083435 7.000000
2.084785 -2.272608 -0.077953 9.000000
1.923135 -2.142598 -0.072510 9.000000
1.814003 -2.065689 -0.068985 9.000000
1.680685 -1.956416 -0.064484 8.000000
1.575812 -1.875034 -0.061011 9.000000
1.504539 -1.830226 -0.058874 9.000000
1.443931 -1.795787 -0.057048 16.000000
1.415107 -1.799545 -0.056467 26.000000
1.368115 -1.779119 -0.055152 29.000000
1.345723 -1.789854 -0.054824 32.000000
1.329201 -1.808373 -0.054673 30.000000
1.321204 -1.838930 -0.054952 20.000000
1.312717 -1.869463 -0.055228 30.000000
1.286700 -1.875375 -0.054778 26.000000
1.271924 -1.897495 -0.054810 29.000000
1.254021 -1.915345 -0.054720 27.000000
1.225117 -1.916199 -0.054153 29.000000
1.214876 -1.946352 -0.054349 24.000000
1.198856 -1.967916 -0.054375 21.000000
1.151930 -1.937891 -0.052989 9.000000
0.935861 1.519658 -0.028708 16.000000
1.069623 1.695512 -0.032368 31.000000
1.169374 1.809732 -0.034856 30.000000
1.191665 1.801142 -0.035068 34.000000
1.213914 1.792230 -0.035216 35.000000
1.233339 1.778950 -0.035348 33.000000
1.249607 1.761394 -0.035332 33.000000
1.259847 1.735612 -0.035218 30.000000
1.275588 1.717851 -0.035201 30.000000
1.300183 1.711903 -0.035431 35.000000
1.315619 1.693717 -0.035479 32.000000
1.337057 1.683231 -0.035628 35.000000
1.352080 1.664784 -0.035676 33.000000
1.376469 1.657682 -0.035908 35.000000
1.391122 1.638811 -0.035890 31.000000
1.405562 1.619878 -0.035938 32.000000
1.419788 1.600755 -0.035919 36.000000
1.443809 1.592619 -0.036153 40.000000
1.464398 1.580474 -0.036302 47.000000
1.484934 1.568123 -0.036519 43.000000
1.494987 1.544656 -0.036415 35.000000
1.518750 1.535427 -0.036650 35.000000
1.546023 1.529297 -0.036971 35.000000
1.555433 1.505418 -0.036867 36.000000
1.571686 1.488437 -0.036933 52.000000
1.587808 1.471193 -0.037066 52.000000
1.600093 1.450459 -0.037046 47.000000
1.630742 1.446193 -0.037455 74.000000
1.646376 1.428363 -0.037522 56.000000
1.669501 1.416803 -0.037761 60.000000
1.688719 1.401684 -0.037914 62.000000
1.707739 1.386346 -0.038068 29.000000
1.738440 1.380048 -0.038481 39.000000
1.757294 1.364075 -0.038636 42.000000
1.776078 1.347881 -0.038791 56.000000
1.786627 1.325439 -0.038772 49.000000
1.805001 1.308818 -0.038859 37.000000
1.823236 1.291973 -0.039014 60.000000
1.841328 1.274902 -0.039170 41.000000
1.863419 1.260338 -0.039413 36.000000
1.885356 1.245524 -0.039658 54.000000
1.898805 1.224902 -0.039727 63.000000
1.920508 1.209471 -0.039902 62.000000
1.933532 1.188480 -0.039972 56.000000
1.959209 1.175065 -0.040305 68.000000
1.976215 1.156252 -0.040464 42.000000
1.997339 1.139612 -0.040640 50.000000
2.027097 1.127573 -0.041064 34.000000
2.026090 1.098266 -0.040869 63.000000
2.051099 1.083181 -0.041135 64.000000
2.076118 1.067738 -0.041472 59.000000
2.105471 1.054029 -0.041900 53.000000
2.134804 1.039860 -0.042255 52.000000
2.159519 1.023014 -0.042595 65.000000
2.188622 1.007893 -0.042952 50.000000
2.203997 0.986105 -0.043114 31.000000
2.219195 0.964145 -0.043278 40.000000
2.243354 0.945822 -0.043546 53.000000
2.281223 0.932725 -0.044158 54.000000
2.305171 0.913501 -0.044426 37.000000
2.328936 0.893823 -0.044695 36.000000
2.343140 0.870209 -0.044861 41.000000
2.366562 0.849795 -0.045130 32.000000
2.385142 0.827360 -0.045387 33.000000
2.412888 0.807817 -0.045746 47.000000
2.445296 0.789243 -0.046195 55.000000
2.468088 0.767106 -0.046544 65.000000
2.500161 0.747444 -0.046994 52.000000
2.517736 0.723043 -0.047174 40.000000
2.559148 0.704991 -0.047885 36.000000
2.561850 0.675925 -0.047795 30.000000
2.622367 0.661556 -0.048787 34.000000
2.639105 0.635417 -0.048967 42.000000
2.684797 0.615688 -0.049773 39.000000
2.710892 0.590771 -0.050134 37.000000
2.731847 0.564335 -0.050405 50.000000
2.757432 0.538538 -0.050767 45.000000
2.802424 0.515762 -0.051489 46.000000
2.797965 0.483618 -0.051309 28.000000
2.872169 0.464367 -0.052573 40.000000
2.872109 0.432452 -0.052572 35.000000
2.861777 0.399174 -0.052300 9.000000
2.920464 0.375045 -0.053295 8.000000
2.954209 0.346908 -0.053838 8.000000
2.987576 0.317942 -0.054381 8.000000
3.030689 0.289279 -0.055012 8.000000
3.063551 0.258815 -0.055554 7.000000
3.140964 0.231097 -0.056909 15.000000
3.213121 0.201348 -0.058174 65.000000
3.240048 0.167657 -0.058625 40.000000
3.276697 0.133931 -0.059258 57.000000
3.342856 0.100244 -0.060432 53.000000
3.388758 0.064763 -0.061142 49.000000
3.399274 0.028015 -0.061322 26.000000
3.494360 -0.009173 -0.063035 36.000000
3.524032 -0.047548 -0.063577 95.000000
3.578252 -0.087075 -0.064459 95.000000
3.572163 -0.125793 -0.064369 95.000000
3.510602 -0.161869 -0.063289 52.000000
3.468743 -0.197675 -0.062463 28.000000
3.451447 -0.234306 -0.062193 42.000000
3.463653 -0.272969 -0.062463 7.000000
3.331015 -0.298996 -0.060024 9.000000
3.272831 -0.329623 -0.059037 9.000000
3.274084 -0.365720 -0.059026 9.000000
3.245052 -0.398172 -0.058578 9.000000
3.205876 -0.428760 -0.057852 9.000000
3.191144 -0.462078 -0.057674 17.000000
3.195806 -0.498262 -0.057754 37.000000
3.131107 -0.523030 -0.056586 25.000000
3.115354 -0.555189 -0.056407 71.000000
3.084613 -0.584342 -0.055866 71.000000
3.063393 -0.614834 -0.055504 87.000000
3.022293 -0.640764 -0.054882 52.000000
3.010247 -0.672396 -0.054699 72.000000
2.954142 -0.693637 -0.053720 26.000000
2.927038 -0.720810 -0.053366 9.000000
2.865784 -0.738826 -0.052302 8.000000
2.857654 -0.769810 -0.052212 33.000000
2.858698 -0.803499 -0.052298 62.000000
2.825827 -0.827472 -0.051768 66.000000
2.802402 -0.853659 -0.051504 63.000000
2.840585 -0.899056 -0.052292 26.000000
2.939910 -0.965676 -0.054215 26.000000
3.042908 -1.036182 -0.056219 24.000000
3.097432 -1.092427 -0.057343 9.000000
3.376566 -1.232270 -0.062645 8.000000
3.409846 -1.286451 -0.063405 8.000000
3.428325 -1.335976 -0.063901 9.000000
3.432165 -1.380612 -0.064136 9.000000
3.435392 -1.425425 -0.064369 9.000000
3.410532 -1.458729 -0.064083 7.000000
3.408293 -1.501686 -0.064228 7.000000
3.501076 -1.588081 -0.066180 5.000000
3.438292 -1.604837 -0.065203 4.000000
3.398154 -1.631312 -0.064659 5.000000
3.362274 -1.659279 -0.064201 4.000000
3.375289 -1.711497 -0.064685 2.000000
3.316556 -1.727330 -0.063688 2.000000
3.235890 -1.730168 -0.062384 2.000000
3.238876 -1.777362 -0.062696 1.000000
3.284714 -1.849219 -0.063853 1.000000
3.273008 -1.889885 -0.063907 1.000000
2.976922 -1.762311 -0.058286 1.000000
2.914859 -1.768688 -0.057340 6.000000
2.912485 -1.810882 -0.057571 6.000000
2.926330 -1.863981 -0.058031 3.000000
2.926721 -1.909302 -0.058342 1.000000
2.959858 -1.977186 -0.059319 1.000000
3.047135 -2.132915 -0.061644 1.000000
2.755513 -1.973810 -0.056072 1.000000
2.774109 -2.033262 -0.056689 1.000000
2.707855 -2.030401 -0.055680 1.000000
2.796613 -2.145035 -0.057767 1.000000
2.757428 -2.163028 -0.057333 1.000000
2.823375 -2.264820 -0.058993 1.000000
2.723533 -2.284148 -0.057608 1.000000
2.656723 -2.277863 -0.056610 1.000000
2.691883 -2.359317 -0.057686 1.000000
2.502261 -2.241812 -0.054038 1.000000
2.477651 -2.268882 -0.053833 1.000000
2.460137 -2.302580 -0.053788 1.000000
2.442165 -2.336128 -0.053844 1.000000
2.491656 -2.435926 -0.055304 1.000000
2.426059 -2.424070 -0.054222 2.000000
2.329618 -2.378905 -0.052539 2.000000
2.355485 -2.458255 -0.053515 3.000000
2.301320 -2.454536 -0.052681 6.000000
2.108913 -2.298867 -0.048655 8.000000
1.956880 -2.180243 -0.045602 8.000000
1.834131 -2.088648 -0.043098 8.000000
1.713577 -1.994732 -0.040612 8.000000
1.621066 -1.928990 -0.038760 9.000000
1.530226 -1.861484 -0.036921 10.000000
1.453611 -1.807827 -0.035400 15.000000
1.412296 -1.795965 -0.034797 24.000000
1.386606 -1.803240 -0.034505 29.000000
1.342923 -1.786199 -0.033762 32.000000
1.329475 -1.808716 -0.033776 28.000000
1.324398 -1.843336 -0.034014 24.000000
1.307181 -1.861629 -0.033950 26.000000
1.281251 -1.867477 -0.033663 25.000000
1.263782 -1.885386 -0.033598 23.000000
1.251492 -1.911512 -0.033681 28.000000
1.228019 -1.920758 -0.033468 25.000000
1.209792 -1.938219 -0.033402 25.000000
1.196466 -1.964069 -0.033481 19.000000
1.144404 -1.925342 -0.032471 9.000000
1.131102 1.792955 -0.014880 21.000000
1.172153 1.814194 -0.015161 29.000000
1.194490 1.805510 -0.015196 22.000000
1.214046 1.792494 -0.015262 24.000000
1.230557 1.775105 -0.015227 32.000000
1.252632 1.765736 -0.015262 23.000000
1.259913 1.735874 -0.015187 26.000000
1.278700 1.722062 -0.015187 26.000000
1.291242 1.700155 -0.015116 22.000000
1.312683 1.689965 -0.015217 29.000000
1.327860 1.671748 -0.015181 20.000000
1.349059 1.661099 -0.015217 27.000000
1.373341 1.654033 -0.015288 30.000000
1.394489 1.642885 -0.015389 21.000000
1.399139 1.612522 -0.015246 30.000000
1.423236 1.604692 -0.015318 27.000000
1.427151 1.574295 -0.015175 25.000000
1.461197 1.577069 -0.015419 32.000000
1.481694 1.564690 -0.015455 28.000000
1.488165 1.537668 -0.015347 29.000000
1.515366 1.532070 -0.015455 33.000000
1.528450 1.511981 -0.015485 20.000000
1.559158 1.509159 -0.015629 33.000000
1.568254 1.485198 -0.015557 27.000000
1.584338 1.467993 -0.015557 32.000000
1.596520 1.447299 -0.015521 35.000000
1.619720 1.436440 -0.015659 29.000000
1.646576 1.428563 -0.015767 35.000000
1.669701 1.417004 -0.015840 35.000000
1.681159 1.395498 -0.015803 27.000000
1.696296 1.377094 -0.015803 29.000000
1.719064 1.364707 -0.015876 28.000000
1.749599 1.358148 -0.016088 32.000000
1.764334 1.339018 -0.016088 35.000000
1.782816 1.322664 -0.016124 28.000000
1.797111 1.303152 -0.016124 34.000000
1.823440 1.292178 -0.016233 32.000000
1.833312 1.269415 -0.016197 28.000000
1.859483 1.257743 -0.016306 35.000000
1.868877 1.234639 -0.016270 28.000000
1.894811 1.222399 -0.016378 29.000000
1.912255 1.204349 -0.016484 37.000000
1.925221 1.183452 -0.016484 32.000000
1.950843 1.170131 -0.016593 42.000000
1.967794 1.151342 -0.016630 34.000000
1.984591 1.132389 -0.016666 25.000000
2.005463 1.115563 -0.016739 36.000000
2.021905 1.096094 -0.016776 33.000000
2.042540 1.078724 -0.016848 33.000000
2.071956 1.065594 -0.016994 48.000000
2.096817 1.049768 -0.017104 31.000000
2.121537 1.033436 -0.017213 32.000000
2.164256 1.025374 -0.017468 35.000000
2.166210 0.997583 -0.017395 23.000000
2.181473 0.976043 -0.017432 30.000000
2.210319 0.960308 -0.017578 32.000000
2.229830 0.940143 -0.017651 29.000000
2.249129 0.919630 -0.017724 33.000000
2.272937 0.900758 -0.017833 33.000000
2.310569 0.886810 -0.018052 31.000000
2.329384 0.865139 -0.018125 34.000000
2.348047 0.843189 -0.018198 20.000000
2.385450 0.827514 -0.018417 36.000000
2.408458 0.806307 -0.018526 30.000000
2.417062 0.780185 -0.018526 31.000000
2.458855 0.764296 -0.018781 39.000000
2.486109 0.743307 -0.018927 33.000000
2.513251 0.721822 -0.019073 35.000000
2.530632 0.697186 -0.019146 36.000000
2.523499 0.665881 -0.019037 10.000000
2.598458 0.655524 -0.019547 34.000000
2.619992 0.630818 -0.019574 29.000000
2.660767 0.610184 -0.019828 26.000000
2.686806 0.585533 -0.019974 32.000000
2.722394 0.562397 -0.020192 34.000000
2.743054 0.535748 -0.020301 33.000000
2.778187 0.511324 -0.020518 33.000000
2.739277 0.473486 -0.020192 9.000000
2.852781 0.461264 -0.020991 32.000000
2.857632 0.430307 -0.020902 25.000000
2.862130 0.399262 -0.020902 8.000000
2.901077 0.372588 -0.021156 8.000000
2.939675 0.345159 -0.021409 7.000000
2.953232 0.314239 -0.021481 7.000000
3.036038 0.289754 -0.022060 8.000000
3.073891 0.259751 -0.022219 5.000000
3.131376 0.230364 -0.022615 10.000000
3.193554 0.200098 -0.023047 34.000000
3.240544 0.167756 -0.023371 29.000000
3.272101 0.133726 -0.023487 43.000000
3.313381 0.099345 -0.023774 28.000000
3.334288 0.063712 -0.023917 27.000000
3.374794 0.027912 -0.024204 11.000000
3.479894 -0.009027 -0.024851 10.000000
3.489574 -0.046969 -0.024922 64.000000
3.563803 -0.086710 -0.025458 93.000000
3.552613 -0.125089 -0.025387 71.000000
3.516133 -0.162100 -0.025029 95.000000
3.484249 -0.198528 -0.024816 61.000000
3.421940 -0.232274 -0.024389 58.000000
3.354423 -0.264328 -0.023824 7.000000
3.321566 -0.298102 -0.023612 7.000000
3.273333 -0.329623 -0.023293 9.000000
3.224798 -0.360170 -0.022876 8.000000
3.215775 -0.394618 -0.022841 8.000000
3.176635 -0.424784 -0.022594 9.000000
3.137205 -0.454294 -0.022250 9.000000
3.161719 -0.492871 -0.022461 37.000000
3.121632 -0.521479 -0.022215 35.000000
3.091225 -0.550899 -0.021944 33.000000
3.075171 -0.582577 -0.021874 72.000000
3.039264 -0.610010 -0.021664 34.000000
3.007997 -0.637747 -0.021396 35.000000
3.005839 -0.671400 -0.021431 79.000000
2.949645 -0.692587 -0.020990 24.000000
2.912842 -0.717316 -0.020782 11.000000
2.909718 -0.750149 -0.020725 31.000000
2.872498 -0.773801 -0.020518 33.000000
2.839897 -0.798178 -0.020346 46.000000
2.807082 -0.821942 -0.020084 35.000000
2.788412 -0.849378 -0.020016 35.000000
2.812439 -0.890186 -0.020166 21.000000
2.892787 -0.950261 -0.020815 14.000000
2.995971 -1.020260 -0.021539 15.000000
3.088403 -1.089301 -0.022288 18.000000
3.367611 -1.228952 -0.024288 8.000000
3.494495 -1.318329 -0.025304 8.000000
3.470702 -1.352541 -0.025123 7.000000
3.474365 -1.397518 -0.025258 6.000000
3.500499 -1.452479 -0.025446 5.000000
3.507523 -1.500130 -0.025613 5.000000
3.459078 -1.523974 -0.025263 6.000000
3.483215 -1.580054 -0.025564 5.000000
3.416102 -1.594496 -0.025081 1.000000
3.362555 -1.614231 -0.024815 2.000000
