x y z intensity
1.320282 1.223383 0.004834 35.000000
1.333521 1.208935 0.004889 32.000000
1.357871 1.204276 0.004985 57.000000
1.378441 1.195985 0.005013 52.000000
1.414290 1.200304 0.005152 46.000000
1.427254 1.184793 0.005208 41.000000
1.440104 1.169168 0.005208 21.000000
1.448869 1.150265 0.005251 34.000000
1.469189 1.140533 0.005336 34.000000
1.485546 1.127492 0.005350 36.000000
1.493710 1.108235 0.005392 37.000000
1.501696 1.088952 0.005435 32.000000
1.517551 1.075426 0.005449 36.000000
1.553851 1.075872 0.005595 47.000000
1.573727 1.064517 0.005682 20.000000
1.589380 1.050052 0.005697 37.000000
1.625924 1.048932 0.005846 52.000000
1.637262 1.031157 0.005846 36.000000
1.656942 1.018561 0.005936 52.000000
1.672211 1.003029 0.006010 36.000000
1.695988 0.992335 0.006057 41.000000
1.724033 0.983777 0.006179 37.000000
1.734634 0.964937 0.006179 22.000000
1.758179 0.953186 0.006287 49.000000
1.777275 0.938691 0.006318 54.000000
1.800735 0.926168 0.006427 35.000000
1.837509 0.919946 0.006585 69.000000
1.842923 0.897751 0.006569 35.000000
1.879668 0.890513 0.006729 39.000000
1.911960 0.880531 0.006809 60.000000
1.925967 0.861759 0.006890 24.000000
1.935175 0.840832 0.006890 52.000000
1.967226 0.829489 0.007037 58.000000
2.008482 0.821299 0.007152 35.000000
2.040530 0.808656 0.007301 37.000000
2.063175 0.791858 0.007351 35.000000
2.085734 0.774689 0.007469 32.000000
2.108135 0.757080 0.007520 35.000000
2.125648 0.737389 0.007622 14.000000
2.147768 0.719079 0.007673 41.000000
2.174474 0.701859 0.007810 48.000000
2.220131 0.690163 0.007947 42.000000
2.246671 0.671769 0.008087 60.000000
2.273050 0.652887 0.008156 36.000000
2.294440 0.632115 0.008207 36.000000
2.330201 0.614856 0.008384 47.000000
2.356139 0.594448 0.008454 17.000000
2.401330 0.578228 0.008669 37.000000
2.431803 0.557735 0.008756 37.000000
2.452397 0.534509 0.008885 37.000000
2.492264 0.514934 0.009009 49.000000
2.527222 0.493578 0.009116 35.000000
2.571747 0.473394 0.009337 35.000000
2.606255 0.450573 0.009444 46.000000
2.655439 0.429425 0.009605 27.000000
2.694563 0.405740 0.009813 66.000000
2.723564 0.379921 0.009903 69.000000
2.757263 0.354202 0.010096 48.000000
2.756030 0.323586 0.010078 10.000000
2.833910 0.301630 0.010350 8.000000
2.876859 0.274642 0.010583 8.000000
2.934485 0.247963 0.010785 8.000000
3.006811 0.221193 0.011041 7.000000
3.048940 0.191031 0.011188 9.000000
3.075770 0.159226 0.011373 10.000000
3.157300 0.129031 0.011669 9.000000
3.233519 0.097046 0.011946 9.000000
3.294296 0.063048 0.012268 23.000000
3.354795 0.027747 0.012491 67.000000
3.389896 -0.008794 0.012621 95.000000
3.374588 -0.045422 0.012566 63.000000
3.383967 -0.082332 0.012706 24.000000
3.412811 -0.120163 0.012819 14.000000
3.391374 -0.156343 0.012744 24.000000
3.409372 -0.194261 0.012819 90.000000
3.412068 -0.231597 0.012942 52.000000
3.394401 -0.267470 0.012885 32.000000
3.381324 -0.303465 0.012847 98.000000
3.352928 -0.337638 0.012753 95.000000
3.339185 -0.372935 0.012715 98.000000
3.324953 -0.407913 0.012677 93.000000
3.290618 -0.440026 0.012665 95.000000
3.270808 -0.473641 0.012608 95.000000
3.245702 -0.505963 0.012531 44.000000
3.151318 -0.526422 0.012188 9.000000
3.115837 -0.555285 0.012074 9.000000
3.090005 -0.585369 0.011997 9.000000
3.073674 -0.616897 0.011959 10.000000
3.057003 -0.648117 0.012016 19.000000
3.069273 -0.685569 0.012093 34.000000
3.042221 -0.714302 0.012016 67.000000
3.029451 -0.746008 0.011997 53.000000
2.963068 -0.763879 0.011766 10.000000
2.935259 -0.790801 0.011689 9.000000
2.912098 -0.818471 0.011632 9.000000
2.927043 -0.857068 0.011728 62.000000
2.936681 -0.894542 0.011805 90.000000
2.893475 -0.915835 0.011670 46.000000
2.883379 -0.947141 0.011670 42.000000
3.281829 -1.157487 0.013381 29.000000
3.292569 -1.201528 0.013584 98.000000
3.265272 -1.231852 0.013526 91.000000
3.233111 -1.259951 0.013449 98.000000
3.200683 -1.287538 0.013371 87.000000
3.172721 -1.316429 0.013313 89.000000
3.158254 -1.350812 0.013313 90.000000
3.129642 -1.378938 0.013255 58.000000
3.119062 -1.414819 0.013274 36.000000
3.058182 -1.427433 0.013081 98.000000
3.060556 -1.469253 0.013158 75.000000
3.026459 -1.493557 0.012978 98.000000
3.023460 -1.533093 0.013035 66.000000
3.019901 -1.572817 0.013093 49.000000
3.007061 -1.607907 0.013112 39.000000
3.024435 -1.659723 0.013266 29.000000
3.006221 -1.692572 0.013266 15.000000
3.018001 -1.742606 0.013401 34.000000
2.990252 -1.770269 0.013362 23.000000
2.983669 -1.810395 0.013420 18.000000
2.972244 -1.848053 0.013458 9.000000
3.010989 -1.917916 0.013727 9.000000
3.023463 -1.972456 0.013881 10.000000
3.030863 -2.024728 0.014016 9.000000
3.037617 -2.077300 0.014150 7.000000
2.986035 -2.090246 0.013905 9.000000
2.987508 -2.140086 0.014019 9.000000
2.984231 -2.187277 0.014114 8.000000
3.016184 -2.261678 0.014381 6.000000
2.975464 -2.282181 0.014305 3.000000
2.946582 -2.311367 0.014286 2.000000
3.007013 -2.412199 0.014706 1.000000
2.946058 -2.470830 0.014550 1.000000
2.975888 -2.551565 0.014834 1.000000
2.917815 -2.557380 0.014683 1.000000
2.923267 -2.619142 0.014853 1.000000
2.846703 -2.606866 0.014607 1.000000
2.836330 -2.654813 0.014583 1.000000
2.606273 -2.548096 0.013682 2.000000
2.606760 -2.604623 0.013832 7.000000
2.441765 -2.493527 0.013100 7.000000
2.345315 -2.447736 0.012621 12.000000
2.222870 -2.370949 0.012100 10.000000
2.109104 -2.299153 0.011616 10.000000
2.017174 -2.247489 0.011244 13.000000
1.929975 -2.197856 0.010801 10.000000
1.837544 -2.139097 0.010413 9.000000
1.775621 -2.112957 0.010192 12.000000
1.685951 -2.050965 0.009723 10.000000
1.635392 -2.034045 0.009558 16.000000
1.582344 -2.012344 0.009375 22.000000
1.551325 -2.017562 0.009320 27.000000
1.505309 -2.002287 0.009097 33.000000
1.474638 -2.006331 0.009043 27.000000
1.473251 -2.050638 0.009170 20.000000
1.456728 -2.074696 0.009129 31.000000
1.428481 -2.082077 0.009093 28.000000
1.411393 -2.105718 0.009129 29.000000
1.388494 -2.120958 0.009051 24.000000
1.370827 -2.144237 0.009087 26.000000
1.360764 -2.180202 0.009176 29.000000
1.344803 -2.207679 0.009151 21.000000
1.300305 -2.187731 0.009009 9.000000
0.897521 1.531187 0.019609 7.000000
0.896072 1.491330 0.019329 15.000000
0.909594 1.477249 0.019379 25.000000
0.920249 1.458838 0.019373 20.000000
0.944128 1.461381 0.019647 29.000000
0.954435 1.442740 0.019640 22.000000
0.978421 1.444705 0.019917 26.000000
0.994024 1.434001 0.020023 30.000000
1.009520 1.423138 0.020130 22.000000
1.013111 1.395930 0.020004 18.000000
1.034180 1.392903 0.020226 32.000000
1.052241 1.385607 0.020391 29.000000
1.064149 1.370135 0.020438 33.000000
1.078974 1.358487 0.020544 27.000000
1.103096 1.358376 0.020828 31.000000
1.120923 1.350152 0.020995 31.000000
1.132309 1.334076 0.021042 28.000000
1.136899 1.310357 0.020914 30.000000
1.151089 1.297914 0.021020 30.000000
1.181909 1.303887 0.021431 35.000000
1.196035 1.290942 0.021538 37.000000
1.206563 1.274260 0.021530 32.000000
1.223804 1.264624 0.021699 45.000000
1.244531 1.258305 0.021931 35.000000
1.272360 1.258758 0.022288 36.000000
1.282424 1.241351 0.022280 26.000000
1.299509 1.230789 0.022451 35.000000
1.312838 1.216531 0.022561 47.000000
1.340818 1.215597 0.022868 50.000000
1.361501 1.207538 0.023105 49.000000
1.378329 1.195874 0.023225 81.000000
1.383627 1.174311 0.023208 57.000000
1.400214 1.162383 0.023328 35.000000
1.420584 1.153356 0.023568 28.000000
1.460503 1.159535 0.024075 42.000000
1.469075 1.140476 0.024124 50.000000
1.473428 1.118367 0.024051 47.000000
1.497612 1.111157 0.024360 36.000000
1.497479 1.085960 0.024220 42.000000
1.513301 1.072478 0.024399 48.000000
1.537237 1.064430 0.024653 35.000000
1.565272 1.058857 0.024975 31.000000
1.585092 1.047238 0.025223 47.000000
1.617404 1.043452 0.025613 42.000000
1.611762 1.015112 0.025405 63.000000
1.652505 1.015824 0.025991 45.000000
1.672032 1.002969 0.026184 67.000000
1.700123 0.994799 0.026513 70.000000
1.706482 0.973805 0.026505 33.000000
1.730083 0.962446 0.026829 35.000000
1.749266 0.948359 0.027025 42.000000
1.777152 0.938630 0.027358 36.000000
1.809441 0.930680 0.027760 62.000000
1.819439 0.910931 0.027822 41.000000
1.847230 0.899878 0.028158 65.000000
1.861406 0.881887 0.028290 90.000000
1.884521 0.867918 0.028559 35.000000
1.912084 0.855569 0.028962 32.000000
1.930397 0.838775 0.029165 47.000000
1.939391 0.817769 0.029229 34.000000
1.980519 0.809880 0.029780 52.000000
2.026386 0.803130 0.030403 35.000000
2.058305 0.789999 0.030819 35.000000
2.080843 0.772881 0.031097 42.000000
2.098519 0.753632 0.031237 29.000000
2.120719 0.735750 0.031516 35.000000
2.142820 0.717423 0.031795 50.000000
2.169507 0.700323 0.032146 38.000000
2.200822 0.684156 0.032569 62.000000
2.222507 0.664536 0.032852 42.000000
2.272834 0.652815 0.033561 58.000000
2.299042 0.633443 0.033918 52.000000
2.310644 0.609753 0.033989 32.000000
2.341300 0.590779 0.034418 35.000000
2.386523 0.574641 0.035063 45.000000
2.412083 0.553189 0.035424 35.000000
2.447206 0.533367 0.035853 41.000000
2.482239 0.512910 0.036360 36.000000
2.507281 0.489745 0.036725 35.000000
2.576424 0.474299 0.037659 42.000000
2.571528 0.444532 0.037595 26.000000
2.620646 0.423837 0.038243 48.000000
2.679483 0.403506 0.039118 40.000000
2.713409 0.378539 0.039635 51.000000
2.747091 0.352928 0.040069 59.000000
2.730865 0.320755 0.039864 9.000000
2.808792 0.298984 0.040951 8.000000
2.826826 0.269890 0.041255 8.000000
2.884398 0.243753 0.042054 6.000000
3.006535 0.221285 0.043797 8.000000
3.048660 0.191031 0.044471 8.000000
3.080481 0.159485 0.044908 35.000000
3.132034 0.128010 0.045732 22.000000
3.203141 0.096146 0.046753 9.000000
3.264004 0.062474 0.047628 9.000000
3.319493 0.027457 0.048430 10.000000
3.364589 -0.008729 0.049189 43.000000
3.449263 -0.046431 0.050432 81.000000
3.473515 -0.084521 0.050797 95.000000
3.477451 -0.122450 0.050870 95.000000
3.455882 -0.159231 0.050578 70.000000
3.473947 -0.197959 0.050977 95.000000
3.466622 -0.235322 0.050903 95.000000
3.419009 -0.269434 0.050244 54.000000
3.376034 -0.303018 0.049658 95.000000
3.347645 -0.337137 0.049292 95.000000
3.343846 -0.373490 0.049292 61.000000
3.299835 -0.404869 0.048706 85.000000
3.280403 -0.438700 0.048486 89.000000
3.245767 -0.469958 0.048047 67.000000
3.235522 -0.504423 0.047974 72.000000
3.131204 -0.523030 0.046509 10.000000
3.095859 -0.551680 0.046069 18.000000
3.114277 -0.589925 0.046436 34.000000
3.078289 -0.617785 0.045900 61.000000
3.066499 -0.650095 0.045827 75.000000
3.059227 -0.683389 0.045827 82.000000
3.022467 -0.709636 0.045389 42.000000
3.019456 -0.743617 0.045462 52.000000
2.938581 -0.757546 0.044273 13.000000
2.910844 -0.784205 0.043981 9.000000
2.887756 -0.811615 0.043762 9.000000
2.917168 -0.854165 0.044346 34.000000
2.902923 -0.884251 0.044180 70.000000
2.888431 -0.914234 0.044107 74.000000
2.859353 -0.939247 0.043724 37.000000
3.260702 -1.110415 0.050043 24.000000
3.234362 -1.140751 0.049825 64.000000
3.264069 -1.191138 0.050373 98.000000
3.241564 -1.222922 0.050228 98.000000
3.214160 -1.252583 0.049905 87.000000
3.205006 -1.289299 0.049978 98.000000
3.172406 -1.316324 0.049584 95.000000
3.144150 -1.344705 0.049367 84.000000
3.115604 -1.372786 0.049047 90.000000
3.086878 -1.400258 0.048831 35.000000
3.066933 -1.431559 0.048655 70.000000
3.069259 -1.473477 0.048943 63.000000
3.057532 -1.508942 0.048911 37.000000
3.058821 -1.551078 0.049093 47.000000
3.059495 -1.593498 0.049379 52.000000
3.059653 -1.635987 0.049559 33.000000
3.054905 -1.676454 0.049667 25.000000
3.036506 -1.709530 0.049667 10.000000
3.043659 -1.757500 0.049987 19.000000
3.041559 -1.800619 0.050164 11.000000
3.038913 -1.844004 0.050448 9.000000
3.056836 -1.900745 0.050977 9.000000
3.052828 -1.944667 0.051149 9.000000
3.056630 -1.994089 0.051462 9.000000
3.097157 -2.068939 0.052406 9.000000
3.074421 -2.102588 0.052406 7.000000
3.026770 -2.118694 0.051871 8.000000
3.072634 -2.201116 0.052949 6.000000
3.068571 -2.249232 0.053183 5.000000
2.987954 -2.240453 0.052090 3.000000
3.010938 -2.309451 0.052811 2.000000
3.020977 -2.369883 0.053320 1.000000
3.022259 -2.424595 0.053688 1.000000
3.030439 -2.485888 0.054192 1.000000
2.907400 -2.438468 0.052348 1.000000
2.865465 -2.456953 0.051957 1.000000
2.853662 -2.501239 0.052116 1.000000
2.982605 -2.672282 0.054878 1.000000
2.864784 -2.623632 0.053115 1.000000
2.784992 -2.606746 0.052042 1.000000
2.796207 -2.674915 0.052674 1.000000
2.620350 -2.561966 0.049660 1.000000
2.620681 -2.618533 0.050089 6.000000
2.476531 -2.529034 0.047750 7.000000
2.352026 -2.454748 0.045758 10.000000
2.253447 -2.403576 0.044244 14.000000
2.139331 -2.332120 0.042306 13.000000
2.040365 -2.273350 0.040742 13.000000
1.956187 -2.227822 0.039451 13.000000
1.837372 -2.138925 0.037436 9.000000
1.778669 -2.116616 0.036537 15.000000
1.708012 -2.077838 0.035464 15.000000
1.629047 -2.026093 0.034119 13.000000
1.597639 -2.031917 0.033843 26.000000
1.545075 -2.009479 0.033111 30.000000
1.505156 -2.002135 0.032566 35.000000
1.483369 -2.018341 0.032490 33.000000
1.467262 -2.042363 0.032466 25.000000
1.447954 -2.062266 0.032454 34.000000
1.422670 -2.073678 0.032312 31.000000
1.405672 -2.097334 0.032287 32.000000
1.385601 -2.116621 0.032274 32.000000
1.359900 -2.127309 0.032056 28.000000
1.350018 -2.163080 0.032295 34.000000
1.334242 -2.190442 0.032329 29.000000
1.292564 -2.174682 0.031733 9.000000
0.899886 1.535283 0.035743 7.000000
0.895913 1.491171 0.035099 13.000000
0.909435 1.477090 0.035157 21.000000
0.922758 1.462908 0.035215 26.000000
0.941257 1.457023 0.035528 26.000000
0.956982 1.446698 0.035687 27.000000
0.975458 1.440407 0.035949 24.000000
0.991016 1.429733 0.036108 28.000000
1.012253 1.427055 0.036476 30.000000
1.012953 1.395772 0.036113 20.000000
1.036948 1.396705 0.036586 27.000000
1.049006 1.381413 0.036640 32.000000
1.063937 1.369924 0.036799 30.000000
1.075654 1.354414 0.036851 32.000000
1.106033 1.362042 0.037544 30.000000
1.114376 1.342246 0.037490 30.000000
1.128861 1.330104 0.037650 31.000000
1.133412 1.306422 0.037485 22.000000
1.157511 1.305235 0.037970 32.000000
1.178337 1.299968 0.038348 48.000000
1.188972 1.283447 0.038345 30.000000
1.206295 1.274046 0.038616 35.000000
1.216637 1.257225 0.038666 35.000000
1.244315 1.258143 0.039216 41.000000
1.261481 1.248047 0.039489 34.000000
1.285743 1.244664 0.039987 19.000000
1.295607 1.227133 0.039984 42.000000
1.312565 1.216367 0.040260 59.000000
1.333136 1.208661 0.040594 56.000000
1.353744 1.200683 0.040986 38.000000
1.366724 1.185879 0.041096 45.000000
1.379595 1.170910 0.041262 38.000000
1.396090 1.158968 0.041487 46.000000
1.412544 1.146831 0.041712 18.000000
1.444559 1.146931 0.042454 36.000000
1.456946 1.131110 0.042567 44.000000
1.477127 1.121220 0.042910 54.000000
1.489299 1.105029 0.043024 43.000000
1.481011 1.074053 0.042611 36.000000
1.500784 1.063638 0.042957 61.000000
1.536952 1.064259 0.043771 44.000000
1.564983 1.058684 0.044355 20.000000
1.580574 1.044309 0.044588 51.000000
1.591851 1.027017 0.044703 69.000000
1.611413 1.014996 0.045055 53.000000
1.626659 0.999999 0.045290 62.000000
1.646016 0.987363 0.045645 56.000000
1.686820 0.987046 0.046596 73.000000
1.706122 0.973625 0.046954 44.000000
1.734088 0.964695 0.047553 25.000000
1.740113 0.943412 0.047494 43.000000
1.776784 0.938446 0.048336 56.000000
1.800178 0.925921 0.048820 70.000000
1.819067 0.910807 0.049186 57.000000
1.833373 0.893185 0.049369 57.000000
1.851994 0.877481 0.049736 51.000000
1.874998 0.863610 0.050226 54.000000
1.902512 0.851358 0.050776 26.000000
1.920843 0.834663 0.051147 36.000000
1.948217 0.821525 0.051700 50.000000
1.975500 0.807857 0.052319 38.000000
1.998106 0.791881 0.052753 56.000000
2.053235 0.788074 0.054114 46.000000
2.071066 0.769265 0.054427 43.000000
2.098043 0.753496 0.055056 35.000000
2.101351 0.729195 0.055000 32.000000
2.132858 0.714317 0.055687 62.000000
2.164263 0.698788 0.056445 62.000000
2.186011 0.679704 0.056887 56.000000
2.222012 0.664536 0.057703 59.000000
2.267524 0.651434 0.058770 72.000000
2.279257 0.628131 0.059038 38.000000
2.310061 0.609753 0.059735 40.000000
2.331091 0.588333 0.060184 30.000000
2.356767 0.567619 0.060758 46.000000
2.416426 0.554307 0.062212 53.000000
2.436904 0.531238 0.062664 37.000000
2.467013 0.509799 0.063369 44.000000
2.506735 0.489745 0.064327 42.000000
2.521791 0.464264 0.064657 35.000000
2.580822 0.446315 0.066124 35.000000
2.615144 0.423039 0.066881 34.000000
2.634339 0.396806 0.067341 41.000000
2.693022 0.375776 0.068813 50.000000
2.736584 0.351654 0.069910 61.000000
2.720350 0.319505 0.069403 9.000000
2.793278 0.297396 0.071262 8.000000
2.846122 0.271791 0.072617 8.000000
2.873730 0.242911 0.073252 7.000000
2.975890 0.219083 0.075882 8.000000
3.008099 0.188622 0.076645 9.000000
3.059855 0.158451 0.078009 35.000000
3.141257 0.128514 0.080045 53.000000
3.162489 0.094946 0.080555 28.000000
3.178350 0.060848 0.081033 9.000000
3.378762 0.027953 0.086130 9.000000
3.353874 -0.008703 0.085493 35.000000
3.448526 -0.046431 0.087914 68.000000
3.492760 -0.085007 0.089167 95.000000
3.501684 -0.123330 0.089422 98.000000
3.500080 -0.161302 0.089422 98.000000
3.458232 -0.197106 0.088401 78.000000
3.440945 -0.233629 0.088019 32.000000
3.333567 -0.262757 0.085340 14.000000
3.340461 -0.299788 0.085595 69.000000
3.336980 -0.336135 0.085595 86.000000
3.308253 -0.369503 0.084957 86.000000
3.279280 -0.402434 0.084319 77.000000
3.259879 -0.436049 0.083836 86.000000
3.210438 -0.464944 0.082690 33.000000
3.180497 -0.495952 0.082053 21.000000
3.110806 -0.519735 0.080396 18.000000
3.109950 -0.554312 0.080427 73.000000
3.088949 -0.585272 0.080045 71.000000
3.072621 -0.616706 0.079695 75.000000
3.060939 -0.649059 0.079568 62.000000
3.039045 -0.678935 0.079092 81.000000
3.016937 -0.708493 0.078711 72.000000
2.999284 -0.738741 0.078363 52.000000
2.937933 -0.757546 0.076968 10.000000
2.910200 -0.784113 0.076369 9.000000
2.891927 -0.812968 0.076115 9.000000
2.906925 -0.851355 0.076656 32.000000
2.887930 -0.879881 0.076311 65.000000
2.859192 -0.905182 0.075714 58.000000
2.849213 -0.936127 0.075714 66.000000
2.900376 -0.987931 0.077261 22.000000
3.191206 -1.125475 0.085224 32.000000
3.249241 -1.185785 0.087007 95.000000
3.231576 -1.219182 0.086776 98.000000
3.199557 -1.246928 0.086169 95.000000
3.171912 -1.275925 0.085688 90.000000
3.153206 -1.308347 0.085458 94.000000
3.134228 -1.340564 0.085229 62.000000
3.119555 -1.374490 0.085125 34.000000
3.095361 -1.404077 0.084772 22.000000
3.129723 -1.460847 0.086038 51.000000
3.122709 -1.499124 0.086181 50.000000
3.110695 -1.535174 0.086093 36.000000
3.098315 -1.571110 0.086111 28.000000
3.072163 -1.600109 0.085758 18.000000
3.094280 -1.654525 0.086765 13.000000
3.098087 -1.700183 0.087167 10.000000
3.062002 -1.723925 0.086566 8.000000
3.112273 -1.797061 0.088427 10.000000
3.071128 -1.818120 0.087594 8.000000
3.072448 -1.864424 0.088098 7.000000
3.107225 -1.931977 0.089467 9.000000
3.102866 -1.976450 0.089844 9.000000
3.097937 -2.021066 0.090106 8.000000
3.100631 -2.071375 0.090723 6.000000
3.106860 -2.124706 0.091344 4.000000
3.128581 -2.190018 0.092562 5.000000
3.067879 -2.197744 0.091241 3.000000
2.995423 -2.195578 0.089565 2.000000
2.999268 -2.249107 0.090294 2.000000
2.982595 -2.287693 0.090305 2.000000
3.012525 -2.363244 0.091753 2.000000
3.052859 -2.449145 0.093550 1.000000
3.076216 -2.523452 0.094982 1.000000
2.895331 -2.428369 0.089978 1.000000
2.910541 -2.495535 0.091053 1.000000
2.860601 -2.507366 0.090109 1.000000
2.877755 -2.578397 0.091294 1.000000
2.801642 -2.565765 0.089526 1.000000
2.722372 -2.548211 0.087650 1.000000
2.820900 -2.698631 0.091523 1.000000
2.609179 -2.551034 0.085324 1.000000
2.620116 -2.618081 0.086384 5.000000
2.521564 -2.575032 0.083722 7.000000
2.368902 -2.472380 0.079333 9.000000
2.266619 -2.417761 0.076582 12.000000
2.145702 -2.339101 0.073154 10.000000
2.039992 -2.272977 0.070203 12.000000
1.965720 -2.238729 0.068207 10.000000
1.872856 -2.180290 0.065628 9.000000
1.797712 -2.139239 0.063631 10.000000
1.726729 -2.100679 0.061675 13.000000
1.666315 -2.072524 0.060152 18.000000
1.594312 -2.027593 0.058107 18.000000
1.541719 -2.005207 0.056826 24.000000
1.504926 -2.001829 0.056035 34.000000
1.477218 -2.009903 0.055659 34.000000
1.458282 -2.029877 0.055542 25.000000
1.439106 -2.049684 0.055500 34.000000
1.416784 -2.065127 0.055271 32.000000
1.399874 -2.088644 0.055261 29.000000
1.379894 -2.107947 0.055217 32.000000
1.351591 -2.114289 0.054768 31.000000
1.344492 -2.154287 0.055190 29.000000
1.326205 -2.177321 0.055174 29.000000
1.335750 -2.247425 0.056421 9.000000
0.909778 1.552203 0.052350 6.000000
0.893127 1.486568 0.050671 9.000000
0.911843 1.481028 0.051083 13.000000
0.917162 1.454137 0.050706 19.000000
0.951839 1.473497 0.052005 12.000000
0.962285 1.454717 0.051922 21.000000
0.963983 1.423535 0.051388 16.000000
0.993598 1.433522 0.052348 20.000000
1.003259 1.414506 0.052313 21.000000
1.039108 1.431859 0.053584 9.000000
1.027746 1.384348 0.052432 24.000000
1.042696 1.373135 0.052643 21.000000
1.066738 1.373553 0.053313 16.000000
1.075337 1.354097 0.053218 25.000000
1.093111 1.346203 0.053583 18.000000
1.114056 1.341980 0.054105 22.000000
1.122074 1.322164 0.054007 19.000000
1.182218 1.362729 0.056406 10.000000
1.153876 1.301177 0.054587 31.000000
1.174660 1.295944 0.055115 26.000000
1.185256 1.279461 0.055170 28.000000
1.195666 1.262838 0.055172 29.000000
1.226742 1.267732 0.056180 27.000000
1.240423 1.254266 0.056395 32.000000
1.246892 1.233663 0.056236 26.000000
1.285415 1.244336 0.057576 13.000000
1.287969 1.219933 0.057256 34.000000
1.301186 1.205849 0.057473 27.000000
1.325347 1.201673 0.058123 31.000000
1.349619 1.197090 0.058830 36.000000
1.358789 1.179053 0.058832 29.000000
1.379153 1.170634 0.059324 35.000000
1.395702 1.158691 0.059654 32.000000
1.423738 1.156003 0.060536 19.000000
1.436282 1.140379 0.060704 31.000000
1.452212 1.128157 0.061038 25.000000
1.464453 1.112266 0.061206 29.000000
1.476470 1.096206 0.061375 31.000000
1.496463 1.085904 0.061877 27.000000
1.508206 1.069475 0.062047 35.000000
1.523887 1.055835 0.062384 29.000000
1.560095 1.055941 0.063566 19.000000
1.579880 1.044424 0.064077 31.000000
1.612148 1.040684 0.065039 33.000000
1.623398 1.023047 0.065215 32.000000
1.642927 1.010529 0.065731 56.000000
1.658107 0.995136 0.066020 32.000000
1.673167 0.979532 0.066368 33.000000
1.705463 0.973685 0.067343 32.000000
1.715957 0.955035 0.067523 22.000000
1.721819 0.933943 0.067471 34.000000
1.762794 0.931503 0.068858 35.000000
1.781726 0.916837 0.069326 34.000000
1.813916 0.908569 0.070314 36.000000
1.828196 0.890996 0.070611 32.000000
1.842275 0.873201 0.070972 32.000000
1.869767 0.861519 0.071793 37.000000
1.892690 0.847275 0.072443 19.000000
1.915557 0.832607 0.073094 33.000000
1.929090 0.813692 0.073397 32.000000
1.993283 0.815425 0.075630 31.000000
2.020610 0.801089 0.076465 36.000000
2.033837 0.780909 0.076774 31.000000
2.065640 0.767457 0.077789 30.000000
2.083255 0.748360 0.078277 30.000000
2.095884 0.727557 0.078589 10.000000
2.122627 0.711074 0.079434 49.000000
2.144480 0.692576 0.080034 34.000000
2.185242 0.679704 0.081416 33.000000
2.206872 0.660169 0.082020 37.000000
2.247523 0.645842 0.083408 33.000000
2.264012 0.624075 0.083908 31.000000
2.304500 0.608405 0.085231 34.000000
2.296371 0.579698 0.084767 9.000000
2.336596 0.562865 0.086165 31.000000
2.400983 0.550879 0.088390 33.000000
2.421421 0.528044 0.089080 29.000000
2.451487 0.506764 0.090054 32.000000
2.476454 0.483994 0.090850 27.000000
2.511101 0.462454 0.092007 30.000000
2.570095 0.444532 0.094068 34.000000
2.579727 0.417452 0.094328 10.000000
2.618703 0.394572 0.095671 31.000000
2.677263 0.373704 0.097739 32.000000
2.705923 0.347832 0.098726 27.000000
2.709505 0.318339 0.098809 8.000000
2.747617 0.292634 0.100160 7.000000
2.825266 0.269890 0.102877 7.000000
2.872762 0.242911 0.104595 7.000000
2.954956 0.217616 0.107586 6.000000
3.012074 0.188934 0.109582 8.000000
3.058826 0.158451 0.111308 33.000000
3.105254 0.127084 0.112943 26.000000
3.161426 0.094946 0.115036 33.000000
3.197265 0.061230 0.116309 28.000000
3.267705 0.027044 0.118853 9.000000
3.347751 -0.008690 0.121863 41.000000
3.422387 -0.046095 0.124591 40.000000
3.466611 -0.084399 0.126228 83.000000
3.500507 -0.123223 0.127501 95.000000
3.483929 -0.160612 0.126956 83.000000
3.427138 -0.195294 0.124955 32.000000
3.404891 -0.231154 0.124227 10.000000
3.402181 -0.268152 0.124227 10.000000
3.324405 -0.298447 0.121499 60.000000
3.310996 -0.333528 0.121135 37.000000
3.262444 -0.364510 0.119398 35.000000
3.238496 -0.397464 0.118671 18.000000
3.164676 -0.423361 0.116127 9.000000
3.174734 -0.459831 0.116574 9.000000
3.134983 -0.488924 0.115303 8.000000
3.129460 -0.522933 0.115206 13.000000
3.108889 -0.554215 0.114565 76.000000
3.092802 -0.586107 0.114203 35.000000
3.061771 -0.614738 0.113201 44.000000
3.040241 -0.644816 0.112658 45.000000
3.013618 -0.673391 0.111839 37.000000
3.001304 -0.704877 0.111564 66.000000
2.988638 -0.736256 0.111289 36.000000
2.927238 -0.754958 0.109209 21.000000
2.899539 -0.781421 0.108396 9.000000
2.852437 -0.802056 0.106862 8.000000
2.853160 -0.835811 0.107132 16.000000
2.858238 -0.871049 0.107581 56.000000
2.839130 -0.899056 0.107130 33.000000
2.838712 -0.932915 0.107398 49.000000
2.866239 -0.976557 0.108650 18.000000
3.208917 -1.132021 0.121993 27.000000
3.201142 -1.168545 0.122068 63.000000
3.211717 -1.212020 0.122753 48.000000
3.175021 -1.237748 0.121756 36.000000
3.189306 -1.283281 0.122617 31.000000
3.175134 -1.317820 0.122512 27.000000
3.183617 -1.362081 0.123191 31.000000
3.154989 -1.390507 0.122552 25.000000
3.153268 -1.430920 0.122874 14.000000
3.155729 -1.473531 0.123370 23.000000
3.121545 -1.499124 0.122557 10.000000
3.136414 -1.548447 0.123581 10.000000
3.132692 -1.589194 0.123896 9.000000
3.119746 -1.625508 0.123857 9.000000
3.141569 -1.680559 0.125223 9.000000
3.171256 -1.741064 0.127045 8.000000
3.178267 -1.790135 0.127875 7.000000
3.206146 -1.852161 0.129575 9.000000
3.155698 -1.869160 0.128127 7.000000
3.062589 -1.859237 0.124832 6.000000
3.105884 -1.932088 0.127220 5.000000
3.164614 -2.016846 0.130293 6.000000
3.134129 -2.045761 0.129717 6.000000
3.161466 -2.113141 0.131563 6.000000
3.150731 -2.155978 0.131732 4.000000
3.082042 -2.158602 0.129606 2.000000
3.046074 -2.183418 0.128860 1.000000
3.074540 -2.254911 0.130745 1.000000
3.077721 -2.309319 0.131709 1.000000
3.060270 -2.348771 0.131698 1.000000
3.046974 -2.390301 0.131855 1.000000
3.145571 -2.523476 0.137053 1.000000
2.825607 -2.369874 0.124659 1.000000
2.904883 -2.546196 0.129981 1.000000
2.862042 -2.564350 0.128957 1.000000
2.819257 -2.581945 0.127936 1.000000
2.794656 -2.615826 0.127752 1.000000
2.604827 -2.546873 0.120914 1.000000
2.608833 -2.606806 0.122069 3.000000
2.531282 -2.585083 0.119422 5.000000
2.430400 -2.536704 0.115636 7.000000
2.293355 -2.446320 0.109963 9.000000
2.175426 -2.371665 0.105244 9.000000
2.072811 -2.309609 0.101201 10.000000
1.968471 -2.241847 0.096925 9.000000
1.875674 -2.183467 0.093252 8.000000
1.810060 -2.154032 0.090890 10.000000
1.735834 -2.111763 0.087973 9.000000
1.665828 -2.072037 0.085317 10.000000
1.600017 -2.034977 0.082755 10.000000
1.532194 -1.992781 0.080129 12.000000
1.501465 -1.997299 0.079346 26.000000
1.467959 -1.997366 0.078408 24.000000
1.460817 -2.033478 0.078969 13.000000
1.438724 -2.049149 0.078663 29.000000
1.416401 -2.064668 0.078358 21.000000
1.393926 -2.079881 0.078052 24.000000
1.374035 -2.099046 0.077901 25.000000
1.356669 -2.122251 0.077981 24.000000
1.338889 -2.145342 0.077982 27.000000
1.318095 -2.163971 0.077826 21.000000
1.274149 -2.143836 0.076294 9.000000
0.885802 1.513559 0.066841 8.000000
0.889339 1.482390 0.066205 21.000000
0.897538 1.459854 0.065945 28.000000
0.915955 1.454242 0.066400 22.000000
0.934410 1.448415 0.066909 28.000000
0.950045 1.438149 0.067172 24.000000
0.962828 1.423640 0.067292 26.000000
0.986739 1.425413 0.068144 30.000000
1.005035 1.418688 0.068659 21.000000
0.999856 1.379381 0.067538 24.000000
1.023664 1.380441 0.068395 28.000000
1.038572 1.369260 0.068657 29.000000
1.056489 1.361817 0.069173 32.000000
1.068071 1.346374 0.069235 26.000000
1.085758 1.338549 0.069699 32.000000
1.103424 1.330497 0.070165 31.000000
1.117837 1.318460 0.070429 26.000000
1.125548 1.298661 0.070284 28.000000
1.149554 1.297544 0.071162 33.000000
1.170292 1.292348 0.071839 34.000000
1.187637 1.283180 0.072258 35.000000
1.198143 1.266574 0.072318 29.000000
1.218774 1.260603 0.073000 36.000000
1.235942 1.250767 0.073423 32.000000
1.260126 1.247776 0.074319 32.000000
1.266493 1.227011 0.074116 29.000000
1.290674 1.223478 0.075018 35.000000
1.296603 1.202507 0.074812 50.000000
1.324419 1.201673 0.075876 47.000000
1.341210 1.190513 0.076362 35.000000
1.361627 1.182328 0.077008 44.000000
1.370654 1.164166 0.077014 34.000000
1.390918 1.155554 0.077663 35.000000
1.411211 1.146553 0.078314 29.000000
1.431475 1.137328 0.078968 31.000000
1.443761 1.121634 0.079191 35.000000
1.459858 1.108851 0.079632 35.000000
1.479919 1.098791 0.080235 40.000000
1.495842 1.085509 0.080678 36.000000
1.507585 1.069080 0.080904 34.000000
1.527371 1.058284 0.081511 31.000000
1.555326 1.052795 0.082617 32.000000
1.566743 1.035756 0.082789 29.000000
1.577931 1.018601 0.083019 32.000000
1.601566 1.009321 0.083855 44.000000
1.620773 0.997381 0.084530 34.000000
1.631528 0.979649 0.084704 48.000000
1.659349 0.971899 0.085828 35.000000
1.695888 0.968670 0.087345 35.000000
1.706329 0.950115 0.087524 34.000000
1.720922 0.933883 0.087927 33.000000
1.757465 0.929047 0.089455 36.000000
1.780808 0.916776 0.090313 36.000000
1.799590 0.901794 0.090948 33.000000
1.818285 0.886555 0.091523 36.000000
1.845855 0.875278 0.092614 48.000000
1.850742 0.853030 0.092574 30.000000
1.882687 0.843066 0.093898 31.000000
1.905439 0.828560 0.094707 32.000000
1.932733 0.815570 0.095810 30.000000
1.955381 0.800160 0.096623 34.000000
1.991758 0.789908 0.098190 32.000000
2.009461 0.772020 0.098780 33.000000
2.031792 0.755341 0.099666 41.000000
2.035171 0.731533 0.099568 28.000000
2.066625 0.717591 0.100852 34.000000
2.107394 0.706177 0.102599 35.000000
2.138695 0.690971 0.103889 35.000000
2.160418 0.672145 0.104720 39.000000
2.177107 0.651438 0.105321 35.000000
2.203250 0.633282 0.106387 37.000000
2.229233 0.614781 0.107456 36.000000
2.259948 0.596854 0.108759 26.000000
2.305044 0.582071 0.110764 30.000000
2.350061 0.566375 0.112773 35.000000
2.370647 0.544174 0.113546 33.000000
2.405647 0.524851 0.115096 35.000000
2.455232 0.507776 0.117273 33.000000
2.490003 0.486792 0.118830 36.000000
2.524667 0.465169 0.120312 34.000000
2.524609 0.436867 0.120234 19.000000
2.568669 0.415776 0.122189 35.000000
2.582919 0.389361 0.122738 24.000000
2.606775 0.363953 0.123757 10.000000
2.694766 0.346475 0.127832 33.000000
2.688415 0.316007 0.127445 9.000000
2.696689 0.287342 0.127763 8.000000
2.774248 0.265139 0.131377 8.000000
2.767020 0.234070 0.130991 6.000000
2.883956 0.212390 0.136498 8.000000
2.945892 0.184778 0.139327 9.000000
3.012535 0.156124 0.142484 35.000000
3.068994 0.125654 0.145173 51.000000
3.100073 0.093146 0.146589 34.000000
3.180820 0.060943 0.150366 37.000000
3.236243 0.026796 0.153062 54.000000
3.286285 -0.008534 0.155424 24.000000
3.390856 -0.045587 0.160384 62.000000
3.445051 -0.083807 0.162982 74.000000
3.483929 -0.122695 0.164872 98.000000
3.467364 -0.159921 0.164163 98.000000
3.410607 -0.194442 0.161565 29.000000
3.378413 -0.229462 0.160148 12.000000
3.291081 -0.259514 0.156132 15.000000
3.268158 -0.293432 0.155187 12.000000
3.239903 -0.326517 0.153907 10.000000
3.216269 -0.359418 0.152963 9.000000
3.197344 -0.392594 0.152156 9.000000
3.168164 -0.423926 0.150977 10.000000
3.148551 -0.456250 0.150172 9.000000
3.123660 -0.487287 0.149132 9.000000
3.113229 -0.520366 0.148896 24.000000
3.107442 -0.554215 0.148800 71.000000
3.101271 -0.587871 0.148704 95.000000
3.065333 -0.615627 0.147196 71.000000
3.048684 -0.646794 0.146631 69.000000
3.036574 -0.678744 0.146301 95.000000
3.009615 -0.707067 0.145267 73.000000
2.996927 -0.738552 0.144844 91.000000
2.974214 -0.767342 0.144047 56.000000
2.874052 -0.774920 0.139506 9.000000
2.855888 -0.803227 0.138856 10.000000
2.861384 -0.838347 0.139466 17.000000
2.856961 -0.870867 0.139518 62.000000
2.847289 -0.901800 0.139426 94.000000
2.818364 -0.926494 0.138312 44.000000
2.822304 -0.961872 0.138920 23.000000
2.995419 -1.057315 0.147801 23.000000
3.147974 -1.149698 0.155730 31.000000
3.238075 -1.222711 0.160624 41.000000
3.266631 -1.273832 0.162496 40.000000
3.252599 -1.309180 0.162282 45.000000
3.215180 -1.334846 0.160913 29.000000
3.195912 -1.367765 0.160470 16.000000
3.226533 -1.422536 0.162560 10.000000
3.229105 -1.465805 0.163264 9.000000
3.253690 -1.519822 0.165115 9.000000
3.259524 -1.565964 0.166042 10.000000
3.273639 -1.616798 0.167313 9.000000
3.269266 -1.659161 0.167775 10.000000
3.255439 -1.696861 0.167780 10.000000
3.250033 -1.739259 0.168127 10.000000
3.244023 -1.781720 0.168471 9.000000
3.246220 -1.829257 0.169380 7.000000
3.243370 -1.874542 0.169945 6.000000
3.222771 -1.909790 0.169716 4.000000
3.052409 -1.853942 0.161468 5.000000
3.032444 -1.886454 0.161141 6.000000
3.108595 -1.981145 0.165987 2.000000
3.166333 -2.066803 0.169914 1.000000
3.114510 -2.081795 0.167999 1.000000
3.165937 -2.166328 0.171680 1.000000
3.097144 -2.169260 0.168874 1.000000
3.032636 -2.173773 0.166187 1.000000
3.032980 -2.224438 0.167178 1.000000
2.900632 -2.176471 0.160851 1.000000
3.009720 -2.362542 0.168895 1.000000
3.026620 -2.429666 0.170965 1.000000
2.876394 -2.361205 0.163469 1.000000
2.869606 -2.408409 0.164223 1.000000
2.843170 -2.439651 0.163765 1.000000
2.797729 -2.453966 0.162332 1.000000
2.785664 -2.497657 0.162747 1.000000
2.706679 -2.480692 0.159256 1.000000
2.646727 -2.479340 0.156863 1.000000
2.692085 -2.634214 0.161992 1.000000
2.532519 -2.532738 0.153605 1.000000
2.560735 -2.617330 0.156586 6.000000
2.452650 -2.562071 0.151239 6.000000
2.305069 -2.461006 0.143372 9.000000
2.193810 -2.393860 0.137665 10.000000
2.104360 -2.346897 0.133159 10.000000
2.009567 -2.290758 0.128355 9.000000
1.909703 -2.225344 0.123158 9.000000
1.814766 -2.161770 0.118111 10.000000
1.734164 -2.111846 0.114014 10.000000
1.670461 -2.079908 0.110897 10.000000
1.607694 -2.046922 0.107800 10.000000
1.542754 -2.008783 0.104594 13.000000
1.502939 -2.001446 0.102973 21.000000
1.478195 -2.013626 0.102386 24.000000
1.464960 -2.041672 0.102617 19.000000
1.425568 -2.032940 0.101014 21.000000
1.397777 -2.040017 0.100305 23.000000
1.400581 -2.092489 0.101744 23.000000
1.383285 -2.115926 0.101762 25.000000
1.352212 -2.118194 0.100775 22.000000
1.339756 -2.149659 0.101112 22.000000
1.324104 -2.176932 0.101321 19.000000
1.313118 -2.212655 0.101922 8.000000
0.895517 1.530212 0.083582 7.000000
0.878692 1.464730 0.080887 24.000000
0.897172 1.459331 0.081490 27.000000
0.915587 1.453717 0.082095 32.000000
0.931282 1.443639 0.082410 30.000000
0.952429 1.441790 0.083258 31.000000
0.962408 1.423063 0.083145 36.000000
0.983473 1.420725 0.083945 29.000000
0.995950 1.405879 0.084071 35.000000
0.996457 1.374765 0.083163 24.000000
1.020218 1.375904 0.084264 30.000000
1.038152 1.368683 0.084824 36.000000
1.052954 1.357345 0.085139 32.000000
1.070702 1.349709 0.085703 34.000000
1.088430 1.341901 0.086320 33.000000
1.106137 1.333813 0.086888 30.000000
1.120538 1.321688 0.087205 48.000000
1.131564 1.305631 0.087271 25.000000
1.142402 1.289486 0.087282 33.000000
1.159704 1.280711 0.087852 36.000000
1.183179 1.279514 0.088986 35.000000
1.193595 1.262891 0.088997 35.000000
1.210764 1.253367 0.089572 44.000000
1.227852 1.243660 0.090149 36.000000
1.251950 1.240692 0.091191 36.000000
1.258246 1.220006 0.090996 16.000000
1.278720 1.213060 0.091783 68.000000
1.295522 1.202453 0.092314 71.000000
1.308594 1.188192 0.092584 37.000000
1.332649 1.183772 0.093641 74.000000
1.353043 1.175723 0.094494 48.000000
1.377164 1.170579 0.095504 42.000000
1.386029 1.152252 0.095516 39.000000
1.425652 1.159097 0.097649 20.000000
1.418633 1.127894 0.096599 45.000000
1.446642 1.124587 0.097944 38.000000
1.454875 1.105718 0.097900 35.000000
1.474841 1.095701 0.098716 60.000000
1.490729 1.082462 0.099209 44.000000
1.502497 1.066077 0.099491 37.000000
1.534498 1.063859 0.101067 42.000000
1.533624 1.038626 0.100483 17.000000
1.565653 1.035641 0.102067 42.000000
1.576841 1.018486 0.102354 53.000000
1.600525 1.009205 0.103401 53.000000
1.615707 0.994299 0.103906 56.000000
1.630482 0.979533 0.104412 37.000000
1.658292 0.971782 0.105743 61.000000
1.677476 0.958583 0.106529 65.000000
1.700894 0.947507 0.107593 21.000000
1.728620 0.938467 0.108877 36.000000
1.756372 0.928926 0.110225 51.000000
1.775269 0.914307 0.110962 34.000000
1.798483 0.901609 0.112040 63.000000
1.821660 0.888559 0.113060 52.000000
1.826690 0.866533 0.112967 32.000000
1.849622 0.852843 0.114053 35.000000
1.858773 0.832672 0.114239 17.000000
1.908811 0.830551 0.116950 36.000000
1.922318 0.811686 0.117422 49.000000
1.935612 0.792594 0.117895 31.000000
1.976594 0.784384 0.120060 35.000000
1.999024 0.768241 0.121101 34.000000
2.039958 0.758622 0.123277 32.000000
2.062166 0.741469 0.124326 35.000000
2.041844 0.709201 0.122759 10.000000
2.096638 0.703003 0.125797 34.000000
2.127959 0.687832 0.127422 50.000000
2.149572 0.669109 0.128413 35.000000
2.175857 0.651369 0.129691 43.000000
2.187598 0.629074 0.130184 36.000000
2.223149 0.613312 0.132038 35.000000
2.258591 0.596783 0.133896 35.000000
2.289145 0.578331 0.135471 19.000000
2.334101 0.562718 0.137909 32.000000
2.369235 0.544100 0.139778 33.000000
2.399416 0.523636 0.141363 33.000000
2.439188 0.504665 0.143526 32.000000
2.469012 0.482882 0.145118 31.000000
2.503541 0.461394 0.146924 34.000000
2.528040 0.437640 0.148233 33.000000
2.567159 0.415697 0.150411 29.000000
2.556724 0.385560 0.149624 18.000000
2.580529 0.360500 0.150859 9.000000
2.633780 0.338832 0.153830 10.000000
2.701798 0.317756 0.157755 28.000000
2.705041 0.288317 0.157838 9.000000
2.732880 0.261253 0.159370 8.000000
2.785303 0.235754 0.162354 8.000000
2.872322 0.211656 0.167282 7.000000
2.934215 0.184152 0.170851 8.000000
3.010784 0.156124 0.175294 42.000000
3.047262 0.124837 0.177419 34.000000
3.083305 0.092696 0.179452 36.000000
3.159012 0.060561 0.183807 36.000000
3.204416 0.026548 0.186519 35.000000
3.304343 -0.008485 0.192329 17.000000
3.373914 -0.045386 0.196396 20.000000
3.428081 -0.083443 0.199592 76.000000
3.451975 -0.121641 0.201045 95.000000
3.445405 -0.158895 0.200754 95.000000
3.413607 -0.194621 0.199011 81.000000
3.386407 -0.230139 0.197559 65.000000
3.358829 -0.264908 0.196106 30.000000
3.241396 -0.291199 0.189324 9.000000
3.213182 -0.323915 0.187774 9.000000
3.184726 -0.356090 0.186323 9.000000
3.175657 -0.390062 0.185935 9.000000
3.141572 -0.420517 0.184194 9.000000
3.117064 -0.451760 0.182938 9.000000
3.107030 -0.484882 0.182552 9.000000
3.047491 -0.509568 0.179270 9.000000
3.105610 -0.554022 0.182938 94.000000
3.079822 -0.584055 0.181685 83.000000
3.058624 -0.614548 0.180721 72.000000
3.032227 -0.643590 0.179375 71.000000
3.020154 -0.675381 0.178992 95.000000
3.007821 -0.706973 0.178514 95.000000
2.966056 -0.731195 0.176402 70.000000
2.924099 -0.754681 0.174200 23.000000
2.867596 -0.773438 0.171230 10.000000
2.868672 -0.807101 0.171623 9.000000
2.831003 -0.829831 0.169718 12.000000
2.850453 -0.869319 0.171259 84.000000
2.826521 -0.895677 0.170217 91.000000
2.807158 -0.923284 0.169463 71.000000
2.797041 -0.953455 0.169282 25.000000
2.998379 -1.058589 0.181956 11.000000
3.085178 -1.127122 0.187653 29.000000
3.268860 -1.234634 0.199417 28.000000
3.269246 -1.275539 0.200057 24.000000
3.278346 -1.320370 0.201156 17.000000
3.282201 -1.363573 0.202075 10.000000
3.239676 -1.387417 0.200157 9.000000
3.293105 -1.452430 0.203969 8.000000
3.322606 -1.508825 0.206575 8.000000
3.337644 -1.559646 0.208216 10.000000
3.329525 -1.600232 0.208441 10.000000
3.325338 -1.642999 0.208946 10.000000
3.293957 -1.672272 0.207764 9.000000
3.257847 -1.698833 0.206304 8.000000
3.300819 -1.767197 0.209885 7.000000
3.316366 -1.822249 0.211776 6.000000
3.226776 -1.819109 0.206967 3.000000
3.211058 -1.856706 0.206905 3.000000
3.272242 -1.939998 0.211731 2.000000
3.080641 -1.871211 0.200176 6.000000
3.047434 -1.896678 0.199015 6.000000
3.013961 -1.921759 0.197748 3.000000
3.059643 -1.998212 0.201832 2.000000
3.133199 -2.095328 0.207713 1.000000
3.159591 -2.163273 0.210546 1.000000
3.070418 -2.151722 0.205695 1.000000
3.002185 -2.153177 0.202344 1.000000
2.901999 -2.129687 0.196708 1.000000
2.914609 -2.188240 0.198718 1.000000
2.934105 -2.253325 0.201147 1.000000
2.881859 -2.263622 0.198799 1.000000
2.934843 -2.357516 0.203756 1.000000
2.855962 -2.398661 0.200838 1.000000
2.795540 -2.400392 0.197968 1.000000
2.821721 -2.476909 0.201150 1.000000
2.705339 -2.427518 0.194286 1.000000
2.653033 -2.433221 0.191868 1.000000
2.662724 -2.496193 0.193971 1.000000
2.649818 -2.539011 0.194472 1.000000
2.643408 -2.588683 0.195607 1.000000
2.604441 -2.606806 0.194252 1.000000
2.534065 -2.592113 0.190540 4.000000
2.471083 -2.583613 0.187260 7.000000
2.309833 -2.468195 0.176543 8.000000
2.226553 -2.429581 0.171506 14.000000
2.120064 -2.364426 0.164784 10.000000
2.005343 -2.286073 0.157324 10.000000
1.921814 -2.239516 0.152133 9.000000
1.846008 -2.199066 0.147575 11.000000
1.746005 -2.126364 0.140911 11.000000
1.688489 -2.102371 0.137604 15.000000
1.610063 -2.049975 0.132619 11.000000
1.557344 -2.027734 0.129609 16.000000
1.502251 -2.000606 0.126366 24.000000
1.471599 -2.004736 0.125153 25.000000
1.443967 -2.012427 0.124197 21.000000
1.427829 -2.036195 0.124242 26.000000
1.399995 -2.043306 0.123289 27.000000
1.369411 -2.045992 0.122092 31.000000
1.363539 -2.085816 0.123121 26.000000
1.348911 -2.113140 0.123401 29.000000
1.331213 -2.136094 0.123354 25.000000
1.315774 -2.163275 0.123625 24.000000
1.304922 -2.198906 0.124375 9.000000
0.884034 1.512863 0.098440 7.000000
0.872205 1.456009 0.095770 21.000000
0.893199 1.454919 0.096751 26.000000
0.906250 1.440883 0.096884 27.000000
0.927266 1.439337 0.097871 28.000000
0.937365 1.420799 0.097717 29.000000
0.958302 1.418821 0.098709 30.000000
0.970799 1.404196 0.098786 32.000000
0.994633 1.405774 0.100074 31.000000
0.995212 1.374661 0.099039 25.000000
1.015991 1.371736 0.099987 32.000000
1.036892 1.368578 0.100991 33.000000
1.045580 1.349297 0.100769 32.000000
1.069439 1.349604 0.102022 33.000000
1.084021 1.337865 0.102443 34.000000
1.098498 1.325967 0.102811 34.000000
1.112869 1.313912 0.103180 35.000000
1.123816 1.297926 0.103248 31.000000
1.144499 1.293065 0.104218 35.000000
1.158490 1.280553 0.104535 35.000000
1.175710 1.271493 0.105208 49.000000
1.189477 1.258574 0.105578 50.000000
1.210072 1.252728 0.106506 37.000000
1.241182 1.257171 0.108410 49.000000
1.247705 1.236533 0.108120 36.000000
1.261079 1.222837 0.108496 32.000000
1.273916 1.209463 0.108872 35.000000
1.287022 1.195444 0.109194 64.000000
1.311045 1.191386 0.110450 59.000000
1.327721 1.180293 0.111087 65.000000
1.348072 1.172229 0.112039 40.000000
1.364546 1.160659 0.112681 52.000000
1.384817 1.152032 0.113639 42.000000
1.397322 1.136828 0.113914 27.000000
1.421375 1.130779 0.115194 42.000000
1.433650 1.115172 0.115472 45.000000
1.453646 1.105495 0.116441 57.000000
1.465653 1.089522 0.116721 35.000000
1.481473 1.076371 0.117319 35.000000
1.497190 1.062964 0.117920 37.000000
1.516901 1.052255 0.118843 35.000000
1.544827 1.046796 0.120413 27.000000
1.551966 1.027093 0.120376 36.000000
1.579596 1.021253 0.122012 41.000000
1.594861 1.006658 0.122624 73.000000
1.610010 0.991741 0.123180 37.000000
1.620708 0.974102 0.123469 50.000000
1.648450 0.966441 0.125006 44.000000
1.663242 0.950859 0.125625 49.000000
1.717077 0.956984 0.129137 31.000000
1.714205 0.931023 0.128392 42.000000
1.746277 0.923956 0.130276 45.000000
1.756247 0.904861 0.130518 49.000000
1.783813 0.894592 0.132080 37.000000
1.806785 0.881931 0.133378 57.000000
1.825268 0.866471 0.134287 60.000000
1.839130 0.848662 0.134867 37.000000
1.866446 0.836691 0.136383 29.000000
1.898326 0.826315 0.138300 35.000000
1.920978 0.811367 0.139491 51.000000
1.929653 0.790447 0.139746 36.000000
1.956618 0.776955 0.141341 35.000000
1.992862 0.766320 0.143546 32.000000
2.019792 0.751531 0.145085 35.000000
2.032528 0.731203 0.145620 31.000000
2.040325 0.709069 0.145818 30.000000
2.066775 0.693348 0.147431 36.000000
2.121640 0.686160 0.151010 41.000000
2.133770 0.664453 0.151484 35.000000
2.169551 0.649799 0.153721 47.000000
2.185997 0.629074 0.154607 36.000000
2.211911 0.610516 0.156104 37.000000
2.237729 0.591541 0.157673 34.000000
2.292393 0.579481 0.161216 28.000000
2.317938 0.559135 0.162795 33.000000
2.353016 0.540674 0.164987 32.000000
2.383069 0.520368 0.166840 35.000000
2.442322 0.505600 0.170746 36.000000
2.457453 0.480889 0.171582 34.000000
2.491941 0.459584 0.173788 42.000000
2.501739 0.433305 0.174285 28.000000
2.545714 0.412426 0.177182 31.000000
2.554906 0.385481 0.177604 19.000000
2.568817 0.359039 0.178448 9.000000
2.631994 0.338751 0.182648 10.000000
2.675116 0.314758 0.185559 42.000000
2.728012 0.290962 0.189079 34.000000
2.740880 0.262203 0.189851 20.000000
2.763456 0.233986 0.191312 8.000000
2.910093 0.214590 0.201379 8.000000
2.927170 0.183840 0.202502 9.000000
2.968905 0.154056 0.205348 36.000000
3.025182 0.123927 0.209138 35.000000
3.076244 0.092546 0.212677 37.000000
3.141829 0.060274 0.217158 34.000000
3.177224 0.026438 0.219669 33.000000
3.287056 -0.008447 0.227255 16.000000
3.326654 -0.044781 0.230014 14.000000
3.425775 -0.083443 0.236911 95.000000
3.434592 -0.121008 0.237601 92.000000
3.423154 -0.157976 0.236911 95.000000
3.401243 -0.194053 0.235532 95.000000
3.369092 -0.229021 0.233359 91.000000
3.331598 -0.262946 0.230946 18.000000
3.234140 -0.290653 0.224298 9.000000
3.206047 -0.323315 0.222575 9.000000
3.152730 -0.352665 0.219033 9.000000
3.153702 -0.387530 0.219280 9.000000
3.124608 -0.418434 0.217462 9.000000
3.110010 -0.450948 0.216678 9.000000
3.095058 -0.483246 0.215894 9.000000
3.035479 -0.507827 0.212018 9.000000
3.078936 -0.549543 0.215359 66.000000
3.067816 -0.582003 0.214825 79.000000
3.046650 -0.612391 0.213700 94.000000
3.025262 -0.642365 0.212482 80.000000
2.983997 -0.667663 0.209989 95.000000
2.981464 -0.701074 0.210144 81.000000
2.949472 -0.727518 0.208247 80.000000
2.907578 -0.750755 0.205670 27.000000
2.875139 -0.775856 0.203779 16.000000
2.828163 -0.796196 0.200869 11.000000
2.838502 -0.832368 0.201962 23.000000
2.834135 -0.864679 0.202121 81.000000
2.810262 -0.890973 0.200920 71.000000
2.795694 -0.919894 0.200400 71.000000
2.785611 -0.950053 0.200130 37.000000
2.935093 -1.036794 0.211377 19.000000
3.036017 -1.109795 0.219309 25.000000
3.201180 -1.209837 0.231856 10.000000
3.341130 -1.304460 0.242680 9.000000
3.336231 -1.344064 0.243025 9.000000
3.344412 -1.389942 0.244378 9.000000
3.365809 -1.441882 0.246735 9.000000
3.395545 -1.498649 0.249756 8.000000
3.383625 -1.537608 0.249751 8.000000
3.353130 -1.567987 0.248292 9.000000
3.380879 -1.626067 0.251294 8.000000
3.358736 -1.660116 0.250501 7.000000
3.336067 -1.694412 0.249710 7.000000
3.348376 -1.746728 0.251694 6.000000
3.337997 -1.787824 0.251896 6.000000
3.305193 -1.816979 0.250554 3.000000
3.293927 -1.857757 0.250754 1.000000
3.273455 -1.893612 0.250292 2.000000
3.274091 -1.941962 0.251477 2.000000
3.060834 -1.860954 0.236207 4.000000
2.955764 -1.841495 0.229202 6.000000
2.922911 -1.865607 0.227686 4.000000
3.065650 -2.003223 0.239903 1.000000
3.130780 -2.094867 0.246306 1.000000
2.990392 -2.096838 0.237797 1.000000
2.886199 -2.071162 0.230757 1.000000
2.927840 -2.149919 0.235498 1.000000
2.936094 -2.205776 0.237524 1.000000
2.979093 -2.289356 0.242436 1.000000
2.957853 -2.324841 0.242183 1.000000
2.940090 -2.363307 0.242249 1.000000
2.830535 -2.378943 0.236311 1.000000
2.902817 -2.494248 0.243901 1.000000
2.740469 -2.407294 0.231895 1.000000
2.636066 -2.367064 0.224583 1.000000
2.646826 -2.429517 0.227197 1.000000
2.612961 -2.451472 0.225909 1.000000
2.651850 -2.541006 0.230898 1.000000
2.666782 -2.611654 0.233978 1.000000
2.535963 -2.538267 0.224249 1.000000
2.504717 -2.562235 0.223279 3.000000
2.473221 -2.585799 0.222312 7.000000
2.359638 -2.521509 0.213927 8.000000
2.237717 -2.444001 0.204562 10.000000
