x y z intensity
1.699714 1.090289 0.406933 35.000000
1.715561 1.074092 0.408803 35.000000
1.743821 1.065407 0.413653 33.000000
1.759674 1.048253 0.415410 37.000000
1.770900 1.028799 0.416240 42.000000
1.803314 1.021290 0.422058 24.000000
1.801355 0.994244 0.419897 35.000000
1.838139 0.987907 0.426546 42.000000
1.874773 0.981189 0.433345 33.000000
1.902777 0.969318 0.438156 48.000000
1.917609 0.950470 0.439961 33.000000
1.936635 0.933451 0.442711 48.000000
1.955484 0.916170 0.445468 34.000000
1.943093 0.884361 0.441083 21.000000
2.001869 0.884574 0.452961 33.000000
2.029348 0.870124 0.457634 32.000000
2.043090 0.849707 0.459476 32.000000
2.065815 0.832574 0.463151 34.000000
2.093011 0.816781 0.467853 34.000000
2.101695 0.793739 0.468553 31.000000
2.114838 0.772095 0.470135 29.000000
2.127665 0.750419 0.471861 10.000000
2.154286 0.733090 0.476452 42.000000
2.185339 0.717020 0.482220 36.000000
2.211605 0.698820 0.486903 33.000000
2.237780 0.680065 0.491595 35.000000
2.263788 0.660823 0.496224 31.000000
2.280271 0.638455 0.498800 35.000000
2.305967 0.618340 0.503444 37.000000
2.322072 0.595229 0.505956 10.000000
2.347359 0.574308 0.510613 35.000000
2.391578 0.557182 0.519265 32.000000
2.407027 0.532947 0.521796 31.000000
2.446150 0.513448 0.529511 37.000000
2.470721 0.490278 0.534127 32.000000
2.480715 0.463909 0.535558 33.000000
2.519316 0.442430 0.543222 35.000000
2.514372 0.413073 0.541542 11.000000
2.576676 0.394203 0.554341 40.000000
2.614719 0.370541 0.561868 54.000000
2.628290 0.342968 0.564280 32.000000
2.699827 0.322048 0.579110 74.000000
2.712859 0.293321 0.581449 35.000000
2.745128 0.266182 0.587959 35.000000
2.781900 0.238817 0.595431 59.000000
2.769711 0.207054 0.592562 8.000000
2.830350 0.180276 0.605258 8.000000
2.866300 0.150834 0.612742 8.000000
2.911702 0.121044 0.622319 7.000000
2.932434 0.089539 0.626495 8.000000
3.001701 0.058462 0.641207 8.000000
3.006965 0.025431 0.642345 9.000000
3.090180 -0.007908 0.660101 32.000000
3.153548 -0.042911 0.673679 35.000000
3.187076 -0.078495 0.680891 71.000000
3.190868 -0.113888 0.681935 67.000000
3.169935 -0.148148 0.677758 58.000000
3.129100 -0.180751 0.669208 32.000000
3.092801 -0.212926 0.661707 10.000000
3.075663 -0.245810 0.658383 10.000000
3.028947 -0.275807 0.648802 58.000000
2.996627 -0.306139 0.642356 35.000000
2.978572 -0.337573 0.639040 45.000000
2.969791 -0.369800 0.637718 55.000000
2.936607 -0.398538 0.631096 36.000000
2.917561 -0.428769 0.627696 59.000000
2.893363 -0.457823 0.623258 42.000000
2.806274 -0.475823 0.605214 10.000000
2.781695 -0.503245 0.600613 9.000000
2.752037 -0.529319 0.595068 8.000000
2.750971 -0.560459 0.595581 9.000000
2.730407 -0.587676 0.592033 10.000000
2.700021 -0.612326 0.586330 10.000000
2.688354 -0.640987 0.584949 23.000000
2.686030 -0.671659 0.585380 30.000000
2.645475 -0.692609 0.577629 16.000000
2.694337 -0.737274 0.589506 87.000000
2.648598 -0.756239 0.580731 36.000000
2.635490 -0.783967 0.579099 55.000000
2.626829 -0.812952 0.578499 72.000000
2.594619 -0.834276 0.572672 44.000000
2.571515 -0.858186 0.568827 48.000000
2.548089 -0.881788 0.565242 30.000000
2.483137 -0.889889 0.552192 9.000000
2.542097 -0.942889 0.566883 34.000000
2.504364 -0.960187 0.559907 21.000000
2.498295 -0.989668 0.560259 20.000000
2.514590 -1.028345 0.565620 24.000000
2.503326 -1.055784 0.564688 18.000000
2.532131 -1.100960 0.573071 21.000000
2.618294 -1.172966 0.594530 21.000000
2.823277 -1.302246 0.643275 10.000000
2.928372 -1.390042 0.669616 30.000000
2.886616 -1.409475 0.662446 26.000000
2.884331 -1.447797 0.664370 31.000000
2.851033 -1.470592 0.659238 30.000000
2.830614 -1.499582 0.657034 28.000000
2.822453 -1.535898 0.658042 32.000000
2.784253 -1.554986 0.651834 24.000000
2.746013 -1.573403 0.645547 10.000000
2.754107 -1.618459 0.650249 30.000000
2.723510 -1.641613 0.646168 26.000000
2.697248 -1.666368 0.642893 29.000000
2.670801 -1.690645 0.639528 29.000000
2.651905 -1.720564 0.638347 25.000000
2.633205 -1.749598 0.636969 20.000000
2.618263 -1.781192 0.636478 10.000000
2.558130 -1.782442 0.625364 9.000000
2.570753 -1.833163 0.631756 30.000000
2.546353 -1.859064 0.629499 27.000000
2.510524 -1.875093 0.624023 29.000000
2.485665 -1.900195 0.621684 28.000000
2.449668 -1.915176 0.616142 23.000000
2.455197 -1.964099 0.621575 28.000000
2.433973 -1.990801 0.619912 23.000000
2.393055 -2.002251 0.613621 10.000000
2.390155 -2.044205 0.616685 31.000000
2.352689 -2.057983 0.611378 23.000000
2.329751 -2.084324 0.609823 24.000000
2.311017 -2.112908 0.608931 26.000000
2.301898 -2.152115 0.611181 20.000000
2.282426 -2.180388 0.610269 28.000000
2.251266 -2.199036 0.606708 18.000000
2.223437 -2.220703 0.604102 10.000000
2.206679 -2.251643 0.604030 30.000000
2.168106 -2.262147 0.598514 21.000000
2.159784 -2.304306 0.601439 27.000000
2.148736 -2.341939 0.603107 28.000000
2.119490 -2.362174 0.600401 22.000000
2.106331 -2.400604 0.602234 26.000000
2.071434 -2.412034 0.597282 19.000000
2.041619 -2.431273 0.594486 8.000000
1.952429 -2.378066 0.574171 9.000000
1.852315 -2.307838 0.550413 9.000000
1.736965 -2.211595 0.520976 9.000000
1.631773 -2.125663 0.494721 10.000000
1.549301 -2.065121 0.474964 9.000000
1.434556 -1.954668 0.444209 10.000000
1.349985 -1.882749 0.422948 9.000000
1.295420 -1.849419 0.410632 10.000000
1.269483 -1.855726 0.407378 26.000000
1.247432 -1.865094 0.404817 23.000000
1.226905 -1.878940 0.403286 26.000000
1.200880 -1.884347 0.400063 26.000000
1.185297 -1.906077 0.400225 24.000000
1.169390 -1.927785 0.400443 24.000000
1.157002 -1.952793 0.401307 20.000000
1.152790 -1.995513 0.405758 9.000000
0.978229 1.723462 0.364223 8.000000
0.987211 1.695336 0.362130 22.000000
0.999648 1.676237 0.361889 26.000000
1.020628 1.668981 0.364258 25.000000
1.020635 1.628232 0.359284 28.000000
1.059722 1.649674 0.368096 28.000000
1.063276 1.617699 0.364986 30.000000
1.067293 1.585239 0.361720 32.000000
1.090261 1.581159 0.364952 25.000000
1.104730 1.564737 0.365387 29.000000
1.118043 1.548853 0.365934 31.000000
1.135019 1.536151 0.367240 26.000000
1.160759 1.534958 0.371388 33.000000
1.170726 1.514630 0.370921 27.000000
1.190374 1.505209 0.373185 32.000000
1.206840 1.491666 0.374438 32.000000
1.225598 1.482382 0.376771 33.000000
1.232304 1.457207 0.375134 32.000000
1.248330 1.443258 0.376381 31.000000
1.267369 1.432745 0.378538 31.000000
1.289001 1.426216 0.381796 35.000000
1.301285 1.408020 0.382015 32.000000
1.322873 1.400950 0.385288 36.000000
1.341630 1.389485 0.387411 37.000000
1.346568 1.363751 0.385595 29.000000
1.371449 1.359425 0.389816 40.000000
1.389877 1.347265 0.391890 36.000000
1.393497 1.321899 0.390170 51.000000
1.425992 1.322768 0.396176 59.000000
1.440530 1.306594 0.397267 38.000000
1.454403 1.290783 0.398418 52.000000
1.475976 1.280665 0.401460 41.000000
1.493347 1.267639 0.403625 35.000000
1.518568 1.260051 0.407637 35.000000
1.532035 1.243325 0.408743 35.000000
1.549521 1.229026 0.410744 35.000000
1.566520 1.214889 0.412873 64.000000
1.579868 1.197153 0.413800 34.000000
1.592660 1.179726 0.414851 45.000000
1.609231 1.164983 0.416928 36.000000
1.626050 1.149594 0.418824 30.000000
1.650423 1.139987 0.422913 36.000000
1.666991 1.124016 0.424759 35.000000
1.679095 1.105579 0.425763 42.000000
1.699176 1.092242 0.428780 64.000000
1.714977 1.076061 0.430766 35.000000
1.735195 1.061772 0.433608 44.000000
1.750756 1.045045 0.435542 37.000000
1.766244 1.028098 0.437479 32.000000
1.781530 1.010930 0.439421 39.000000
1.818066 1.005367 0.446556 55.000000
1.833394 0.987127 0.448322 42.000000
1.848318 0.969051 0.450156 56.000000
1.871802 0.955191 0.454172 36.000000
1.908298 0.947496 0.461241 50.000000
1.896542 0.915651 0.456741 60.000000
1.937169 0.909403 0.465027 35.000000
1.951372 0.889910 0.466826 32.000000
1.978886 0.876117 0.471823 34.000000
1.992770 0.856009 0.473566 34.000000
2.001984 0.833855 0.474243 37.000000
2.033504 0.820979 0.480337 35.000000
2.060536 0.805413 0.485239 34.000000
2.078242 0.786197 0.488145 36.000000
2.095885 0.766432 0.490848 29.000000
2.122460 0.749786 0.495848 34.000000
2.148894 0.732665 0.500789 48.000000
2.165975 0.711944 0.503584 36.000000
2.178254 0.689474 0.505234 46.000000
2.199620 0.669603 0.509047 37.000000
2.230160 0.652089 0.515032 45.000000
2.265332 0.635302 0.522039 43.000000
2.309810 0.620276 0.531152 33.000000
2.335299 0.599711 0.536091 34.000000
2.355851 0.577417 0.539878 34.000000
2.376251 0.554581 0.543518 36.000000
2.396419 0.531429 0.547316 36.000000
2.449775 0.515067 0.558745 36.000000
2.469613 0.490836 0.562407 42.000000
2.503507 0.468984 0.569424 41.000000
2.503640 0.440421 0.568731 24.000000
2.542031 0.418301 0.576694 37.000000
2.565672 0.393139 0.581388 37.000000
2.589134 0.367551 0.586168 61.000000
2.621922 0.342720 0.593061 56.000000
2.640093 0.315427 0.596593 68.000000
2.672437 0.289389 0.603329 61.000000
2.699658 0.262237 0.609058 59.000000
2.697512 0.232040 0.608302 21.000000
2.772853 0.207697 0.625003 32.000000
2.799282 0.178547 0.630573 21.000000
2.801037 0.147575 0.630661 10.000000
2.851179 0.118721 0.641808 9.000000
2.886470 0.088254 0.649578 9.000000
2.921331 0.057034 0.657350 9.000000
2.980322 0.025266 0.670612 17.000000
3.077974 -0.007895 0.692660 71.000000
3.131337 -0.042613 0.704637 81.000000
3.179515 -0.078495 0.715612 95.000000
3.188170 -0.113863 0.717608 95.000000
3.162409 -0.147950 0.712121 98.000000
3.141048 -0.181780 0.707634 26.000000
3.085352 -0.212830 0.695469 10.000000
3.014856 -0.241431 0.679922 15.000000
3.031450 -0.276409 0.684023 89.000000
2.999190 -0.306944 0.677163 98.000000
2.971370 -0.337292 0.671498 81.000000
2.938489 -0.366501 0.664647 93.000000
2.934321 -0.398918 0.664369 95.000000
2.920222 -0.429822 0.661811 95.000000
2.900873 -0.459749 0.658162 95.000000
2.828386 -0.480370 0.642497 35.000000
2.827804 -0.512463 0.643230 30.000000
2.798095 -0.538945 0.637235 69.000000
2.773001 -0.565964 0.632516 74.000000
2.757177 -0.594351 0.629718 90.000000
2.741045 -0.622617 0.627012 91.000000
2.715115 -0.648405 0.622308 62.000000
2.703136 -0.677156 0.620611 80.000000
2.686289 -0.704391 0.617829 51.000000
2.678388 -0.734084 0.617308 65.000000
2.646762 -0.756894 0.611281 51.000000
2.638414 -0.786154 0.610679 36.000000
2.634385 -0.816688 0.611158 36.000000
2.634626 -0.848735 0.612629 35.000000
2.629912 -0.879266 0.612930 29.000000
2.629518 -0.911412 0.614305 21.000000
2.624112 -0.941937 0.614599 21.000000
2.622811 -0.974439 0.616052 23.000000
2.639496 -1.013709 0.621619 29.000000
2.669040 -1.059164 0.630564 25.000000
2.684674 -1.099520 0.636001 31.000000
2.708522 -1.144366 0.643648 32.000000
2.740627 -1.193912 0.653500 29.000000
2.803223 -1.258173 0.670693 33.000000
2.873562 -1.328115 0.689963 31.000000
2.934235 -1.395124 0.706745 33.000000
2.927590 -1.431888 0.707751 36.000000
2.890088 -1.453176 0.701234 32.000000
2.869786 -1.482852 0.698964 35.000000
2.827546 -1.500775 0.691420 32.000000
2.797881 -1.525439 0.687258 29.000000
2.793964 -1.563441 0.689121 30.000000
2.755676 -1.582054 0.682571 27.000000
2.734107 -1.609923 0.680234 26.000000
2.737407 -1.652663 0.684077 35.000000
2.706474 -1.675578 0.679847 31.000000
2.679937 -1.700139 0.676273 30.000000
2.661419 -1.729551 0.674787 32.000000
2.614101 -1.739795 0.666040 25.000000
2.639062 -1.799496 0.676156 10.000000
2.567383 -1.791992 0.661230 20.000000
2.555324 -1.826491 0.661925 27.000000
2.543336 -1.860285 0.662415 32.000000
2.499683 -1.870601 0.654589 27.000000
2.455538 -1.880782 0.647083 29.000000
2.450603 -1.919665 0.649431 32.000000
2.421517 -1.941103 0.646035 26.000000
2.419456 -1.983029 0.649374 26.000000
2.389916 -2.003844 0.645787 21.000000
2.375774 -2.036266 0.645962 28.000000
2.353056 -2.062982 0.644402 29.000000
2.327275 -2.085260 0.641544 28.000000
2.296882 -2.104731 0.637883 26.000000
2.287695 -2.143945 0.640234 32.000000
2.257669 -2.161973 0.636287 26.000000
2.254727 -2.207854 0.640502 26.000000
2.203427 -2.204494 0.630604 19.000000
2.189250 -2.239659 0.631726 26.000000
2.171160 -2.271317 0.631943 29.000000
2.147002 -2.294693 0.629791 28.000000
2.134811 -2.333224 0.631851 28.000000
2.103565 -2.348850 0.627733 27.000000
2.067871 -2.361328 0.622852 23.000000
2.064030 -2.410553 0.627788 23.000000
2.005885 -2.396040 0.616044 10.000000
1.961958 -2.394750 0.608027 9.000000
1.877294 -2.343933 0.587851 10.000000
1.748482 -2.233559 0.553340 10.000000
1.638556 -2.139170 0.523567 10.000000
1.550218 -2.071058 0.500817 11.000000
1.457745 -1.993319 0.476398 10.000000
1.379810 -1.928949 0.455613 10.000000
1.299446 -1.859815 0.434253 10.000000
1.281700 -1.878394 0.433639 17.000000
1.255553 -1.884560 0.430148 24.000000
1.233246 -1.893808 0.427460 22.000000
1.212329 -1.907565 0.425845 24.000000
1.193932 -1.925359 0.425153 24.000000
1.177776 -1.947135 0.425302 19.000000
1.150070 -1.946872 0.420721 19.000000
1.143384 -1.985278 0.424503 9.000000
0.976711 1.726197 0.382819 8.000000
0.979757 1.690115 0.378834 27.000000
0.993263 1.670444 0.378501 25.000000
0.998799 1.638136 0.375213 31.000000
1.022018 1.635001 0.378632 32.000000
1.033642 1.615643 0.378316 34.000000
1.045984 1.595626 0.377805 56.000000
1.066228 1.587708 0.380205 31.000000
1.091040 1.588287 0.384689 35.000000
1.102790 1.567794 0.384163 32.000000
1.120032 1.555265 0.385595 30.000000
1.134128 1.538493 0.385977 35.000000
1.147246 1.522262 0.386471 32.000000
1.166917 1.513083 0.388834 35.000000
1.180486 1.495967 0.389202 49.000000
1.202246 1.490711 0.392635 32.000000
1.218653 1.476989 0.393947 36.000000
1.228505 1.455663 0.393238 32.000000
1.240563 1.438541 0.393648 38.000000
1.269323 1.439136 0.398962 58.000000
1.284456 1.425199 0.400338 41.000000
1.300127 1.410604 0.401594 49.000000
1.312263 1.392210 0.401763 37.000000
1.330333 1.381415 0.404166 35.000000
1.352391 1.373192 0.407371 54.000000
1.363471 1.354895 0.407656 31.000000
1.388924 1.349588 0.411916 71.000000
1.389609 1.320344 0.408892 75.000000
1.414348 1.315019 0.413287 65.000000
1.432430 1.302215 0.415421 81.000000
1.453572 1.292941 0.418794 57.000000
1.464156 1.273155 0.418772 52.000000
1.488831 1.266541 0.423157 91.000000
1.502808 1.249573 0.424194 25.000000
1.523694 1.239136 0.427481 50.000000
1.544590 1.228348 0.430779 56.000000
1.562009 1.213776 0.432834 36.000000
1.578875 1.199489 0.435018 60.000000
1.588149 1.178613 0.434873 49.000000
1.604709 1.163867 0.437000 46.000000
1.629110 1.154556 0.441353 68.000000
1.633813 1.130466 0.440064 21.000000
1.658118 1.120531 0.444308 37.000000
1.670129 1.102138 0.445309 65.000000
1.690158 1.088843 0.448488 45.000000
1.710428 1.074861 0.451486 70.000000
1.730244 1.060947 0.454619 35.000000
1.745857 1.044218 0.456666 37.000000
1.761333 1.027269 0.458654 42.000000
1.763887 1.002866 0.457349 20.000000
1.796008 0.995006 0.463745 40.000000
1.828194 0.986607 0.470098 62.000000
1.851738 0.973066 0.474259 45.000000
1.870959 0.956886 0.477325 74.000000
1.876854 0.933867 0.477005 57.000000
1.913288 0.925675 0.484459 35.000000
1.932090 0.908468 0.487484 42.000000
1.955148 0.893022 0.491563 20.000000
1.960181 0.869513 0.491321 32.000000
1.991962 0.857258 0.497583 39.000000
2.019047 0.842834 0.502878 32.000000
2.041711 0.825775 0.506927 35.000000
2.055006 0.804998 0.508809 35.000000
2.072827 0.785503 0.511681 32.000000
2.094950 0.767550 0.515753 36.000000
2.098535 0.742723 0.515324 24.000000
2.134070 0.728948 0.522797 36.000000
2.160345 0.711374 0.527955 50.000000
2.177255 0.690375 0.530788 36.000000
2.189284 0.667607 0.532494 37.000000
2.215148 0.648770 0.537604 35.000000
2.264210 0.636031 0.548328 30.000000
2.294500 0.617297 0.554600 35.000000
2.315198 0.595619 0.558608 24.000000
2.345132 0.575725 0.564827 32.000000
2.370148 0.554199 0.569916 39.000000
2.390355 0.531122 0.573796 33.000000
2.438828 0.513594 0.584531 35.000000
2.453766 0.488542 0.587285 37.000000
2.478079 0.464995 0.592330 35.000000
2.511739 0.442637 0.599590 30.000000
2.511575 0.413941 0.598845 26.000000
2.554449 0.392076 0.608329 35.000000
2.592228 0.368594 0.616677 49.000000
2.600912 0.340494 0.618152 35.000000
2.633440 0.315178 0.625449 47.000000
2.670549 0.289746 0.633735 44.000000
2.707400 0.263481 0.642028 47.000000
2.739219 0.235963 0.649091 46.000000
2.761043 0.207072 0.653947 32.000000
2.797119 0.178682 0.662080 38.000000
2.862046 0.151079 0.677292 52.000000
2.882930 0.120254 0.681983 36.000000
2.888880 0.088462 0.683314 24.000000
2.914019 0.056942 0.689066 17.000000
2.977729 0.025307 0.704207 21.000000
3.065405 -0.007883 0.724919 77.000000
3.123500 -0.042613 0.738629 77.000000
3.171456 -0.078396 0.750134 95.000000
3.170461 -0.113515 0.750035 98.000000
3.154487 -0.147851 0.746485 95.000000
3.113842 -0.180457 0.737087 27.000000
3.063146 -0.211630 0.725492 10.000000
3.070343 -0.246203 0.727598 10.000000
3.018987 -0.275776 0.715914 87.000000
2.986805 -0.306165 0.708831 71.000000
2.968722 -0.337561 0.705103 95.000000
2.931172 -0.366130 0.696694 92.000000
2.912538 -0.396578 0.692882 75.000000
2.893578 -0.426613 0.689074 84.000000
2.884003 -0.457855 0.687653 82.000000
2.830805 -0.481644 0.675832 29.000000
2.806247 -0.509406 0.670803 71.000000
2.786277 -0.537667 0.666924 68.000000
2.765921 -0.565433 0.662961 84.000000
2.750121 -0.593999 0.660234 60.000000
2.729267 -0.621185 0.656281 38.000000
2.731805 -0.653545 0.658035 45.000000
2.715141 -0.681374 0.655140 28.000000
2.688760 -0.706344 0.649973 10.000000
2.709178 -0.743701 0.656098 28.000000
2.738349 -0.784451 0.664570 28.000000
2.734267 -0.816104 0.665080 28.000000
2.743839 -0.852104 0.668990 27.000000
2.748289 -0.886930 0.671577 28.000000
2.747753 -0.920336 0.673115 28.000000
2.788195 -0.968235 0.684727 24.000000
2.777562 -0.999027 0.683803 10.000000
2.844263 -1.058518 0.702130 31.000000
2.868847 -1.104077 0.710279 29.000000
2.911043 -1.157255 0.722708 37.000000
2.956885 -1.213684 0.736418 32.000000
2.970495 -1.257513 0.742043 33.000000
2.969953 -1.296291 0.744391 34.000000
2.942615 -1.322869 0.739720 27.000000
2.910276 -1.347306 0.734246 17.000000
2.926219 -1.394211 0.740941 33.000000
2.910795 -1.426681 0.739723 32.000000
2.882007 -1.452267 0.735275 35.000000
2.835741 -1.468493 0.726201 32.000000
2.832464 -1.506745 0.728322 35.000000
2.798780 -1.528721 0.722597 32.000000
2.764999 -1.550217 0.716888 27.000000
2.701534 -1.554013 0.703391 18.000000
2.730682 -1.611115 0.714111 29.000000
2.696332 -1.631166 0.708337 32.000000
2.670198 -1.655792 0.704768 34.000000
2.635156 -1.675390 0.699121 28.000000
2.649606 -1.725699 0.706377 31.000000
2.626759 -1.752160 0.703707 32.000000
2.583425 -1.764569 0.695616 10.000000
2.555668 -1.788120 0.692178 13.000000
2.552142 -1.827570 0.694843 31.000000
2.520410 -1.846973 0.689941 30.000000
2.499804 -1.875391 0.688477 37.000000
2.467772 -1.893912 0.683500 30.000000
2.450521 -1.924728 0.683112 32.000000
2.403030 -1.930088 0.673884 32.000000
2.404788 -1.975073 0.678445 25.000000
2.378983 -1.998951 0.675828 23.000000
2.368559 -2.034511 0.677065 32.000000
2.342169 -2.058002 0.674351 29.000000
2.323707 -2.086773 0.673555 31.000000
2.293204 -2.106388 0.669698 29.000000
2.281348 -2.141309 0.670801 32.000000
2.253992 -2.163606 0.667998 30.000000
2.229909 -2.188957 0.666242 22.000000
2.206508 -2.213236 0.664097 23.000000
2.185351 -2.241504 0.663281 30.000000
2.164803 -2.268676 0.662166 30.000000
2.139666 -2.293030 0.660210 33.000000
2.127331 -2.331551 0.662361 32.000000
2.115667 -2.369183 0.664191 34.000000
2.079766 -2.381790 0.659149 31.000000
2.060892 -2.411708 0.658817 26.000000
2.031056 -2.431087 0.655727 15.000000
1.960739 -2.400795 0.639510 9.000000
1.877339 -2.349157 0.617972 13.000000
1.760929 -2.254338 0.585818 13.000000
1.643913 -2.153406 0.552865 11.000000
1.559730 -2.088597 0.529841 20.000000
1.455721 -1.995205 0.500186 17.000000
1.382522 -1.939743 0.480690 10.000000
1.291076 -1.854664 0.454275 10.000000
1.271661 -1.868451 0.452446 21.000000
1.253764 -1.886815 0.451806 25.000000
1.219555 -1.880341 0.445243 33.000000
1.189457 -1.876740 0.439480 28.000000
1.186780 -1.919357 0.444586 26.000000
1.170650 -1.941096 0.444757 24.000000
1.151778 -1.958439 0.444024 20.000000
1.143649 -1.992013 0.446819 9.000000
0.959448 1.703738 0.395676 9.000000
0.980652 1.696899 0.398254 23.000000
0.976784 1.647682 0.390905 33.000000
0.994921 1.636465 0.392456 29.000000
1.014453 1.629764 0.395134 31.000000
1.029704 1.613973 0.395677 32.000000
1.044804 1.598062 0.396153 30.000000
1.058627 1.582627 0.396799 32.000000
1.087083 1.586608 0.402379 29.000000
1.104533 1.574135 0.403878 22.000000
1.106643 1.542208 0.400338 34.000000
1.126531 1.533480 0.402794 27.000000
1.149207 1.528418 0.406297 35.000000
1.162216 1.512012 0.406865 35.000000
1.172774 1.490996 0.406140 30.000000
1.192238 1.481424 0.408552 36.000000
1.217045 1.479690 0.413258 33.000000
1.220729 1.450796 0.410344 29.000000
1.239130 1.441121 0.412885 35.000000
1.251752 1.423326 0.413126 33.000000
1.273975 1.416261 0.416565 43.000000
1.292216 1.405872 0.419065 40.000000
1.307669 1.391076 0.420318 38.000000
1.332491 1.387260 0.424926 57.000000
1.340980 1.365085 0.424025 30.000000
1.358853 1.353756 0.426486 33.000000
1.384272 1.348440 0.430950 71.000000
1.391529 1.326419 0.430096 37.000000
1.402569 1.307221 0.430144 72.000000
1.423690 1.298263 0.433598 52.000000
1.438035 1.281990 0.434743 53.000000
1.462682 1.275694 0.439321 84.000000
1.476771 1.258993 0.440414 33.000000
1.501486 1.251962 0.444957 30.000000
1.519093 1.237909 0.447110 35.000000
1.532282 1.221041 0.448336 35.000000
1.545347 1.204049 0.449502 49.000000
1.570289 1.195237 0.453845 35.000000
1.575264 1.171993 0.452711 37.000000
1.599691 1.163062 0.457196 37.000000
1.620458 1.150488 0.460382 34.000000
1.636786 1.135210 0.462634 33.000000
1.653050 1.119717 0.464828 43.000000
1.661001 1.098576 0.464756 53.000000
1.676886 1.082744 0.466893 62.000000
1.705312 1.073977 0.472269 46.000000
1.721019 1.057510 0.474423 49.000000
1.740766 1.043327 0.477664 68.000000
1.756230 1.026376 0.479766 36.000000
1.771492 1.009139 0.481809 33.000000
1.790869 0.994106 0.485072 65.000000
1.805876 0.976377 0.487062 36.000000
1.842263 0.969818 0.494901 84.000000
1.852712 0.949246 0.495750 37.000000
1.875826 0.935315 0.500211 42.000000
1.894705 0.918579 0.503325 76.000000
1.922210 0.905727 0.508775 34.000000
1.936434 0.886212 0.510675 29.000000
1.954742 0.868774 0.513879 35.000000
1.973002 0.850737 0.516957 33.000000
1.995560 0.834511 0.521281 42.000000
2.000087 0.810414 0.520787 35.000000
2.044883 0.802394 0.530998 34.000000
2.071608 0.786603 0.536462 42.000000
2.084588 0.765316 0.538336 32.000000
2.106485 0.747037 0.542642 32.000000
2.128277 0.728312 0.546817 48.000000
2.145275 0.707760 0.549818 37.000000
2.171386 0.689731 0.555191 53.000000
2.188049 0.668381 0.558134 43.000000
2.213734 0.649704 0.563599 43.000000
2.248743 0.632883 0.571232 55.000000
2.255495 0.608002 0.571819 35.000000
2.308980 0.595095 0.584306 31.000000
2.334135 0.574111 0.589595 37.000000
2.359164 0.552634 0.594892 33.000000
2.379245 0.529530 0.598929 35.000000
2.413264 0.509194 0.606630 46.000000
2.418689 0.482451 0.607172 34.000000
2.471439 0.464600 0.619599 35.000000
2.490681 0.439705 0.623585 29.000000
2.533689 0.418367 0.633483 33.000000
2.547643 0.391752 0.636283 48.000000
2.561305 0.364843 0.639086 33.000000
2.603628 0.341510 0.649008 37.000000
2.631274 0.315506 0.655340 68.000000
2.648998 0.287920 0.659276 35.000000
2.676167 0.260871 0.665449 36.000000
2.717471 0.234538 0.675402 27.000000
2.773108 0.208440 0.688796 35.000000
2.789736 0.178594 0.692578 51.000000
2.849650 0.150732 0.707186 43.000000
2.880178 0.120366 0.714493 45.000000
2.900760 0.088966 0.719487 38.000000
2.945158 0.057703 0.730408 64.000000
2.999001 0.025461 0.743739 49.000000
3.076742 -0.007933 0.762994 82.000000
3.110419 -0.042547 0.771320 79.000000
3.158347 -0.078176 0.783354 95.000000
3.152405 -0.113068 0.782051 98.000000
3.146168 -0.147752 0.780749 95.000000
3.110471 -0.180641 0.772230 84.000000
3.088949 -0.213783 0.767224 73.000000
3.013854 -0.242124 0.748996 29.000000
2.986836 -0.273279 0.742796 91.000000
2.969241 -0.304891 0.738908 89.000000
2.946479 -0.335632 0.733823 88.000000
2.928208 -0.366455 0.729849 95.000000
2.909605 -0.396865 0.725970 85.000000
2.881073 -0.425537 0.719604 55.000000
2.885900 -0.458922 0.721544 75.000000
2.828117 -0.482009 0.707999 21.000000
2.832259 -0.515038 0.710033 33.000000
2.821702 -0.545515 0.708293 29.000000
2.825162 -0.578628 0.710143 30.000000
2.832963 -0.612887 0.713183 31.000000
2.835598 -0.646473 0.715023 27.000000
2.828377 -0.677915 0.714475 27.000000
2.849138 -0.716277 0.720985 27.000000
2.859984 -0.752701 0.725102 15.000000
2.870351 -0.789447 0.729116 28.000000
2.908240 -0.834742 0.740345 34.000000
2.899114 -0.866778 0.739489 28.000000
2.954445 -0.919206 0.755329 51.000000
3.008948 -0.972884 0.771135 33.000000
3.039670 -1.020071 0.780890 36.000000
3.106395 -1.080849 0.800074 35.000000
3.085270 -1.111954 0.796783 23.000000
3.100433 -1.156233 0.802723 34.000000
3.033346 -1.169443 0.787557 31.000000
3.052088 -1.215513 0.794663 33.000000
3.016101 -1.240207 0.787864 36.000000
2.998111 -1.271585 0.785463 34.000000
2.961734 -1.295175 0.778587 34.000000
2.965360 -1.335734 0.781943 33.000000
2.919685 -1.354385 0.772650 24.000000
2.913511 -1.391101 0.773768 34.000000
2.898110 -1.423523 0.772654 35.000000
2.847979 -1.437703 0.761843 31.000000
2.827746 -1.467094 0.759483 50.000000
2.807362 -1.496189 0.757026 32.000000
2.769559 -1.515647 0.749951 32.000000
2.761306 -1.551112 0.750871 32.000000
2.731673 -1.574517 0.746027 24.000000
2.705992 -1.599820 0.742344 32.000000
2.667638 -1.617171 0.735131 32.000000
2.658203 -1.651847 0.735953 30.000000
2.639659 -1.681870 0.734678 35.000000
2.608984 -1.703125 0.729687 31.000000
2.614715 -1.748170 0.734951 28.000000
2.579520 -1.766049 0.728735 15.000000
2.540282 -1.780579 0.721407 13.000000
2.544096 -1.826294 0.726829 32.000000
2.508477 -1.842819 0.720552 34.000000
2.488488 -1.870510 0.718797 31.000000
2.444356 -1.880764 0.710599 35.000000
2.416317 -1.901685 0.706524 30.000000
2.388119 -1.922147 0.702461 30.000000
2.408008 -1.983203 0.713086 30.000000
2.364150 -1.990827 0.704466 22.000000
2.367756 -2.039803 0.710581 33.000000
2.338430 -2.059277 0.706414 29.000000
2.300925 -2.072645 0.700248 27.000000
2.296582 -2.114355 0.703711 33.000000
2.258743 -2.126955 0.697469 26.000000
2.246484 -2.161754 0.698614 28.000000
2.229357 -2.193950 0.698942 30.000000
2.202441 -2.214746 0.695703 22.000000
2.177734 -2.239648 0.693750 32.000000
2.150541 -2.259745 0.690423 30.000000
2.128711 -2.287597 0.689453 28.000000
2.110971 -2.317865 0.689257 33.000000
2.094951 -2.352711 0.690411 30.000000
2.062356 -2.368963 0.686209 29.000000
2.056348 -2.413548 0.690137 31.000000
2.001367 -2.402930 0.678418 18.000000
1.969899 -2.416935 0.673864 10.000000
1.879075 -2.358846 0.649612 12.000000
1.783921 -2.291309 0.623312 12.000000
1.659082 -2.178272 0.585413 16.000000
1.550316 -2.083131 0.553152 11.000000
1.463950 -2.013601 0.528448 12.000000
1.397470 -1.965576 0.509805 14.000000
1.286433 -1.852694 0.475026 10.000000
1.265963 -1.867185 0.473268 18.000000
1.232889 -1.860363 0.466256 24.000000
1.212294 -1.874279 0.464517 25.000000
1.186333 -1.879705 0.460747 28.000000
1.179647 -1.913224 0.463861 23.000000
1.166068 -1.939123 0.465130 24.000000
1.144637 -1.952235 0.463297 22.000000
1.135220 -1.986475 0.466387 8.000000
0.962614 1.714708 0.416133 8.000000
0.969299 1.682355 0.412593 18.000000
0.986624 1.671754 0.414471 23.000000
1.007571 1.664548 0.417154 21.000000
1.013023 1.632123 0.413533 26.000000
1.037856 1.633403 0.418442 21.000000
1.053136 1.617345 0.419012 24.000000
1.057361 1.584851 0.415256 28.000000
1.087612 1.593477 0.422267 17.000000
1.091222 1.560928 0.418469 23.000000
1.111202 1.552342 0.421093 19.000000
1.124547 1.536232 0.421683 24.000000
1.147301 1.531130 0.425281 31.000000
1.158170 1.510167 0.424599 19.000000
1.173999 1.497432 0.426205 32.000000
1.184378 1.476373 0.425441 27.000000
1.199830 1.463348 0.427039 23.000000
1.222261 1.457085 0.430609 30.000000
1.231919 1.435640 0.429763 25.000000
1.253503 1.429413 0.433525 31.000000
1.272468 1.418640 0.436009 30.000000
1.294029 1.411804 0.439738 28.000000
1.302955 1.389823 0.438753 33.000000
1.317632 1.375445 0.440245 31.000000
1.336255 1.363829 0.442627 29.000000
1.350670 1.349055 0.444062 32.000000
1.365564 1.333563 0.445259 25.000000
1.383260 1.321733 0.447834 33.000000
1.405006 1.312548 0.451258 34.000000
1.411804 1.290371 0.450352 33.000000
1.440530 1.287209 0.456087 43.000000
1.454281 1.271156 0.457420 31.000000
1.478943 1.264465 0.462158 32.000000
1.481723 1.238202 0.459782 27.000000
1.502521 1.227819 0.463377 24.000000
1.481483 1.183758 0.454115 55.000000
1.548227 1.208683 0.471465 29.000000
1.557308 1.188474 0.471466 28.000000
1.570099 1.171071 0.472696 32.000000
1.586940 1.155977 0.474794 30.000000
1.603351 1.141102 0.477143 28.000000
1.623566 1.128727 0.480617 28.000000
1.647795 1.118779 0.485286 27.000000
1.659869 1.100323 0.486349 35.000000
1.679848 1.087020 0.489791 36.000000
1.683392 1.063037 0.488414 28.000000
1.711629 1.054015 0.494000 39.000000
1.727161 1.037310 0.496207 32.000000
1.742558 1.020449 0.498354 31.000000
1.761779 1.006093 0.501898 30.000000
1.768381 0.983961 0.501652 29.000000
1.800338 0.975669 0.508569 31.000000
1.832355 0.966835 0.515441 42.000000
1.851476 0.950744 0.518772 33.000000
1.857414 0.927760 0.518347 35.000000
1.876001 0.911493 0.521753 35.000000
1.907771 0.900785 0.528683 27.000000
1.921737 0.881633 0.530829 27.000000
1.944606 0.865996 0.535219 26.000000
1.984937 0.857891 0.544638 28.000000
1.998732 0.837443 0.546541 29.000000
2.021141 0.820747 0.551102 29.000000
2.029930 0.798225 0.551857 29.000000
2.061094 0.784253 0.558822 29.000000
2.069494 0.761342 0.559516 25.000000
2.100449 0.746405 0.566437 32.000000
2.117617 0.726105 0.569534 29.000000
2.139173 0.707050 0.573942 32.000000
2.155998 0.686149 0.576980 32.000000
2.172531 0.665042 0.580239 32.000000
2.202853 0.647613 0.586931 37.000000
2.233033 0.629740 0.593780 29.000000
2.253785 0.608678 0.598161 22.000000
2.297772 0.593359 0.608687 30.000000
2.313457 0.570106 0.611697 26.000000
2.347825 0.550919 0.619688 28.000000
2.372504 0.529147 0.625279 31.000000
2.425469 0.512812 0.638281 28.000000
2.440433 0.487757 0.641245 31.000000
2.455047 0.462413 0.644213 29.000000
2.440859 0.431719 0.639609 10.000000
2.517033 0.416463 0.658830 32.000000
2.530944 0.389953 0.661734 26.000000
2.549437 0.363834 0.665893 27.000000
2.591647 0.340549 0.676154 34.000000
2.609608 0.313524 0.680241 29.000000
2.651334 0.288717 0.690600 29.000000
2.692815 0.262969 0.700882 32.000000
2.666611 0.230529 0.693613 9.000000
2.750935 0.207088 0.715109 29.000000
2.796492 0.179347 0.726754 25.000000
2.832089 0.150041 0.735719 28.000000
2.867457 0.119983 0.744598 32.000000
2.873381 0.088281 0.745944 27.000000
2.937100 0.057610 0.762362 29.000000
2.976185 0.025337 0.772504 34.000000
3.048871 -0.007883 0.791345 35.000000
3.101909 -0.042449 0.805162 76.000000
3.130253 -0.077597 0.812699 78.000000
3.143677 -0.112869 0.816269 95.000000
3.127785 -0.147099 0.812501 95.000000
3.101851 -0.180445 0.806027 73.000000
3.075554 -0.213156 0.799555 61.000000
3.005488 -0.241933 0.781792 58.000000
2.988272 -0.273975 0.777744 31.000000
2.989870 -0.307581 0.778808 35.000000
2.971937 -0.339100 0.774669 28.000000
2.948860 -0.369697 0.769374 24.000000
2.949440 -0.403143 0.770345 27.000000
2.935359 -0.434383 0.767466 19.000000
2.949617 -0.470075 0.772003 21.000000
2.953889 -0.504373 0.773939 23.000000
2.943459 -0.536280 0.772311 18.000000
2.961189 -0.573511 0.778085 26.000000
2.950077 -0.605429 0.776266 19.000000
2.943339 -0.638078 0.775602 18.000000
2.988147 -0.682492 0.788642 29.000000
3.013574 -0.723633 0.796680 21.000000
3.099390 -0.780688 0.820972 29.000000
3.160973 -0.833553 0.838806 27.000000
3.156475 -0.869859 0.839224 26.000000
3.216710 -0.924904 0.857002 35.000000
3.197096 -0.957867 0.853680 28.000000
3.172708 -0.988867 0.849021 28.000000
3.157108 -1.022650 0.846843 32.000000
3.127346 -1.051593 0.841067 25.000000
3.124963 -1.089490 0.842494 24.000000
3.103758 -1.120799 0.839092 27.000000
3.073235 -1.148512 0.833027 24.000000
3.065152 -1.184245 0.833223 30.000000
3.011602 -1.202007 0.820938 28.000000
3.016362 -1.242672 0.824614 28.000000
2.966909 -1.261284 0.813898 29.000000
2.957550 -1.295903 0.813801 27.000000
2.943119 -1.328931 0.812683 23.000000
2.911099 -1.353274 0.806489 27.000000
2.887299 -1.381512 0.802844 26.000000
2.863589 -1.408953 0.798905 32.000000
2.839370 -1.436502 0.795276 27.000000
2.814946 -1.463756 0.791554 28.000000
2.798780 -1.495091 0.790257 33.000000
2.769452 -1.519225 0.785241 25.000000
2.756992 -1.552499 0.785054 21.000000
2.723467 -1.572935 0.778557 25.000000
2.697811 -1.598243 0.774676 22.000000
2.667818 -1.620647 0.769606 29.000000
2.649569 -1.650866 0.768331 25.000000
2.639603 -1.685527 0.769146 25.000000
2.617134 -1.712197 0.766381 29.000000
2.578192 -1.727765 0.758774 21.000000
2.583307 -1.772825 0.764225 9.000000
2.532118 -1.779121 0.753094 13.000000
2.512775 -1.807114 0.751344 17.000000
2.512025 -1.850100 0.755674 28.000000
2.464675 -1.857348 0.745691 25.000000
2.440672 -1.881607 0.742678 25.000000
2.427118 -1.915395 0.743372 28.000000
2.383649 -1.923857 0.734436 19.000000
2.385291 -1.968673 0.739490 19.000000
2.363262 -1.995749 0.737840 22.000000
2.323211 -2.005863 0.730017 18.000000
2.319785 -2.047571 0.733764 27.000000
2.289659 -2.067349 0.729618 23.000000
2.274562 -2.099006 0.729785 23.000000
2.251173 -2.124820 0.727941 26.000000
2.224767 -2.146090 0.724568 17.000000
2.214698 -2.185057 0.727182 15.000000
2.177580 -2.195409 0.720402 23.000000
2.153066 -2.220020 0.718367 18.000000
2.149447 -2.264764 0.722807 32.000000
2.107643 -2.271262 0.715131 21.000000
2.099858 -2.312299 0.718308 21.000000
2.077370 -2.339613 0.717274 25.000000
2.039700 -2.347524 0.710371 18.000000
2.076732 -2.444909 0.730330 18.000000
2.018474 -2.430890 0.716957 23.000000
1.968164 -2.422461 0.705566 9.000000
1.886709 -2.375968 0.683539 10.000000
1.780751 -2.292442 0.651417 10.000000
1.684527 -2.219229 0.623050 10.000000
1.566929 -2.112871 0.586159 10.000000
1.473076 -2.031028 0.556776 9.000000
1.391302 -1.963996 0.532148 9.000000
1.280595 -1.851288 0.495848 9.000000
1.263986 -1.869120 0.494950 12.000000
1.237878 -1.875278 0.490982 23.000000
1.222394 -1.897530 0.491284 19.000000
1.192103 -1.894100 0.485004 23.000000
1.181365 -1.924319 0.487407 22.000000
1.155054 -1.929324 0.483401 17.000000
1.137447 -1.945899 0.482342 14.000000
1.137707 -1.997084 0.489822 6.000000
0.944138 1.687181 0.427022 8.000000
0.968824 1.689491 0.432205 18.000000
0.982505 1.669816 0.431796 23.000000
0.995878 1.650072 0.431308 21.000000
1.005301 1.626654 0.429886 24.000000
1.031077 1.627350 0.434804 27.000000
1.046382 1.611326 0.435386 25.000000
1.063155 1.599783 0.437190 25.000000
1.075284 1.579401 0.436586 22.000000
1.089008 1.563558 0.437202 19.000000
1.111849 1.558903 0.441058 27.000000
1.120441 1.534268 0.439238 27.000000
1.142277 1.529755 0.443225 26.000000
1.156187 1.512667 0.443586 29.000000
1.169060 1.496123 0.444118 25.000000
1.191623 1.490217 0.447891 29.000000
1.214236 1.484053 0.451679 27.000000
1.217381 1.455716 0.448700 26.000000
1.236611 1.445368 0.451282 33.000000
1.251825 1.431706 0.452893 33.000000
1.264394 1.413643 0.453104 32.000000
1.285891 1.406836 0.456982 36.000000
1.304763 1.395553 0.459527 31.000000
1.319515 1.381101 0.461027 34.000000
1.334746 1.365869 0.462346 32.000000
1.349258 1.351057 0.463845 24.000000
1.364190 1.335526 0.465104 35.000000
1.381910 1.323714 0.467731 42.000000
1.403124 1.314965 0.471555 35.000000
1.421267 1.302111 0.473958 68.000000
1.445984 1.295959 0.478943 37.000000
1.453025 1.272961 0.477702 55.000000
1.470314 1.259904 0.480242 53.000000
1.494987 1.252815 0.485202 24.000000
1.512172 1.239144 0.487700 45.000000
1.525885 1.221741 0.488807 37.000000
1.546621 1.210686 0.492531 34.000000
1.563511 1.196330 0.494986 54.000000
1.576335 1.178798 0.496225 35.000000
1.581639 1.154929 0.494767 35.000000
1.605866 1.145681 0.499621 36.000000
1.614249 1.124900 0.499570 22.000000
1.642415 1.117715 0.505618 41.000000
1.666532 1.107303 0.510389 68.000000
1.678506 1.088587 0.511524 35.000000
1.690227 1.069744 0.512595 51.000000
1.718305 1.060889 0.518578 43.000000
1.725610 1.039111 0.518350 36.000000
1.749371 1.027041 0.523111 48.000000
1.752092 1.002541 0.521632 25.000000
1.792567 0.999379 0.531294 71.000000
1.811878 0.983812 0.534775 75.000000
1.826556 0.965988 0.537138 52.000000
1.845650 0.949893 0.540505 81.000000
1.860254 0.931242 0.542618 50.000000
1.883209 0.916993 0.547461 59.000000
1.919352 0.908197 0.555851 77.000000
1.924671 0.884809 0.555520 24.000000
1.947544 0.869067 0.560132 38.000000
1.970074 0.853163 0.564824 47.000000
1.983678 0.833085 0.566978 46.000000
2.014961 0.820061 0.574242 70.000000
2.041739 0.804628 0.580177 50.000000
2.063878 0.787003 0.584778 40.000000
2.081384 0.767335 0.588108 36.000000
2.085027 0.742461 0.587595 21.000000
2.120413 0.728540 0.595930 52.000000
2.146619 0.710898 0.601782 75.000000
2.163322 0.689983 0.605142 55.000000
2.184637 0.669992 0.609582 55.000000
2.200977 0.648399 0.612885 77.000000
2.221807 0.627842 0.617412 46.000000
2.265815 0.613210 0.628338 48.000000
2.277016 0.589132 0.630226 25.000000
2.306700 0.569506 0.637222 41.000000
2.326808 0.547147 0.641787 47.000000
2.360822 0.527634 0.650178 56.000000
2.380573 0.504338 0.654609 47.000000
2.428562 0.486339 0.666768 52.000000
2.443217 0.461045 0.669840 42.000000
2.476610 0.438831 0.678041 37.000000
2.504953 0.415191 0.685030 28.000000
2.537991 0.391759 0.693249 46.000000
2.570720 0.367609 0.701561 68.000000
2.588935 0.340849 0.705720 64.000000
2.625945 0.316077 0.715270 77.000000
2.653279 0.289427 0.722049 58.000000
2.694659 0.263654 0.732837 56.000000
2.726161 0.236192 0.741021 54.000000
2.771894 0.209092 0.752959 33.000000
2.802900 0.180099 0.761069 45.000000
2.828771 0.150207 0.767786 45.000000
2.863955 0.120094 0.777033 56.000000
2.898897 0.089321 0.786373 71.000000
2.947877 0.057990 0.799457 77.000000
2.977296 0.025420 0.807496 37.000000
3.015995 -0.007820 0.817966 36.000000
3.039834 -0.041721 0.824414 34.000000
3.101874 -0.077118 0.841426 40.000000
3.129828 -0.112597 0.849178 46.000000
3.133263 -0.147682 0.850388 35.000000
3.145930 -0.183437 0.854213 35.000000
3.172624 -0.220417 0.861760 31.000000
3.160389 -0.254936 0.858944 24.000000
3.128646 -0.287375 0.850802 32.000000
3.149272 -0.324617 0.857036 29.000000
3.164749 -0.361844 0.861960 34.000000
3.151042 -0.395788 0.858946 29.000000
3.156088 -0.432239 0.861255 31.000000
3.179902 -0.471432 0.868475 35.000000
3.207984 -0.512123 0.877192 30.000000
3.273606 -0.559966 0.896113 29.000000
3.291052 -0.600728 0.902203 36.000000
3.322198 -0.644780 0.912083 40.000000
3.367051 -0.692379 0.925743 37.000000
3.368773 -0.731802 0.927581 35.000000
3.346482 -0.765939 0.922924 31.000000
3.338020 -0.803043 0.922056 34.000000
3.305712 -0.834238 0.914818 29.000000
3.282440 -0.867379 0.910180 24.000000
3.263475 -0.901173 0.906735 32.000000
3.253527 -0.937433 0.905772 32.000000
3.210767 -0.963759 0.895774 33.000000
3.177016 -0.992456 0.888479 30.000000
3.152296 -1.023096 0.883459 32.000000
3.140991 -1.058267 0.882517 35.000000
3.092775 -1.080480 0.871294 26.000000
3.067142 -1.109997 0.866409 18.000000
3.050360 -1.142394 0.864097 32.000000
3.046827 -1.179720 0.865527 32.000000
3.029343 -1.211861 0.863010 34.000000
3.002651 -1.239902 0.857944 31.000000
2.966774 -1.263652 0.850340 33.000000
2.935325 -1.288751 0.843925 34.000000
2.912148 -1.317643 0.840270 27.000000
2.875806 -1.339707 0.832512 15.000000
2.887159 -1.384386 0.838914 35.000000
2.859092 -1.409887 0.833604 33.000000
2.834776 -1.437488 0.829871 39.000000
2.810255 -1.464695 0.826046 31.000000
2.785931 -1.491011 0.821830 32.000000
2.773732 -1.524530 0.821691 35.000000
2.731575 -1.541294 0.812769 29.000000
2.685244 -1.554769 0.802521 12.000000
2.693102 -1.599532 0.808553 34.000000
2.671295 -1.627124 0.805726 29.000000
2.649346 -1.654328 0.802904 35.000000
2.631139 -1.683854 0.801329 33.000000
2.616686 -1.715839 0.800896 31.000000
2.597859 -1.745016 0.799121 33.000000
2.554785 -1.757422 0.790039 13.000000
2.527623 -1.780259 0.785818 9.000000
2.531839 -1.825400 0.791341 34.000000
2.480008 -1.831159 0.779958 31.000000
2.463884 -1.861643 0.779337 32.000000
2.443667 -1.888955 0.777393 33.000000
2.411746 -1.907050 0.771797 29.000000
2.394040 -1.937575 0.771368 35.000000
2.376751 -1.967217 0.770544 26.000000
2.310959 -1.955808 0.754006 10.000000
2.330187 -2.016253 0.765166 32.000000
2.318416 -2.052453 0.766932 29.000000
2.307017 -2.087827 0.768386 33.000000
2.280078 -2.110840 0.765234 33.000000
2.243216 -2.122588 0.758220 26.000000
2.230884 -2.157366 0.759456 30.000000
2.196440 -2.172469 0.753950 26.000000
2.152647 -2.175911 0.744530 10.000000
2.158731 -2.231761 0.753021 32.000000
2.128161 -2.248395 0.748234 28.000000
2.112988 -2.283301 0.749609 27.000000
2.095101 -2.313653 0.749503 30.000000
2.059667 -2.326535 0.743758 29.000000
2.050922 -2.367341 0.747023 33.000000
2.018201 -2.383206 0.742352 24.000000
2.002240 -2.416486 0.743163 14.000000
1.972309 -2.435440 0.739653 10.000000
1.909038 -2.412046 0.723556 10.000000
1.820899 -2.351943 0.696903 15.000000
1.694920 -2.240612 0.655922 13.000000
1.587324 -2.145475 0.620614 10.000000
1.489312 -2.060807 0.589098 12.000000
1.390601 -1.970302 0.556664 10.000000
1.289649 -1.869020 0.521989 9.000000
1.260717 -1.871612 0.516792 22.000000
1.233035 -1.872961 0.511337 24.000000
1.204353 -1.874693 0.506120 29.000000
1.180983 -1.884298 0.503134 32.000000
1.168931 -1.909512 0.504342 27.000000
1.145210 -1.918630 0.501287 24.000000
1.128873 -1.940134 0.501511 22.000000
1.111138 -1.956521 0.500420 9.000000
0.941130 1.689988 0.445426 9.000000
0.957371 1.674734 0.446116 15.000000
0.969790 1.655755 0.445787 26.000000
0.990574 1.648566 0.448666 24.000000
1.006282 1.632849 0.449274 29.000000
1.028430 1.630019 0.453488 31.000000
1.046437 1.617995 0.455240 26.000000
1.055240 1.594284 0.453651 32.000000
1.072870 1.581990 0.455330 28.000000
1.087546 1.565524 0.455786 23.000000
1.098303 1.545575 0.455305 33.000000
1.118242 1.536770 0.458084 30.000000
1.143054 1.536056 0.463342 34.000000
1.157064 1.518965 0.463785 34.000000
1.170808 1.501702 0.464160 30.000000
1.192653 1.496317 0.468272 36.000000
1.209186 1.482550 0.469775 29.000000
1.212382 1.454169 0.466731 28.000000
1.222091 1.432798 0.465818 35.000000
1.246814 1.430214 0.471030 34.000000
1.272312 1.426639 0.476087 45.000000
1.284134 1.408866 0.476498 35.000000
1.293111 1.386959 0.475505 43.000000
1.311133 1.376091 0.478276 42.000000
1.325787 1.361437 0.479832 32.000000
1.347702 1.352992 0.483602 32.000000
1.365527 1.341358 0.486336 57.000000
1.376920 1.322211 0.486428 37.000000
1.394518 1.310137 0.489109 78.000000
1.419260 1.304358 0.494281 52.000000
1.437316 1.291198 0.496802 57.000000
1.454773 1.278259 0.499451 75.000000
1.468445 1.261963 0.500854 68.000000
1.478290 1.242370 0.500942 33.000000
1.503329 1.234536 0.505874 53.000000
1.516578 1.217667 0.507223 41.000000
1.541059 1.209574 0.512306 54.000000
1.554098 1.192271 0.513604 37.000000
1.566952 1.174782 0.514840 48.000000
1.576091 1.153819 0.514617 37.000000
1.600339 1.144563 0.519680 29.000000
1.620560 1.132089 0.523420 36.000000
1.644769 1.121973 0.528390 54.000000
1.652880 1.100749 0.528300 62.000000
1.668846 1.084756 0.530717 61.000000
1.688761 1.071134 0.534367 40.000000
1.708535 1.057139 0.538027 56.000000
1.732365 1.045390 0.542994 72.000000
1.726781 1.016413 0.539014 33.000000
1.754550 1.006518 0.545168 41.000000
1.769696 0.989053 0.547494 56.000000
1.797355 0.978287 0.553614 52.000000
1.824825 0.967336 0.560013 77.000000
1.843916 0.951189 0.563483 56.000000
1.858332 0.932816 0.565911 62.000000
1.877131 0.916002 0.569396 75.000000
1.891267 0.897191 0.571704 37.000000
1.905382 0.877819 0.573818 30.000000
1.936816 0.866357 0.581354 59.000000
1.963773 0.852418 0.587587 35.000000
1.981738 0.834208 0.591119 45.000000
2.004043 0.817485 0.595986 35.000000
2.035227 0.803935 0.603454 35.000000
2.052891 0.784515 0.606877 61.000000
2.074871 0.766564 0.611640 30.000000
2.096680 0.748099 0.616414 34.000000
2.113828 0.727761 0.619790 60.000000
2.126118 0.705702 0.621977 36.000000
2.151993 0.687942 0.628115 52.000000
2.168644 0.666584 0.631368 68.000000
2.194164 0.647820 0.637455 37.000000
2.214951 0.627258 0.642137 53.000000
2.254196 0.611282 0.652133 33.000000
2.269957 0.588612 0.655566 35.000000
2.299644 0.568980 0.662897 52.000000
2.319633 0.546693 0.667543 36.000000
2.348938 0.526047 0.674896 52.000000
2.368634 0.502800 0.679483 61.000000
2.411687 0.483897 0.690758 35.000000
2.440481 0.461468 0.697989 43.000000
2.450102 0.435067 0.699894 29.000000
2.506824 0.416448 0.715188 34.000000
2.535036 0.392089 0.722449 65.000000
2.558157 0.366516 0.728198 55.000000
2.585863 0.341148 0.735392 48.000000
2.622862 0.316318 0.745225 78.000000
2.640395 0.288651 0.749718 48.000000
2.667372 0.261519 0.756679 47.000000
2.679594 0.232604 0.759737 21.000000
2.744354 0.207465 0.777754 35.000000
2.775257 0.178685 0.786001 60.000000
2.767412 0.147217 0.783457 74.000000
2.855344 0.120004 0.808121 47.000000
2.885284 0.089081 0.816467 49.000000
2.910159 0.057328 0.823363 44.000000
2.973163 0.025461 0.841150 40.000000
2.992502 -0.007783 0.846594 35.000000
3.040323 -0.041757 0.860205 37.000000
3.087744 -0.076900 0.873718 34.000000
3.134845 -0.113018 0.887228 37.000000
3.186317 -0.150433 0.901994 37.000000
3.218118 -0.187906 0.911313 35.000000
3.254267 -0.226566 0.922194 33.000000
3.294740 -0.266263 0.934016 29.000000
3.315657 -0.305157 0.940603 33.000000
3.326426 -0.343597 0.944469 29.000000
3.365527 -0.385537 0.956162 35.000000
3.447061 -0.433843 0.980169 35.000000
3.489889 -0.478834 0.993298 32.000000
3.503457 -0.520532 0.998276 37.000000
3.511874 -0.561895 1.001782 35.000000
3.472353 -0.595331 0.991734 24.000000
3.432621 -0.627804 0.981586 31.000000
3.420816 -0.665162 0.979680 32.000000
3.399160 -0.700471 0.974961 33.000000
3.367831 -0.733196 0.967435 35.000000
3.331592 -0.764212 0.958569 31.000000
3.309100 -0.797878 0.953656 31.000000
3.295478 -0.833592 0.951553 31.000000
3.267702 -0.865182 0.945198 24.000000
3.253420 -0.900317 0.942996 31.000000
3.224965 -0.931233 0.936658 31.000000
3.205424 -0.964300 0.932909 29.000000
3.153343 -0.987193 0.920096 31.000000
3.128714 -1.017788 0.914926 30.000000
3.108434 -1.049411 0.911103 29.000000
3.105891 -1.087301 0.912737 32.000000
3.062093 -1.110507 0.902351 24.000000
3.036284 -1.139569 0.897320 30.000000
3.032742 -1.176945 0.898853 37.000000
3.006343 -1.205347 0.893628 30.000000
2.975197 -1.231401 0.887086 34.000000
2.952875 -1.260742 0.883108 32.000000
2.921402 -1.285797 0.876491 31.000000
2.902869 -1.316231 0.873755 30.000000
2.866396 -1.338706 0.866045 25.000000
2.873518 -1.380882 0.871133 33.000000
2.845215 -1.406744 0.865974 36.000000
2.821252 -1.433899 0.861741 32.000000
2.796784 -1.461062 0.857716 36.000000
2.763908 -1.482872 0.850883 32.000000
2.747543 -1.513916 0.849396 35.000000
2.722379 -1.539910 0.845398 33.000000
2.705372 -1.570463 0.843816 25.000000
2.684315 -1.597755 0.840737 35.000000
2.646036 -1.615188 0.832672 34.000000
2.661057 -1.665367 0.841362 34.000000
2.602051 -1.669043 0.826758 34.000000
2.583691 -1.698144 0.825098 34.000000
2.581071 -1.737747 0.828486 30.000000
2.565985 -1.769380 0.828001 22.000000
2.507114 -1.770144 0.813322 10.000000
2.499489 -1.806641 0.815315 32.000000
2.482931 -1.838042 0.815033 35.000000
2.447428 -1.854053 0.807993 34.000000
2.438644 -1.890266 0.809864 35.000000
2.395362 -1.899298 0.800222 35.000000
2.393513 -1.941151 0.804512 33.000000
2.397705 -1.990193 0.811486 36.000000
2.339190 -1.985507 0.796757 27.000000
2.332240 -2.024123 0.799642 35.000000
2.295851 -2.037166 0.792403 36.000000
2.276508 -2.066637 0.791715 30.000000
2.279073 -2.114889 0.798190 42.000000
2.252733 -2.136732 0.794599 34.000000
2.221816 -2.155708 0.790072 31.000000
2.198610 -2.180279 0.787635 33.000000
2.150416 -2.181276 0.776885 24.000000
2.150541 -2.229324 0.783052 35.000000
2.129980 -2.256543 0.781738 35.000000
2.104785 -2.280859 0.779492 31.000000
2.096722 -2.321905 0.783023 36.000000
