x y z intensity
1.214947 1.261598 0.369111 35.000000
1.239120 1.258179 0.373251 48.000000
1.245511 1.237678 0.372388 25.000000
1.266166 1.230306 0.375509 54.000000
1.276172 1.212561 0.375513 66.000000
1.299768 1.208486 0.379805 57.000000
1.316678 1.196985 0.381851 71.000000
1.340354 1.192235 0.386174 47.000000
1.357202 1.180154 0.388181 46.000000
1.377168 1.171550 0.391420 89.000000
1.390097 1.155855 0.392380 16.000000
1.417566 1.152828 0.397706 50.000000
1.437539 1.143215 0.400923 48.000000
1.457875 1.132858 0.403978 35.000000
1.473876 1.119720 0.406088 52.000000
1.494037 1.108770 0.409103 40.000000
1.505896 1.092201 0.410091 36.000000
1.529531 1.083984 0.414375 67.000000
1.537470 1.063805 0.414114 16.000000
1.569145 1.060405 0.420468 37.000000
1.580513 1.042999 0.421415 44.000000
1.595805 1.028058 0.423451 36.000000
1.619536 1.017743 0.427494 60.000000
1.647059 1.009940 0.432762 37.000000
1.666309 0.996640 0.435859 37.000000
1.706554 0.995320 0.444390 50.000000
1.708765 0.971527 0.443056 21.000000
1.744815 0.966644 0.450527 34.000000
1.776695 0.958815 0.456855 55.000000
1.795625 0.943579 0.459888 36.000000
1.818868 0.930244 0.464035 66.000000
1.833206 0.912149 0.465912 54.000000
1.847464 0.893828 0.467792 36.000000
1.874744 0.881504 0.473015 41.000000
1.897513 0.866697 0.477072 16.000000
1.928996 0.855680 0.483504 30.000000
1.960627 0.843773 0.489756 35.000000
1.987570 0.829694 0.495038 31.000000
1.996540 0.807505 0.495712 32.000000
2.027788 0.794336 0.502070 39.000000
2.068271 0.783776 0.510556 35.000000
2.085802 0.764198 0.513501 36.000000
2.103127 0.744348 0.516452 26.000000
2.138679 0.730522 0.523926 40.000000
2.164971 0.712897 0.529085 60.000000
2.186539 0.693319 0.533052 43.000000
2.170651 0.661925 0.527962 10.000000
2.210475 0.647401 0.536470 9.000000
2.250146 0.632080 0.544922 9.000000
2.280394 0.613503 0.551190 8.000000
2.348205 0.604111 0.566572 7.000000
2.368772 0.581529 0.570520 8.000000
2.403330 0.561958 0.577895 9.000000
2.456886 0.545905 0.589766 9.000000
2.524568 0.531650 0.605081 35.000000
2.539696 0.505650 0.607852 42.000000
2.597677 0.487437 0.620917 37.000000
2.631574 0.463755 0.628197 34.000000
2.660444 0.438476 0.634341 32.000000
2.703579 0.414966 0.643844 36.000000
2.712685 0.385722 0.645333 20.000000
2.769802 0.362604 0.658292 9.000000
2.841216 0.340045 0.674797 29.000000
2.907609 0.315466 0.689991 90.000000
2.896289 0.281864 0.686820 95.000000
2.908905 0.250580 0.689301 84.000000
2.862944 0.214714 0.678082 33.000000
2.865105 0.183025 0.678172 51.000000
2.857187 0.150822 0.676143 68.000000
2.775975 0.115793 0.656681 15.000000
2.728386 0.083547 0.645352 9.000000
2.719427 0.053140 0.643051 9.000000
2.695526 0.022909 0.637469 9.000000
2.695610 -0.006932 0.637469 9.000000
2.695357 -0.036772 0.637384 9.000000
2.685037 -0.066372 0.635083 9.000000
2.669606 -0.095582 0.631548 10.000000
2.653852 -0.124386 0.628013 21.000000
2.681499 -0.155402 0.634746 71.000000
2.655374 -0.183457 0.628913 67.000000
2.619251 -0.210031 0.620700 26.000000
2.636162 -0.240806 0.625132 81.000000
2.623741 -0.268949 0.622668 78.000000
2.581918 -0.293579 0.613233 91.000000
2.554514 -0.319082 0.607168 95.000000
2.546059 -0.346677 0.605698 95.000000
2.522853 -0.371956 0.600790 95.000000
2.518696 -0.399860 0.600550 23.000000
2.422976 -0.412254 0.578466 8.000000
2.451875 -0.445078 0.586094 10.000000
2.442174 -0.471265 0.584559 24.000000
2.460716 -0.503040 0.589806 95.000000
2.450368 -0.529255 0.588271 79.000000
2.444474 -0.556366 0.587799 94.000000
2.433532 -0.582187 0.586187 89.000000
2.417656 -0.606719 0.583359 29.000000
2.458026 -0.645730 0.594196 9.000000
2.558928 -0.702456 0.619711 15.000000
2.682178 -0.768360 0.650938 13.000000
2.883579 -0.860670 0.701398 8.000000
2.915910 -0.905541 0.710943 8.000000
2.887326 -0.931800 0.705552 9.000000
2.872441 -0.962099 0.703660 9.000000
2.871013 -0.996995 0.705066 9.000000
2.878397 -1.035295 0.708627 8.000000
2.816870 -1.048324 0.695368 10.000000
2.805196 -1.079581 0.694520 10.000000
2.806915 -1.115860 0.696857 15.000000
2.772079 -1.137829 0.690392 10.000000
2.777547 -1.175832 0.693844 11.000000
2.746649 -1.198826 0.688422 11.000000
2.738143 -1.230947 0.688319 9.000000
2.724514 -1.261307 0.687379 8.000000
2.715003 -1.293576 0.687459 13.000000
2.700693 -1.323703 0.686330 10.000000
2.694807 -1.357935 0.687515 16.000000
2.662566 -1.378814 0.681853 11.000000
2.643059 -1.405990 0.679620 11.000000
2.636160 -1.439896 0.680612 8.000000
2.624623 -1.471513 0.680493 9.000000
2.578929 -1.483487 0.671469 9.000000
2.571043 -1.516926 0.672363 10.000000
2.554420 -1.545315 0.671056 10.000000
2.554103 -1.583801 0.674126 16.000000
2.499281 -1.589003 0.663073 10.000000
2.506494 -1.632490 0.668224 14.000000
2.484663 -1.657375 0.665640 18.000000
2.470576 -1.687490 0.665231 9.000000
2.427685 -1.698574 0.657515 9.000000
2.405284 -1.722406 0.654860 10.000000
2.390451 -1.751738 0.654366 10.000000
2.374815 -1.781621 0.654053 10.000000
2.336054 -1.792825 0.647018 10.000000
2.316088 -1.819139 0.645638 10.000000
2.281165 -1.832207 0.639710 16.000000
2.265106 -1.860352 0.639038 19.000000
2.225621 -1.870088 0.632260 25.000000
2.227705 -1.913523 0.636802 52.000000
2.210009 -1.941876 0.636300 42.000000
2.189158 -1.965943 0.634554 52.000000
2.170804 -1.993959 0.633952 34.000000
2.177974 -2.044281 0.640405 32.000000
2.197554 -2.109432 0.651272 33.000000
2.198502 -2.158127 0.656859 23.000000
2.185789 -2.192454 0.657862 18.000000
2.096572 -2.150443 0.636335 16.000000
2.022959 -2.120026 0.618779 19.000000
1.922695 -2.060508 0.593262 24.000000
1.843687 -2.020677 0.574046 24.000000
1.776639 -1.989529 0.557757 24.000000
1.686993 -1.931978 0.534666 25.000000
1.625179 -1.901825 0.519530 18.000000
1.544482 -1.848679 0.498636 10.000000
1.477524 -1.809130 0.481906 16.000000
1.430936 -1.790563 0.471028 17.000000
1.371957 -1.756377 0.456416 21.000000
1.334750 -1.748425 0.448890 24.000000
1.304662 -1.747041 0.443194 30.000000
1.262203 -1.729969 0.433693 34.000000
1.254511 -1.760137 0.436182 26.000000
1.246266 -1.790294 0.438509 24.000000
1.224767 -1.799550 0.435762 25.000000
1.207630 -1.817387 0.435181 23.000000
1.195537 -1.843311 0.436475 30.000000
1.176328 -1.856025 0.434629 26.000000
1.168720 -1.890150 0.437821 28.000000
1.163048 -1.928492 0.441869 22.000000
1.139339 -1.937289 0.439229 16.000000
1.136318 -1.979244 0.443955 9.000000
0.841621 1.494507 0.347084 8.000000
0.855619 1.480545 0.347477 25.000000
0.861868 1.453837 0.344916 32.000000
0.882961 1.452311 0.348292 29.000000
0.897998 1.442674 0.349774 32.000000
0.919097 1.440605 0.353175 34.000000
0.932287 1.425963 0.353491 31.000000
0.947049 1.415821 0.354977 33.000000
0.968140 1.413010 0.358353 27.000000
0.986491 1.405907 0.360715 23.000000
0.992556 1.383217 0.359066 33.000000
1.016484 1.383680 0.363447 28.000000
1.031641 1.372058 0.364732 32.000000
1.048975 1.364687 0.367222 33.000000
1.060937 1.348813 0.367410 29.000000
1.084968 1.348134 0.371793 35.000000
1.099066 1.336251 0.373197 30.000000
1.107466 1.316187 0.372270 27.000000
1.118084 1.300343 0.372552 30.000000
1.138837 1.294933 0.375860 35.000000
1.156377 1.285529 0.378113 46.000000
1.173240 1.276431 0.380481 35.000000
1.193958 1.270113 0.383768 41.000000
1.214123 1.264027 0.387178 41.000000
1.231512 1.253650 0.389410 29.000000
1.241293 1.236637 0.389589 31.000000
1.254933 1.222449 0.390684 37.000000
1.271448 1.211957 0.392981 35.000000
1.284796 1.197455 0.394025 66.000000
1.304749 1.189801 0.397374 36.000000
1.332458 1.187869 0.402826 54.000000
1.352429 1.179536 0.406206 71.000000
1.372877 1.170421 0.409430 35.000000
1.385411 1.155177 0.410559 27.000000
1.413286 1.151687 0.415968 33.000000
1.429367 1.139030 0.418224 34.000000
1.449243 1.129171 0.421548 42.000000
1.465604 1.115554 0.423589 34.000000
1.481452 1.102197 0.425750 39.000000
1.501187 1.091445 0.429044 35.000000
1.517193 1.077173 0.431044 32.000000
1.540740 1.068596 0.435487 32.000000
1.560318 1.056904 0.438753 34.000000
1.571656 1.039484 0.439757 42.000000
1.590997 1.027286 0.442979 55.000000
1.614691 1.016905 0.447173 36.000000
1.638078 1.006546 0.451559 52.000000
1.661451 0.995789 0.455900 53.000000
1.697409 0.992000 0.463697 35.000000
1.724985 0.982646 0.469160 33.000000
1.735569 0.963409 0.470094 37.000000
1.758804 0.950927 0.474366 36.000000
1.790610 0.942627 0.481025 72.000000
1.800767 0.922632 0.481851 35.000000
1.819246 0.907104 0.485124 36.000000
1.846572 0.895243 0.490539 68.000000
1.851832 0.872565 0.490147 31.000000
1.896644 0.868002 0.500181 28.000000
1.923644 0.854953 0.505704 35.000000
1.955147 0.843038 0.512279 34.000000
1.973138 0.825134 0.515424 36.000000
2.000087 0.810414 0.520787 34.000000
2.013215 0.789967 0.522774 35.000000
2.062522 0.783153 0.534109 53.000000
2.084588 0.765316 0.538336 36.000000
2.101906 0.745413 0.541463 32.000000
2.128277 0.728312 0.546817 48.000000
2.163729 0.713848 0.554547 51.000000
2.185276 0.694143 0.558743 62.000000
2.169466 0.662704 0.553394 10.000000
2.218394 0.651072 0.564785 9.000000
2.230042 0.627620 0.566481 9.000000
2.255495 0.608002 0.571819 8.000000
2.327790 0.599943 0.589066 8.000000
2.357712 0.579910 0.595551 9.000000
2.392258 0.560386 0.603238 9.000000
2.436120 0.542188 0.613246 10.000000
2.513024 0.530243 0.631707 52.000000
2.537719 0.506194 0.637053 36.000000
2.566862 0.482538 0.643521 40.000000
2.619757 0.462492 0.655901 32.000000
2.643849 0.436556 0.661025 35.000000
2.701173 0.415360 0.674627 64.000000
2.705468 0.385379 0.675057 19.000000
2.767258 0.362972 0.689796 10.000000
2.843318 0.340932 0.708151 35.000000
2.890255 0.314142 0.719319 71.000000
2.908038 0.283474 0.723105 95.000000
2.896379 0.249979 0.719868 64.000000
2.874740 0.216079 0.714040 38.000000
2.852699 0.182625 0.708209 64.000000
2.815726 0.148938 0.698767 65.000000
2.763808 0.115503 0.685625 15.000000
2.721281 0.083462 0.674970 9.000000
2.707410 0.053045 0.671446 9.000000
2.688425 0.022824 0.666717 9.000000
2.688509 -0.006932 0.666717 9.000000
2.678551 -0.036639 0.664226 9.000000
2.668343 -0.066048 0.661819 10.000000
2.652870 -0.095151 0.658126 10.000000
2.661397 -0.124986 0.660449 18.000000
2.674424 -0.155317 0.663973 91.000000
2.658046 -0.183961 0.660197 76.000000
2.622005 -0.210644 0.651614 42.000000
2.595358 -0.237461 0.645439 95.000000
2.573342 -0.264239 0.640387 95.000000
2.555865 -0.291138 0.636540 95.000000
2.547734 -0.318840 0.635016 95.000000
2.529673 -0.345043 0.631174 95.000000
2.506533 -0.370217 0.626056 76.000000
2.497598 -0.397173 0.624459 29.000000
2.426152 -0.413500 0.607369 9.000000
2.416734 -0.439476 0.605863 10.000000
2.440391 -0.471797 0.612578 23.000000
2.454181 -0.502646 0.616891 89.000000
2.443846 -0.528705 0.615224 95.000000
2.428484 -0.553657 0.612366 80.000000
2.417578 -0.579453 0.610703 87.000000
2.401753 -0.603804 0.607773 35.000000
2.442023 -0.642700 0.619134 10.000000
2.551943 -0.701874 0.648235 18.000000
2.646825 -0.759709 0.673797 20.000000
2.866539 -0.857039 0.731180 9.000000
2.903426 -0.903333 0.742286 9.000000
2.884153 -0.932534 0.739153 9.000000
2.869264 -0.962886 0.737113 9.000000
2.867794 -0.997829 0.738621 9.000000
2.829307 -1.019703 0.730680 8.000000
2.827267 -1.054362 0.731998 10.000000
2.820241 -1.087285 0.732228 14.000000
2.790222 -1.111223 0.726482 12.000000
2.777869 -1.142248 0.725633 14.000000
2.756472 -1.169099 0.722157 10.000000
2.721232 -1.190003 0.715363 10.000000
2.726003 -1.227917 0.718826 10.000000
2.694755 -1.250044 0.713125 9.000000
2.716059 -1.296825 0.721329 15.000000
2.692973 -1.322762 0.717963 16.000000
2.669980 -1.347846 0.714228 10.000000
2.655059 -1.377500 0.713102 20.000000
2.614195 -1.393240 0.704937 11.000000
2.615932 -1.431574 0.708351 8.000000
2.608608 -1.465336 0.709348 9.000000
2.558836 -1.474894 0.698824 9.000000
2.563572 -1.515619 0.703273 13.000000
2.538626 -1.538962 0.699579 13.000000
2.517645 -1.564502 0.697038 10.000000
2.504187 -1.595554 0.696973 16.000000
2.478535 -1.617969 0.693203 12.000000
2.460908 -1.645337 0.691719 10.000000
2.434874 -1.667018 0.687871 10.000000
2.408682 -1.688336 0.684034 9.000000
2.397702 -1.721204 0.685005 12.000000
2.359303 -1.733230 0.677702 16.000000
2.313243 -1.738784 0.668177 20.000000
2.286033 -1.758945 0.664573 34.000000
2.266973 -1.784148 0.662856 39.000000
2.255235 -1.815191 0.663374 58.000000
2.261270 -1.862352 0.669632 43.000000
2.226179 -1.874643 0.663354 28.000000
2.249553 -1.937972 0.675108 33.000000
2.221326 -1.956152 0.671038 34.000000
2.224832 -2.004101 0.677090 29.000000
2.228402 -2.051585 0.682820 33.000000
2.205471 -2.076791 0.681019 29.000000
2.200781 -2.117774 0.684401 28.000000
2.201533 -2.166569 0.690219 29.000000
2.178352 -2.190522 0.688094 21.000000
2.116486 -2.176658 0.674238 16.000000
2.039480 -2.143044 0.654768 23.000000
1.932470 -2.076710 0.625894 20.000000
1.861074 -2.043476 0.607662 24.000000
1.773400 -1.991597 0.584441 21.000000
1.690298 -1.941592 0.562414 21.000000
1.634940 -1.918938 0.548707 22.000000
1.541678 -1.851007 0.522594 10.000000
1.485143 -1.822172 0.508039 16.000000
1.431386 -1.796852 0.494842 18.000000
1.381488 -1.774414 0.482700 18.000000
1.336154 -1.754286 0.471466 27.000000
1.299229 -1.745750 0.463564 29.000000
1.277001 -1.756461 0.460964 27.000000
1.244401 -1.750279 0.453965 31.000000
1.233413 -1.776336 0.455448 22.000000
1.219279 -1.798330 0.455815 23.000000
1.200445 -1.811406 0.453986 26.000000
1.185708 -1.833176 0.454330 21.000000
1.165428 -1.846583 0.452628 22.000000
1.156517 -1.875710 0.454765 21.000000
1.140828 -1.897150 0.455062 21.000000
1.142160 -1.948009 0.462294 21.000000
1.135220 -1.986475 0.466387 8.000000
0.833308 1.484374 0.360234 8.000000
0.842338 1.461996 0.358550 17.000000
0.862364 1.461206 0.362270 21.000000
0.883523 1.459616 0.365796 22.000000
0.894451 1.441086 0.365129 24.000000
0.909435 1.431290 0.366665 20.000000
0.935825 1.437185 0.372338 26.000000
0.943491 1.414175 0.370536 26.000000
0.971967 1.424044 0.377368 18.000000
0.970907 1.388826 0.372330 22.000000
0.988998 1.381624 0.374784 14.000000
1.012092 1.382609 0.379514 26.000000
1.030229 1.374893 0.381885 26.000000
1.045322 1.363022 0.383228 17.000000
1.065630 1.359207 0.386863 31.000000
1.071435 1.335585 0.384870 22.000000
1.094691 1.335116 0.389618 24.000000
1.100035 1.311376 0.387548 24.000000
1.114442 1.298736 0.388780 20.000000
1.131367 1.290137 0.391284 28.000000
1.152056 1.284395 0.394750 26.000000
1.168906 1.275294 0.397219 25.000000
1.186323 1.265414 0.399479 32.000000
1.203056 1.255841 0.401963 29.000000
1.220355 1.245538 0.404236 28.000000
1.233520 1.232045 0.405547 28.000000
1.254089 1.224701 0.408911 24.000000
1.267108 1.210748 0.410229 32.000000
1.280511 1.196246 0.411273 30.000000
1.296848 1.185302 0.413683 32.000000
1.320789 1.180212 0.418176 39.000000
1.344386 1.175099 0.422854 29.000000
1.368022 1.169630 0.427496 32.000000
1.377219 1.150873 0.427354 27.000000
1.397081 1.141656 0.430860 23.000000
1.424503 1.138229 0.436649 36.000000
1.440924 1.124913 0.438789 25.000000
1.456837 1.111798 0.441049 26.000000
1.476594 1.101330 0.444545 35.000000
1.496595 1.090166 0.447763 29.000000
1.512297 1.076298 0.450046 29.000000
1.535805 1.067715 0.454638 26.000000
1.559377 1.058747 0.459246 28.000000
1.578900 1.046649 0.462625 35.000000
1.594225 1.031613 0.464826 35.000000
1.601276 1.011182 0.464589 29.000000
1.628941 1.003096 0.470135 39.000000
1.668896 1.002316 0.479467 31.000000
1.688104 0.988560 0.482781 33.000000
1.706987 0.974803 0.486289 29.000000
1.717493 0.955646 0.487216 27.000000
1.749144 0.947925 0.494107 32.000000
1.776569 0.937400 0.499749 35.000000
1.791055 0.919717 0.501842 30.000000
1.814016 0.906083 0.506236 35.000000
1.828010 0.888176 0.508406 32.000000
1.841986 0.869723 0.510452 24.000000
1.890883 0.867479 0.522307 27.000000
1.909169 0.850215 0.525465 26.000000
1.935981 0.836732 0.531205 27.000000
1.976375 0.828076 0.540428 32.000000
1.985210 0.806156 0.541304 29.000000
2.007375 0.789356 0.545725 31.000000
2.042974 0.777358 0.553909 32.000000
2.069494 0.761342 0.559516 27.000000
2.105015 0.748028 0.567668 35.000000
2.094699 0.718246 0.563370 13.000000
2.129972 0.704009 0.571473 26.000000
2.155998 0.686149 0.576980 31.000000
2.149370 0.657952 0.574053 8.000000
2.202853 0.647613 0.586931 9.000000
2.237695 0.631055 0.595020 8.000000
2.263137 0.611204 0.600643 7.000000
2.302461 0.594570 0.609929 8.000000
2.346372 0.578217 0.620400 8.000000
2.352539 0.552025 0.620933 8.000000
2.424492 0.540742 0.638980 9.000000
2.491790 0.526835 0.655734 28.000000
2.525896 0.504838 0.663701 32.000000
2.578751 0.485713 0.676673 32.000000
2.555274 0.451956 0.669591 10.000000
2.660317 0.440171 0.696335 35.000000
2.684045 0.413542 0.701764 30.000000
2.693202 0.384351 0.703443 10.000000
2.769223 0.363883 0.722483 9.000000
2.825874 0.339507 0.736615 27.000000
2.872680 0.312820 0.748254 46.000000
2.890320 0.282257 0.752289 81.000000
2.873961 0.248455 0.747546 30.000000
2.857112 0.215081 0.742710 35.000000
2.825471 0.181206 0.734285 31.000000
2.807924 0.148761 0.729442 32.000000
2.746570 0.114924 0.713207 10.000000
2.708911 0.083228 0.703247 8.000000
2.685487 0.052675 0.697053 8.000000
2.661629 0.022659 0.690857 9.000000
2.681071 -0.006932 0.695881 8.000000
2.676062 -0.036621 0.694625 9.000000
2.665795 -0.066084 0.692113 9.000000
2.626179 -0.094289 0.681898 9.000000
2.639522 -0.124136 0.685666 15.000000
2.647686 -0.154025 0.688010 49.000000
2.650674 -0.183709 0.689098 50.000000
2.624375 -0.211255 0.682656 88.000000
2.564130 -0.235088 0.667354 37.000000
2.561370 -0.263500 0.667192 73.000000
2.548749 -0.290814 0.664360 77.000000
2.521420 -0.316109 0.657852 58.000000
2.517815 -0.344147 0.657612 95.000000
2.499604 -0.369899 0.653535 63.000000
2.471559 -0.393887 0.646881 21.000000
2.438509 -0.416373 0.638906 9.000000
2.414779 -0.439958 0.633595 9.000000
2.405075 -0.465805 0.631959 14.000000
2.437845 -0.500306 0.641480 74.000000
2.427545 -0.526260 0.639684 69.000000
2.421674 -0.553109 0.639136 89.000000
2.396733 -0.575514 0.633609 60.000000
2.380895 -0.599711 0.630655 32.000000
2.430437 -0.640910 0.644949 14.000000
2.521445 -0.694858 0.670386 10.000000
2.644126 -0.760269 0.704453 12.000000
2.849081 -0.853600 0.760754 9.000000
2.904462 -0.905261 0.777238 8.000000
2.871356 -0.930089 0.770194 9.000000
2.888547 -0.971295 0.776844 8.000000
2.841291 -0.990591 0.766016 8.000000
2.821184 -1.018758 0.762699 9.000000
2.809944 -1.050116 0.761660 9.000000
2.780338 -1.074204 0.755800 10.000000
2.782018 -1.110374 0.758355 9.000000
2.774336 -1.142962 0.758449 9.000000
2.757218 -1.172140 0.756375 10.000000
2.726630 -1.194722 0.750261 9.000000
2.704488 -1.221180 0.746790 8.000000
2.691227 -1.251063 0.745576 9.000000
2.672938 -1.278946 0.743239 9.000000
2.676455 -1.316879 0.746697 10.000000
2.631611 -1.331392 0.737085 9.000000
2.612649 -1.358563 0.734669 9.000000
2.601924 -1.389932 0.734673 10.000000
2.612048 -1.432879 0.740611 8.000000
2.642822 -1.488209 0.752544 6.000000
2.551149 -1.473412 0.729297 9.000000
2.547468 -1.509177 0.731505 9.000000
2.522603 -1.532432 0.727715 9.000000
2.501226 -1.558438 0.725314 9.000000
2.475906 -1.580998 0.721447 9.000000
2.450516 -1.603191 0.717590 10.000000
2.408733 -1.614203 0.708901 10.000000
2.407081 -1.651888 0.712092 9.000000
2.353240 -1.653437 0.699893 27.000000
2.327374 -1.673779 0.695908 26.000000
2.328123 -1.714656 0.700352 36.000000
2.297776 -1.731575 0.695195 34.000000
2.278987 -1.756958 0.693479 29.000000
2.285918 -1.803965 0.700125 31.000000
2.281492 -1.841406 0.702960 24.000000
2.280278 -1.882002 0.706934 18.000000
2.288945 -1.932989 0.714637 24.000000
2.267985 -1.958180 0.712664 19.000000
2.246836 -1.983182 0.710690 27.000000
2.217430 -2.002133 0.706602 23.000000
2.220917 -2.049501 0.712573 25.000000
2.201619 -2.078047 0.711917 26.000000
2.186228 -2.108913 0.712017 18.000000
2.186971 -2.157701 0.718078 17.000000
2.160434 -2.178122 0.714729 26.000000
2.125941 -2.192051 0.709317 10.000000
2.035436 -2.144636 0.684468 18.000000
1.948575 -2.099846 0.661159 11.000000
1.857441 -2.045356 0.635383 10.000000
1.769971 -1.993408 0.611135 16.000000
1.691224 -1.946458 0.589006 10.000000
1.656967 -1.950726 0.582710 9.000000
1.538775 -1.853178 0.546569 10.000000
1.491499 -1.835771 0.534687 10.000000
1.434748 -1.806806 0.519798 13.000000
1.373722 -1.768455 0.502521 10.000000
1.327560 -1.748955 0.491020 16.000000
1.302383 -1.756152 0.487197 27.000000
1.272462 -1.754429 0.480950 21.000000
1.269951 -1.792694 0.485733 16.000000
1.238927 -1.791050 0.479714 25.000000
1.209268 -1.788206 0.473523 17.000000
1.192131 -1.805974 0.472837 21.000000
1.185352 -1.840029 0.476397 17.000000
1.163471 -1.848608 0.473355 19.000000
1.153238 -1.878501 0.475802 18.000000
1.147521 -1.916742 0.480249 17.000000
1.137447 -1.945899 0.482342 17.000000
1.140128 -2.001333 0.490865 6.000000
0.836849 1.495456 0.378497 8.000000
0.857130 1.494713 0.382377 17.000000
0.871138 1.480542 0.382852 21.000000
0.889987 1.474622 0.385447 22.000000
0.900155 1.456519 0.384924 21.000000
0.918833 1.450195 0.387471 24.000000
0.934839 1.439561 0.388975 24.000000
0.949824 1.429248 0.390586 23.000000
0.968305 1.422266 0.393150 24.000000
0.974815 1.399605 0.391357 18.000000
0.993025 1.392303 0.393922 24.000000
1.005524 1.376907 0.394188 27.000000
1.025718 1.373657 0.397998 24.000000
1.043821 1.365656 0.400475 29.000000
1.055151 1.350347 0.400845 21.000000
1.073069 1.341956 0.403330 26.000000
1.094045 1.337154 0.406969 22.000000
1.101886 1.317610 0.406131 24.000000
1.119592 1.308594 0.408578 32.000000
1.136568 1.299886 0.411195 30.000000
1.157406 1.294027 0.414764 32.000000
1.171079 1.281226 0.416180 32.000000
1.188563 1.271267 0.418603 29.000000
1.205358 1.261616 0.421141 32.000000
1.226065 1.254653 0.424699 30.000000
1.235962 1.237610 0.424896 21.000000
1.256582 1.230179 0.428417 35.000000
1.266166 1.212844 0.428555 40.000000
1.289741 1.208705 0.433450 35.000000
1.310286 1.200435 0.436948 52.000000
1.333920 1.195523 0.441825 32.000000
1.350803 1.183406 0.444095 45.000000
1.370819 1.174647 0.447744 51.000000
1.383420 1.159321 0.448993 21.000000
1.410861 1.156124 0.455026 49.000000
1.431227 1.145951 0.458484 41.000000
1.447332 1.132963 0.460912 33.000000
1.463385 1.119717 0.463287 45.000000
1.475388 1.103308 0.464447 33.000000
1.487680 1.086319 0.465375 35.000000
1.511172 1.078122 0.470159 34.000000
1.522801 1.061175 0.471270 24.000000
1.554285 1.057740 0.478488 39.000000
1.573723 1.045637 0.481966 47.000000
1.580965 1.025327 0.481798 31.000000
1.604283 1.015350 0.486531 54.000000
1.631772 1.007463 0.492462 35.000000
1.638500 0.986656 0.492183 36.000000
1.682569 0.987822 0.503135 42.000000
1.693269 0.968882 0.504119 25.000000
1.733379 0.966380 0.513751 67.000000
1.760839 0.956099 0.519711 63.000000
1.775224 0.938841 0.522043 37.000000
1.802628 0.927751 0.527906 54.000000
1.816992 0.909586 0.529999 47.000000
1.831019 0.891580 0.532288 45.000000
1.858143 0.879234 0.538124 59.000000
1.880729 0.864608 0.542837 26.000000
1.921046 0.857243 0.552512 35.000000
1.956762 0.847399 0.561007 39.000000
1.970305 0.827469 0.563156 46.000000
1.997051 0.812771 0.569137 63.000000
2.014756 0.793994 0.572510 57.000000
2.054845 0.783559 0.582219 62.000000
2.076850 0.765663 0.586826 55.000000
2.089579 0.744082 0.588878 25.000000
2.083854 0.715979 0.585656 9.000000
2.109924 0.698746 0.591495 9.000000
2.158720 0.688515 0.603855 14.000000
2.184637 0.669992 0.609582 31.000000
2.200977 0.648399 0.612885 16.000000
2.231103 0.630469 0.619995 9.000000
2.242504 0.606901 0.621874 9.000000
2.291043 0.592761 0.634108 7.000000
2.334831 0.576451 0.644993 9.000000
2.373814 0.558200 0.654752 9.000000
2.412656 0.539219 0.664453 14.000000
2.479763 0.525352 0.681885 67.000000
2.513775 0.503403 0.690164 69.000000
2.561820 0.483426 0.702356 54.000000
2.604957 0.461572 0.713179 48.000000
2.643059 0.438082 0.722797 32.000000
2.690652 0.415323 0.734949 68.000000
2.685399 0.384008 0.732857 21.000000
2.761211 0.363530 0.752681 10.000000
2.841579 0.342032 0.774005 52.000000
2.873986 0.313502 0.782111 95.000000
2.886792 0.282452 0.785089 98.000000
2.884827 0.249939 0.784149 95.000000
2.848892 0.214900 0.773875 63.000000
2.836612 0.182265 0.770222 73.000000
2.795038 0.148416 0.758630 90.000000
2.767525 0.116051 0.750870 21.000000
2.720429 0.083822 0.737961 10.000000
2.706643 0.053244 0.734035 10.000000
2.692595 0.022989 0.730280 10.000000
2.629948 -0.006819 0.713267 10.000000
2.639348 -0.036224 0.715801 9.000000
2.629116 -0.065364 0.713184 10.000000
2.589704 -0.093165 0.702633 10.000000
2.593377 -0.122235 0.703859 13.000000
2.625623 -0.153098 0.712934 73.000000
2.604537 -0.180950 0.707454 72.000000
2.587959 -0.208761 0.703367 25.000000
2.580773 -0.237052 0.701814 95.000000
2.553983 -0.263256 0.695035 69.000000
2.555775 -0.292216 0.696098 95.000000
2.528496 -0.317593 0.689246 92.000000
2.510525 -0.343826 0.685089 84.000000
2.497130 -0.370208 0.682000 87.000000
2.469147 -0.394175 0.675164 28.000000
2.398107 -0.410208 0.656455 8.000000
2.393492 -0.436893 0.656147 10.000000
2.393310 -0.464499 0.657064 18.000000
2.425979 -0.498863 0.667003 95.000000
2.415703 -0.524766 0.665156 95.000000
2.386310 -0.546176 0.658119 75.000000
2.389665 -0.574893 0.660094 95.000000
2.369250 -0.597910 0.655663 36.000000
2.329926 -0.615679 0.646059 9.000000
2.472047 -0.682629 0.686842 18.000000
2.580544 -0.743528 0.718415 14.000000
2.775879 -0.833221 0.774445 10.000000
2.854242 -0.891626 0.798213 9.000000
2.853610 -0.926156 0.799750 9.000000
2.838797 -0.956451 0.797610 9.000000
2.814517 -0.983268 0.792904 9.000000
2.826315 -1.022841 0.798380 8.000000
2.792392 -1.045782 0.791021 10.000000
2.771892 -1.073266 0.787425 12.000000
2.764556 -1.105935 0.787577 16.000000
2.734557 -1.129197 0.781342 10.000000
2.713242 -1.155664 0.777672 10.000000
2.696249 -1.183785 0.775189 12.000000
2.691864 -1.217972 0.776709 9.000000
2.643461 -1.231468 0.765251 8.000000
2.673457 -1.281916 0.776820 14.000000
2.637827 -1.300776 0.769092 10.000000
2.636298 -1.336842 0.771768 19.000000
2.608603 -1.359595 0.766772 11.000000
2.593945 -1.388262 0.765195 11.000000
2.578638 -1.417300 0.763896 9.000000
2.567174 -1.448531 0.763852 8.000000
2.505111 -1.450471 0.748686 8.000000
2.514117 -1.493226 0.754816 13.000000
2.443863 -1.488592 0.737127 15.000000
2.439863 -1.523521 0.739418 26.000000
2.410857 -1.542880 0.734241 35.000000
2.402005 -1.575066 0.735188 43.000000
2.368636 -1.591044 0.728611 89.000000
2.371160 -1.631107 0.733255 36.000000
2.337457 -1.646321 0.726697 24.000000
2.354925 -1.697849 0.736045 52.000000
2.343529 -1.730388 0.737036 35.000000
2.367186 -1.788580 0.748751 36.000000
2.351598 -1.817786 0.748104 35.000000
2.339470 -1.849899 0.748668 32.000000
2.326177 -1.882652 0.749502 35.000000
2.298274 -1.902262 0.745102 27.000000
2.259111 -1.911928 0.737090 10.000000
2.253126 -1.949574 0.739862 33.000000
2.242104 -1.984895 0.741688 29.000000
2.235035 -2.022685 0.744412 33.000000
2.208826 -2.044876 0.741321 33.000000
2.183256 -2.065852 0.737953 27.000000
2.188989 -2.116852 0.745194 31.000000
2.151544 -2.128064 0.738539 25.000000
2.138980 -2.162096 0.739803 17.000000
2.118191 -2.189850 0.738880 16.000000
2.051320 -2.167213 0.721218 16.000000
1.980927 -2.140594 0.702759 20.000000
1.873190 -2.068593 0.670116 20.000000
1.782466 -2.013417 0.643659 22.000000
1.719717 -1.985037 0.626386 25.000000
1.628393 -1.922898 0.598969 15.000000
1.542811 -1.862006 0.572639 9.000000
1.506795 -1.860615 0.565076 16.000000
1.440840 -1.820484 0.546102 14.000000
1.379830 -1.782242 0.528095 16.000000
1.330674 -1.759094 0.514961 24.000000
1.291873 -1.746135 0.505098 24.000000
1.269624 -1.756818 0.502200 30.000000
1.241709 -1.759340 0.497061 28.000000
1.220461 -1.768751 0.493985 17.000000
1.200812 -1.782680 0.492236 32.000000
1.192828 -1.811887 0.494663 26.000000
1.167458 -1.817263 0.490615 29.000000
1.160264 -1.851240 0.494307 28.000000
1.156198 -1.888711 0.498849 25.000000
1.140209 -1.910251 0.499098 25.000000
1.119056 -1.923263 0.497150 21.000000
1.108728 -1.952277 0.499335 9.000000
0.822600 1.477143 0.389327 8.000000
0.853414 1.492881 0.397674 16.000000
0.866411 1.479253 0.398267 26.000000
0.880231 1.464928 0.398688 22.000000
0.899014 1.458789 0.401382 29.000000
0.916757 1.453022 0.404246 27.000000
0.935451 1.446389 0.406957 25.000000
0.945151 1.427959 0.406323 30.000000
0.960942 1.416948 0.407827 26.000000
0.973798 1.401783 0.408115 21.000000
0.982841 1.383091 0.407440 32.000000
1.003844 1.379556 0.411221 31.000000
1.021206 1.372314 0.413950 32.000000
1.033408 1.356633 0.414220 33.000000
1.054325 1.352298 0.417981 30.000000
1.077626 1.352003 0.423109 36.000000
1.095633 1.343326 0.425659 26.000000
1.094253 1.312480 0.421255 28.000000
1.108701 1.299858 0.422598 32.000000
1.132017 1.298532 0.427662 31.000000
1.152831 1.292665 0.431379 35.000000
1.169771 1.283394 0.434062 32.000000
1.183974 1.269901 0.435373 42.000000
1.197412 1.256736 0.436793 34.000000
1.217560 1.250299 0.440662 31.000000
1.238244 1.243104 0.444325 31.000000
1.251445 1.229295 0.445706 48.000000
1.265089 1.214823 0.446921 36.000000
1.281545 1.203999 0.449485 70.000000
1.308714 1.202763 0.455782 42.000000
1.322042 1.187643 0.456958 50.000000
1.345665 1.182390 0.461992 52.000000
1.365654 1.173625 0.465795 47.000000
1.370845 1.152072 0.464532 31.000000
1.402359 1.151619 0.471897 35.000000
1.418491 1.138912 0.474418 46.000000
1.442127 1.131922 0.479417 52.000000
1.458166 1.118674 0.481900 36.000000
1.474096 1.105165 0.484331 52.000000
1.490264 1.090987 0.486593 35.000000
1.498106 1.071446 0.486482 30.000000
1.529428 1.068426 0.493985 34.000000
1.552949 1.059339 0.498893 36.000000
1.564405 1.041829 0.500021 59.000000
1.579733 1.026833 0.502377 49.000000
1.590861 1.009039 0.503389 36.000000
1.622287 1.003773 0.510867 50.000000
1.633136 0.985511 0.511892 52.000000
1.672690 0.984574 0.522129 35.000000
1.687550 0.968083 0.524350 36.000000
1.714920 0.958440 0.530548 59.000000
1.742247 0.948293 0.536640 43.000000
1.773662 0.940215 0.544312 72.000000
1.792458 0.924644 0.547758 37.000000
1.810904 0.909009 0.551468 48.000000
1.825109 0.890616 0.553616 47.000000
1.838974 0.872384 0.555897 35.000000
1.887861 0.869747 0.568542 34.000000
1.906003 0.852574 0.572105 37.000000
1.937236 0.840899 0.579647 35.000000
1.959521 0.824856 0.584492 36.000000
1.981727 0.808381 0.589349 35.000000
2.008330 0.793311 0.595479 44.000000
2.030381 0.775913 0.600223 82.000000
2.065830 0.763224 0.608975 33.000000
2.078527 0.741622 0.611077 30.000000
2.072827 0.713645 0.607768 9.000000
2.084967 0.692043 0.609939 9.000000
2.156581 0.689409 0.629454 13.000000
2.187061 0.672245 0.636730 92.000000
2.217261 0.654639 0.644165 40.000000
2.256655 0.639069 0.654228 37.000000
2.244900 0.608762 0.649444 15.000000
2.288601 0.593446 0.660950 9.000000
2.299644 0.568980 0.662897 9.000000
2.347749 0.553320 0.675634 9.000000
2.395917 0.536568 0.688394 13.000000
2.467524 0.523792 0.707851 74.000000
2.501358 0.501889 0.716441 43.000000
2.525614 0.477566 0.722337 62.000000
2.568578 0.456105 0.733738 28.000000
2.649257 0.440110 0.755824 38.000000
2.672964 0.413422 0.761756 72.000000
2.710599 0.388357 0.771592 16.000000
2.748076 0.362549 0.781523 10.000000
2.823518 0.340518 0.802236 44.000000
2.860429 0.312705 0.812195 95.000000
2.873291 0.281708 0.815094 98.000000
2.871336 0.249248 0.814101 71.000000
2.835512 0.214357 0.803589 60.000000
2.818470 0.181467 0.798240 74.000000
2.767412 0.147217 0.783457 87.000000
2.739976 0.115155 0.775470 18.000000
2.702550 0.083439 0.764758 9.000000
2.693701 0.053064 0.762122 9.000000
2.679695 0.022948 0.758124 9.000000
2.626858 -0.006832 0.743152 9.000000
2.631419 -0.036141 0.744513 9.000000
2.616406 -0.065161 0.740347 9.000000
2.586728 -0.093257 0.732099 10.000000
2.575967 -0.121617 0.729214 11.000000
2.608117 -0.152288 0.738571 59.000000
2.591895 -0.180450 0.734491 51.000000
2.575365 -0.208127 0.730083 66.000000
2.558614 -0.235483 0.725841 76.000000
2.551058 -0.263507 0.724319 80.000000
2.533706 -0.290248 0.719838 88.000000
2.520842 -0.317270 0.716799 85.000000
2.502995 -0.343426 0.712406 77.000000
2.489549 -0.369889 0.709373 74.000000
2.475895 -0.396140 0.706263 34.000000
2.381314 -0.408273 0.680124 10.000000
2.367325 -0.432968 0.676956 10.000000
2.367167 -0.460285 0.677928 17.000000
2.409113 -0.496450 0.690991 78.000000
2.394170 -0.521225 0.687743 95.000000
2.374346 -0.544636 0.683149 81.000000
2.330879 -0.562013 0.671741 57.000000
2.366583 -0.598628 0.683339 55.000000
2.378626 -0.629783 0.688029 12.000000
2.436584 -0.674274 0.706238 18.000000
2.526300 -0.729489 0.733737 23.000000
2.721152 -0.818614 0.791966 9.000000
2.840767 -0.889337 0.828891 9.000000
2.835541 -0.922417 0.829193 9.000000
2.793483 -0.943083 0.818789 9.000000
2.810308 -0.983825 0.825873 9.000000
2.772191 -1.005370 0.816921 8.000000
2.770102 -1.039666 0.818654 9.000000
2.758672 -1.070584 0.817624 14.000000
2.720024 -1.090552 0.808520 10.000000
2.725779 -1.128170 0.812719 14.000000
2.700151 -1.152840 0.807527 10.000000
2.665449 -1.173144 0.799699 10.000000
2.661329 -1.206711 0.801053 10.000000
2.652291 -1.238711 0.801356 9.000000
2.656157 -1.276428 0.805238 13.000000
2.629014 -1.299849 0.800171 15.000000
2.606218 -1.324608 0.796059 14.000000
2.578686 -1.347126 0.790830 22.000000
2.525787 -1.355117 0.777577 17.000000
2.498151 -1.376499 0.772297 20.000000
2.495514 -1.411584 0.774948 24.000000
2.454875 -1.425049 0.765685 43.000000
2.451979 -1.459464 0.767968 90.000000
2.431715 -1.484363 0.765228 95.000000
2.415421 -1.511641 0.763698 73.000000
2.419094 -1.551688 0.768626 61.000000
2.414137 -1.586704 0.770951 46.000000
2.400716 -1.616320 0.770595 34.000000
2.418789 -1.667881 0.780503 35.000000
2.408409 -1.700453 0.781302 26.000000
2.389793 -1.727353 0.779533 35.000000
2.374132 -1.757501 0.779320 35.000000
2.351073 -1.781059 0.776183 35.000000
2.339264 -1.813233 0.776860 35.000000
2.323350 -1.842199 0.776165 35.000000
2.307091 -1.871062 0.775464 32.000000
2.312073 -1.919115 0.782504 35.000000
2.265399 -1.922872 0.771622 29.000000
2.233540 -1.938463 0.765801 35.000000
2.234290 -1.982542 0.771156 35.000000
2.222733 -2.017819 0.773013 34.000000
2.204524 -2.045711 0.772081 37.000000
2.178931 -2.066730 0.768567 32.000000
2.166184 -2.101732 0.770289 30.000000
2.143559 -2.125687 0.767913 34.000000
2.130001 -2.160567 0.769509 32.000000
2.123617 -2.201414 0.773248 26.000000
2.050106 -2.171922 0.752423 22.000000
1.986391 -2.152561 0.735646 25.000000
1.882174 -2.084315 0.702900 27.000000
1.791431 -2.029493 0.675363 24.000000
1.719057 -1.990322 0.653764 24.000000
1.643669 -1.946880 0.631336 26.000000
1.554990 -1.882566 0.602731 10.000000
1.512688 -1.873850 0.592451 23.000000
1.447639 -1.833181 0.572406 25.000000
1.382797 -1.792012 0.552778 21.000000
1.330647 -1.765124 0.537924 26.000000
1.291855 -1.752256 0.527666 30.000000
1.266625 -1.759133 0.523473 33.000000
1.236920 -1.756980 0.516755 32.000000
1.209166 -1.759122 0.511439 26.000000
1.197735 -1.785036 0.513113 37.000000
1.178986 -1.798053 0.511022 31.000000
1.161577 -1.815640 0.510285 29.000000
1.150320 -1.840662 0.511631 33.000000
1.137436 -1.866266 0.513086 29.000000
1.126694 -1.896025 0.515652 28.000000
1.119142 -1.929322 0.519108 26.000000
1.104878 -1.954833 0.520468 9.000000
0.834279 1.505483 0.412521 7.000000
0.843758 1.482977 0.410685 21.000000
0.860201 1.473069 0.412292 19.000000
0.885442 1.480214 0.418832 28.000000
0.891693 1.453252 0.415720 23.000000
0.906850 1.443344 0.417487 26.000000
0.914923 1.420494 0.415459 32.000000
0.944012 1.430023 0.422990 26.000000
0.961649 1.423541 0.425917 30.000000
0.960855 1.388368 0.420238 19.000000
0.986616 1.393530 0.426733 25.000000
0.996338 1.374184 0.425804 31.000000
1.019421 1.374759 0.431124 28.000000
1.031680 1.359048 0.431406 32.000000
1.045967 1.347554 0.433018 30.000000
1.060898 1.335361 0.434414 24.000000
1.087186 1.338585 0.440980 34.000000
1.083389 1.303635 0.434937 16.000000
1.103438 1.298892 0.438979 33.000000
1.121008 1.289708 0.441573 34.000000
1.144332 1.288066 0.446847 29.000000
1.161819 1.278338 0.449464 32.000000
1.175383 1.265374 0.450989 33.000000
1.196101 1.258713 0.454776 32.000000
1.212836 1.248816 0.457526 35.000000
1.212505 1.221468 0.453909 10.000000
1.246750 1.227749 0.462774 40.000000
1.259841 1.213774 0.464210 56.000000
1.276338 1.202947 0.466877 36.000000
1.296793 1.194649 0.470619 65.000000
1.320366 1.189812 0.475891 37.000000
1.336735 1.178124 0.478536 34.000000
1.356718 1.169395 0.482431 49.000000
1.358606 1.144329 0.479653 13.000000
1.385804 1.141328 0.486172 36.000000
1.416914 1.140791 0.493973 55.000000
1.432958 1.127782 0.496552 33.000000
1.445128 1.111632 0.497763 54.000000
1.460980 1.098207 0.500294 32.000000
1.476721 1.084579 0.502832 34.000000
1.496268 1.073442 0.506644 47.000000
1.507867 1.056539 0.507810 16.000000
1.543214 1.055846 0.516911 52.000000
1.558647 1.041057 0.519371 48.000000
1.569925 1.023369 0.520439 42.000000
1.593218 1.013376 0.525530 52.000000
1.612408 1.000391 0.529233 61.000000
1.635590 0.989592 0.534293 35.000000
1.642225 0.968610 0.533974 60.000000
1.673301 0.962361 0.541879 19.000000
1.688025 0.945745 0.544150 55.000000
1.727840 0.942742 0.554561 86.000000
1.763383 0.937005 0.563837 42.000000
1.790673 0.925897 0.570166 69.000000
1.804816 0.907983 0.572617 46.000000
1.819070 0.889653 0.574815 42.000000
1.832856 0.871354 0.577211 50.000000
1.872751 0.864926 0.587767 23.000000
1.899529 0.851848 0.594172 34.000000
1.935094 0.842082 0.603344 50.000000
1.948566 0.822180 0.605591 36.000000
1.975223 0.807568 0.611977 43.000000
1.992831 0.788952 0.615618 76.000000
2.037167 0.780243 0.627423 74.000000
2.063572 0.764055 0.633719 54.000000
2.053585 0.734522 0.629085 21.000000
2.070633 0.714587 0.632553 9.000000
2.101005 0.698999 0.640333 9.000000
2.131401 0.682688 0.647917 18.000000
2.166190 0.667279 0.657052 54.000000
2.205552 0.652544 0.667454 79.000000
2.249447 0.638326 0.679345 63.000000
2.270033 0.617061 0.684277 53.000000
2.309212 0.600016 0.694659 32.000000
2.334142 0.578853 0.701015 35.000000
2.377627 0.561612 0.712830 27.000000
2.411705 0.541278 0.721861 29.000000
2.445606 0.520316 0.730828 37.000000
2.484023 0.499512 0.741130 60.000000
2.512833 0.476183 0.748799 51.000000
2.574563 0.458214 0.766157 36.000000
2.612516 0.434956 0.776503 58.000000
2.664475 0.412993 0.790999 67.000000
2.673511 0.383918 0.792921 16.000000
2.739375 0.362197 0.811494 10.000000
2.819353 0.340823 0.834578 42.000000
2.856255 0.312863 0.844720 98.000000
2.840359 0.279088 0.839442 98.000000
2.833707 0.246480 0.836892 91.000000
2.831367 0.214448 0.835662 62.000000
2.804817 0.180979 0.827460 79.000000
2.753922 0.146786 0.812103 70.000000
2.736158 0.115270 0.806715 20.000000
2.694146 0.083353 0.794171 9.000000
2.680446 0.052884 0.789932 10.000000
2.661690 0.022781 0.784364 9.000000
2.628202 -0.006857 0.774555 9.000000
2.618361 -0.036075 0.771645 9.000000
2.593805 -0.064719 0.764579 9.000000
2.564222 -0.092655 0.756017 9.000000
2.572661 -0.121762 0.758598 15.000000
2.599914 -0.152205 0.766991 70.000000
2.583737 -0.180203 0.762506 66.000000
2.548130 -0.206333 0.752540 34.000000
2.555324 -0.235679 0.755119 95.000000
2.538316 -0.262769 0.750641 89.000000
2.520935 -0.289458 0.746166 85.000000
2.503428 -0.315748 0.741453 87.000000
2.490311 -0.342452 0.738474 95.000000
2.476983 -0.368863 0.735178 90.000000
2.463287 -0.394983 0.732043 32.000000
2.378458 -0.408703 0.707651 10.000000
2.392808 -0.438643 0.712814 25.000000
2.387935 -0.465333 0.712272 32.000000
2.363876 -0.488141 0.706269 95.000000
2.353738 -0.513520 0.704329 93.000000
2.352670 -0.540869 0.705195 95.000000
2.328022 -0.562608 0.698978 79.000000
2.359079 -0.597931 0.709487 57.000000
2.324510 -0.616924 0.700556 10.000000
2.442693 -0.677402 0.737424 18.000000
2.536667 -0.734077 0.767395 16.000000
2.721614 -0.820576 0.825183 15.000000
2.817968 -0.883987 0.856304 9.000000
2.803455 -0.914123 0.854162 9.000000
2.807079 -0.949941 0.857206 9.000000
2.805599 -0.984567 0.859135 9.000000
2.767741 -1.005890 0.849591 8.000000
2.756610 -1.036851 0.848656 10.000000
2.731671 -1.062492 0.843385 10.000000
2.715484 -1.091230 0.840980 11.000000
2.725599 -1.130826 0.846667 14.000000
2.699882 -1.155601 0.841318 17.000000
2.669611 -1.177952 0.834606 14.000000
2.639229 -1.199725 0.827818 10.000000
2.604297 -1.218885 0.819586 10.000000
2.599640 -1.252075 0.820953 28.000000
2.555557 -1.266423 0.810290 32.000000
2.524568 -1.286101 0.803386 58.000000
2.514540 -1.316733 0.803490 70.000000
2.491750 -1.340083 0.799241 81.000000
2.481069 -1.370493 0.799252 85.000000
2.470067 -1.400818 0.799258 36.000000
2.450781 -1.425676 0.796196 35.000000
2.484664 -1.482783 0.810950 51.000000
2.480569 -1.518295 0.813524 49.000000
2.471954 -1.551340 0.814645 37.000000
2.462949 -1.584292 0.815757 36.000000
2.437463 -1.606636 0.811409 35.000000
2.427695 -1.639399 0.812417 35.000000
2.429514 -1.680381 0.817321 29.000000
2.375688 -1.682529 0.803570 27.000000
2.388384 -1.731802 0.812346 34.000000
2.361684 -1.752856 0.807829 36.000000
2.342510 -1.779198 0.805875 34.000000
2.315439 -1.799526 0.801284 30.000000
2.314651 -1.840422 0.805909 33.000000
2.298284 -1.869282 0.805163 32.000000
2.285373 -1.901125 0.805718 26.000000
2.234541 -1.902319 0.793491 27.000000
2.239341 -1.949371 0.800468 32.000000
2.221833 -1.977543 0.799514 32.000000
2.207547 -2.008764 0.799847 33.000000
2.184915 -2.034036 0.797867 29.000000
2.173443 -2.068357 0.799465 34.000000
2.147617 -2.089056 0.795813 31.000000
2.144806 -2.134204 0.801317 26.000000
2.128565 -2.164787 0.801386 32.000000
2.112080 -2.195329 0.801439 29.000000
2.070904 -2.201939 0.792885 22.000000
1.994843 -2.167778 0.770078 29.000000
1.892931 -2.104307 0.737588 22.000000
1.793700 -2.038008 0.704931 25.000000
1.710952 -1.988916 0.678989 26.000000
1.655486 -1.966943 0.662940 17.000000
1.553544 -1.888664 0.628476 11.000000
1.500031 -1.864259 0.612600 16.000000
1.446288 -1.839551 0.597043 20.000000
1.382519 -1.797775 0.576359 24.000000
1.318785 -1.755499 0.556020 18.000000
1.288778 -1.754317 0.549055 32.000000
1.255051 -1.749415 0.541111 31.000000
1.236623 -1.763168 0.539011 29.000000
1.200530 -1.753310 0.529856 26.000000
1.184783 -1.770442 0.528922 34.000000
1.178359 -1.804428 0.532982 29.000000
1.150411 -1.805694 0.527429 32.000000
1.141698 -1.834701 0.530040 26.000000
1.131338 -1.864484 0.532749 30.000000
1.109404 -1.872568 0.529375 29.000000
1.110423 -1.923227 0.537848 25.000000
1.086563 -1.931821 0.534584 9.000000
0.825698 1.494936 0.425229 6.000000
0.829377 1.464595 0.421042 9.000000
0.862691 1.484093 0.431211 21.000000
0.870645 1.461982 0.429431 22.000000
0.891926 1.460025 0.433548 19.000000
0.910658 1.453574 0.436450 28.000000
0.918044 1.431186 0.434519 20.000000
0.947200 1.440601 0.442393 24.000000
0.956841 1.422028 0.441690 25.000000
0.983604 1.426734 0.448265 10.000000
0.984625 1.395927 0.443782 21.000000
0.997251 1.380479 0.444082 22.000000
1.011753 1.369360 0.445801 18.000000
1.029871 1.361347 0.448575 28.000000
1.038282 1.342172 0.447694 22.000000
1.065173 1.345171 0.454259 24.000000
1.073285 1.325743 0.453369 23.000000
1.106482 1.335513 0.462554 13.000000
1.101832 1.301020 0.456440 29.000000
1.116322 1.288146 0.457840 26.000000
1.136351 1.282877 0.462005 23.000000
1.159665 1.280827 0.467493 29.000000
1.173923 1.267334 0.468859 24.000000
1.190732 1.257617 0.471702 32.000000
1.210806 1.251183 0.475818 29.000000
1.231528 1.243880 0.479783 17.000000
1.237908 1.223255 0.478627 35.000000
1.254483 1.212614 0.481389 29.000000
1.271464 1.201341 0.483993 34.000000
1.287852 1.190265 0.486714 34.000000
1.311346 1.185403 0.492126 29.000000
1.327722 1.173752 0.494871 31.000000
1.348093 1.164606 0.498746 29.000000
1.364247 1.152469 0.501452 25.000000
1.380412 1.140079 0.504110 33.000000
1.403904 1.133537 0.509491 27.000000
1.419926 1.120610 0.512169 30.000000
1.439648 1.110421 0.516162 32.000000
1.463166 1.102723 0.521480 30.000000
1.475084 1.086155 0.522701 31.000000
1.490730 1.072218 0.525297 29.000000
1.502388 1.055315 0.526462 25.000000
1.529664 1.049108 0.533153 35.000000
1.553008 1.039751 0.538424 32.000000
1.568307 1.024750 0.540939 33.000000
1.583187 1.009837 0.543579 41.000000
1.602319 0.996892 0.547439 30.000000
1.617278 0.981152 0.549914 34.000000
1.656903 0.979860 0.560663 33.000000
1.671463 0.963779 0.563288 27.000000
1.690320 0.949464 0.567077 34.000000
1.725684 0.944359 0.576625 33.000000
1.757177 0.935992 0.584607 35.000000
1.779893 0.922922 0.589981 46.000000
1.789971 0.902639 0.590874 30.000000
1.808212 0.886771 0.594727 35.000000
1.826417 0.870581 0.598589 30.000000
1.861789 0.862126 0.608079 23.000000
1.884178 0.847058 0.613328 32.000000
1.919610 0.837379 0.622800 34.000000
1.950678 0.825108 0.630802 33.000000
1.968448 0.806755 0.634537 36.000000
1.990479 0.789835 0.639711 34.000000
2.034781 0.781129 0.651994 45.000000
2.052023 0.761690 0.655766 32.000000
2.060251 0.738539 0.656533 19.000000
2.077112 0.718588 0.660317 26.000000
2.098372 0.699810 0.665479 9.000000
2.142453 0.687831 0.677576 14.000000
2.163490 0.667971 0.682695 45.000000
2.193435 0.650671 0.690786 30.000000
2.251074 0.640425 0.707355 48.000000
2.267174 0.617571 0.710922 33.000000
2.269061 0.591042 0.710222 10.000000
2.330988 0.579472 0.728304 51.000000
2.369705 0.560990 0.739159 32.000000
2.399022 0.539678 0.746969 21.000000
2.409426 0.513696 0.748972 9.000000
2.475886 0.498948 0.768362 18.000000
2.514017 0.477480 0.779202 26.000000
2.551955 0.455113 0.789893 31.000000
2.599207 0.433580 0.803514 14.000000
2.655728 0.412564 0.820155 37.000000
2.688414 0.386981 0.829431 10.000000
2.758852 0.365615 0.850319 9.000000
2.795898 0.338646 0.860906 37.000000
2.842179 0.311975 0.874334 66.000000
2.845373 0.280221 0.874699 95.000000
2.843438 0.247961 0.873692 94.000000
2.793550 0.212096 0.857772 25.000000
2.786155 0.180183 0.855112 36.000000
2.759294 0.147375 0.846503 67.000000
2.703389 0.114088 0.829102 10.000000
2.680535 0.083119 0.821948 9.000000
2.647849 0.052411 0.811692 8.000000
2.638627 0.022657 0.808931 8.000000
2.610029 -0.006832 0.800138 9.000000
2.581183 -0.035678 0.791263 8.000000
2.590164 -0.064756 0.794193 9.000000
2.555814 -0.092574 0.783855 9.000000
2.545120 -0.120693 0.780762 10.000000
2.567518 -0.150639 0.787922 37.000000
2.556256 -0.178705 0.784829 45.000000
2.554129 -0.207330 0.784665 20.000000
2.527954 -0.233674 0.777022 63.000000
2.506258 -0.259978 0.770847 35.000000
2.488952 -0.286403 0.766299 32.000000
2.457212 -0.310708 0.757208 24.000000
2.411102 -0.332338 0.743741 14.000000
2.407296 -0.359289 0.743275 11.000000
2.417500 -0.388437 0.747187 23.000000
2.394272 -0.412223 0.740963 13.000000
2.413141 -0.443364 0.747786 71.000000
2.384738 -0.465708 0.739955 60.000000
2.379467 -0.492451 0.739490 65.000000
2.341251 -0.511962 0.728841 81.000000
2.349580 -0.541406 0.732590 49.000000
2.324905 -0.563126 0.726166 54.000000
2.328001 -0.591498 0.728381 60.000000
2.279869 -0.606395 0.714645 8.000000
2.416032 -0.671711 0.758943 13.000000
2.532619 -0.734739 0.797292 10.000000
2.634598 -0.796135 0.830967 9.000000
2.822096 -0.887357 0.892166 9.000000
2.793992 -0.913186 0.885642 8.000000
2.788502 -0.945923 0.886052 9.000000
2.769051 -0.973901 0.881954 8.000000
2.771699 -1.009873 0.885331 7.000000
2.733812 -1.030659 0.875497 9.000000
2.700049 -1.052583 0.867306 9.000000
2.697304 -1.086535 0.869061 10.000000
2.641025 -1.098332 0.853560 20.000000
2.611295 -1.120381 0.846665 23.000000
2.603373 -1.151546 0.846823 32.000000
2.581960 -1.176755 0.842708 34.000000
2.508288 -1.177061 0.821456 14.000000
2.547220 -1.230127 0.837160 72.000000
2.529421 -1.256442 0.834303 41.000000
2.511130 -1.282840 0.831720 36.000000
2.526952 -1.326439 0.840078 33.000000
2.520598 -1.359592 0.841626 28.000000
2.518433 -1.394623 0.844116 28.000000
2.527897 -1.437234 0.851170 11.000000
2.495780 -1.455672 0.843807 9.000000
2.512564 -1.503592 0.853531 31.000000
2.471445 -1.516820 0.843569 29.000000
2.462707 -1.549860 0.844698 29.000000
2.450099 -1.579648 0.844146 32.000000
2.424671 -1.602046 0.839703 28.000000
2.426839 -1.642744 0.844875 31.000000
2.412730 -1.672847 0.844488 26.000000
2.355084 -1.672246 0.828833 10.000000
2.352296 -1.709963 0.832503 35.000000
2.329699 -1.733588 0.829283 23.000000
2.337399 -1.780156 0.836843 31.000000
