x y z intensity
2.106482 -0.267385 -0.681223 35.000000
2.108203 -0.291652 -0.682409 43.000000
2.104929 -0.315252 -0.682000 36.000000
2.106084 -0.339541 -0.683047 36.000000
2.074101 -0.358329 -0.673562 22.000000
2.107590 -0.388435 -0.685272 66.000000
2.103264 -0.412056 -0.684792 39.000000
2.098732 -0.435539 -0.684242 49.000000
2.084551 -0.457119 -0.680723 15.000000
2.070141 -0.478353 -0.677139 14.000000
2.087981 -0.507113 -0.684180 19.000000
2.100876 -0.535217 -0.689623 12.000000
2.044327 -0.545244 -0.672206 9.000000
2.061251 -0.574473 -0.679022 20.000000
2.050303 -0.596299 -0.676895 13.000000
2.061919 -0.624797 -0.682317 20.000000
2.050475 -0.646537 -0.680051 13.000000
2.047918 -0.671006 -0.680800 13.000000
2.049567 -0.696975 -0.682981 12.000000
2.055370 -0.724662 -0.686588 10.000000
2.016129 -0.736153 -0.675179 9.000000
2.057041 -0.777431 -0.690839 18.000000
2.026311 -0.791682 -0.682372 10.000000
2.035242 -0.821649 -0.687445 12.000000
2.030592 -0.846367 -0.688025 12.000000
2.016852 -0.867273 -0.685550 10.000000
2.016033 -0.893814 -0.687544 10.000000
2.006234 -0.916443 -0.686486 10.000000
1.996153 -0.938931 -0.685429 9.000000
2.046039 -0.990480 -0.705037 19.000000
2.022390 -1.006973 -0.699367 10.000000
2.011419 -1.029563 -0.698140 10.000000
2.008400 -1.056892 -0.700005 12.000000
2.005284 -1.083833 -0.701642 10.000000
2.026926 -1.124804 -0.712003 15.000000
2.010266 -1.145379 -0.709354 10.000000
1.956653 -1.143629 -0.693251 9.000000
1.989036 -1.192889 -0.708081 10.000000
1.963567 -1.207868 -0.702377 10.000000
1.982999 -1.250047 -0.712390 10.000000
1.973185 -1.275149 -0.712495 10.000000
1.983040 -1.313331 -0.719761 10.000000
1.988360 -1.349217 -0.725470 10.000000
1.965637 -1.366196 -0.721054 10.000000
1.947163 -1.385087 -0.717785 9.000000
1.962907 -1.429651 -0.727668 12.000000
1.939522 -1.446049 -0.723102 10.000000
1.946503 -1.485374 -0.729978 10.000000
1.945316 -1.519162 -0.733884 10.000000
1.947461 -1.555969 -0.739185 10.000000
1.941618 -1.586972 -0.741614 10.000000
1.913184 -1.599609 -0.735455 9.000000
1.902382 -1.627984 -0.736611 8.000000
1.920804 -1.681008 -0.748693 11.000000
1.898963 -1.699320 -0.745260 9.000000
1.894656 -1.733591 -0.748752 10.000000
1.875880 -1.754816 -0.746629 10.000000
1.877683 -1.795711 -0.752774 10.000000
1.884926 -1.844297 -0.761895 11.000000
1.871782 -1.872203 -0.762401 10.000000
1.868406 -1.910317 -0.766943 8.000000
1.866873 -1.952799 -0.773076 10.000000
1.842664 -1.970040 -0.769218 10.000000
1.853903 -2.026067 -0.780403 12.000000
1.840783 -2.058258 -0.782226 10.000000
1.828305 -2.089617 -0.783673 10.000000
1.834111 -2.142866 -0.793214 16.000000
1.813237 -2.167751 -0.792059 9.000000
1.811475 -2.213995 -0.798695 8.000000
1.802959 -2.252831 -0.802585 10.000000
1.789604 -2.288853 -0.805368 10.000000
1.797516 -2.350843 -0.816968 21.000000
1.777053 -2.379368 -0.816903 19.000000
1.760395 -2.410696 -0.817859 22.000000
1.747383 -2.450735 -0.821609 28.000000
1.727097 -2.477980 -0.820995 20.000000
1.723732 -2.533857 -0.829891 13.000000
1.694414 -2.548924 -0.825295 26.000000
1.679013 -2.588820 -0.828781 21.000000
1.677659 -2.648149 -0.838285 27.000000
1.642971 -2.659437 -0.832641 23.000000
1.632605 -2.706572 -0.838057 23.000000
1.607268 -2.733867 -0.837417 21.000000
1.593563 -2.781957 -0.843014 18.000000
1.597462 -2.858676 -0.857097 9.000000
0.821808 1.483719 -0.430878 8.000000
0.822942 1.449203 -0.425328 11.000000
0.841443 1.443677 -0.428197 21.000000
0.866323 1.450936 -0.434972 18.000000
0.874820 1.428327 -0.432817 28.000000
0.890659 1.418032 -0.434401 22.000000
0.921196 1.432471 -0.443706 25.000000
0.931717 1.413597 -0.442787 28.000000
0.957328 1.419219 -0.449576 21.000000
0.959303 1.388097 -0.444771 24.000000
0.976685 1.381340 -0.447754 22.000000
1.000461 1.381599 -0.453154 22.000000
1.012075 1.366567 -0.453535 34.000000
1.030140 1.358600 -0.456332 24.000000
1.056248 1.362337 -0.463137 29.000000
1.062389 1.338627 -0.460703 26.000000
1.088651 1.341735 -0.467548 25.000000
1.081932 1.303021 -0.459798 29.000000
1.108183 1.305628 -0.466663 24.000000
1.129026 1.299965 -0.470654 30.000000
1.145954 1.290933 -0.473557 36.000000
1.162905 1.281665 -0.476413 24.000000
1.190207 1.282209 -0.483051 34.000000
1.207205 1.272356 -0.485881 29.000000
1.224055 1.262262 -0.488776 25.000000
1.234698 1.244585 -0.488714 32.000000
1.261687 1.244167 -0.495544 26.000000
1.281924 1.236645 -0.499705 34.000000
1.306206 1.231647 -0.505009 36.000000
1.344113 1.239743 -0.515936 29.000000
1.336016 1.205273 -0.509160 42.000000
1.377767 1.215608 -0.521450 32.000000
1.405917 1.212140 -0.528088 31.000000
1.404230 1.183899 -0.524014 31.000000
1.413228 1.164929 -0.523980 25.000000
1.437012 1.157988 -0.529395 35.000000
1.491014 1.174464 -0.545885 35.000000
1.503731 1.157588 -0.547151 27.000000
1.535400 1.154968 -0.555359 35.000000
1.555652 1.143261 -0.559424 30.000000
1.575782 1.131195 -0.563440 27.000000
1.588050 1.113318 -0.564673 35.000000
1.608054 1.100740 -0.568645 28.000000
1.635908 1.093129 -0.575374 35.000000
1.655833 1.079853 -0.579312 33.000000
1.691492 1.076891 -0.589152 28.000000
1.703228 1.057629 -0.590236 35.000000
1.735219 1.050723 -0.598394 34.000000
1.775548 1.048099 -0.609346 29.000000
1.799167 1.035458 -0.614853 34.000000
1.818761 1.019664 -0.618688 32.000000
1.846471 1.008542 -0.625583 33.000000
1.874382 0.996507 -0.632229 38.000000
1.906270 0.986562 -0.640527 35.000000
1.934187 0.973439 -0.647212 34.000000
1.978949 0.968628 -0.659720 36.000000
2.010960 0.956664 -0.668026 27.000000
2.021178 0.934101 -0.669019 25.000000
2.083673 0.934916 -0.687376 31.000000
2.098033 0.913390 -0.689765 24.000000
2.121109 0.895343 -0.695049 22.000000
2.135153 0.873301 -0.697376 21.000000
2.126770 0.842204 -0.692464 21.000000
2.131346 0.816496 -0.691889 23.000000
2.126548 0.787710 -0.688477 16.000000
2.135083 0.763770 -0.689201 16.000000
2.138662 0.738269 -0.688613 21.000000
2.128377 0.708338 -0.683577 19.000000
2.122370 0.679915 -0.679844 22.000000
2.125053 0.654687 -0.679024 24.000000
2.118181 0.626917 -0.675489 22.000000
2.129478 0.604466 -0.677587 26.000000
2.117454 0.575501 -0.672293 16.000000
2.142053 0.556637 -0.678788 14.000000
2.124791 0.526865 -0.672086 18.000000
2.116427 0.499808 -0.668240 16.000000
2.135693 0.479203 -0.673205 23.000000
2.117424 0.450263 -0.666270 16.000000
2.131563 0.428368 -0.669559 19.000000
2.131381 0.403665 -0.668572 21.000000
2.126199 0.378092 -0.666041 15.000000
2.130199 0.354297 -0.666385 18.000000
2.138644 0.331234 -0.668344 24.000000
2.113728 0.303247 -0.659832 21.000000
2.150016 0.283958 -0.670512 27.000000
2.129283 0.256988 -0.663333 24.000000
2.122459 0.232108 -0.660583 22.000000
2.129600 0.208770 -0.662266 25.000000
2.112686 0.183329 -0.656691 15.000000
2.138395 0.161483 -0.664155 20.000000
2.120975 0.136346 -0.658374 20.000000
2.136641 0.113340 -0.662949 25.000000
2.128191 0.089083 -0.660126 19.000000
2.133781 0.065410 -0.661674 21.000000
2.134395 0.041538 -0.661674 22.000000
2.129892 0.017558 -0.660262 21.000000
2.125185 -0.006247 -0.658781 20.000000
2.125049 -0.030013 -0.658646 23.000000
2.134122 -0.054020 -0.661606 25.000000
2.123894 -0.077544 -0.658510 19.000000
2.132485 -0.101765 -0.661265 26.000000
2.126490 -0.125288 -0.659649 22.000000
2.105934 -0.147769 -0.653531 10.000000
2.132744 -0.173633 -0.662334 35.000000
2.135586 -0.197863 -0.663470 65.000000
2.147579 -0.223255 -0.667558 95.000000
2.144958 -0.247256 -0.667351 95.000000
2.151679 -0.272458 -0.670027 95.000000
2.143828 -0.295843 -0.668205 85.000000
2.154686 -0.321947 -0.672213 98.000000
2.132268 -0.342917 -0.665903 32.000000
2.133115 -0.367592 -0.666961 76.000000
2.133736 -0.392304 -0.667949 84.000000
2.129372 -0.416134 -0.667464 81.000000
2.129411 -0.440934 -0.668517 95.000000
2.115143 -0.462705 -0.665095 28.000000
2.109958 -0.486345 -0.664542 21.000000
2.118505 -0.513292 -0.668386 25.000000
2.094335 -0.532239 -0.661833 9.000000
2.116195 -0.562996 -0.669920 21.000000
2.105299 -0.585406 -0.667899 16.000000
2.098814 -0.608975 -0.667272 19.000000
2.096767 -0.633650 -0.667823 19.000000
2.071527 -0.651392 -0.661298 15.000000
2.086987 -0.682099 -0.667951 21.000000
2.079494 -0.705421 -0.667110 18.000000
2.067276 -0.726946 -0.664749 9.000000
2.090712 -0.761684 -0.674199 17.000000
2.073454 -0.781510 -0.670310 12.000000
2.082602 -0.811777 -0.675246 18.000000
2.069183 -0.833291 -0.672947 15.000000
2.060011 -0.856542 -0.672022 15.000000
2.072555 -0.889018 -0.678227 21.000000
2.058473 -0.910295 -0.675783 16.000000
2.052791 -0.935302 -0.676143 9.000000
2.046922 -0.960262 -0.676498 17.000000
2.023464 -0.976845 -0.671053 10.000000
2.042843 -1.014304 -0.679907 18.000000
2.035853 -1.039580 -0.680316 16.000000
2.037231 -1.068970 -0.683350 10.000000
2.046464 -1.103342 -0.689358 19.000000
2.026085 -1.121418 -0.685115 10.000000
2.030380 -1.153816 -0.689600 9.000000
2.013753 -1.173917 -0.686775 10.000000
2.009009 -1.201533 -0.688335 10.000000
2.003859 -1.229262 -0.689885 10.000000
2.002512 -1.259506 -0.692755 10.000000
1.993005 -1.284222 -0.692502 10.000000
2.006874 -1.325201 -0.700938 13.000000
1.996250 -1.350519 -0.700805 10.000000
1.965602 -1.362023 -0.693777 8.000000
1.989801 -1.411929 -0.706158 12.000000
1.962716 -1.425861 -0.700370 10.000000
1.970207 -1.465101 -0.707054 11.000000
1.957969 -1.490156 -0.706719 10.000000
1.956810 -1.523923 -0.710508 10.000000
1.955237 -1.557873 -0.714270 10.000000
1.968076 -1.604077 -0.723406 10.000000
1.946899 -1.623073 -0.720186 9.000000
1.947511 -1.660389 -0.725071 10.000000
1.928841 -1.682875 -0.723366 9.000000
1.928533 -1.720406 -0.728116 10.000000
1.920520 -1.751688 -0.730124 10.000000
1.915654 -1.786245 -0.733457 10.000000
1.923442 -1.834918 -0.742306 14.000000
1.913995 -1.866401 -0.744138 10.000000
1.927963 -1.921755 -0.755219 10.000000
1.909784 -1.947439 -0.754569 13.000000
1.898895 -1.979032 -0.756137 13.000000
1.900723 -2.024736 -0.762978 19.000000
1.894349 -2.064387 -0.767385 17.000000
1.885165 -2.099755 -0.770080 18.000000
1.878680 -2.138678 -0.774051 21.000000
1.864164 -2.171359 -0.775634 19.000000
1.887568 -2.247344 -0.792563 26.000000
1.840984 -2.243020 -0.780962 22.000000
1.835375 -2.285882 -0.785888 26.000000
1.815774 -2.314601 -0.785968 32.000000
1.791242 -2.334673 -0.783088 24.000000
1.779622 -2.374640 -0.786800 29.000000
1.763180 -2.405920 -0.787726 27.000000
1.739162 -2.430093 -0.786268 23.000000
1.735694 -2.480941 -0.793294 27.000000
1.707993 -2.501001 -0.790524 20.000000
1.700434 -2.547898 -0.796176 24.000000
1.682603 -2.583730 -0.798291 27.000000
1.652886 -2.598210 -0.793738 18.000000
1.636635 -2.637904 -0.796946 25.000000
1.612308 -2.665071 -0.796391 19.000000
1.599228 -2.707765 -0.800456 19.000000
1.598035 -2.776692 -0.812029 22.000000
1.590350 -2.832288 -0.819507 6.000000
0.809088 1.456138 -0.407658 8.000000
0.820448 1.438177 -0.406842 21.000000
0.843675 1.441067 -0.411996 27.000000
0.858635 1.431724 -0.413728 31.000000
0.874487 1.421645 -0.415303 28.000000
0.886704 1.407830 -0.415770 32.000000
0.910193 1.409690 -0.420938 32.000000
0.936470 1.415199 -0.427299 34.000000
0.951263 1.404785 -0.429008 30.000000
0.952940 1.373820 -0.424354 21.000000
0.975776 1.375040 -0.429690 29.000000
0.993811 1.367595 -0.432363 27.000000
1.013913 1.364345 -0.436447 33.000000
1.037812 1.364069 -0.441636 35.000000
1.052126 1.352564 -0.443256 30.000000
1.073117 1.347874 -0.447173 32.000000
1.090349 1.339676 -0.450009 29.000000
1.086592 1.304681 -0.443784 24.000000
1.109761 1.303625 -0.449144 35.000000
1.124237 1.290715 -0.450440 32.000000
1.141118 1.281794 -0.453230 32.000000
1.168328 1.282871 -0.459651 41.000000
1.191790 1.280389 -0.464983 33.000000
1.209317 1.270079 -0.467542 51.000000
1.219463 1.253102 -0.467690 31.000000
1.249802 1.256578 -0.475606 20.000000
1.267190 1.245459 -0.478137 83.000000
1.283921 1.234598 -0.480844 47.000000
1.300668 1.223491 -0.483559 35.000000
1.321322 1.214949 -0.487365 55.000000
1.341494 1.206529 -0.491297 55.000000
1.376178 1.210577 -0.500571 60.000000
1.392822 1.198241 -0.503225 41.000000
1.395063 1.172771 -0.500359 22.000000
1.407637 1.157083 -0.501628 33.000000
1.446393 1.162355 -0.512209 36.000000
1.466485 1.152036 -0.516110 37.000000
1.501814 1.153106 -0.525371 37.000000
1.533493 1.150590 -0.533331 36.000000
1.553711 1.138977 -0.537170 35.000000
1.581700 1.132613 -0.543775 35.000000
1.589961 1.112038 -0.543597 22.000000
1.609964 1.099450 -0.547469 44.000000
1.641852 1.094630 -0.555354 36.000000
1.661805 1.081299 -0.559195 36.000000
1.685684 1.070238 -0.564343 41.000000
1.705516 1.056244 -0.568145 36.000000
1.729321 1.044360 -0.573257 42.000000
1.744809 1.027254 -0.575650 36.000000
1.793198 1.029399 -0.589203 23.000000
1.816940 1.016165 -0.594305 51.000000
1.840706 1.002449 -0.599354 44.000000
1.872581 0.993219 -0.607371 39.000000
1.913242 0.987451 -0.617969 53.000000
1.940946 0.974680 -0.624590 52.000000
1.973155 0.963217 -0.632336 51.000000
1.992086 0.945301 -0.636224 42.000000
2.041501 0.941127 -0.649698 19.000000
2.055954 0.920238 -0.652089 34.000000
2.109804 0.916324 -0.666943 33.000000
2.128522 0.896370 -0.670681 28.000000
2.160362 0.881587 -0.678543 29.000000
2.160851 0.853809 -0.676637 28.000000
2.156632 0.824370 -0.673250 24.000000
2.160937 0.798486 -0.672656 24.000000
2.137796 0.763096 -0.663713 10.000000
2.150561 0.740625 -0.665839 20.000000
2.153891 0.715101 -0.665228 21.000000
2.152473 0.687929 -0.662991 19.000000
2.150561 0.661106 -0.660891 19.000000
2.143845 0.632985 -0.657375 22.000000
2.150600 0.608951 -0.657943 23.000000
2.143113 0.581223 -0.654485 23.000000
2.135403 0.553592 -0.650735 9.000000
2.173813 0.537859 -0.661279 20.000000
2.179514 0.513560 -0.661849 21.000000
2.156858 0.482905 -0.653838 18.000000
2.147923 0.455792 -0.650003 19.000000
2.157516 0.432694 -0.651842 19.000000
2.161998 0.408601 -0.652332 21.000000
2.161621 0.383670 -0.651331 20.000000
2.142031 0.355565 -0.644566 10.000000
2.174185 0.335972 -0.653453 23.000000
2.177686 0.311738 -0.653803 28.000000
2.161972 0.284861 -0.648314 26.000000
2.160130 0.260197 -0.647235 25.000000
2.153304 0.234980 -0.644591 26.000000
2.155718 0.210978 -0.644867 26.000000
2.157925 0.186839 -0.645005 23.000000
2.140674 0.161328 -0.639434 10.000000
2.166224 0.138936 -0.646708 18.000000
2.177176 0.115250 -0.649633 21.000000
2.178287 0.090950 -0.649841 22.000000
2.155174 0.065918 -0.642769 26.000000
2.155792 0.041885 -0.642769 25.000000
2.156136 0.017784 -0.642838 22.000000
2.146621 -0.006221 -0.639912 19.000000
2.165581 -0.030485 -0.645557 26.000000
2.160376 -0.054503 -0.644060 26.000000
2.169196 -0.079007 -0.646847 31.000000
2.173015 -0.103427 -0.648067 65.000000
2.171768 -0.127674 -0.647928 91.000000
2.179874 -0.152589 -0.650574 71.000000
2.168512 -0.176097 -0.647582 47.000000
2.171275 -0.200784 -0.648800 98.000000
2.173751 -0.225439 -0.649948 95.000000
2.166346 -0.249175 -0.648314 84.000000
2.173079 -0.274537 -0.650745 95.000000
2.165193 -0.298151 -0.649043 95.000000
2.157112 -0.321588 -0.647203 92.000000
2.167701 -0.347889 -0.651191 56.000000
2.144890 -0.368820 -0.645088 35.000000
2.154948 -0.395384 -0.648862 81.000000
2.159967 -0.421208 -0.651212 95.000000
2.150579 -0.444330 -0.649304 90.000000
2.154987 -0.470346 -0.651648 62.000000
2.154466 -0.495496 -0.652572 21.000000
2.134995 -0.516103 -0.647696 20.000000
2.152580 -0.545757 -0.654132 16.000000
2.127959 -0.564855 -0.647920 12.000000
2.126349 -0.589810 -0.648560 19.000000
2.124429 -0.614868 -0.649336 20.000000
2.113083 -0.637119 -0.647226 15.000000
2.119799 -0.664941 -0.650670 22.000000
2.107819 -0.687262 -0.648701 19.000000
2.109368 -0.713743 -0.650659 21.000000
2.110496 -0.740569 -0.652753 15.000000
2.093437 -0.760754 -0.649031 10.000000
2.102986 -0.790878 -0.653840 18.000000
2.098749 -0.816184 -0.654379 19.000000
2.098644 -0.843166 -0.656307 19.000000
2.093808 -0.868435 -0.656764 21.000000
2.079814 -0.889953 -0.654366 16.000000
2.074507 -0.915033 -0.654819 13.000000
2.090739 -0.950077 -0.662049 13.000000
2.054197 -0.961127 -0.652659 10.000000
2.069733 -0.996465 -0.659788 16.000000
2.062954 -1.021939 -0.660218 19.000000
2.056128 -1.046997 -0.660425 13.000000
2.061520 -1.079133 -0.664894 16.000000
2.071027 -1.113338 -0.670420 15.000000
2.079691 -1.148239 -0.676144 19.000000
2.075396 -1.176426 -0.677671 13.000000
2.037729 -1.184775 -0.668053 10.000000
2.041172 -1.217588 -0.672300 15.000000
2.040069 -1.248036 -0.675094 16.000000
2.022266 -1.268381 -0.672373 14.000000
2.028509 -1.304101 -0.677851 18.000000
2.026197 -1.334828 -0.680449 16.000000
2.023482 -1.365672 -0.683107 10.000000
2.044206 -1.412985 -0.693658 13.000000
2.005105 -1.419200 -0.684114 10.000000
2.009047 -1.455824 -0.689249 15.000000
1.993095 -1.478299 -0.687599 13.000000
1.996100 -1.515185 -0.692609 13.000000
1.998631 -1.552265 -0.697586 19.000000
1.977953 -1.571616 -0.694498 14.000000
1.998263 -1.624098 -0.705959 14.000000
1.999126 -1.661758 -0.710678 14.000000
1.973108 -1.678453 -0.706402 10.000000
1.969396 -1.713079 -0.709765 15.000000
1.968853 -1.751072 -0.714326 16.000000
1.967797 -1.789220 -0.718765 13.000000
1.965377 -1.828193 -0.723506 18.000000
1.963106 -1.866633 -0.727872 19.000000
1.960307 -1.905293 -0.732114 25.000000
1.942401 -1.931153 -0.731504 19.000000
1.928415 -1.959497 -0.731740 17.000000
1.937573 -2.012187 -0.741021 29.000000
1.934963 -2.055531 -0.746575 33.000000
1.926055 -2.091053 -0.749176 34.000000
1.899492 -2.109531 -0.745752 35.000000
1.883315 -2.137749 -0.745777 39.000000
1.862566 -2.162985 -0.744702 42.000000
1.858317 -2.205717 -0.749729 39.000000
1.821365 -2.212051 -0.742349 23.000000
1.822174 -2.262268 -0.749634 28.000000
1.802987 -2.290753 -0.749652 30.000000
1.781691 -2.314340 -0.748137 29.000000
1.761752 -2.342510 -0.748126 32.000000
1.748496 -2.377419 -0.750192 30.000000
1.738978 -2.421112 -0.754955 32.000000
1.719025 -2.448097 -0.754492 26.000000
1.675365 -2.443776 -0.744451 18.000000
1.679427 -2.506374 -0.754817 29.000000
1.659393 -2.537918 -0.755692 25.000000
1.649433 -2.585630 -0.761359 27.000000
1.632603 -2.620142 -0.762975 27.000000
1.616095 -2.659618 -0.766039 27.000000
1.598229 -2.693930 -0.767571 29.000000
1.582799 -2.737565 -0.771632 24.000000
1.595224 -2.832042 -0.789803 9.000000
0.820916 1.470352 -0.396282 7.000000
0.820188 1.431191 -0.389765 22.000000
0.839960 1.430529 -0.393730 23.000000
0.860797 1.429027 -0.397557 30.000000
0.876551 1.418978 -0.399022 27.000000
0.893909 1.413404 -0.401813 30.000000
0.917430 1.415247 -0.406799 32.000000
0.934889 1.409130 -0.409618 28.000000
0.953179 1.402316 -0.412233 33.000000
0.960349 1.379280 -0.410115 27.000000
0.977526 1.372624 -0.412888 26.000000
0.992669 1.361293 -0.414265 29.000000
1.012769 1.358062 -0.418197 29.000000
1.036567 1.357920 -0.423188 32.000000
1.057527 1.353536 -0.426997 34.000000
1.068706 1.338078 -0.427299 31.000000
1.092673 1.336956 -0.432289 32.000000
1.091198 1.306235 -0.427717 26.000000
1.108809 1.297280 -0.430225 30.000000
1.125640 1.288631 -0.432901 59.000000
1.152831 1.290105 -0.439114 39.000000
1.163182 1.273671 -0.439296 37.000000
1.187226 1.270874 -0.444258 34.000000
1.214025 1.271685 -0.450648 34.000000
1.224158 1.254704 -0.450788 37.000000
1.244918 1.247418 -0.454500 22.000000
1.258137 1.233532 -0.455833 41.000000
1.278788 1.225678 -0.459510 49.000000
1.302446 1.221310 -0.464628 46.000000
1.322639 1.213324 -0.468449 46.000000
1.346916 1.207727 -0.473378 66.000000
1.367085 1.199039 -0.477229 35.000000
1.387219 1.190017 -0.481036 76.000000
1.400023 1.174444 -0.482305 22.000000
1.420535 1.164423 -0.485901 35.000000
1.448086 1.160566 -0.492246 44.000000
1.468174 1.150296 -0.496047 32.000000
1.488213 1.139679 -0.499801 39.000000
1.535273 1.148971 -0.512606 42.000000
1.555854 1.136982 -0.516162 37.000000
1.572021 1.122314 -0.518616 38.000000
1.584167 1.104614 -0.519775 21.000000
1.608040 1.094943 -0.524781 36.000000
1.631905 1.084880 -0.529802 59.000000
1.659807 1.076988 -0.536085 35.000000
1.675583 1.060864 -0.538459 35.000000
1.711624 1.057198 -0.547338 41.000000
1.731342 1.042897 -0.550986 34.000000
1.754878 1.031111 -0.556154 36.000000
1.795312 1.028053 -0.566362 26.000000
1.814861 1.012524 -0.569989 36.000000
1.842789 1.001278 -0.576208 41.000000
1.874780 0.992041 -0.583972 36.000000
1.906949 0.981925 -0.591491 36.000000
1.934641 0.969376 -0.597904 62.000000
1.958120 0.953851 -0.602726 35.000000
1.994455 0.944429 -0.611776 51.000000
2.026614 0.931920 -0.619231 23.000000
2.049771 0.915205 -0.624239 32.000000
2.081611 0.901955 -0.631871 36.000000
2.131201 0.895459 -0.644897 32.000000
2.158636 0.878919 -0.651158 29.000000
2.186007 0.861834 -0.657358 29.000000
2.190742 0.835619 -0.656903 22.000000
2.186183 0.806100 -0.653595 24.000000
2.163080 0.770278 -0.644870 12.000000
2.175857 0.747604 -0.646878 19.000000
2.192944 0.726489 -0.650391 25.000000
2.182296 0.696176 -0.645770 20.000000
2.180649 0.668877 -0.643635 18.000000
2.187737 0.644575 -0.644286 22.000000
2.166828 0.612279 -0.636773 21.000000
2.168683 0.586814 -0.635983 20.000000
2.184196 0.565139 -0.639350 10.000000
2.194878 0.541888 -0.641216 18.000000
2.200615 0.517433 -0.641789 18.000000
2.210759 0.493955 -0.643658 22.000000
2.201891 0.466315 -0.640058 18.000000
2.187957 0.437974 -0.634941 21.000000
2.206806 0.416150 -0.639403 23.000000
2.173274 0.384858 -0.628940 17.000000
2.191567 0.363052 -0.633403 13.000000
2.190622 0.337858 -0.632313 17.000000
2.198969 0.314058 -0.633967 23.000000
2.192679 0.288342 -0.631573 21.000000
2.200470 0.264490 -0.633157 24.000000
2.207922 0.240461 -0.634883 27.000000
2.181753 0.213054 -0.626777 22.000000
2.193488 0.189599 -0.629666 18.000000
2.185858 0.164418 -0.627195 10.000000
2.197123 0.140679 -0.630016 18.000000
2.208121 0.116656 -0.632837 21.000000
2.209244 0.092090 -0.632977 24.000000
2.200477 0.067160 -0.630295 20.000000
2.196300 0.042607 -0.628919 22.000000
2.215875 0.018289 -0.634494 26.000000
2.191912 -0.006332 -0.627612 34.000000
2.201316 -0.030889 -0.630295 52.000000
2.200826 -0.055419 -0.630225 79.000000
2.200128 -0.079949 -0.630085 93.000000
2.194347 -0.104181 -0.628570 71.000000
2.197891 -0.128868 -0.629806 78.000000
2.205945 -0.154068 -0.632416 62.000000
2.194607 -0.177788 -0.629387 80.000000
2.192510 -0.202248 -0.629177 95.000000
2.190204 -0.226708 -0.629037 81.000000
2.187618 -0.251028 -0.628688 95.000000
2.170511 -0.273614 -0.624223 35.000000
2.162624 -0.297051 -0.622504 23.000000
2.183079 -0.324695 -0.629080 75.000000
2.188934 -0.350519 -0.631469 45.000000
2.180255 -0.374045 -0.629678 45.000000
2.185575 -0.400063 -0.631923 82.000000
2.171622 -0.422546 -0.628836 56.000000
2.176340 -0.448705 -0.631147 74.000000
2.171335 -0.472885 -0.630583 71.000000
2.180184 -0.500292 -0.634181 26.000000
2.174650 -0.524487 -0.633543 22.000000
2.192152 -0.554654 -0.639853 16.000000
2.158149 -0.571504 -0.630977 10.000000
2.156415 -0.596860 -0.631698 18.000000
2.159134 -0.623512 -0.633774 17.000000
2.156830 -0.648842 -0.634416 22.000000
2.149618 -0.672979 -0.633845 18.000000
2.137685 -0.695341 -0.631707 19.000000
2.139183 -0.722149 -0.633554 24.000000
2.135712 -0.747571 -0.634187 12.000000
2.141044 -0.776376 -0.637514 15.000000
2.141472 -0.803577 -0.639412 19.000000
2.128139 -0.825753 -0.637198 12.000000
2.132438 -0.854780 -0.640357 21.000000
2.140852 -0.885875 -0.644773 21.000000
2.109010 -0.900272 -0.637126 13.000000
2.121256 -0.933361 -0.642865 20.000000
2.141776 -0.970847 -0.651104 10.000000
2.113512 -0.986744 -0.644880 10.000000
2.098385 -1.008068 -0.642442 18.000000
2.091504 -1.033788 -0.642812 11.000000
2.093173 -1.063455 -0.645608 17.000000
2.107075 -1.100328 -0.652509 18.000000
2.099440 -1.125852 -0.652551 15.000000
2.086927 -1.149370 -0.651420 16.000000
2.107855 -1.191806 -0.660821 10.000000
2.090507 -1.212977 -0.658281 13.000000
2.085804 -1.240922 -0.659451 17.000000
2.059784 -1.256714 -0.654221 10.000000
2.062342 -1.289993 -0.658147 13.000000
2.056243 -1.318274 -0.659446 13.000000
2.066015 -1.357109 -0.665859 15.000000
2.075130 -1.396409 -0.672240 21.000000
2.055899 -1.416827 -0.669443 10.000000
2.044304 -1.442569 -0.669236 10.000000
2.052072 -1.482305 -0.675469 14.000000
2.019824 -1.494238 -0.668964 13.000000
2.030449 -1.537191 -0.676280 21.000000
2.013723 -1.559787 -0.674672 13.000000
2.030856 -1.609243 -0.684394 16.000000
2.032135 -1.647039 -0.689045 17.000000
2.017365 -1.673322 -0.688748 10.000000
2.010236 -1.705121 -0.690730 11.000000
2.024667 -1.755934 -0.700193 17.000000
1.987629 -1.762285 -0.691946 12.000000
1.985781 -1.801328 -0.696473 18.000000
1.973437 -1.829890 -0.696951 21.000000
1.985294 -1.881667 -0.706164 34.000000
1.971211 -1.910995 -0.706760 42.000000
1.967908 -1.949841 -0.710811 29.000000
1.932479 -1.958480 -0.703933 32.000000
1.924966 -1.993743 -0.706621 37.000000
1.923550 -2.036000 -0.711740 51.000000
1.907461 -2.065082 -0.712079 48.000000
1.888676 -2.089653 -0.711002 36.000000
1.871781 -2.118464 -0.711225 51.000000
1.849274 -2.139013 -0.708823 54.000000
1.844220 -2.182327 -0.713871 30.000000
1.821032 -2.202459 -0.711355 26.000000
1.805647 -2.234544 -0.712629 29.000000
1.803142 -2.280982 -0.718497 29.000000
1.780701 -2.305389 -0.717224 33.000000
1.755066 -2.325623 -0.714844 30.000000
1.747835 -2.368297 -0.719218 32.000000
1.724415 -2.392118 -0.717904 29.000000
1.716018 -2.434752 -0.722194 24.000000
1.680720 -2.442290 -0.716054 20.000000
1.664384 -2.477698 -0.718126 27.000000
1.651775 -2.516104 -0.721046 26.000000
1.634310 -2.551376 -0.723044 25.000000
1.625661 -2.598019 -0.728091 26.000000
1.606960 -2.633186 -0.729909 26.000000
1.582721 -2.659931 -0.729397 25.000000
1.572179 -2.706573 -0.734285 21.000000
1.575633 -2.783949 -0.747265 9.000000
0.813632 1.450405 -0.375726 8.000000
0.828617 1.441507 -0.377339 19.000000
0.839534 1.423483 -0.376575 20.000000
0.862776 1.426218 -0.381368 15.000000
0.877596 1.416720 -0.382934 25.000000
0.895863 1.410657 -0.385467 17.000000
0.914012 1.404376 -0.388008 25.000000
0.931357 1.398404 -0.390662 30.000000
0.963193 1.411744 -0.398903 14.000000
0.950061 1.361221 -0.389047 22.000000
0.976366 1.366081 -0.394926 16.000000
0.997170 1.362670 -0.398593 18.000000
1.014327 1.355605 -0.401228 27.000000
1.041133 1.359316 -0.407183 21.000000
1.052368 1.344047 -0.407525 26.000000
1.067150 1.331889 -0.408811 25.000000
1.094154 1.334663 -0.414770 15.000000
1.092575 1.303955 -0.410370 30.000000
1.110157 1.295041 -0.412774 22.000000
1.126963 1.286431 -0.415347 28.000000
1.144385 1.277104 -0.417765 29.000000
1.180865 1.289465 -0.427478 22.000000
1.188453 1.268809 -0.426305 33.000000
1.208606 1.262659 -0.430005 26.000000
1.225955 1.252230 -0.432411 19.000000
1.239230 1.238624 -0.433733 28.000000
1.259832 1.231140 -0.437299 25.000000
1.283480 1.227186 -0.442198 29.000000
1.296492 1.212889 -0.443482 42.000000
1.313530 1.201251 -0.445814 25.000000
1.333582 1.193101 -0.449482 33.000000
1.361357 1.190497 -0.455436 28.000000
1.396209 1.194264 -0.463977 24.000000
1.390402 1.163157 -0.459054 29.000000
1.410344 1.153715 -0.462714 24.000000
1.434493 1.146611 -0.467389 26.000000
1.469657 1.148432 -0.475963 31.000000
1.505090 1.149684 -0.484574 24.000000
1.529083 1.141491 -0.489434 31.000000
1.545681 1.126789 -0.491640 25.000000
1.557796 1.109491 -0.492786 18.000000
1.557808 1.083718 -0.490120 29.000000
1.601501 1.088013 -0.501160 25.000000
1.633447 1.083444 -0.508475 29.000000
1.653251 1.070350 -0.512041 35.000000
1.668893 1.054428 -0.514358 25.000000
1.700877 1.048381 -0.521670 33.000000
1.724595 1.036699 -0.526411 32.000000
1.744175 1.022230 -0.529899 22.000000
1.763608 1.007446 -0.533395 30.000000
1.808303 1.006456 -0.544470 30.000000
1.836211 0.995361 -0.550481 31.000000
1.876682 0.990858 -0.560540 36.000000
1.895998 0.974108 -0.563968 27.000000
1.932503 0.965740 -0.572460 30.000000
1.968880 0.956998 -0.581180 35.000000
2.005463 0.947262 -0.589719 22.000000
2.011158 0.922975 -0.589412 28.000000
2.043216 0.910161 -0.596624 27.000000
2.092800 0.904662 -0.609158 25.000000
2.129250 0.892603 -0.617776 31.000000
2.152155 0.874352 -0.622534 29.000000
2.188513 0.860959 -0.631117 23.000000
2.215778 0.843382 -0.637125 20.000000
2.220238 0.816991 -0.636650 10.000000
2.201692 0.782541 -0.629519 14.000000
2.200978 0.754743 -0.627653 17.000000
2.209069 0.730178 -0.628242 16.000000
2.216791 0.705687 -0.629051 21.000000
2.196677 0.672353 -0.621801 11.000000
2.203868 0.647949 -0.622455 11.000000
2.201479 0.620852 -0.620418 14.000000
2.189427 0.591301 -0.615756 10.000000
2.205082 0.569258 -0.618953 10.000000
2.211132 0.544698 -0.619457 14.000000
2.207500 0.517935 -0.617334 10.000000
2.217659 0.494458 -0.619222 16.000000
2.213466 0.467812 -0.617022 14.000000
2.208944 0.441304 -0.614819 13.000000
2.227795 0.419325 -0.619127 15.000000
2.213244 0.391154 -0.614213 10.000000
2.212610 0.365765 -0.613250 14.000000
2.211675 0.340410 -0.612285 14.000000
2.205667 0.314481 -0.609998 10.000000
2.223324 0.291831 -0.614172 19.000000
2.221587 0.266494 -0.613135 19.000000
2.229142 0.242306 -0.614669 22.000000
2.236424 0.218011 -0.616275 23.000000
2.195393 0.189394 -0.604512 10.000000
2.211771 0.166071 -0.608621 13.000000
2.218197 0.141812 -0.610155 14.000000
2.219604 0.117121 -0.610226 17.000000
2.230434 0.092832 -0.612944 21.000000
2.226463 0.067887 -0.611690 24.000000
2.241559 0.043423 -0.615662 33.000000
2.217807 0.018250 -0.609113 49.000000
2.222699 -0.006401 -0.610366 38.000000
2.222488 -0.031092 -0.610296 62.000000
2.231635 -0.056024 -0.612873 79.000000
2.226110 -0.080647 -0.611479 52.000000
2.234756 -0.105847 -0.614055 86.000000
2.228668 -0.130417 -0.612590 53.000000
2.198252 -0.153203 -0.604443 23.000000
2.220470 -0.179552 -0.610844 74.000000
2.189615 -0.201573 -0.602703 25.000000
2.168132 -0.223876 -0.597140 14.000000
2.179954 -0.249661 -0.600825 10.000000
2.157968 -0.271415 -0.595268 9.000000
2.154871 -0.295432 -0.595062 9.000000
2.185032 -0.324268 -0.603878 13.000000
2.219430 -0.354677 -0.614000 23.000000
2.210765 -0.378465 -0.612257 60.000000
2.197018 -0.401282 -0.609270 35.000000
2.206702 -0.428484 -0.612862 70.000000
2.197213 -0.452044 -0.611050 48.000000
2.192175 -0.476452 -0.610554 40.000000
2.215143 -0.507179 -0.617857 32.000000
2.176699 -0.523784 -0.608108 16.000000
2.161536 -0.545636 -0.604923 9.000000
2.178801 -0.575840 -0.610971 14.000000
2.158503 -0.596143 -0.606409 10.000000
2.175108 -0.626755 -0.612299 13.000000
2.177484 -0.653648 -0.614192 15.000000
2.184048 -0.682257 -0.617525 11.000000
2.167414 -0.703434 -0.614127 14.000000
2.177938 -0.733727 -0.618678 15.000000
2.156128 -0.753209 -0.614057 9.000000
2.170532 -0.785386 -0.619746 15.000000
2.161853 -0.809528 -0.618943 9.000000
2.170971 -0.840499 -0.623314 10.000000
2.157219 -0.862756 -0.621140 10.000000
2.143359 -0.884839 -0.618970 10.000000
2.164808 -0.921819 -0.627030 16.000000
2.154701 -0.945822 -0.625990 10.000000
2.131015 -0.963923 -0.621321 9.000000
2.146816 -0.999724 -0.627902 10.000000
2.122599 -1.017531 -0.623166 10.000000
2.133281 -1.051551 -0.628438 11.000000
2.117332 -1.073238 -0.626187 10.000000
2.118284 -1.103615 -0.628958 10.000000
2.123430 -1.136032 -0.632758 14.000000
2.106729 -1.157412 -0.630426 9.000000
2.110765 -1.190502 -0.634353 9.000000
2.118628 -1.226164 -0.639526 10.000000
2.117597 -1.257200 -0.642075 9.000000
2.103772 -1.280810 -0.640832 10.000000
2.081503 -1.299141 -0.636999 10.000000
2.091734 -1.337999 -0.643207 10.000000
2.101310 -1.377168 -0.649384 16.000000
2.078224 -1.395212 -0.645461 10.000000
2.082870 -1.432043 -0.650270 9.000000
2.098941 -1.477524 -0.658699 10.000000
2.074988 -1.495151 -0.654683 9.000000
2.065945 -1.524510 -0.655868 10.000000
2.053233 -1.550398 -0.655486 9.000000
2.047885 -1.582053 -0.657559 10.000000
2.049707 -1.619730 -0.662071 10.000000
2.042838 -1.652233 -0.664268 9.000000
2.058515 -1.702622 -0.673448 9.000000
2.054913 -1.737932 -0.676559 10.000000
2.028775 -1.754283 -0.672264 10.000000
2.041812 -1.806331 -0.681490 10.000000
2.015149 -1.822290 -0.677100 11.000000
2.030347 -1.878227 -0.687451 27.000000
1.996062 -1.887242 -0.680641 32.000000
1.972276 -1.905806 -0.677369 30.000000
1.971700 -1.948698 -0.682733 27.000000
1.930290 -1.949602 -0.673403 27.000000
1.905187 -1.968096 -0.670318 28.000000
1.910914 -2.017134 -0.677644 35.000000
1.891697 -2.042432 -0.676818 29.000000
1.873190 -2.066754 -0.675722 28.000000
1.856689 -2.095312 -0.676055 32.000000
1.828083 -2.108182 -0.671342 25.000000
1.836050 -2.166029 -0.680900 28.000000
1.800641 -2.171106 -0.673846 19.000000
1.794947 -2.214221 -0.678582 22.000000
1.791505 -2.261301 -0.684516 26.000000
1.758675 -2.269217 -0.678442 21.000000
1.751096 -2.312483 -0.683068 23.000000
1.729620 -2.335402 -0.681573 26.000000
1.720872 -2.378747 -0.686030 23.000000
1.702896 -2.410185 -0.687039 19.000000
1.666578 -2.412648 -0.679749 10.000000
1.661546 -2.463884 -0.686269 20.000000
1.646490 -2.498122 -0.687958 23.000000
1.624125 -2.525059 -0.687661 15.000000
1.616843 -2.576609 -0.693926 21.000000
1.600089 -2.610662 -0.695499 19.000000
1.573652 -2.633151 -0.693823 17.000000
1.566671 -2.688934 -0.701025 16.000000
1.562849 -2.748285 -0.708849 8.000000
0.829152 1.473467 -0.366295 6.000000
0.828257 1.434243 -0.360281 10.000000
0.865433 1.463080 -0.371439 18.000000
0.878990 1.448869 -0.371748 21.000000
0.892348 1.434610 -0.372102 16.000000
0.909911 1.428908 -0.374660 20.000000
0.920249 1.410249 -0.373869 21.000000
0.949341 1.419952 -0.380676 19.000000
0.966835 1.413566 -0.383264 25.000000
0.960029 1.370461 -0.375837 9.000000
0.992160 1.383198 -0.383742 24.000000
0.995055 1.356605 -0.380765 23.000000
1.015807 1.352980 -0.384297 17.000000
1.039597 1.352928 -0.388901 33.000000
1.053749 1.341499 -0.390289 18.000000
1.074648 1.337026 -0.393809 21.000000
1.094799 1.332740 -0.397451 27.000000
1.128296 1.342529 -0.405450 10.000000
1.117671 1.300073 -0.397622 30.000000
1.141009 1.298749 -0.402365 31.000000
1.158564 1.289261 -0.404694 26.000000
1.175437 1.280082 -0.407192 29.000000
1.199542 1.277270 -0.411768 26.000000
1.209686 1.260521 -0.411938 31.000000
1.233825 1.257079 -0.416541 34.000000
1.260917 1.257176 -0.422428 13.000000
1.267802 1.235920 -0.421230 45.000000
1.288003 1.228582 -0.424774 31.000000
1.305130 1.217155 -0.427054 32.000000
1.318066 1.202707 -0.428230 36.000000
1.334966 1.190823 -0.430464 30.000000
1.369629 1.195172 -0.438681 34.000000
1.378716 1.176780 -0.438703 46.000000
1.417810 1.182803 -0.447922 21.000000
1.434215 1.170103 -0.450321 36.000000
1.454367 1.160174 -0.453796 31.000000
1.470996 1.146504 -0.455977 28.000000
1.491026 1.135984 -0.459471 53.000000
1.507113 1.122274 -0.461724 30.000000
1.519513 1.105031 -0.462610 32.000000
1.566996 1.113387 -0.474456 31.000000
1.582948 1.098692 -0.476744 22.000000
1.606812 1.089172 -0.481384 46.000000
1.630669 1.079262 -0.486040 37.000000
1.650442 1.066264 -0.489441 32.000000
1.678350 1.058135 -0.495273 47.000000
1.702480 1.046597 -0.499723 35.000000
1.717893 1.030042 -0.501882 33.000000
1.749979 1.023059 -0.508851 36.000000
1.777608 1.013467 -0.514879 19.000000
1.801270 1.000633 -0.519382 49.000000
1.837616 0.994241 -0.527636 49.000000
1.874134 0.987211 -0.535848 30.000000
1.914994 0.981683 -0.545312 49.000000
1.938573 0.966763 -0.549815 36.000000
1.961952 0.951622 -0.554535 36.000000
1.981017 0.933781 -0.557758 42.000000
2.017378 0.923953 -0.566140 20.000000
2.045078 0.909182 -0.571790 36.000000
2.094763 0.903823 -0.583863 35.000000
2.140283 0.895275 -0.594511 35.000000
2.172298 0.880618 -0.601603 32.000000
2.213231 0.868855 -0.611128 35.000000
2.231574 0.847645 -0.614445 28.000000
2.254312 0.827827 -0.618940 25.000000
2.267729 0.804394 -0.620871 10.000000
2.239658 0.766599 -0.611623 20.000000
2.252463 0.743120 -0.613472 27.000000
2.246623 0.713602 -0.610385 24.000000
2.254129 0.688782 -0.611054 26.000000
2.256916 0.662228 -0.610318 26.000000
2.254644 0.634615 -0.608471 21.000000
2.247348 0.605727 -0.605287 20.000000
2.221007 0.572321 -0.596984 9.000000
2.255273 0.554590 -0.605054 19.000000
2.256422 0.528365 -0.604232 24.000000
2.257328 0.502317 -0.603481 22.000000
2.253112 0.475303 -0.601464 19.000000
2.262868 0.451191 -0.603164 23.000000
2.262917 0.425187 -0.602263 22.000000
2.257894 0.398303 -0.600094 21.000000
2.238155 0.369340 -0.594122 9.000000
2.285116 0.351119 -0.605888 28.000000
2.279187 0.324374 -0.603643 28.000000
2.277805 0.298397 -0.602592 27.000000
2.276120 0.272527 -0.601613 26.000000
2.283749 0.247807 -0.603100 29.000000
2.271846 0.221034 -0.599435 24.000000
2.283714 0.196656 -0.602192 32.000000
2.285739 0.171270 -0.602336 10.000000
2.282649 0.145647 -0.601210 50.000000
2.284093 0.120314 -0.601354 75.000000
2.280416 0.094708 -0.600083 95.000000
2.286186 0.069576 -0.601427 98.000000
2.286763 0.044243 -0.601499 95.000000
2.287124 0.018837 -0.601499 95.000000
2.282361 -0.006554 -0.600227 95.000000
2.262805 -0.031564 -0.595069 54.000000
2.272044 -0.056943 -0.597540 87.000000
2.266423 -0.081940 -0.596126 64.000000
2.255760 -0.106674 -0.593512 35.000000
2.239995 -0.130840 -0.589558 24.000000
2.238437 -0.155620 -0.589346 10.000000
2.159541 -0.174248 -0.568818 7.000000
2.210464 -0.203040 -0.582575 9.000000
2.198531 -0.226561 -0.579897 9.000000
2.195951 -0.250968 -0.579618 9.000000
2.217087 -0.278317 -0.585678 9.000000
2.204330 -0.301608 -0.582861 9.000000
2.215315 -0.328161 -0.586309 10.000000
2.235525 -0.356556 -0.592284 32.000000
2.174308 -0.371488 -0.576680 9.000000
2.189169 -0.399103 -0.581387 10.000000
2.175248 -0.421548 -0.578440 9.000000
2.208480 -0.453443 -0.588117 26.000000
2.212888 -0.479883 -0.590142 95.000000
2.226472 -0.508688 -0.594609 54.000000
2.220782 -0.533391 -0.594105 24.000000
2.210184 -0.556840 -0.592343 21.000000
2.190037 -0.577645 -0.587999 9.000000
2.225602 -0.613427 -0.598725 24.000000
2.214254 -0.636691 -0.596816 18.000000
2.211773 -0.662702 -0.597487 16.000000
2.209116 -0.688598 -0.598011 21.000000
2.210742 -0.716089 -0.599853 16.000000
2.216600 -0.745254 -0.602939 21.000000
2.199201 -0.766682 -0.599709 17.000000
2.181651 -0.787760 -0.596484 9.000000
2.218393 -0.828903 -0.608116 22.000000
2.195736 -0.848216 -0.603570 17.000000
2.199888 -0.877851 -0.606400 21.000000
2.190337 -0.902176 -0.605505 19.000000
2.184723 -0.928545 -0.605920 14.000000
2.187943 -0.958452 -0.608652 21.000000
2.181753 -0.984894 -0.609058 12.000000
2.153470 -1.000771 -0.603079 9.000000
2.186127 -1.045685 -0.614471 21.000000
2.166060 -1.065439 -0.610874 16.000000
2.167259 -1.096090 -0.613560 16.000000
2.159482 -1.122483 -0.613789 16.000000
2.151427 -1.148820 -0.613937 13.000000
2.160023 -1.184424 -0.618954 16.000000
2.168054 -1.220348 -0.623872 12.000000
2.138179 -1.234365 -0.617687 9.000000
2.183104 -1.292736 -0.633400 21.000000
2.148163 -1.304406 -0.626159 10.000000
2.137660 -1.331316 -0.626259 13.000000
2.131270 -1.360216 -0.627401 13.000000
2.116324 -1.383906 -0.626049 11.000000
2.125418 -1.423566 -0.631892 17.000000
2.121908 -1.455365 -0.634033 10.000000
2.109950 -1.481689 -0.633771 9.000000
2.117486 -1.522030 -0.639457 16.000000
2.100442 -1.546038 -0.638146 10.000000
2.087443 -1.572232 -0.637775 10.000000
2.101237 -1.618938 -0.645592 16.000000
2.090705 -1.648867 -0.646536 10.000000
2.087941 -1.684065 -0.649570 13.000000
2.088495 -1.722607 -0.653669 10.000000
2.076632 -1.752504 -0.654481 10.000000
2.090825 -1.803948 -0.663198 20.000000
2.082265 -1.836652 -0.664784 15.000000
2.072622 -1.869949 -0.666613 26.000000
2.031023 -1.872937 -0.657738 35.000000
1.988902 -1.875963 -0.649075 33.000000
1.961743 -1.890991 -0.644800 52.000000
1.923310 -1.896126 -0.637349 32.000000
1.916786 -1.930945 -0.639895 25.000000
1.908853 -1.966668 -0.642670 58.000000
1.891159 -1.990988 -0.641660 32.000000
1.882297 -2.026689 -0.644304 57.000000
1.877096 -2.065252 -0.647790 35.000000
1.854189 -2.086410 -0.645867 35.000000
1.841572 -2.117637 -0.646963 61.000000
1.811792 -2.131042 -0.642702 26.000000
1.794375 -2.159033 -0.642920 24.000000
1.780750 -2.189803 -0.643883 32.000000
1.783757 -2.244298 -0.651738 28.000000
1.760160 -2.263678 -0.649316 34.000000
1.740939 -2.291274 -0.649364 28.000000
1.721367 -2.318823 -0.649307 28.000000
1.714268 -2.361122 -0.653333 34.000000
1.682434 -2.372505 -0.648783 21.000000
1.672824 -2.415679 -0.653018 18.000000
1.661247 -2.453897 -0.655756 29.000000
1.639494 -2.480846 -0.655500 26.000000
1.619929 -2.511744 -0.656208 29.000000
1.606708 -2.549870 -0.658839 24.000000
1.593814 -2.593108 -0.662679 27.000000
1.572641 -2.623744 -0.663291 26.000000
1.557762 -2.661646 -0.665700 20.000000
1.564630 -2.743055 -0.678765 9.000000
0.827823 1.466630 -0.349270 7.000000
0.834125 1.440134 -0.346558 19.000000
0.837449 1.409499 -0.342790 23.000000
0.875800 1.437497 -0.353312 24.000000
0.890707 1.427997 -0.354781 29.000000
0.911671 1.425951 -0.358164 23.000000
0.927351 1.415498 -0.359484 28.000000
0.931138 1.389166 -0.356737 27.000000
0.968513 1.410713 -0.366417 26.000000
0.958698 1.363615 -0.358244 20.000000
0.964344 1.341252 -0.356433 26.000000
1.002215 1.361699 -0.366136 31.000000
1.023036 1.358047 -0.369474 30.000000
1.034233 1.343026 -0.369789 26.000000
1.055052 1.338891 -0.373145 32.000000
1.078945 1.338208 -0.377534 29.000000
1.102279 1.337696 -0.382106 26.000000
1.094934 1.299000 -0.375740 24.000000
1.111766 1.290697 -0.378151 32.000000
1.135664 1.289009 -0.382529 34.000000
1.159644 1.286886 -0.386927 35.000000
1.176490 1.277745 -0.389321 33.000000
1.193849 1.267879 -0.391504 35.000000
1.210632 1.258266 -0.393857 32.000000
1.231348 1.251398 -0.397156 34.000000
1.241129 1.234391 -0.397258 24.000000
1.261704 1.227001 -0.400573 35.000000
1.278235 1.216425 -0.402842 62.000000
1.302362 1.211803 -0.407239 48.000000
1.322490 1.203995 -0.410646 36.000000
1.346681 1.198593 -0.415019 52.000000
1.363115 1.186888 -0.417273 33.000000
1.376192 1.171320 -0.418235 35.000000
1.399932 1.165440 -0.422759 25.000000
1.427882 1.161755 -0.428261 33.000000
1.444093 1.148983 -0.430493 38.000000
1.464097 1.138942 -0.433811 34.000000
1.484406 1.128090 -0.437023 35.000000
1.496503 1.111609 -0.438075 52.000000
1.520240 1.103589 -0.442508 34.000000
1.568102 1.111600 -0.453729 41.000000
1.588036 1.099661 -0.457056 33.000000
1.611938 1.090149 -0.461487 52.000000
1.619598 1.069524 -0.461307 36.000000
1.647457 1.062044 -0.466916 54.000000
1.667436 1.048466 -0.470036 37.000000
1.695263 1.040037 -0.475615 37.000000
1.723123 1.031177 -0.481212 35.000000
1.734277 1.011956 -0.482094 33.000000
1.774759 1.009433 -0.491162 36.000000
1.789841 0.991986 -0.493167 42.000000
1.826230 0.985861 -0.501107 60.000000
1.884170 0.990339 -0.514818 76.000000
1.903516 0.973712 -0.518042 36.000000
1.939885 0.965757 -0.526059 57.000000
1.959111 0.948350 -0.529238 47.000000
1.978157 0.930542 -0.532356 35.000000
2.019109 0.922563 -0.541404 32.000000
2.059949 0.914109 -0.550618 51.000000
2.087704 0.898709 -0.556078 39.000000
2.119680 0.884999 -0.562886 38.000000
2.174222 0.879535 -0.575449 35.000000
2.210782 0.866062 -0.583418 42.000000
2.242659 0.850193 -0.590213 46.000000
2.260896 0.828660 -0.593359 29.000000
2.265175 0.801913 -0.592843 22.000000
2.282897 0.779899 -0.595921 30.000000
2.282018 0.751534 -0.594202 29.000000
2.276146 0.721754 -0.591202 27.000000
2.269952 0.692208 -0.588194 26.000000
2.272608 0.665698 -0.587661 26.000000
2.284427 0.641768 -0.589313 26.000000
2.267790 0.610170 -0.583878 18.000000
2.288386 0.588612 -0.588017 19.000000
2.289916 0.562115 -0.587329 22.000000
2.286474 0.534471 -0.585355 24.000000
2.301633 0.511169 -0.588219 26.000000
2.297478 0.483734 -0.586315 21.000000
2.297817 0.457308 -0.585472 24.000000
2.316983 0.434564 -0.589554 28.000000
2.288143 0.402943 -0.581355 13.000000
2.316311 0.381522 -0.587718 23.000000
2.291535 0.351483 -0.580797 22.000000
2.299984 0.326711 -0.582305 27.000000
2.303419 0.301202 -0.582524 26.000000
2.296931 0.274543 -0.580383 27.000000
2.304591 0.249663 -0.581819 28.000000
2.302317 0.223594 -0.580747 37.000000
2.309477 0.198535 -0.582183 35.000000
2.321118 0.173657 -0.584766 92.000000
2.308358 0.147025 -0.581184 90.000000
2.314656 0.121732 -0.582548 95.000000
2.306206 0.095656 -0.580183 98.000000
2.307077 0.070090 -0.580256 95.000000
2.312579 0.044690 -0.581475 100.000000
2.308094 0.019030 -0.580328 95.000000
2.298469 -0.006509 -0.577890 50.000000
2.298252 -0.031968 -0.577745 68.000000
2.263813 -0.056579 -0.569213 24.000000
2.258254 -0.081487 -0.567852 10.000000
2.247571 -0.106060 -0.565344 9.000000
2.231773 -0.130064 -0.561478 9.000000
2.230225 -0.154755 -0.561408 8.000000
2.233230 -0.179834 -0.562414 9.000000
2.226357 -0.204135 -0.560986 9.000000
2.233613 -0.229748 -0.563207 9.000000
2.240637 -0.255574 -0.565356 10.000000
2.276298 -0.285160 -0.574794 23.000000
2.287467 -0.312390 -0.578149 31.000000
2.274312 -0.336247 -0.575431 54.000000
2.284921 -0.363704 -0.578636 25.000000
2.204339 -0.375913 -0.558946 9.000000
2.200119 -0.400322 -0.558594 9.000000
2.190924 -0.423740 -0.556961 9.000000
2.228995 -0.456720 -0.567429 14.000000
2.257107 -0.488522 -0.575317 55.000000
2.256390 -0.514586 -0.576089 62.000000
2.241276 -0.537289 -0.573238 28.000000
2.230626 -0.560893 -0.571453 10.000000
2.252563 -0.592969 -0.578101 20.000000
2.250724 -0.619085 -0.578718 23.000000
2.229830 -0.640095 -0.574598 19.000000
2.264681 -0.677190 -0.584673 22.000000
2.243271 -0.697906 -0.580481 18.000000
2.244754 -0.725782 -0.582212 19.000000
2.250627 -0.755258 -0.585135 21.000000
2.237684 -0.778510 -0.583268 10.000000
2.242825 -0.808244 -0.586104 21.000000
2.229434 -0.831271 -0.584088 19.000000
2.238437 -0.862857 -0.588027 23.000000
2.215479 -0.882116 -0.583557 17.000000
2.219141 -0.912380 -0.586444 19.000000
2.213663 -0.938699 -0.586649 19.000000
2.212141 -0.967215 -0.588261 21.000000
2.214966 -0.997467 -0.590744 10.000000
2.221534 -1.030287 -0.594624 16.000000
2.192612 -1.046600 -0.588989 14.000000
2.202902 -1.081647 -0.593954 19.000000
2.195606 -1.107956 -0.593972 21.000000
2.179014 -1.130116 -0.591797 15.000000
2.183769 -1.163455 -0.595397 19.000000
2.188093 -1.196943 -0.599058 20.000000
2.208860 -1.240253 -0.607287 12.000000
2.199400 -1.267166 -0.607258 17.000000
2.198101 -1.298962 -0.609547 17.000000
2.183922 -1.323315 -0.608345 17.000000
2.181819 -1.355207 -0.610532 18.000000
2.162488 -1.377247 -0.608331 14.000000
2.155601 -1.406448 -0.609348 18.000000
2.144310 -1.432963 -0.609125 16.000000
2.180915 -1.492388 -0.622657 10.000000
2.156703 -1.510831 -0.618960 12.000000
2.151645 -1.543779 -0.621147 13.000000
2.123105 -1.558792 -0.616236 12.000000
2.129541 -1.599785 -0.621485 17.000000
2.115456 -1.626791 -0.621283 13.000000
2.136094 -1.680147 -0.631002 17.000000
2.125549 -1.709753 -0.631555 15.000000
2.128977 -1.752341 -0.636854 13.000000
2.128704 -1.791432 -0.640737 17.000000
2.116050 -1.821838 -0.641407 21.000000
2.107441 -1.854668 -0.642920 23.000000
2.086787 -1.878486 -0.641338 26.000000
2.034282 -1.871543 -0.629414 34.000000
1.988574 -1.871167 -0.620019 41.000000
1.954433 -1.879351 -0.613724 50.000000
1.930000 -1.897989 -0.610927 35.000000
1.926965 -1.936279 -0.614465 42.000000
1.908835 -1.961565 -0.613851 62.000000
1.884583 -1.978747 -0.610706 53.000000
1.875840 -2.014310 -0.613261 58.000000
1.861074 -2.041835 -0.613362 49.000000
1.844856 -2.070111 -0.613710 61.000000
1.815473 -2.083549 -0.609649 55.000000
1.818799 -2.132968 -0.616076 41.000000
1.782642 -2.138457 -0.609782 29.000000
1.775555 -2.176605 -0.612938 37.000000
1.754473 -2.200430 -0.611982 35.000000
1.736134 -2.227914 -0.611991 35.000000
1.736379 -2.277706 -0.618136 34.000000
1.722934 -2.312880 -0.620195 34.000000
1.708874 -2.348138 -0.622224 35.000000
1.687056 -2.370522 -0.620821 30.000000
1.666400 -2.397528 -0.620630 22.000000
1.639983 -2.416294 -0.618353 32.000000
1.630978 -2.458336 -0.622083 32.000000
1.617041 -2.497275 -0.624829 32.000000
1.592009 -2.519689 -0.623534 30.000000
1.578659 -2.557521 -0.625936 30.000000
1.570660 -2.608877 -0.631624 29.000000
1.549339 -2.639294 -0.632191 25.000000
1.554208 -2.716354 -0.643719 10.000000
0.822555 1.450613 -0.330267 7.000000
0.837497 1.441690 -0.331668 14.000000
0.845740 1.419456 -0.330027 25.000000
0.871544 1.426522 -0.335193 23.000000
0.871595 1.391608 -0.330573 24.000000
0.891300 1.390403 -0.333884 24.000000
0.919970 1.400699 -0.340090 21.000000
0.935365 1.390158 -0.341342 27.000000
0.971985 1.412315 -0.350662 23.000000
0.959259 1.361172 -0.341888 19.000000
