x y z intensity
3.032754 -0.524740 1.012105 23.000000
3.003466 -0.554540 1.003706 30.000000
3.025253 -0.593781 1.012379 34.000000
2.995363 -0.623010 1.003793 33.000000
2.974562 -0.653559 0.998237 32.000000
2.957968 -0.684866 0.994440 32.000000
2.959598 -0.720362 0.996868 35.000000
2.937763 -0.750187 0.991326 29.000000
2.934080 -0.784417 0.991905 20.000000
2.916246 -0.814718 0.987828 31.000000
2.911868 -0.848707 0.988211 32.000000
2.897876 -0.880132 0.985787 32.000000
2.874457 -0.908492 0.980177 31.000000
2.873432 -0.943868 0.982201 34.000000
2.840444 -0.968510 0.973421 30.000000
2.825271 -0.998794 0.970628 26.000000
2.818780 -1.032153 0.970917 16.000000
2.807515 -1.063734 0.969569 30.000000
2.791241 -1.093771 0.966975 30.000000
2.792556 -1.130371 0.970131 35.000000
2.766824 -1.156352 0.964284 29.000000
2.753943 -1.187595 0.963034 32.000000
2.732168 -1.214872 0.958635 32.000000
2.731740 -1.251582 0.961770 23.000000
2.726490 -1.286457 0.963370 9.000000
2.716673 -1.319253 0.963344 20.000000
2.706424 -1.351952 0.963313 30.000000
2.695838 -1.384554 0.963180 36.000000
2.663839 -1.405934 0.955387 30.000000
2.648506 -1.435829 0.953651 32.000000
2.640731 -1.470652 0.955218 36.000000
2.624769 -1.500158 0.953283 29.000000
2.608033 -1.530148 0.951735 22.000000
2.607743 -1.569105 0.955695 32.000000
2.594377 -1.601303 0.955536 31.000000
2.572989 -1.627710 0.951899 35.000000
2.558984 -1.659512 0.951636 31.000000
2.548507 -1.693951 0.952658 32.000000
2.534262 -1.724905 0.951891 32.000000
2.526913 -1.761900 0.954371 26.000000
2.491876 -1.779436 0.946398 23.000000
2.468359 -1.804980 0.942871 32.000000
2.486694 -1.861649 0.955521 32.000000
2.458674 -1.884001 0.950306 34.000000
2.430386 -1.905885 0.945205 29.000000
2.428138 -1.948450 0.950236 32.000000
2.417772 -1.984972 0.952220 33.000000
2.399681 -2.015392 0.951277 25.000000
2.395844 -2.058170 0.956021 31.000000
2.366093 -2.078840 0.950614 23.000000
2.300764 -2.067149 0.930715 23.000000
2.214712 -2.034752 0.902290 28.000000
2.122749 -1.994072 0.871143 21.000000
2.042384 -1.961583 0.844350 24.000000
1.972344 -1.938271 0.822236 26.000000
1.880284 -1.889107 0.789935 18.000000
1.809745 -1.858697 0.766312 18.000000
1.743372 -1.830379 0.744149 26.000000
1.684343 -1.807796 0.724926 27.000000
1.628448 -1.788332 0.707443 30.000000
1.580486 -1.774299 0.692544 31.000000
1.517290 -1.741218 0.670755 35.000000
1.494580 -1.755249 0.667310 50.000000
1.481979 -1.779258 0.667810 35.000000
1.432579 -1.758548 0.651722 28.000000
1.421825 -1.786541 0.653763 32.000000
1.423436 -1.828902 0.661044 26.000000
1.405827 -1.849279 0.660278 34.000000
1.391962 -1.872626 0.660570 28.000000
1.382177 -1.904485 0.663779 28.000000
1.370387 -1.931635 0.665299 30.000000
1.358123 -1.958670 0.666788 27.000000
1.338918 -1.978521 0.665789 21.000000
1.325926 -2.005411 0.667227 24.000000
1.308688 -2.029044 0.667455 24.000000
1.289853 -2.047648 0.666106 26.000000
1.284616 -2.091423 0.672831 23.000000
1.272559 -2.122262 0.675301 28.000000
1.256065 -2.149632 0.676730 26.000000
1.257372 -2.205498 0.686876 21.000000
1.232572 -2.220266 0.684227 10.000000
0.739168 1.358529 0.428973 8.000000
0.753421 1.350055 0.430834 13.000000
0.770902 1.345122 0.433896 29.000000
0.781055 1.327588 0.432861 20.000000
0.797406 1.322822 0.436075 28.000000
0.808740 1.309668 0.436523 29.000000
0.831108 1.312188 0.442242 23.000000
0.850140 1.310791 0.446815 32.000000
0.862108 1.296623 0.447072 24.000000
0.875753 1.286834 0.448803 22.000000
0.887343 1.272463 0.448994 30.000000
0.898009 1.258451 0.449324 27.000000
0.917677 1.255490 0.453697 33.000000
0.939546 1.256637 0.459594 28.000000
0.961610 1.257390 0.465523 27.000000
0.966790 1.234633 0.462788 31.000000
0.982859 1.227347 0.465905 24.000000
0.992835 1.212479 0.466131 24.000000
1.009435 1.204375 0.469008 28.000000
1.028481 1.200137 0.473479 31.000000
1.041270 1.188455 0.475090 39.000000
1.066735 1.190833 0.482429 29.000000
1.086504 1.185249 0.486702 36.000000
1.109033 1.183365 0.492651 37.000000
1.124963 1.174145 0.495660 29.000000
1.127533 1.151033 0.492778 23.000000
1.147208 1.144466 0.497048 34.000000
1.166308 1.138002 0.501437 37.000000
1.182044 1.127980 0.504369 60.000000
1.215101 1.134016 0.514704 35.000000
1.227367 1.120104 0.516138 42.000000
1.257282 1.121923 0.525008 52.000000
1.265806 1.104404 0.524917 34.000000
1.281359 1.092999 0.527809 27.000000
1.311527 1.093567 0.536650 33.000000
1.319684 1.075478 0.536513 33.000000
1.342529 1.069244 0.542340 46.000000
1.369221 1.065518 0.549699 32.000000
1.384567 1.052683 0.552490 35.000000
1.399474 1.039986 0.555512 42.000000
1.441649 1.046282 0.568910 31.000000
1.433636 1.015910 0.562486 26.000000
1.476050 1.021080 0.575889 34.000000
1.498697 1.012506 0.581921 35.000000
1.517718 1.000465 0.586150 68.000000
1.528676 0.982979 0.587257 32.000000
1.555226 0.975837 0.594761 50.000000
1.590227 0.972822 0.605083 36.000000
1.604718 0.957314 0.607886 32.000000
1.627240 0.946313 0.613795 29.000000
1.645904 0.932205 0.617928 39.000000
1.664246 0.918152 0.622192 31.000000
1.699183 0.912781 0.632702 41.000000
1.746855 0.913322 0.647931 36.000000
1.769369 0.899897 0.653763 46.000000
1.796088 0.888224 0.661114 44.000000
1.801340 0.865756 0.660575 28.000000
1.840826 0.859252 0.672603 25.000000
1.876035 0.850106 0.683025 34.000000
1.902616 0.836354 0.690323 32.000000
1.924530 0.820482 0.696195 36.000000
1.955333 0.807599 0.704973 31.000000
1.999135 0.799640 0.718727 29.000000
2.029977 0.785404 0.727483 35.000000
2.042752 0.764093 0.730051 26.000000
2.077716 0.750666 0.740569 24.000000
2.117010 0.738052 0.752631 35.000000
2.133934 0.717037 0.756683 32.000000
2.177686 0.704572 0.770238 35.000000
2.207750 0.687069 0.779180 34.000000
2.255975 0.674184 0.794308 33.000000
2.281317 0.653924 0.801618 35.000000
2.320246 0.636938 0.813671 26.000000
2.400281 0.629974 0.840098 28.000000
2.425371 0.607390 0.847236 32.000000
2.477956 0.590900 0.863939 32.000000
2.525668 0.572407 0.879226 32.000000
2.564245 0.550737 0.891070 34.000000
2.611830 0.530218 0.906233 31.000000
2.654606 0.507867 0.919720 33.000000
2.692441 0.483842 0.931789 24.000000
2.762986 0.464307 0.954810 28.000000
2.814526 0.440459 0.971581 34.000000
2.847310 0.412749 0.981728 32.000000
2.926619 0.390571 1.008039 32.000000
2.977679 0.363261 1.024774 35.000000
3.033082 0.335413 1.043047 32.000000
3.097829 0.307233 1.064471 30.000000
3.237504 0.284293 1.111909 17.000000
3.268846 0.249872 1.121726 29.000000
3.318483 0.216148 1.138234 29.000000
3.292287 0.177185 1.128839 33.000000
3.279811 0.139465 1.124298 32.000000
3.257442 0.101664 1.116408 33.000000
3.263118 0.065067 1.118028 36.000000
3.249350 0.028094 1.113272 34.000000
3.244725 -0.008583 1.111756 35.000000
3.211408 -0.044655 1.100308 33.000000
3.210683 -0.080917 1.100308 35.000000
3.200089 -0.116731 1.096964 36.000000
3.189297 -0.152435 1.093517 34.000000
3.187443 -0.188381 1.093105 37.000000
3.175739 -0.223560 1.089661 32.000000
3.092917 -0.252947 1.062036 19.000000
3.118277 -0.290413 1.071346 34.000000
3.105533 -0.324582 1.067706 32.000000
3.087707 -0.357893 1.062452 34.000000
3.097778 -0.394473 1.066699 50.000000
3.069813 -0.426166 1.058218 34.000000
3.065015 -0.460747 1.057719 35.000000
3.055147 -0.494572 1.055505 32.000000
3.021581 -0.524147 1.045327 24.000000
3.001785 -0.555576 1.039700 35.000000
3.004874 -0.591260 1.042233 33.000000
2.988991 -0.623092 1.038224 34.000000
2.981905 -0.656948 1.037634 43.000000
2.960884 -0.687199 1.031926 35.000000
2.934745 -0.716212 1.024717 33.000000
2.945112 -0.754009 1.030260 36.000000
2.895616 -0.776182 1.014948 20.000000
2.909823 -0.815121 1.021894 32.000000
2.896320 -0.846502 1.019223 34.000000
2.873199 -0.875117 1.013553 32.000000
2.872655 -0.910290 1.015488 34.000000
2.867064 -0.944186 1.016016 34.000000
2.838725 -0.970421 1.008477 34.000000
2.836939 -1.005559 1.010500 32.000000
2.790196 -1.024462 0.996526 21.000000
2.801163 -1.064263 1.003123 34.000000
2.789205 -1.096086 1.002062 34.000000
2.781642 -1.129212 1.002102 35.000000
2.764711 -1.158962 0.999362 38.000000
2.752078 -1.189918 0.997722 35.000000
2.721531 -1.213339 0.990066 32.000000
2.742614 -1.260044 1.001222 33.000000
2.707284 -1.280949 0.991907 10.000000
2.714471 -1.321959 0.998214 24.000000
2.708404 -1.356879 0.999698 36.000000
2.647070 -1.363526 0.980836 34.000000
2.640445 -1.397820 0.982237 37.000000
2.637705 -1.434382 0.985089 34.000000
2.617934 -1.461768 0.981701 33.000000
2.626206 -1.505896 0.989481 35.000000
2.593488 -1.525803 0.981335 23.000000
2.597229 -1.567158 0.987042 33.000000
2.583847 -1.599352 0.986835 33.000000
2.554442 -1.620666 0.980066 30.000000
2.540380 -1.652471 0.979761 32.000000
2.522009 -1.681437 0.977817 27.000000
2.503930 -1.709624 0.975581 28.000000
2.520086 -1.762759 0.987295 35.000000
2.481215 -1.777578 0.977599 21.000000
2.473076 -1.814395 0.980013 34.000000
2.461337 -1.847531 0.980493 32.000000
2.440933 -1.875525 0.978325 31.000000
2.423979 -1.906269 0.977470 34.000000
2.406764 -1.936802 0.976707 28.000000
2.396450 -1.973284 0.978745 30.000000
2.396683 -2.018939 0.985360 30.000000
2.370913 -2.042993 0.981257 26.000000
2.345011 -2.066764 0.977263 26.000000
2.308241 -2.080565 0.968613 26.000000
2.229321 -2.054913 0.942287 25.000000
2.140904 -2.017866 0.911461 29.000000
2.036445 -1.962554 0.873511 21.000000
1.974280 -1.945251 0.853238 22.000000
1.884924 -1.900476 0.821765 25.000000
1.771114 -1.825665 0.778242 13.000000
1.744804 -1.838696 0.772971 26.000000
1.672837 -1.802247 0.747283 24.000000
1.610652 -1.775700 0.726318 22.000000
1.569303 -1.768755 0.713834 29.000000
1.509510 -1.739383 0.692773 34.000000
1.481569 -1.745383 0.686118 34.000000
1.467993 -1.770044 0.686938 39.000000
1.430911 -1.764192 0.676037 26.000000
1.418064 -1.787687 0.676493 31.000000
1.400882 -1.808111 0.675731 29.000000
1.398972 -1.846700 0.681725 28.000000
1.390717 -1.877747 0.684844 34.000000
1.372426 -1.897910 0.684016 29.000000
1.355017 -1.917245 0.682806 29.000000
1.344361 -1.948876 0.686060 28.000000
1.329119 -1.971888 0.686124 18.000000
1.320114 -2.007523 0.690613 27.000000
1.304100 -2.030413 0.690618 26.000000
1.286378 -2.053883 0.690831 24.000000
1.277238 -2.088783 0.694811 29.000000
1.252792 -2.098864 0.690578 25.000000
1.248585 -2.146877 0.698776 23.000000
1.243397 -2.195113 0.706891 20.000000
1.227195 -2.221673 0.707963 8.000000
0.734417 1.356717 0.442541 8.000000
0.751052 1.352443 0.445885 13.000000
0.761475 1.334961 0.444824 17.000000
0.787556 1.346992 0.453709 18.000000
0.792753 1.321010 0.449839 27.000000
0.819178 1.332384 0.458786 18.000000
0.828984 1.314421 0.457652 26.000000
0.842778 1.304929 0.459531 23.000000
0.862654 1.302786 0.464009 18.000000
0.873745 1.288971 0.464420 15.000000
0.879142 1.267148 0.461902 11.000000
0.901615 1.268341 0.467842 27.000000
0.915054 1.258026 0.469627 23.000000
0.934058 1.255240 0.474264 18.000000
0.948128 1.244063 0.475811 26.000000
0.967180 1.240778 0.480478 21.000000
0.992303 1.244685 0.488047 21.000000
0.991117 1.214335 0.482271 24.000000
1.000968 1.199306 0.482447 18.000000
1.029243 1.206043 0.491495 32.000000
1.038971 1.190642 0.491682 26.000000
1.061893 1.188947 0.497565 25.000000
1.074583 1.176767 0.499196 32.000000
1.106753 1.185403 0.509772 23.000000
1.126049 1.179591 0.514388 25.000000
1.118701 1.146182 0.506902 22.000000
1.137790 1.140059 0.511466 26.000000
1.164196 1.139878 0.518824 35.000000
1.183392 1.133107 0.523380 32.000000
1.199098 1.122766 0.526428 28.000000
1.214717 1.112188 0.529432 44.000000
1.233845 1.104545 0.533926 26.000000
1.252953 1.096634 0.538437 29.000000
1.268476 1.085253 0.541368 17.000000
1.291201 1.079782 0.547399 25.000000
1.313474 1.074388 0.553672 33.000000
1.332610 1.065124 0.558089 28.000000
1.359201 1.061427 0.565637 27.000000
1.382106 1.054394 0.571652 32.000000
1.412649 1.052608 0.580763 27.000000
1.431419 1.042290 0.585431 26.000000
1.442802 1.025727 0.586683 21.000000
1.461811 1.014462 0.591030 26.000000
1.488276 1.008569 0.598780 34.000000
1.519160 1.004414 0.607852 32.000000
1.537792 0.992388 0.612431 29.000000
1.556713 0.979650 0.616729 30.000000
1.571231 0.964427 0.619624 26.000000
1.581796 0.946264 0.620752 27.000000
1.612408 0.940211 0.629994 21.000000
1.630684 0.926554 0.634400 29.000000
1.657227 0.917175 0.642029 31.000000
1.700394 0.916282 0.656115 30.000000
1.727061 0.905651 0.663679 30.000000
1.757883 0.896726 0.672878 30.000000
1.784509 0.885028 0.680425 30.000000
1.798342 0.866717 0.683136 26.000000
1.841948 0.862218 0.697136 26.000000
1.859941 0.845068 0.701367 23.000000
1.886145 0.831671 0.709125 27.000000
1.916926 0.819406 0.718200 26.000000
1.943140 0.804906 0.725800 24.000000
2.004535 0.803808 0.746279 32.000000
2.021852 0.784494 0.750596 25.000000
2.039104 0.764840 0.754851 21.000000
2.082791 0.754568 0.768952 27.000000
2.104324 0.735555 0.774807 26.000000
2.130074 0.717675 0.782245 25.000000
2.187027 0.709589 0.801362 31.000000
2.208200 0.688913 0.807121 25.000000
2.247178 0.673425 0.819562 30.000000
2.263378 0.650628 0.823773 24.000000
2.279406 0.627473 0.827916 13.000000
2.377317 0.625572 0.861762 25.000000
2.402298 0.603218 0.869099 20.000000
2.463845 0.589064 0.889619 24.000000
2.506870 0.569566 0.903704 26.000000
2.535912 0.546173 0.912750 22.000000
2.611022 0.531498 0.938333 24.000000
2.649044 0.508146 0.950569 23.000000
2.659008 0.479045 0.953018 9.000000
2.752417 0.463765 0.985071 25.000000
2.789898 0.437715 0.997358 21.000000
2.855116 0.414904 1.019471 21.000000
2.924823 0.391441 1.043461 29.000000
2.956907 0.361730 1.054040 23.000000
3.035621 0.336577 1.081219 20.000000
3.100051 0.308331 1.103314 24.000000
3.215955 0.283152 1.143583 12.000000
3.275164 0.251101 1.164042 25.000000
3.315337 0.216440 1.177618 26.000000
3.275032 0.176719 1.163009 23.000000
3.281545 0.139855 1.164680 28.000000
3.249852 0.101706 1.153194 26.000000
3.213005 0.064208 1.140135 24.000000
3.204101 0.027808 1.136896 26.000000
3.227766 -0.008571 1.145255 27.000000
3.189759 -0.044523 1.131777 32.000000
3.207982 -0.081052 1.138256 28.000000
3.173979 -0.116111 1.126453 29.000000
3.167729 -0.151778 1.124782 34.000000
3.151871 -0.186679 1.119461 27.000000
3.140220 -0.221695 1.115916 27.000000
3.104691 -0.254471 1.103818 27.000000
3.087688 -0.288257 1.098608 24.000000
3.088962 -0.323688 1.099976 32.000000
3.075878 -0.357492 1.096236 29.000000
3.053165 -0.389891 1.089064 27.000000
3.053450 -0.425016 1.090033 30.000000
3.043998 -0.458742 1.087868 29.000000
3.020203 -0.490196 1.080610 25.000000
3.010012 -0.523553 1.078451 24.000000
2.994906 -0.555748 1.074334 23.000000
2.970191 -0.586005 1.066996 28.000000
2.963627 -0.619606 1.066310 28.000000
2.942855 -0.649959 1.060450 26.000000
2.944926 -0.685346 1.062889 32.000000
2.914288 -0.713093 1.053821 26.000000
2.915470 -0.748435 1.056259 26.000000
2.888871 -0.776441 1.048766 26.000000
2.875719 -0.807863 1.046049 24.000000
2.884948 -0.845627 1.051590 30.000000
2.871200 -0.876713 1.048775 29.000000
2.843402 -0.903601 1.041215 25.000000
2.842436 -0.938578 1.043155 30.000000
2.814216 -0.964572 1.035420 28.000000
2.821249 -1.002814 1.040833 21.000000
2.792491 -1.028114 1.033017 26.000000
2.776733 -1.058059 1.030034 24.000000
2.765120 -1.089348 1.028594 28.000000
2.752931 -1.120829 1.027442 29.000000
2.732027 -1.148263 1.022645 27.000000
2.723544 -1.181237 1.023030 30.000000
2.702070 -1.207946 1.018052 24.000000
2.697288 -1.242661 1.019868 13.000000
2.696308 -1.279312 1.023199 13.000000
2.669402 -1.303702 1.016801 12.000000
2.680395 -1.346824 1.024968 33.000000
2.652981 -1.370684 1.018385 29.000000
2.629503 -1.396285 1.013429 27.000000
2.622459 -1.430572 1.014822 29.000000
2.594467 -1.453285 1.008081 26.000000
2.590878 -1.489690 1.011067 19.000000
2.590927 -1.528492 1.015442 27.000000
2.569820 -1.555784 1.012101 24.000000
2.564971 -1.592306 1.014752 31.000000
2.539089 -1.616665 1.009822 24.000000
2.513706 -1.639970 1.004323 21.000000
2.507278 -1.676759 1.007239 25.000000
2.493044 -1.707583 1.006393 25.000000
2.505162 -1.757964 1.016966 16.000000
2.454845 -1.764444 1.002311 24.000000
2.455011 -1.806017 1.007631 23.000000
2.431234 -1.831177 1.003812 27.000000
2.403465 -1.853252 0.998437 24.000000
2.397907 -1.892521 1.002333 22.000000
2.399189 -1.937810 1.009309 28.000000
2.386020 -1.970503 1.009539 23.000000
2.378892 -2.009995 1.013243 14.000000
2.364001 -2.043300 1.013730 29.000000
2.327289 -2.057663 1.004868 16.000000
2.297711 -2.077784 0.999109 19.000000
2.208567 -2.042505 0.967345 18.000000
2.124022 -2.008691 0.937171 16.000000
2.033718 -1.966646 0.904106 16.000000
1.943609 -1.923464 0.871475 13.000000
1.889180 -1.911641 0.853711 9.000000
1.792244 -1.854239 0.816503 14.000000
1.719772 -1.819107 0.789871 12.000000
1.687113 -1.824565 0.781389 24.000000
1.596989 -1.765794 0.746033 18.000000
1.554917 -1.759492 0.733466 19.000000
1.504705 -1.740939 0.716204 28.000000
1.473692 -1.743340 0.707927 28.000000
1.473210 -1.782062 0.714376 19.000000
1.423027 -1.762167 0.697446 29.000000
1.413037 -1.789478 0.699386 24.000000
1.405657 -1.820557 0.702755 29.000000
1.385106 -1.837071 0.700480 25.000000
1.374026 -1.864186 0.702264 23.000000
1.359756 -1.887462 0.702570 26.000000
1.352243 -1.922988 0.707401 20.000000
1.348064 -1.961882 0.713315 16.000000
1.311186 -1.953181 0.702007 19.000000
1.312866 -2.004776 0.712357 17.000000
1.291580 -2.019501 0.709534 23.000000
1.278995 -2.051038 0.712595 18.000000
1.264792 -2.077713 0.713897 19.000000
1.251301 -2.109154 0.716800 21.000000
1.255457 -2.168893 0.729204 18.000000
1.235721 -2.192155 0.729199 16.000000
1.233359 -2.244039 0.738552 5.000000
0.720525 1.337924 0.450425 8.000000
0.753189 1.363110 0.463776 10.000000
0.768513 1.353935 0.465611 14.000000
0.785154 1.349197 0.468983 17.000000
0.794476 1.331922 0.468084 15.000000
0.819349 1.338606 0.475664 21.000000
0.828381 1.321092 0.474704 17.000000
0.848328 1.319087 0.479368 21.000000
0.867549 1.317311 0.484204 18.000000
0.865470 1.283522 0.477279 12.000000
0.885238 1.280949 0.481867 25.000000
0.898818 1.270801 0.483757 19.000000
0.917895 1.268187 0.488527 21.000000
0.934951 1.260959 0.491673 26.000000
0.948355 1.250216 0.493480 18.000000
0.967454 1.246856 0.498248 21.000000
0.987374 1.242703 0.502884 21.000000
0.982607 1.209136 0.495520 13.000000
1.010701 1.216175 0.504869 29.000000
1.023721 1.204523 0.506592 26.000000
1.046619 1.203037 0.512652 26.000000
1.062664 1.194529 0.515874 31.000000
1.081831 1.189364 0.520647 29.000000
1.101099 1.183847 0.525388 31.000000
1.110533 1.167692 0.525446 26.000000
1.142981 1.175304 0.536378 13.000000
1.148916 1.155406 0.534891 42.000000
1.164758 1.145442 0.538025 30.000000
1.187412 1.141824 0.544305 34.000000
1.199802 1.128110 0.545841 34.000000
1.222458 1.123871 0.552055 35.000000
1.245271 1.119230 0.558295 35.000000
1.264514 1.111054 0.562975 35.000000
1.283786 1.102606 0.567618 19.000000
1.292140 1.084687 0.567440 33.000000
1.314971 1.078709 0.573646 31.000000
1.334140 1.069405 0.578219 35.000000
1.360284 1.066050 0.586241 37.000000
1.368166 1.047355 0.585968 32.000000
1.406138 1.051306 0.598595 34.000000
1.421054 1.038190 0.601741 33.000000
1.447866 1.032658 0.609531 24.000000
1.463049 1.018549 0.612360 43.000000
1.477774 1.004582 0.615484 34.000000
1.512480 1.003125 0.626426 36.000000
1.531078 0.991033 0.631102 51.000000
1.549667 0.978644 0.635793 33.000000
1.568486 0.965538 0.640201 33.000000
1.590986 0.954975 0.646445 36.000000
1.601240 0.936805 0.647704 20.000000
1.627654 0.927864 0.655569 39.000000
1.654149 0.918367 0.663397 45.000000
1.680661 0.908432 0.671251 51.000000
1.732164 0.911169 0.689028 55.000000
1.763031 0.902023 0.698483 41.000000
1.785435 0.888135 0.704570 36.000000
1.799296 0.869661 0.707335 34.000000
1.842869 0.865041 0.721736 18.000000
1.864892 0.850008 0.728075 36.000000
1.887044 0.834349 0.734032 34.000000
1.913247 0.820320 0.741950 32.000000
1.952591 0.810976 0.754591 37.000000
1.987501 0.799319 0.765785 43.000000
2.022362 0.786927 0.776939 32.000000
2.057163 0.773797 0.788119 35.000000
2.074346 0.753566 0.792425 19.000000
2.104633 0.737660 0.801813 43.000000
2.134728 0.721394 0.811441 46.000000
2.191676 0.712988 0.830898 41.000000
2.217181 0.693783 0.838660 38.000000
2.260593 0.679434 0.853238 63.000000
2.276829 0.656301 0.857560 35.000000
2.342735 0.646644 0.880547 35.000000
2.358767 0.622379 0.884666 23.000000
2.410996 0.607007 0.902438 35.000000
2.444791 0.586217 0.913572 36.000000
2.501389 0.569944 0.933189 36.000000
2.553480 0.551368 0.950789 42.000000
2.591384 0.529015 0.963704 40.000000
2.652321 0.510197 0.984859 36.000000
2.685405 0.485112 0.995934 29.000000
2.760101 0.466262 1.022010 31.000000
2.811312 0.442276 1.039806 66.000000
2.867050 0.417823 1.059433 37.000000
2.927322 0.392741 1.080422 39.000000
2.977957 0.365249 1.098184 42.000000
3.061086 0.340332 1.127900 35.000000
3.106634 0.309689 1.143679 33.000000
3.179925 0.280670 1.169995 30.000000
3.295058 0.253301 1.211719 34.000000
3.311689 0.216838 1.217206 34.000000
3.271555 0.177014 1.202137 37.000000
3.268676 0.139642 1.200415 37.000000
3.251292 0.101937 1.193632 42.000000
3.242647 0.064950 1.190503 36.000000
3.219707 0.027948 1.181993 36.000000
3.205731 -0.008546 1.176929 32.000000
3.191339 -0.044617 1.171551 35.000000
3.176640 -0.080472 1.166176 32.000000
3.161535 -0.116008 1.160906 33.000000
3.150615 -0.151348 1.157563 33.000000
3.144186 -0.186753 1.155431 34.000000
3.127886 -0.221389 1.150062 32.000000
3.087808 -0.253784 1.135986 24.000000
3.103584 -0.290480 1.142365 33.000000
3.058219 -0.321323 1.126581 35.000000
3.049858 -0.355461 1.124462 35.000000
3.031894 -0.388200 1.118807 34.000000
3.032075 -0.423219 1.120128 34.000000
3.008826 -0.454735 1.112465 33.000000
2.999049 -0.487995 1.110155 32.000000
2.998048 -0.522960 1.111476 24.000000
2.964509 -0.551719 1.100401 32.000000
2.953729 -0.584408 1.098002 32.000000
2.942676 -0.616797 1.095312 35.000000
2.926568 -0.648261 1.091305 35.000000
2.901061 -0.677088 1.083593 32.000000
2.898176 -0.711003 1.084236 33.000000
2.876479 -0.740432 1.078342 28.000000
2.872821 -0.774251 1.079083 24.000000
2.868749 -0.808172 1.079820 33.000000
2.855242 -0.839351 1.077054 33.000000
2.845969 -0.871611 1.075799 35.000000
2.818484 -0.898064 1.067753 32.000000
2.812967 -0.931599 1.068489 32.000000
2.793879 -0.960264 1.063660 32.000000
2.778811 -0.990403 1.060722 27.000000
2.785466 -1.028495 1.066237 19.000000
2.765312 -1.056715 1.061514 33.000000
2.762454 -1.091560 1.063542 35.000000
2.741797 -1.119197 1.058635 34.000000
2.737902 -1.154240 1.060749 34.000000
2.716651 -1.181391 1.055756 33.000000
2.703502 -1.212487 1.054412 34.000000
2.686076 -1.240936 1.050915 26.000000
2.659512 -1.265526 1.044464 9.000000
2.670889 -1.308293 1.052854 22.000000
2.669076 -1.345083 1.056215 34.000000
2.654178 -1.375460 1.054571 36.000000
2.634828 -1.403426 1.051072 36.000000
2.615236 -1.431200 1.047579 34.000000
2.599516 -1.460902 1.045651 35.000000
2.579517 -1.488053 1.042071 28.000000
2.555120 -1.512418 1.036752 13.000000
2.558792 -1.553656 1.042865 35.000000
2.541282 -1.583162 1.041124 31.000000
2.532121 -1.616979 1.042176 33.000000
2.510602 -1.643020 1.038212 32.000000
2.496117 -1.674527 1.037906 30.000000
2.489756 -1.710702 1.040364 35.000000
2.459046 -1.731202 1.033442 26.000000
2.432158 -1.754006 1.028064 10.000000
2.455165 -1.812192 1.043243 37.000000
2.435087 -1.840439 1.040980 29.000000
2.422103 -1.874282 1.041937 33.000000
2.409587 -1.907210 1.042286 31.000000
2.395854 -1.940802 1.043114 28.000000
2.388987 -1.980411 1.046925 35.000000
2.359971 -2.001666 1.041137 27.000000
2.352272 -2.041095 1.044908 18.000000
2.333362 -2.071210 1.043788 30.000000
2.296524 -2.085164 1.034648 20.000000
2.225000 -2.066211 1.009766 26.000000
2.126732 -2.019797 0.972320 26.000000
2.036554 -1.977973 0.938207 19.000000
1.964387 -1.950954 0.912094 26.000000
1.863134 -1.892135 0.871987 18.000000
1.779950 -1.848340 0.839795 9.000000
1.737032 -1.844387 0.826387 27.000000
1.672004 -1.815185 0.802147 21.000000
1.604608 -1.781180 0.776503 24.000000
1.550705 -1.760134 0.757148 27.000000
1.509035 -1.753237 0.744247 27.000000
1.471728 -1.748511 0.732568 49.000000
1.434816 -1.743072 0.720952 32.000000
1.425046 -1.770481 0.723040 22.000000
1.393176 -1.772379 0.714740 36.000000
1.391626 -1.810868 0.721248 32.000000
1.386581 -1.845649 0.726192 32.000000
1.362933 -1.858197 0.722333 29.000000
1.351376 -1.885311 0.724150 30.000000
1.342236 -1.916231 0.727344 32.000000
1.323323 -1.936025 0.726356 26.000000
1.308027 -1.958956 0.726456 10.000000
1.300244 -1.993793 0.731012 29.000000
1.282806 -2.017288 0.731277 25.000000
1.269013 -2.043975 0.732749 26.000000
1.248464 -2.063189 0.731437 25.000000
1.255829 -2.126720 0.745781 25.000000
1.235701 -2.145121 0.744150 26.000000
1.220855 -2.176584 0.747045 19.000000
1.216193 -2.224051 0.755288 10.000000
0.719230 1.344905 0.466798 8.000000
0.748280 1.361126 0.477463 12.000000
0.762661 1.352398 0.479496 22.000000
0.780279 1.347158 0.482812 21.000000
0.799330 1.346313 0.487826 26.000000
0.813494 1.337054 0.489828 22.000000
0.825982 1.323099 0.490131 22.000000
0.842572 1.317535 0.493632 23.000000
0.854773 1.303290 0.493873 18.000000
0.865888 1.289455 0.494303 18.000000
0.882265 1.283331 0.497765 26.000000
0.896685 1.272653 0.499461 25.000000
0.912991 1.266135 0.502841 32.000000
0.923629 1.251747 0.503204 22.000000
0.948413 1.256250 0.511228 30.000000
0.962504 1.244785 0.512844 29.000000
0.978735 1.237350 0.516217 20.000000
0.985982 1.218668 0.514920 28.000000
1.008055 1.218212 0.521380 32.000000
1.024180 1.210149 0.524729 34.000000
1.037787 1.197815 0.526258 41.000000
1.053776 1.189389 0.529572 30.000000
1.076106 1.187714 0.536016 33.000000
1.092118 1.178710 0.539309 35.000000
1.104792 1.166037 0.540964 32.000000
1.123953 1.160012 0.545821 31.000000
1.136493 1.147004 0.547434 32.000000
1.162353 1.147087 0.555487 43.000000
1.181588 1.140182 0.560296 61.000000
1.200806 1.132908 0.565123 35.000000
1.213107 1.118956 0.566667 42.000000
1.239346 1.117507 0.574724 37.000000
1.258556 1.109375 0.579497 33.000000
1.270148 1.095129 0.581230 30.000000
1.289342 1.086427 0.585975 32.000000
1.315742 1.083397 0.593973 34.000000
1.338618 1.076959 0.600353 59.000000
1.350004 1.061796 0.601964 35.000000
1.372834 1.054643 0.608325 39.000000
1.395743 1.047118 0.614653 39.000000
1.425819 1.045189 0.624561 33.000000
1.433488 1.025795 0.624151 30.000000
1.459836 1.020270 0.632384 35.000000
1.482758 1.011159 0.638682 35.000000
1.505273 1.002070 0.645176 60.000000
1.527840 0.992538 0.651633 35.000000
1.542740 0.977223 0.654501 36.000000
1.569232 0.969413 0.662624 35.000000
1.583670 0.953836 0.665634 32.000000
1.606091 0.942808 0.672045 33.000000
1.628548 0.931382 0.678414 37.000000
1.646746 0.917265 0.683100 36.000000
1.669052 0.905018 0.689443 56.000000
1.720410 0.907773 0.707709 38.000000
1.751161 0.898661 0.717407 36.000000
1.786095 0.891102 0.728848 48.000000
1.791532 0.868431 0.728232 30.000000
1.822019 0.858118 0.738129 31.000000
1.848390 0.844910 0.746003 35.000000
1.874534 0.831444 0.754161 31.000000
1.909261 0.821229 0.765665 35.000000
1.944232 0.809948 0.776994 35.000000
1.974612 0.796523 0.786755 35.000000
2.022516 0.789282 0.803411 44.000000
2.035381 0.767834 0.806208 25.000000
2.069876 0.754384 0.817853 32.000000
2.095665 0.736864 0.825753 42.000000
2.125811 0.720371 0.835268 39.000000
2.182405 0.712166 0.855571 40.000000
2.207909 0.692954 0.863611 42.000000
2.233158 0.673185 0.871515 34.000000
2.271868 0.656756 0.884690 35.000000
2.305956 0.638360 0.896059 27.000000
2.362604 0.625180 0.916065 29.000000
2.409983 0.608654 0.932831 37.000000
2.462055 0.591966 0.951059 33.000000
2.482017 0.567026 0.957163 30.000000
2.542875 0.550689 0.979041 49.000000
2.576233 0.527304 0.990292 35.000000
2.646035 0.510469 1.015752 35.000000
2.656000 0.481156 1.018308 18.000000
2.744031 0.465025 1.050801 29.000000
2.795134 0.440992 1.069016 44.000000
2.864632 0.418611 1.094225 36.000000
2.910690 0.391638 1.110806 33.000000
2.961128 0.364288 1.129078 37.000000
3.029985 0.337759 1.154252 29.000000
3.089298 0.308920 1.175901 32.000000
3.222843 0.285306 1.226015 25.000000
3.281631 0.252979 1.247598 34.000000
3.298204 0.216514 1.253238 32.000000
3.263017 0.176947 1.239483 36.000000
3.236806 0.138630 1.228738 32.000000
3.233402 0.101684 1.227177 36.000000
3.224899 0.064751 1.223945 37.000000
3.206623 0.027948 1.216955 34.000000
3.155308 -0.008446 1.197441 29.000000
3.150427 -0.044223 1.195564 29.000000
3.149810 -0.080013 1.195359 32.000000
3.139336 -0.115459 1.191709 32.000000
3.133129 -0.150918 1.190038 32.000000
3.108054 -0.185158 1.180764 31.000000
3.115145 -0.221185 1.184106 31.000000
3.056682 -0.251946 1.162534 25.000000
3.049124 -0.286243 1.160362 31.000000
3.027126 -0.318964 1.152978 30.000000
3.009518 -0.351804 1.147269 31.000000
3.005563 -0.385917 1.146676 32.000000
2.987318 -0.418085 1.140777 29.000000
2.982495 -0.452138 1.140285 29.000000
2.986708 -0.487501 1.143228 32.000000
2.958141 -0.517432 1.133708 27.000000
2.943164 -0.549316 1.129394 32.000000
2.932520 -0.581707 1.126752 32.000000
2.912250 -0.612166 1.120686 30.000000
2.914594 -0.647287 1.123431 35.000000
2.898276 -0.678254 1.118939 32.000000
2.886064 -0.710228 1.116502 32.000000
2.887281 -0.745318 1.118949 34.000000
2.851805 -0.770841 1.107447 24.000000
2.843236 -0.803289 1.106484 29.000000
2.834378 -0.835640 1.105425 30.000000
2.816180 -0.865048 1.100769 28.000000
2.815603 -0.899861 1.103018 34.000000
2.796793 -0.928873 1.098178 30.000000
2.777567 -0.957683 1.093538 32.000000
2.771360 -0.991024 1.094132 29.000000
2.751741 -1.019008 1.089024 25.000000
2.753603 -1.055372 1.092899 30.000000
2.750708 -1.090116 1.094930 35.000000
2.725748 -1.116076 1.088191 33.000000
2.708779 -1.145584 1.085310 33.000000
2.696245 -1.176295 1.083684 32.000000
2.679145 -1.204890 1.080236 30.000000
2.678452 -1.241569 1.083973 30.000000
2.643831 -1.261692 1.073452 10.000000
2.663550 -1.308534 1.085671 24.000000
2.653179 -1.341223 1.085651 34.000000
2.625897 -1.365051 1.078775 31.000000
2.610805 -1.395044 1.077045 43.000000
2.599544 -1.427106 1.076925 34.000000
2.579755 -1.454452 1.073199 30.000000
2.579978 -1.493387 1.078079 35.000000
2.551498 -1.515494 1.070955 26.000000
2.542972 -1.549467 1.072128 33.000000
2.522079 -1.575853 1.068313 34.000000
2.512260 -1.610152 1.069856 32.000000
2.502620 -1.643860 1.070901 36.000000
2.492577 -1.677456 1.071835 35.000000
2.477763 -1.709044 1.071468 32.000000
2.482329 -1.753338 1.078970 34.000000
2.428379 -1.757210 1.061779 24.000000
2.432284 -1.801413 1.069053 34.000000
2.400930 -1.820978 1.061815 36.000000
2.410454 -1.871913 1.072739 32.000000
2.397901 -1.904833 1.073183 35.000000
2.380470 -1.935440 1.072258 34.000000
2.366306 -1.968953 1.072971 32.000000
2.355305 -2.005498 1.075309 30.000000
2.348271 -2.044191 1.078758 31.000000
2.329376 -2.074283 1.077576 35.000000
2.292536 -2.088438 1.068242 27.000000
2.214258 -2.063184 1.039355 27.000000
2.126539 -2.026570 1.005752 30.000000
2.033203 -1.981659 0.968994 25.000000
1.957865 -1.951538 0.940481 26.000000
1.873563 -1.909772 0.907211 26.000000
1.780642 -1.856040 0.869317 16.000000
1.737812 -1.852233 0.855493 29.000000
1.682362 -1.833687 0.835293 35.000000
1.595995 -1.778796 0.799420 26.000000
1.545484 -1.761368 0.780996 32.000000
1.488378 -1.736453 0.759891 36.000000
1.460476 -1.742529 0.752604 51.000000
1.432663 -1.748176 0.745421 65.000000
1.422762 -1.775639 0.747487 31.000000
1.386103 -1.769420 0.735598 52.000000
1.368927 -1.789651 0.734839 35.000000
1.369693 -1.831934 0.743049 34.000000
1.358517 -1.859016 0.744951 47.000000
1.341343 -1.878398 0.743752 32.000000
1.328269 -1.906101 0.745820 33.000000
1.315906 -1.933028 0.747558 34.000000
1.298016 -1.951904 0.746228 21.000000
1.286243 -1.983440 0.749646 32.000000
1.270228 -2.006104 0.749705 32.000000
1.260110 -2.041595 0.754469 31.000000
1.243390 -2.064123 0.754387 32.000000
1.226343 -2.086455 0.754280 28.000000
1.221648 -2.134387 0.763274 28.000000
1.215313 -2.177575 0.770383 28.000000
1.199665 -2.209030 0.773317 10.000000
0.744563 1.363672 0.492711 16.000000
0.760033 1.354420 0.494651 17.000000
0.781485 1.357898 0.501311 25.000000
0.784638 1.327769 0.495571 18.000000
0.806074 1.330832 0.502206 21.000000
0.822653 1.325493 0.505793 24.000000
0.832460 1.307363 0.504550 18.000000
0.867108 1.329507 0.518970 23.000000
0.852202 1.275962 0.503850 11.000000
0.871960 1.273350 0.508705 20.000000
0.893672 1.274844 0.515353 27.000000
0.907185 1.264484 0.517305 24.000000
0.923505 1.257696 0.520790 25.000000
0.945452 1.258323 0.527463 28.000000
0.959637 1.246824 0.529135 25.000000
0.975891 1.239401 0.532609 24.000000
0.974301 1.209580 0.526414 12.000000
1.002313 1.216485 0.536267 29.000000
1.018370 1.208467 0.539712 34.000000
1.034454 1.200175 0.543118 28.000000
1.053588 1.195204 0.548160 32.000000
1.070278 1.185960 0.551282 32.000000
1.086273 1.176951 0.554672 30.000000
1.105430 1.171199 0.559661 33.000000
1.114795 1.154898 0.559732 11.000000
1.137245 1.151952 0.566346 34.000000
1.153053 1.142030 0.569624 36.000000
1.175075 1.138859 0.576498 35.000000
1.194309 1.131577 0.581418 37.000000
1.210068 1.120827 0.584686 40.000000
1.225736 1.109836 0.587910 35.000000
1.251947 1.107967 0.596181 63.000000
1.260520 1.090261 0.596014 15.000000
1.286289 1.088104 0.604496 36.000000
1.309077 1.082019 0.610994 46.000000
1.320975 1.066651 0.612482 29.000000
1.346973 1.063265 0.620939 43.000000
1.362392 1.050373 0.624036 35.000000
1.392269 1.048929 0.634203 32.000000
1.411385 1.038135 0.638931 47.000000
1.426240 1.024711 0.642242 16.000000
1.449071 1.016075 0.648717 38.000000
1.479306 1.012706 0.658836 59.000000
1.498301 1.000547 0.663516 36.000000
1.520813 0.991003 0.670176 66.000000
1.539356 0.978554 0.675064 34.000000
1.561815 0.968276 0.681705 33.000000
1.580244 0.955121 0.686506 43.000000
1.606672 0.946355 0.694812 16.000000
1.612813 0.925501 0.694399 37.000000
1.639220 0.916042 0.702680 82.000000
1.657357 0.901548 0.707415 44.000000
1.700229 0.899940 0.722649 42.000000
1.734976 0.893099 0.734344 36.000000
1.761126 0.881751 0.742801 31.000000
1.795998 0.873599 0.754495 42.000000
1.813968 0.856809 0.759077 20.000000
1.840065 0.843853 0.767476 32.000000
1.866132 0.830444 0.775832 33.000000
1.900744 0.820148 0.787634 33.000000
1.926978 0.805318 0.795700 43.000000
1.957292 0.791979 0.805704 36.000000
2.017964 0.789924 0.828157 33.000000
2.035053 0.770291 0.833006 32.000000
2.047757 0.748500 0.835791 29.000000
2.086624 0.735779 0.849260 36.000000
2.116529 0.719494 0.859314 52.000000
2.177344 0.712720 0.881966 37.000000
2.198336 0.692049 0.888335 36.000000
2.228048 0.673623 0.898316 37.000000
2.271040 0.658506 0.913568 35.000000
2.300547 0.638672 0.923437 32.000000
2.356995 0.625500 0.943995 29.000000
2.404293 0.608907 0.961214 35.000000
2.456020 0.592399 0.980192 35.000000
2.485020 0.569486 0.990069 35.000000
2.532016 0.549926 1.007122 36.000000
2.569907 0.527555 1.020489 39.000000
2.625724 0.507996 1.041216 32.000000
2.663064 0.483871 1.054711 26.000000
2.741685 0.465951 1.084394 33.000000
2.788011 0.441166 1.101297 37.000000
2.857150 0.418719 1.127213 37.000000
2.893809 0.390440 1.140609 34.000000
2.962630 0.365414 1.166664 34.000000
3.026606 0.338297 1.190724 32.000000
3.090229 0.309908 1.215105 36.000000
3.162846 0.280767 1.242952 28.000000
3.267881 0.252656 1.283369 34.000000
3.270459 0.215273 1.283691 32.000000
3.267959 0.177745 1.281868 34.000000
3.232467 0.138818 1.267599 40.000000
3.224540 0.101725 1.264057 36.000000
3.202114 0.064458 1.255251 35.000000
3.188570 0.027803 1.249987 36.000000
3.146779 -0.008458 1.233564 29.000000
3.146573 -0.044251 1.233461 32.000000
3.136646 -0.079910 1.229503 33.000000
3.116907 -0.115013 1.222206 30.000000
3.110826 -0.150264 1.220076 35.000000
3.095046 -0.184955 1.214604 31.000000
3.111284 -0.221541 1.221695 32.000000
3.011290 -0.248960 1.183106 13.000000
3.059408 -0.288126 1.202756 33.000000
3.009880 -0.317978 1.183937 31.000000
3.006210 -0.352295 1.183540 32.000000
2.997525 -0.386017 1.181224 33.000000
2.993267 -0.420083 1.180531 36.000000
2.960787 -0.450049 1.169225 30.000000
2.978668 -0.487661 1.177723 29.000000
2.904309 -0.509502 1.149785 18.000000
2.926182 -0.547678 1.159904 31.000000
2.915470 -0.580115 1.157212 33.000000
2.904388 -0.612448 1.154621 34.000000
2.888486 -0.643468 1.150221 32.000000
2.890391 -0.678543 1.152968 35.000000
2.864707 -0.707025 1.144666 29.000000
2.866007 -0.741912 1.147217 28.000000
2.826172 -0.766122 1.133708 21.000000
2.839981 -0.804772 1.141768 31.000000
2.822150 -0.834581 1.137005 32.000000
2.817364 -0.868113 1.137650 36.000000
2.781065 -0.891679 1.125608 29.000000
2.780176 -0.926246 1.127862 35.000000
2.778841 -0.960919 1.130013 33.000000
2.763680 -0.991163 1.127067 27.000000
2.743890 -1.019487 1.122240 26.000000
2.732888 -1.050581 1.120518 31.000000
2.712631 -1.078320 1.115513 31.000000
2.717995 -1.116414 1.121117 39.000000
2.692518 -1.142324 1.114623 31.000000
2.688472 -1.176733 1.116459 35.000000
2.684152 -1.211146 1.118285 36.000000
2.666743 -1.239745 1.114686 24.000000
2.635956 -1.262379 1.106071 10.000000
2.638717 -1.300979 1.111615 24.000000
2.632954 -1.335060 1.113031 32.000000
2.609828 -1.360965 1.107776 54.000000
2.603010 -1.395333 1.109565 34.000000
2.579403 -1.420759 1.104128 41.000000
2.575890 -1.457237 1.107466 36.000000
2.559881 -1.486747 1.105441 28.000000
2.527485 -1.506468 1.096336 26.000000
2.530899 -1.547632 1.102940 36.000000
2.513996 -1.576512 1.100718 34.000000
2.492859 -1.602662 1.096665 35.000000
2.479321 -1.633692 1.096082 31.000000
2.480408 -1.675607 1.102696 33.000000
2.462203 -1.703838 1.100164 34.000000
2.458342 -1.743420 1.104907 27.000000
2.409134 -1.749169 1.088527 30.000000
2.400900 -1.785633 1.091442 32.000000
2.411664 -1.835616 1.102393 34.000000
2.391193 -1.863567 1.099933 36.000000
2.378566 -1.896495 1.100382 32.000000
2.375757 -1.938908 1.106398 36.000000
2.361389 -1.972498 1.107098 36.000000
2.329697 -1.989873 1.098940 24.000000
2.329014 -2.035481 1.106261 31.000000
2.316989 -2.071866 1.108493 34.000000
2.266420 -2.073216 1.092172 24.000000
2.216010 -2.073622 1.075921 30.000000
2.121695 -2.030815 1.037985 26.000000
2.019486 -1.975340 0.994799 26.000000
1.947884 -1.948508 0.967125 25.000000
1.867206 -1.910215 0.934639 14.000000
1.797375 -1.880526 0.907179 24.000000
1.728489 -1.849452 0.879784 27.000000
1.670122 -1.827476 0.857449 28.000000
1.595747 -1.787528 0.827387 32.000000
1.545238 -1.770244 0.808414 28.000000
1.504633 -1.762807 0.794486 35.000000
1.452217 -1.740117 0.774092 53.000000
1.424383 -1.745779 0.766629 34.000000
1.408524 -1.765823 0.765619 32.000000
1.377875 -1.767038 0.756601 37.000000
1.374961 -1.806117 0.763786 35.000000
1.364009 -1.833315 0.765849 37.000000
1.341583 -1.845071 0.761471 33.000000
1.332832 -1.875882 0.764991 35.000000
1.320823 -1.902899 0.766819 32.000000
1.304553 -1.926624 0.767345 26.000000
1.281297 -1.937615 0.762869 25.000000
1.273594 -1.972201 0.767654 27.000000
1.266403 -2.011642 0.774231 34.000000
1.252434 -2.038295 0.775806 32.000000
1.235684 -2.060809 0.775732 28.000000
1.219538 -2.088089 0.777394 29.000000
1.199648 -2.106180 0.775740 29.000000
1.207985 -2.179113 0.794044 24.000000
0.728196 1.340553 0.498526 9.000000
0.763216 1.369276 0.514668 18.000000
0.769286 1.343278 0.510370 14.000000
0.790773 1.346502 0.517225 12.000000
0.807477 1.341280 0.520912 21.000000
0.815105 1.319207 0.518073 16.000000
0.834147 1.317637 0.523350 18.000000
0.845625 1.303872 0.523811 18.000000
0.867350 1.305747 0.530673 10.000000
0.879433 1.291177 0.530882 19.000000
0.879646 1.261448 0.524822 17.000000
0.909573 1.274231 0.536481 15.000000
0.917632 1.255939 0.535197 25.000000
0.940336 1.256044 0.541851 17.000000
0.959506 1.252551 0.547051 25.000000
0.964171 1.230139 0.544057 18.000000
1.006880 1.255700 0.562419 10.000000
0.993427 1.211058 0.549449 31.000000
1.012509 1.206632 0.554645 21.000000
1.037786 1.209066 0.563093 25.000000
1.047674 1.193353 0.563278 28.000000
1.057434 1.177610 0.563401 19.000000
1.082889 1.179074 0.571872 26.000000
1.095651 1.166363 0.573636 26.000000
1.118037 1.163675 0.580424 20.000000
1.133946 1.153893 0.583849 34.000000
1.143159 1.137297 0.583826 25.000000
1.168986 1.136952 0.592276 30.000000
1.181376 1.123239 0.593918 32.000000
1.210268 1.125781 0.604355 26.000000
1.215622 1.105232 0.602524 32.000000
1.234761 1.097153 0.607524 31.000000
1.271531 1.104181 0.621194 21.000000
1.279570 1.086630 0.621267 33.000000
1.302301 1.080532 0.627960 28.000000
1.321480 1.071065 0.632935 29.000000
1.336451 1.058853 0.636345 30.000000
1.370337 1.060272 0.648302 26.000000
1.389097 1.050167 0.653452 31.000000
1.408207 1.039377 0.658335 27.000000
1.434457 1.034113 0.666991 24.000000
1.445474 1.017559 0.668606 29.000000
1.456779 1.000544 0.669875 30.000000
1.483036 0.994112 0.678479 32.000000
1.513254 0.989762 0.688836 31.000000
1.535696 0.979820 0.695663 28.000000
1.554159 0.966960 0.700607 31.000000
1.576601 0.956279 0.707415 33.000000
1.582890 0.935642 0.706947 25.000000
1.613266 0.928885 0.717197 32.000000
1.639586 0.919319 0.725678 31.000000
1.661827 0.906958 0.732381 30.000000
1.692327 0.898624 0.742592 30.000000
1.722500 0.889941 0.753086 28.000000
1.765524 0.886676 0.768733 35.000000
1.774969 0.866426 0.770092 28.000000
1.792832 0.849777 0.774764 22.000000
1.827312 0.840850 0.786995 27.000000
1.861781 0.831208 0.799195 29.000000
1.883482 0.815368 0.805880 29.000000
1.909393 0.800832 0.814344 28.000000
1.961118 0.796333 0.833755 29.000000
2.000031 0.785603 0.847639 31.000000
2.021533 0.767503 0.854208 26.000000
2.020962 0.741170 0.851735 11.000000
2.085914 0.738012 0.876594 35.000000
2.102555 0.717117 0.881371 29.000000
2.154360 0.707472 0.900927 29.000000
2.192892 0.692544 0.914832 29.000000
2.222519 0.674057 0.925064 25.000000
2.247605 0.653687 0.933311 26.000000
2.317231 0.645287 0.960105 29.000000
2.301596 0.612757 0.951855 9.000000
2.389079 0.607033 0.986226 30.000000
2.440757 0.590398 1.005377 28.000000
2.455912 0.564575 1.010171 22.000000
2.516368 0.548259 1.033257 29.000000
2.558568 0.526868 1.048752 23.000000
2.605141 0.505527 1.066390 23.000000
2.651451 0.483162 1.083879 24.000000
2.725179 0.464443 1.112498 10.000000
2.780478 0.441246 1.133587 23.000000
2.830898 0.416129 1.153109 26.000000
2.862800 0.387474 1.164893 19.000000
2.949621 0.364925 1.199136 25.000000
3.022549 0.338931 1.227598 26.000000
3.072181 0.309037 1.246921 18.000000
3.140082 0.279529 1.273340 23.000000
3.230699 0.250435 1.309345 21.000000
3.237778 0.213837 1.311752 23.000000
3.240021 0.176773 1.311859 29.000000
3.218468 0.138712 1.302701 23.000000
3.182784 0.100635 1.287810 27.000000
3.183623 0.064259 1.288125 29.000000
3.160868 0.027681 1.278958 22.000000
3.133163 -0.008458 1.267706 25.000000
3.119054 -0.044055 1.261978 27.000000
3.095269 -0.079097 1.252398 28.000000
3.098780 -0.114637 1.254171 29.000000
3.083461 -0.149387 1.248343 25.000000
3.081632 -0.184752 1.248242 30.000000
3.056378 -0.218262 1.238366 26.000000
3.030657 -0.251245 1.228699 15.000000
3.036884 -0.286851 1.232344 30.000000
3.006009 -0.318558 1.220610 25.000000
2.997723 -0.352440 1.218340 25.000000
2.970658 -0.383740 1.208490 29.000000
2.966321 -0.417649 1.207800 26.000000
2.966272 -0.452256 1.208979 30.000000
2.942832 -0.483212 1.200915 28.000000
2.919065 -0.513649 1.192762 12.000000
2.913312 -0.546996 1.191982 29.000000
2.879968 -0.574796 1.179921 24.000000
2.891655 -0.611670 1.186696 26.000000
2.875696 -0.642693 1.182195 30.000000
2.868720 -0.675443 1.180936 29.000000
2.865474 -0.709503 1.182116 29.000000
2.848724 -0.739873 1.177335 26.000000
2.822676 -0.767505 1.168657 10.000000
2.822958 -0.802440 1.171403 29.000000
2.787274 -0.826821 1.159231 25.000000
2.786980 -0.861468 1.161785 32.000000
2.773071 -0.891956 1.158691 30.000000
2.754402 -0.920677 1.153660 26.000000
2.753075 -0.955195 1.155916 28.000000
2.737986 -0.985289 1.152927 26.000000
2.714217 -1.011557 1.145785 9.000000
2.720259 -1.049433 1.151803 32.000000
2.704363 -1.078899 1.148533 26.000000
2.688122 -1.108170 1.145267 28.000000
2.684382 -1.142618 1.147306 30.000000
2.654804 -1.165843 1.138371 25.000000
2.650547 -1.200008 1.140213 29.000000
2.641606 -1.232304 1.140222 24.000000
2.610965 -1.254801 1.131418 8.000000
2.634976 -1.303094 1.145767 18.000000
2.607882 -1.327179 1.138691 27.000000
2.610124 -1.365431 1.143726 30.000000
2.590782 -1.393407 1.140183 30.000000
2.563132 -1.416488 1.132845 26.000000
2.559586 -1.452910 1.136235 30.000000
2.539572 -1.480023 1.132416 27.000000
2.495194 -1.492477 1.117742 10.000000
2.510674 -1.540720 1.129977 31.000000
2.481873 -1.562046 1.122305 26.000000
2.476590 -1.598105 1.125355 29.000000
2.466861 -1.631663 1.126507 29.000000
2.445220 -1.657245 1.122317 22.000000
2.457324 -1.707227 1.134375 28.000000
2.431148 -1.729831 1.128201 23.000000
2.389769 -1.741047 1.114988 10.000000
2.388944 -1.783009 1.121476 30.000000
2.380957 -1.818750 1.123926 25.000000
2.375399 -1.858025 1.128494 29.000000
2.377396 -1.902611 1.136032 32.000000
2.341671 -1.918404 1.126478 22.000000
2.331155 -1.954744 1.129036 28.000000
2.310260 -1.981086 1.125867 21.000000
2.306005 -2.023492 1.131747 21.000000
2.307993 -2.072282 1.140935 32.000000
2.274727 -2.089584 1.132845 17.000000
2.201286 -2.066968 1.103586 21.000000
2.090528 -2.007867 1.056138 21.000000
2.011414 -1.976166 1.024200 11.000000
1.939973 -1.949524 0.995739 18.000000
1.852958 -1.904599 0.958938 13.000000
1.764082 -1.854478 0.920557 9.000000
1.718102 -1.847325 0.904320 25.000000
1.650464 -1.814946 0.876310 19.000000
1.602500 -1.802344 0.858437 22.000000
1.536517 -1.767514 0.830710 25.000000
1.480695 -1.742229 0.807988 24.000000
1.440725 -1.733932 0.793701 32.000000
1.415958 -1.743237 0.787765 28.000000
1.400081 -1.763276 0.786727 24.000000
1.366536 -1.760781 0.775815 37.000000
1.370435 -1.806592 0.786182 29.000000
1.349853 -1.823071 0.783691 31.000000
1.335767 -1.846333 0.784162 29.000000
1.326830 -1.877228 0.787777 26.000000
1.317413 -1.908081 0.791270 30.000000
1.295731 -1.924007 0.788579 18.000000
1.282901 -1.950831 0.790398 14.000000
1.272228 -1.981524 0.793701 29.000000
1.256180 -2.004269 0.793774 21.000000
1.243301 -2.035609 0.797297 29.000000
1.224009 -2.054037 0.795652 25.000000
1.214016 -2.088705 0.800283 26.000000
1.199604 -2.120070 0.803519 25.000000
1.186159 -2.150564 0.806393 14.000000
0.728871 1.351302 0.516731 18.000000
0.744296 1.342106 0.518758 20.000000
0.760925 1.337322 0.522541 18.000000
0.775158 1.328297 0.524673 24.000000
0.785321 1.310512 0.523416 16.000000
0.799220 1.301246 0.525535 24.000000
0.820571 1.303781 0.532506 21.000000
0.837059 1.298001 0.536235 17.000000
0.841310 1.271872 0.531548 21.000000
0.857560 1.265872 0.535221 19.000000
0.879122 1.267365 0.542222 23.000000
0.892694 1.256986 0.544218 25.000000
0.906116 1.246458 0.546214 21.000000
0.927924 1.247118 0.553239 29.000000
0.947783 1.243176 0.558365 26.000000
0.964001 1.235691 0.561978 23.000000
0.974328 1.220684 0.562216 28.000000
0.987449 1.209184 0.564141 26.000000
1.006546 1.204746 0.569425 30.000000
1.019542 1.192872 0.571310 29.000000
1.041658 1.191450 0.578293 28.000000
1.051435 1.175662 0.578423 31.000000
1.076819 1.177103 0.587125 30.000000
1.089581 1.164444 0.588889 27.000000
1.111913 1.161739 0.595864 32.000000
1.120674 1.145723 0.596110 36.000000
1.139773 1.139091 0.601328 36.000000
1.162261 1.135470 0.608267 36.000000
1.178036 1.124936 0.611719 32.000000
1.200618 1.120601 0.618599 44.000000
1.212347 1.106837 0.620527 37.000000
1.231428 1.098708 0.625625 31.000000
1.257584 1.096450 0.634294 27.000000
1.272687 1.085045 0.637928 31.000000
1.291772 1.075946 0.642975 36.000000
1.306818 1.064007 0.646524 31.000000
1.333161 1.060146 0.655191 33.000000
1.351778 1.050499 0.660461 36.000000
1.374515 1.042940 0.667328 31.000000
1.408164 1.043673 0.679813 31.000000
1.408369 1.018784 0.675755 32.000000
1.426849 1.007881 0.680923 32.000000
1.449165 0.999218 0.687928 37.000000
1.479204 0.995428 0.698606 39.000000
1.513299 0.993572 0.711034 35.000000
1.527901 0.978511 0.714349 36.000000
1.550328 0.968108 0.721284 47.000000
1.568705 0.954893 0.726401 33.000000
1.583069 0.939001 0.729569 32.000000
1.601328 0.925221 0.734590 32.000000
