x y z intensity
3.054625 -1.993866 0.126427 1.000000
3.153157 -2.107587 0.131217 1.000000
2.914228 -2.041068 0.122549 1.000000
2.977030 -2.133927 0.125940 1.000000
3.122894 -2.290375 0.132801 1.000000
3.025759 -2.270330 0.129486 1.000000
2.993555 -2.401523 0.130430 1.000000
2.998096 -2.459338 0.131433 1.000000
2.825607 -2.369874 0.124659 1.000000
2.769246 -2.374483 0.122974 3.000000
2.743292 -2.404558 0.122751 6.000000
2.616405 -2.344263 0.117889 7.000000
2.494950 -2.284937 0.113219 8.000000
2.411577 -2.257260 0.110241 13.000000
2.278536 -2.179750 0.104948 9.000000
2.183195 -2.134621 0.101342 8.000000
2.135142 -2.133483 0.099905 17.000000
2.031319 -2.074493 0.095835 10.000000
1.980966 -2.067612 0.094253 16.000000
1.903723 -2.030701 0.091281 19.000000
1.834249 -1.999711 0.088738 13.000000
1.769066 -1.971164 0.086371 21.000000
1.707987 -1.945187 0.084099 13.000000
1.644471 -1.914324 0.081757 9.000000
1.607513 -1.912994 0.080719 23.000000
1.589858 -1.934174 0.080575 25.000000
1.559366 -1.939613 0.079864 30.000000
1.528974 -1.944621 0.079081 31.000000
1.510872 -1.965049 0.079014 26.000000
1.495459 -1.989310 0.079028 27.000000
1.488676 -2.025554 0.079515 22.000000
1.472480 -2.049713 0.079600 10.000000
1.455954 -2.073690 0.079606 26.000000
1.444673 -2.105879 0.079922 19.000000
1.418967 -2.117244 0.079454 23.000000
1.409618 -2.153404 0.079919 23.000000
1.407813 -2.202256 0.080921 25.000000
1.389164 -2.225899 0.080910 26.000000
1.367491 -2.245067 0.080743 20.000000
1.332878 -2.242650 0.079810 9.000000
0.757095 1.293640 0.057129 7.000000
0.768533 1.281024 0.057212 21.000000
0.779785 1.268328 0.057294 23.000000
0.793472 1.259779 0.057521 22.000000
0.815239 1.263689 0.058376 27.000000
0.828880 1.254733 0.058605 22.000000
0.845274 1.249824 0.059077 28.000000
0.861619 1.244669 0.059503 27.000000
0.886626 1.251544 0.060570 24.000000
0.879639 1.213531 0.059418 22.000000
0.892731 1.203873 0.059647 21.000000
0.914788 1.206064 0.060474 29.000000
0.930935 1.199978 0.060952 29.000000
0.946982 1.193733 0.061385 27.000000
0.959873 1.183355 0.061618 31.000000
0.979050 1.180528 0.062256 28.000000
0.995069 1.173658 0.062694 27.000000
0.994670 1.147654 0.062112 22.000000
1.013728 1.144232 0.062754 29.000000
1.042867 1.151634 0.064017 35.000000
1.055301 1.140197 0.064206 35.000000
1.067686 1.128666 0.064444 28.000000
1.086827 1.124127 0.065097 42.000000
1.106028 1.119294 0.065705 31.000000
1.121690 1.110696 0.066155 32.000000
1.137332 1.101877 0.066558 27.000000
1.149280 1.089446 0.066799 33.000000
1.161082 1.076821 0.066993 47.000000
1.183838 1.074121 0.067822 38.000000
1.206716 1.071130 0.068705 35.000000
1.225842 1.064423 0.069328 58.000000
1.229782 1.044516 0.069099 32.000000
1.252595 1.040637 0.069940 40.000000
1.279395 1.039458 0.070999 26.000000
1.290674 1.025459 0.071201 28.000000
1.309641 1.017439 0.071835 36.000000
1.332568 1.012167 0.072688 35.000000
1.347568 1.000525 0.073059 36.000000
1.366472 0.991627 0.073700 38.000000
1.377199 0.976619 0.073907 31.000000
1.395984 0.967248 0.074500 33.000000
1.422958 0.963196 0.075586 30.000000
1.445904 0.955870 0.076404 28.000000
1.460425 0.942748 0.076837 32.000000
1.479019 0.932091 0.077438 35.000000
1.488899 0.916229 0.077652 32.000000
1.515908 0.910226 0.078701 43.000000
1.551599 0.908789 0.080255 36.000000
1.583118 0.904257 0.081537 35.000000
1.588501 0.884506 0.081480 32.000000
1.615559 0.876706 0.082544 34.000000
1.642656 0.868356 0.083611 35.000000
1.665344 0.857334 0.084457 35.000000
1.692419 0.848089 0.085532 35.000000
1.715025 0.836208 0.086325 43.000000
1.733027 0.821777 0.086953 42.000000
1.760019 0.811215 0.088036 29.000000
1.782398 0.798156 0.088896 31.000000
1.809251 0.786733 0.089926 32.000000
1.836097 0.774792 0.091019 29.000000
1.858305 0.760436 0.091826 33.000000
1.903545 0.754924 0.093842 32.000000
1.925539 0.739778 0.094654 32.000000
1.952206 0.725754 0.095762 34.000000
1.974069 0.709570 0.096579 27.000000
2.005287 0.696293 0.097858 33.000000
2.031623 0.680786 0.098910 34.000000
2.062652 0.666403 0.100196 34.000000
2.093650 0.651373 0.101484 37.000000
2.143613 0.641416 0.103701 44.000000
2.164850 0.622245 0.104533 44.000000
2.200344 0.606814 0.106063 42.000000
2.211658 0.584101 0.106435 25.000000
2.213036 0.558838 0.106342 8.000000
2.267518 0.546482 0.108812 8.000000
2.346308 0.538587 0.112380 26.000000
2.386128 0.520592 0.114162 36.000000
2.450341 0.506764 0.117040 33.000000
2.494905 0.487750 0.119064 36.000000
2.544314 0.468789 0.121248 37.000000
2.573821 0.445383 0.122578 18.000000
2.608111 0.422160 0.124065 34.000000
2.617490 0.394572 0.124380 9.000000
2.680971 0.374312 0.127279 8.000000
2.744302 0.352844 0.130182 9.000000
2.812419 0.330583 0.133323 29.000000
2.875475 0.306392 0.136233 34.000000
2.918430 0.278918 0.138205 19.000000
3.055665 0.258488 0.144656 9.000000
3.093155 0.227796 0.146400 51.000000
3.140291 0.196971 0.148521 95.000000
3.112288 0.161294 0.147202 77.000000
3.103926 0.127084 0.146825 89.000000
3.080104 0.092546 0.145645 53.000000
3.070965 0.058839 0.145173 74.000000
3.051457 0.025266 0.144322 43.000000
2.986624 -0.007756 0.141251 9.000000
2.966375 -0.039880 0.140306 9.000000
2.965740 -0.072147 0.140306 9.000000
2.949860 -0.103887 0.139598 9.000000
2.948507 -0.135991 0.139598 10.000000
2.911980 -0.166014 0.137944 9.000000
2.919985 -0.198326 0.138417 9.000000
2.847955 -0.224572 0.135110 9.000000
2.865234 -0.257256 0.136055 52.000000
2.862246 -0.288457 0.135967 91.000000
2.848979 -0.318373 0.135495 92.000000
2.830517 -0.347552 0.134699 75.000000
2.811745 -0.376234 0.133992 75.000000
2.772899 -0.401815 0.132255 28.000000
2.758493 -0.430321 0.131698 21.000000
2.724075 -0.455320 0.130284 13.000000
2.723929 -0.485815 0.130435 10.000000
2.757776 -0.522759 0.132233 45.000000
2.747047 -0.551704 0.131912 82.000000
2.735998 -0.580457 0.131592 87.000000
2.734378 -0.611197 0.131741 95.000000
2.713030 -0.637388 0.130952 80.000000
2.710812 -0.668043 0.131016 91.000000
2.655030 -0.684993 0.128588 95.000000
2.657051 -0.716411 0.128972 24.000000
2.865504 -0.805931 0.139324 19.000000
3.139374 -0.919794 0.153016 9.000000
3.325159 -1.013584 0.162382 9.000000
3.347231 -1.060142 0.163907 9.000000
3.368752 -1.107425 0.165323 9.000000
3.365964 -1.147157 0.165680 9.000000
3.376911 -1.191973 0.166625 8.000000
3.316867 -1.211380 0.164085 9.000000
3.350216 -1.265056 0.166187 9.000000
3.336431 -1.301050 0.165968 8.000000
3.303565 -1.329695 0.164825 7.000000
3.312051 -1.375064 0.165761 6.000000
3.310708 -1.416894 0.166234 4.000000
3.304226 -1.456789 0.166474 3.000000
3.447410 -1.564902 0.174302 6.000000
3.353246 -1.566326 0.170167 2.000000
3.255023 -1.563801 0.165813 2.000000
3.287074 -1.623433 0.167999 2.000000
3.113374 -1.580045 0.159775 4.000000
3.025122 -1.576811 0.155909 6.000000
2.999014 -1.604926 0.155141 3.000000
3.152087 -1.731225 0.163696 1.000000
3.207057 -1.807188 0.167336 1.000000
3.083364 -1.782065 0.161561 1.000000
3.119642 -1.848677 0.164285 1.000000
3.129253 -1.900615 0.165533 1.000000
3.155438 -1.962968 0.167677 1.000000
3.112808 -1.983830 0.166212 1.000000
3.091044 -2.017658 0.165874 1.000000
3.226632 -2.156739 0.174047 1.000000
3.067002 -2.098630 0.166315 1.000000
2.958038 -2.071829 0.161289 1.000000
2.983919 -2.138853 0.163518 1.000000
3.016869 -2.212622 0.166290 1.000000
2.924604 -2.194458 0.162180 1.000000
2.896628 -2.223139 0.161624 1.000000
2.880058 -2.260762 0.161619 1.000000
2.886390 -2.317095 0.163044 1.000000
2.818480 -2.313664 0.160178 1.000000
2.861954 -2.401987 0.163785 1.000000
2.737025 -2.348571 0.157651 2.000000
2.703845 -2.371619 0.156885 5.000000
2.651773 -2.377609 0.154924 7.000000
2.493090 -2.284937 0.146689 8.000000
2.409761 -2.257361 0.142819 10.000000
2.323710 -2.224756 0.138752 10.000000
2.213650 -2.166065 0.133203 10.000000
2.140455 -2.140640 0.129825 12.000000
2.068152 -2.113860 0.126465 21.000000
1.969029 -2.056874 0.121417 18.000000
1.919183 -2.049016 0.119370 21.000000
1.846175 -2.014525 0.115850 21.000000
1.787539 -1.993561 0.113112 20.000000
1.742723 -1.986575 0.111311 17.000000
1.665703 -1.941016 0.107422 11.000000
1.605988 -1.913071 0.104523 18.000000
1.585159 -1.930389 0.104218 26.000000
1.557846 -1.939689 0.103421 26.000000
1.536721 -1.956559 0.103041 26.000000
1.512325 -1.969162 0.102531 29.000000
1.490939 -1.985467 0.102151 23.000000
1.484108 -2.021681 0.102796 24.000000
1.470785 -2.049790 0.103025 18.000000
1.457120 -2.077935 0.103250 21.000000
1.437310 -2.097714 0.103142 24.000000
1.422812 -2.125703 0.103359 22.000000
1.410622 -2.157742 0.103773 24.000000
1.389848 -2.177149 0.103580 22.000000
1.374109 -2.204779 0.103705 21.000000
1.373434 -2.258033 0.105096 18.000000
1.366663 -2.302880 0.106078 8.000000
0.754252 1.288826 0.070397 7.000000
0.765644 1.276285 0.070480 21.000000
0.782083 1.272128 0.071036 27.000000
0.801139 1.272002 0.071833 33.000000
0.812164 1.258987 0.071869 27.000000
0.831311 1.258441 0.072671 32.000000
0.844905 1.249317 0.072993 33.000000
0.861249 1.244160 0.073512 28.000000
0.866043 1.222504 0.073105 36.000000
0.873365 1.204941 0.072890 20.000000
0.895293 1.207426 0.073946 29.000000
0.911401 1.201576 0.074468 33.000000
0.927457 1.195568 0.074992 30.000000
0.943459 1.189309 0.075518 35.000000
0.962600 1.186768 0.076341 32.000000
0.981816 1.183903 0.077122 31.000000
0.991370 1.169332 0.077153 35.000000
1.004018 1.158464 0.077434 16.000000
1.016572 1.147456 0.077668 36.000000
1.035689 1.143756 0.078457 35.000000
1.054351 1.140197 0.079297 35.000000
1.070120 1.132247 0.079790 46.000000
1.085872 1.124080 0.080332 42.000000
1.101558 1.115741 0.080876 43.000000
1.127819 1.117678 0.082149 42.000000
1.132780 1.098353 0.081922 21.000000
1.144690 1.085912 0.082163 64.000000
1.163774 1.080169 0.082926 63.000000
1.179214 1.070716 0.083430 49.000000
1.201997 1.067716 0.084460 90.000000
1.221130 1.061098 0.085281 42.000000
1.240209 1.054168 0.086007 42.000000
1.251650 1.040538 0.086255 39.000000
1.274564 1.036258 0.087300 24.000000
1.293575 1.028466 0.088083 41.000000
1.312620 1.020402 0.088870 35.000000
1.327672 1.009043 0.089341 35.000000
1.342587 0.997445 0.089864 55.000000
1.357412 0.985657 0.090337 35.000000
1.372199 0.973626 0.090863 37.000000
1.394998 0.967145 0.091879 41.000000
1.413745 0.957439 0.092628 19.000000
1.440734 0.953010 0.093923 44.000000
1.455223 0.939933 0.094459 36.000000
1.473835 0.929321 0.095217 34.000000
1.492403 0.918419 0.095977 50.000000
1.510656 0.907547 0.096739 35.000000
1.533381 0.898583 0.097778 44.000000
1.560443 0.891705 0.099097 54.000000
1.596224 0.889199 0.100972 24.000000
1.614548 0.876538 0.101692 35.000000
1.641634 0.868242 0.103024 41.000000
1.664314 0.857162 0.104027 32.000000
1.686915 0.845678 0.105090 48.000000
1.705002 0.831656 0.105820 36.000000
1.722952 0.817322 0.106552 32.000000
1.749887 0.806856 0.107903 42.000000
1.772213 0.793896 0.108920 18.000000
1.798951 0.782750 0.110219 32.000000
1.830341 0.772850 0.111804 34.000000
1.870937 0.766111 0.113956 29.000000
1.897716 0.753083 0.115268 36.000000
1.915149 0.736007 0.116020 33.000000
1.941703 0.722083 0.117339 31.000000
1.977613 0.711067 0.119229 33.000000
1.989973 0.691185 0.119640 10.000000
2.030379 0.680786 0.121821 34.000000
2.056710 0.664802 0.123156 43.000000
2.082845 0.648338 0.124427 34.000000
2.137601 0.639916 0.127410 56.000000
2.163611 0.622176 0.128757 54.000000
2.189465 0.604019 0.130038 35.000000
2.215157 0.585306 0.131321 28.000000
2.211711 0.558768 0.130888 7.000000
2.280722 0.549849 0.134755 9.000000
2.344910 0.538514 0.138343 31.000000
2.389662 0.521507 0.140788 35.000000
2.448965 0.506688 0.144102 36.000000
2.469012 0.482882 0.145118 34.000000
2.518268 0.464108 0.147788 35.000000
2.567387 0.444452 0.150540 34.000000
2.591795 0.419686 0.151854 24.000000
2.635696 0.397469 0.154245 8.000000
2.674456 0.373622 0.156350 8.000000
2.732794 0.351570 0.159613 8.000000
2.776160 0.326501 0.162097 9.000000
2.839053 0.302601 0.165658 16.000000
2.857101 0.273129 0.166615 10.000000
3.078754 0.260593 0.179459 10.000000
3.091355 0.227796 0.180038 55.000000
3.118537 0.195721 0.181584 83.000000
3.110478 0.161294 0.181099 95.000000
3.092148 0.126675 0.180032 64.000000
3.083305 0.092696 0.179452 70.000000
3.064191 0.058743 0.178290 82.000000
3.019738 0.025018 0.175769 30.000000
2.964924 -0.007614 0.172573 9.000000
2.964653 -0.039880 0.172573 9.000000
2.949048 -0.071783 0.171702 9.000000
2.933181 -0.103359 0.170830 10.000000
2.931835 -0.135211 0.170830 10.000000
2.915270 -0.166209 0.169958 10.000000
2.868486 -0.194941 0.167344 10.000000
2.846297 -0.224485 0.166182 9.000000
2.843678 -0.255469 0.166094 32.000000
2.820846 -0.284364 0.164846 18.000000
2.802757 -0.313381 0.163976 13.000000
2.784274 -0.341989 0.163019 10.000000
2.770520 -0.370850 0.162439 10.000000
2.751513 -0.398780 0.161484 10.000000
2.742077 -0.427927 0.161109 9.000000
2.717633 -0.454413 0.159866 7.000000
2.702667 -0.482140 0.159203 10.000000
2.731625 -0.518023 0.161144 32.000000
2.730740 -0.548668 0.161348 65.000000
2.729492 -0.579335 0.161467 83.000000
2.718138 -0.607843 0.161093 89.000000
2.677398 -0.629308 0.158903 91.000000
2.675266 -0.659509 0.159108 71.000000
2.629272 -0.678589 0.156636 18.000000
2.665177 -0.718843 0.159143 32.000000
2.811010 -0.790878 0.168173 18.000000
3.113625 -0.912674 0.186661 9.000000
3.389986 -1.033864 0.203674 9.000000
3.388019 -1.073606 0.204031 8.000000
3.404628 -1.119793 0.205531 8.000000
3.425430 -1.167660 0.207314 7.000000
3.389062 -1.196521 0.205664 4.000000
3.380568 -1.235038 0.205620 6.000000
3.422963 -1.292839 0.208818 6.000000
3.390157 -1.322714 0.207456 4.000000
3.412628 -1.374453 0.209395 4.000000
3.351348 -1.392300 0.206332 2.000000
3.262619 -1.397243 0.201574 2.000000
3.315942 -1.462502 0.205384 2.000000
3.422602 -1.554234 0.212792 5.000000
3.337644 -1.559646 0.208216 3.000000
3.302530 -1.587257 0.206751 2.000000
3.325338 -1.642999 0.208946 2.000000
3.049136 -1.547981 0.192322 3.000000
2.983408 -1.555725 0.188925 6.000000
2.997144 -1.604614 0.190575 6.000000
3.018855 -1.658775 0.192778 1.000000
3.070221 -1.730850 0.196925 1.000000
3.051153 -1.764246 0.196602 1.000000
3.091882 -1.833069 0.200061 1.000000
2.991037 -1.816785 0.194354 1.000000
3.064388 -1.907230 0.200122 1.000000
2.946609 -1.878815 0.193329 1.000000
3.109801 -2.030969 0.205140 1.000000
2.939588 -2.060038 0.196931 1.000000
2.937273 -2.106622 0.197969 1.000000
2.885899 -2.117872 0.195617 1.000000
2.850727 -2.140279 0.194363 1.000000
2.791557 -2.143851 0.191375 1.000000
2.760146 -2.168020 0.190403 1.000000
2.856995 -2.294982 0.198351 1.000000
2.824080 -2.319780 0.197364 1.000000
2.737441 -2.299119 0.192504 1.000000
2.753872 -2.364614 0.195017 2.000000
2.701648 -2.371509 0.192590 4.000000
2.608720 -2.340821 0.187347 8.000000
2.520565 -2.311729 0.182288 8.000000
2.425957 -2.274233 0.176723 16.000000
2.314535 -2.217749 0.169865 13.000000
2.229595 -2.183437 0.164986 10.000000
2.166838 -2.168806 0.161613 19.000000
2.066345 -2.113679 0.155371 20.000000
1.984459 -2.074829 0.150383 24.000000
1.914056 -2.045284 0.146293 21.000000
1.858835 -2.028332 0.143181 26.000000
1.806722 -2.014967 0.140429 26.000000
1.735330 -1.978260 0.136141 21.000000
1.664922 -1.940156 0.131797 10.000000
1.608435 -1.916056 0.128583 20.000000
1.584396 -1.929550 0.127869 29.000000
1.554035 -1.934960 0.126646 33.000000
1.529868 -1.947869 0.126013 30.000000
1.508677 -1.964368 0.125559 34.000000
1.484260 -1.976646 0.124853 31.000000
1.468643 -2.000710 0.124902 26.000000
1.449790 -2.020541 0.124698 20.000000
1.439297 -2.052550 0.125240 25.000000
1.436688 -2.096860 0.126520 25.000000
1.413854 -2.112393 0.126054 29.000000
1.404528 -2.148516 0.126822 27.000000
1.386529 -2.172072 0.126843 29.000000
1.368191 -2.195430 0.126781 24.000000
1.352107 -2.223011 0.127038 24.000000
1.353347 -2.280506 0.128990 9.000000
0.760622 1.301665 0.084698 7.000000
0.761896 1.271867 0.083658 20.000000
0.783508 1.276245 0.084869 26.000000
0.797287 1.267639 0.085236 28.000000
0.816427 1.267288 0.086172 29.000000
0.824661 1.249969 0.085968 30.000000
0.838165 1.240952 0.086334 31.000000
0.862932 1.248174 0.087810 32.000000
0.873548 1.234636 0.087891 34.000000
0.878128 1.212936 0.087387 23.000000
0.897162 1.211299 0.088292 30.000000
0.913309 1.205462 0.088954 33.000000
0.926347 1.195430 0.089278 31.000000
0.945446 1.193128 0.090193 31.000000
0.961479 1.186628 0.090862 34.000000
0.977504 1.179919 0.091487 34.000000
0.983841 1.161574 0.091217 32.000000
0.996407 1.150777 0.091543 25.000000
1.022110 1.154789 0.093073 35.000000
1.031257 1.139914 0.093054 34.000000
1.050346 1.135916 0.093990 42.000000
1.062645 1.124374 0.094321 43.000000
1.085251 1.123506 0.095520 44.000000
1.107948 1.122220 0.096773 42.000000
1.120099 1.110070 0.097062 34.000000
1.124940 1.090826 0.096783 21.000000
1.143629 1.085768 0.097737 32.000000
1.159051 1.076579 0.098337 70.000000
1.181787 1.073926 0.099561 56.000000
1.200916 1.067568 0.100478 76.000000
1.216277 1.057626 0.101085 56.000000
1.235313 1.050735 0.102009 56.000000
1.258228 1.046721 0.103251 57.000000
1.265718 1.029759 0.103185 24.000000
1.296419 1.031370 0.105067 37.000000
1.303676 1.014071 0.105003 47.000000
1.322580 1.005819 0.105943 54.000000
1.341513 0.997240 0.106834 35.000000
1.360372 0.988385 0.107729 45.000000
1.371068 0.973421 0.107986 35.000000
1.389809 0.964093 0.108886 36.000000
1.420911 0.962828 0.110754 24.000000
1.435464 0.949992 0.111340 35.000000
1.453899 0.939986 0.112303 36.000000
1.476723 0.932091 0.113541 60.000000
1.491064 0.918472 0.114079 36.000000
1.509525 0.907277 0.114999 58.000000
1.532241 0.898311 0.116193 45.000000
1.554958 0.888954 0.117446 46.000000
1.586335 0.884117 0.119304 22.000000
1.613369 0.876257 0.120840 37.000000
1.631622 0.863292 0.121722 42.000000
1.658678 0.854591 0.123267 45.000000
1.676785 0.840917 0.124155 36.000000
1.703668 0.831598 0.125766 55.000000
1.721611 0.817264 0.126661 51.000000
1.730413 0.798495 0.126894 36.000000
1.761743 0.789755 0.128732 26.000000
1.802266 0.784501 0.131301 33.000000
1.833661 0.774487 0.133150 35.000000
1.851174 0.758300 0.134062 35.000000
1.887070 0.749338 0.136317 32.000000
1.904394 0.732301 0.137174 31.000000
1.767318 0.657589 0.126950 67.000000
1.811908 0.651834 0.129813 57.000000
1.993204 0.692693 0.142450 30.000000
2.028939 0.680655 0.144733 37.000000
2.040951 0.660065 0.145267 35.000000
2.076615 0.646655 0.147427 35.000000
2.102649 0.629761 0.148981 37.000000
2.152440 0.619417 0.152234 42.000000
2.178251 0.601226 0.153728 37.000000
2.199148 0.581342 0.154955 29.000000
2.224686 0.562366 0.156454 8.000000
2.264597 0.546268 0.159049 9.000000
2.333569 0.536206 0.163623 32.000000
2.383069 0.520368 0.166840 37.000000
2.413014 0.499533 0.168697 44.000000
2.472139 0.483763 0.172607 36.000000
2.511562 0.463203 0.175156 35.000000
2.536144 0.439265 0.176682 26.000000
2.590030 0.419606 0.180267 29.000000
2.633822 0.397387 0.183090 8.000000
2.672558 0.373539 0.185655 8.000000
2.721046 0.350212 0.188828 8.000000
2.789056 0.328165 0.193463 8.000000
2.832173 0.302072 0.196299 8.000000
2.894806 0.276929 0.200513 19.000000
3.046760 0.257973 0.210925 11.000000
3.089176 0.227796 0.213772 37.000000
3.111362 0.195408 0.215244 95.000000
3.103402 0.161035 0.214651 91.000000
3.075021 0.125968 0.212583 71.000000
3.061287 0.092096 0.211643 83.000000
3.032114 0.058169 0.209575 59.000000
3.002651 0.024985 0.207599 32.000000
2.957852 -0.007601 0.204495 10.000000
2.952593 -0.039746 0.204150 11.000000
2.962024 -0.072147 0.204840 25.000000
2.936102 -0.103445 0.203116 28.000000
2.939827 -0.135670 0.203461 38.000000
2.918197 -0.166494 0.202081 83.000000
2.911253 -0.197898 0.201647 75.000000
2.849262 -0.224877 0.197511 25.000000
2.816831 -0.253150 0.195356 17.000000
2.779236 -0.280273 0.192944 9.000000
2.766074 -0.309413 0.192170 9.000000
2.752682 -0.338253 0.191396 10.000000
2.743920 -0.367454 0.190968 10.000000
2.744707 -0.397979 0.191227 10.000000
2.735282 -0.427073 0.190798 9.000000
2.681257 -0.448567 0.187277 8.000000
2.705731 -0.482932 0.189255 10.000000
2.724770 -0.516923 0.190803 30.000000
2.738562 -0.550464 0.192090 93.000000
2.693460 -0.571912 0.189177 83.000000
2.682190 -0.600134 0.188750 95.000000
2.651269 -0.623431 0.186871 76.000000
2.663727 -0.657036 0.188072 74.000000
2.603297 -0.672187 0.184146 29.000000
2.610261 -0.704378 0.185006 36.000000
2.693717 -0.758346 0.191320 24.000000
3.320804 -1.013159 0.236829 6.000000
3.433180 -1.088464 0.245455 6.000000
3.444864 -1.133497 0.246933 6.000000
3.503260 -1.194813 0.251689 6.000000
3.433682 -1.212916 0.247284 4.000000
3.307759 -1.209128 0.238939 4.000000
3.397170 -1.283909 0.246051 3.000000
3.345776 -1.306274 0.243018 3.000000
3.433403 -1.383211 0.250103 2.000000
3.413512 -1.418659 0.249427 2.000000
3.388737 -1.451704 0.248416 2.000000
3.445747 -1.520806 0.253448 2.000000
3.324582 -1.510777 0.245392 2.000000
3.316978 -1.551081 0.245615 2.000000
3.246003 -1.561197 0.241269 1.000000
3.215621 -1.589379 0.239828 1.000000
3.042493 -1.545304 0.227736 2.000000
2.981249 -1.555210 0.224098 6.000000
2.972972 -1.592317 0.224350 6.000000
3.012272 -1.655951 0.228349 2.000000
3.059268 -1.725410 0.232891 1.000000
3.079121 -1.781194 0.235433 1.000000
3.085284 -1.829974 0.236975 1.000000
2.928681 -1.780606 0.226009 1.000000
2.968468 -1.849409 0.230187 1.000000
2.918705 -1.862922 0.227359 1.000000
2.973765 -1.943181 0.232712 1.000000
2.985644 -1.997754 0.234888 1.000000
2.916858 -2.045276 0.231950 1.000000
2.922682 -2.097342 0.233674 1.000000
2.927840 -2.149919 0.235498 1.000000
2.924126 -2.196785 0.236556 1.000000
2.805016 -2.155582 0.228270 1.000000
2.804861 -2.204591 0.229656 1.000000
2.737861 -2.200752 0.225586 1.000000
2.825477 -2.322501 0.234319 1.000000
2.761777 -2.321155 0.230571 1.000000
2.747647 -2.360918 0.230863 2.000000
2.665490 -2.341431 0.225551 3.000000
2.639778 -2.370398 0.224900 8.000000
2.543894 -2.335035 0.218362 8.000000
2.405525 -2.256857 0.207975 9.000000
2.345591 -2.247547 0.204232 15.000000
2.224695 -2.178706 0.195190 10.000000
2.172674 -2.174648 0.192124 20.000000
2.075636 -2.123301 0.185030 21.000000
1.986855 -2.077295 0.178594 20.000000
1.926583 -2.058746 0.174666 24.000000
1.867011 -2.039122 0.170674 22.000000
1.798160 -2.007285 0.165866 22.000000
1.743349 -1.989198 0.162309 23.000000
1.672870 -1.951289 0.157166 10.000000
1.616298 -1.927299 0.153347 22.000000
1.576311 -1.921604 0.150990 24.000000
1.549092 -1.930840 0.149854 30.000000
1.528052 -1.947566 0.149324 29.000000
1.497671 -1.952261 0.147969 30.000000
1.479452 -1.972427 0.147742 29.000000
1.463872 -1.996458 0.147810 25.000000
1.442075 -2.012200 0.147280 21.000000
1.431656 -2.044144 0.147858 29.000000
1.417834 -2.071912 0.148208 26.000000
1.409139 -2.108011 0.149138 27.000000
1.399838 -2.144101 0.150058 28.000000
1.381878 -2.167627 0.150015 26.000000
1.358303 -2.182558 0.149464 24.000000
1.347449 -2.218506 0.150281 24.000000
1.300346 -2.194455 0.147134 8.000000
0.760161 1.300974 0.098246 7.000000
0.766571 1.279747 0.097681 16.000000
0.774404 1.263301 0.097480 16.000000
0.796051 1.267456 0.098923 19.000000
0.809784 1.258667 0.099335 24.000000
0.820681 1.245620 0.099414 16.000000
0.842555 1.248994 0.100826 26.000000
0.853222 1.235627 0.100860 21.000000
0.880983 1.246627 0.102956 19.000000
0.876938 1.212708 0.101349 21.000000
0.887063 1.199039 0.101422 13.000000
0.906086 1.197276 0.102467 27.000000
0.919038 1.187309 0.102881 26.000000
0.938044 1.185073 0.103934 17.000000
0.957174 1.182517 0.104993 30.000000
0.973152 1.175842 0.105710 24.000000
0.992343 1.172765 0.106824 26.000000
0.988717 1.143000 0.105460 16.000000
1.007669 1.139608 0.106482 18.000000
1.030082 1.139679 0.107905 30.000000
1.049164 1.135680 0.108984 29.000000
1.064934 1.127764 0.109716 26.000000
1.077130 1.116043 0.110048 32.000000
1.089231 1.104226 0.110427 21.000000
1.115353 1.106316 0.112184 32.000000
1.127369 1.094060 0.112521 22.000000
1.138808 1.082043 0.112905 21.000000
1.157890 1.076337 0.113961 32.000000
1.176926 1.070278 0.115020 33.000000
1.188559 1.057330 0.115361 27.000000
1.203760 1.047559 0.116064 46.000000
1.222731 1.040742 0.117134 26.000000
1.245529 1.036850 0.118523 34.000000
1.260653 1.026311 0.119236 21.000000
1.283500 1.021800 0.120634 22.000000
1.294544 1.007643 0.120935 33.000000
1.313424 0.999475 0.122024 26.000000
1.332285 0.990982 0.123066 27.000000
1.351072 0.982212 0.124112 34.000000
1.365769 0.970225 0.124739 27.000000
1.384214 0.961301 0.125842 27.000000
1.415262 0.960082 0.128018 20.000000
1.433990 0.950045 0.129028 21.000000
1.444256 0.934252 0.129343 33.000000
1.467010 0.926393 0.130734 30.000000
1.477046 0.910303 0.131052 26.000000
1.503960 0.904385 0.132827 32.000000
1.535237 0.900508 0.134986 29.000000
1.566571 0.896052 0.137153 32.000000
1.571718 0.876776 0.137105 25.000000
1.603093 0.871439 0.139283 26.000000
1.625692 0.860902 0.140650 31.000000
1.652706 0.852249 0.142459 34.000000
1.666382 0.836387 0.143069 29.000000
1.693260 0.826875 0.144888 33.000000
1.720212 0.816914 0.146654 29.000000
1.724371 0.796230 0.146561 29.000000
1.760207 0.789637 0.149105 26.000000
1.777851 0.774367 0.150113 21.000000
1.822895 0.770484 0.153443 32.000000
1.863420 0.763788 0.156395 28.000000
1.876190 0.745470 0.157091 23.000000
1.902771 0.732113 0.158829 29.000000
1.882606 0.700896 0.156745 30.000000
1.927629 0.693864 0.160108 25.000000
1.991526 0.692629 0.165041 31.000000
2.008335 0.674049 0.166016 27.000000
2.044054 0.661337 0.168557 33.000000
2.074819 0.646589 0.170778 33.000000
2.119935 0.635418 0.174115 33.000000
2.150659 0.619143 0.176213 48.000000
2.176454 0.601157 0.178059 31.000000
2.192520 0.579928 0.178984 22.000000
2.261448 0.572003 0.184312 31.000000
2.252982 0.543787 0.183344 10.000000
2.317092 0.532709 0.188293 27.000000
2.366521 0.517028 0.191994 31.000000
2.396412 0.496349 0.194119 28.000000
2.450570 0.479855 0.198302 31.000000
2.509531 0.463125 0.202812 32.000000
2.489820 0.431526 0.200987 9.000000
2.563263 0.415538 0.206696 22.000000
2.592277 0.391354 0.208840 8.000000
2.650667 0.370695 0.213289 7.000000
2.708894 0.348855 0.217825 8.000000
2.786822 0.328079 0.223959 7.000000
2.819908 0.300927 0.226433 8.000000
2.882571 0.275890 0.231297 24.000000
3.029430 0.256711 0.242935 19.000000
3.061859 0.225868 0.245419 37.000000
3.093960 0.194470 0.247904 70.000000
3.070972 0.159390 0.246005 37.000000
3.067593 0.125764 0.245701 67.000000
3.013922 0.090746 0.241313 26.000000
3.004787 0.057691 0.240607 21.000000
2.980328 0.024819 0.238612 26.000000
2.975435 -0.007652 0.238304 32.000000
2.975162 -0.040082 0.238304 94.000000
2.959577 -0.072057 0.237107 55.000000
2.938747 -0.103621 0.235510 40.000000
2.922460 -0.134891 0.234223 91.000000
2.910896 -0.166120 0.233425 37.000000
2.894015 -0.196794 0.232228 60.000000
2.827115 -0.223221 0.226954 52.000000
2.789762 -0.250832 0.224076 10.000000
2.757093 -0.278187 0.221684 9.000000
2.758908 -0.308774 0.221998 9.000000
2.740498 -0.336951 0.220717 8.000000
2.736694 -0.366707 0.220633 9.000000
2.698025 -0.391454 0.217678 9.000000
2.678828 -0.418525 0.216401 8.000000
2.708590 -0.453337 0.219102 9.000000
2.654397 -0.474085 0.214960 8.000000
2.693184 -0.511261 0.218452 24.000000
2.707022 -0.544397 0.219872 47.000000
2.700936 -0.573815 0.219703 49.000000
2.665413 -0.596616 0.217156 85.000000
2.639316 -0.620981 0.215405 42.000000
2.632427 -0.649702 0.215239 42.000000
2.605984 -0.673270 0.213409 51.000000
2.593674 -0.700315 0.212850 34.000000
2.629122 -0.740522 0.216153 32.000000
2.821802 -0.828067 0.232539 8.000000
3.439817 -1.091038 0.284691 5.000000
3.399369 -1.119136 0.282112 3.000000
3.405858 -1.162498 0.283353 2.000000
3.313293 -1.171056 0.276251 1.000000
3.206757 -1.172849 0.268101 2.000000
3.356982 -1.269360 0.281470 2.000000
3.375421 -1.318642 0.283873 1.000000
3.425723 -1.381008 0.288888 1.000000
3.364545 -1.399180 0.284655 1.000000
3.372060 -1.445586 0.286152 1.000000
3.342433 -1.476156 0.284650 2.000000
3.448736 -1.568335 0.294672 6.000000
3.454266 -1.615890 0.296143 4.000000
3.279185 -1.577827 0.282149 1.000000
3.386919 -1.675359 0.292508 1.000000
3.181882 -1.617380 0.275864 1.000000
3.000567 -1.566644 0.261194 5.000000
2.948116 -1.580438 0.257707 5.000000
2.948284 -1.622097 0.258728 2.000000
3.134733 -1.768865 0.276192 1.000000
3.096539 -1.883615 0.276552 1.000000
3.037718 -1.893602 0.272581 1.000000
3.042112 -1.942789 0.274417 1.000000
3.009827 -2.064111 0.275662 1.000000
2.932856 -2.255233 0.276257 1.000000
2.991716 -2.406368 0.285272 1.000000
2.818942 -2.318551 0.270524 1.000000
2.766762 -2.326912 0.267273 1.000000
2.722302 -2.340747 0.264771 1.000000
2.670377 -2.347364 0.261544 3.000000
2.655720 -2.386412 0.261989 5.000000
2.541360 -2.334402 0.252468 7.000000
2.428452 -2.280145 0.243100 8.000000
2.364703 -2.267660 0.238295 10.000000
2.250902 -2.206156 0.228552 10.000000
2.152708 -2.156438 0.220305 10.000000
2.097759 -2.147730 0.216509 16.000000
1.998441 -2.091189 0.207977 11.000000
1.931240 -2.065515 0.202624 10.000000
1.868264 -2.042294 0.197742 16.000000
1.809321 -2.021738 0.193242 10.000000
1.767529 -2.018814 0.190454 10.000000
1.683883 -1.965969 0.183174 10.000000
1.620781 -1.934561 0.177968 10.000000
1.574335 -1.921224 0.174622 18.000000
1.547124 -1.930461 0.173315 22.000000
1.526084 -1.947188 0.172710 26.000000
1.489722 -1.943891 0.170370 29.000000
1.474501 -1.968058 0.170462 23.000000
1.458881 -1.992055 0.170549 19.000000
1.431397 -1.999653 0.169258 17.000000
1.446828 -2.068287 0.173026 18.000000
1.421468 -2.079765 0.172068 22.000000
1.396044 -2.091028 0.171112 19.000000
1.389551 -2.131174 0.172449 19.000000
1.363681 -2.141984 0.171489 21.000000
1.361369 -2.190639 0.173475 18.000000
1.351835 -2.225844 0.174356 17.000000
1.342881 -2.266172 0.175715 7.000000
0.751287 1.287731 0.110729 6.000000
0.767807 1.283707 0.111557 10.000000
0.781723 1.275238 0.112015 16.000000
0.782243 1.245522 0.110643 20.000000
0.825419 1.283047 0.115236 18.000000
0.828362 1.257289 0.114190 23.000000
0.852361 1.265210 0.116216 21.000000
0.874579 1.268137 0.117827 20.000000
0.885425 1.254446 0.117916 24.000000
0.872737 1.208346 0.114926 10.000000
0.882869 1.194710 0.114997 24.000000
0.910812 1.204908 0.117342 22.000000
0.929948 1.202762 0.118582 23.000000
0.949163 1.200343 0.119781 27.000000
0.968407 1.197696 0.121033 21.000000
0.978197 1.183198 0.121064 25.000000
0.991027 1.172436 0.121487 26.000000
1.010234 1.169075 0.122702 10.000000
0.989914 1.120605 0.119156 32.000000
1.025426 1.135604 0.122358 27.000000
1.044506 1.131639 0.123532 31.000000
1.060233 1.123759 0.124358 32.000000
1.079308 1.119298 0.125588 28.000000
1.094946 1.110946 0.126373 29.000000
1.120693 1.113389 0.128423 32.000000
1.143506 1.111475 0.130078 16.000000
1.141122 1.085141 0.128838 43.000000
1.163881 1.082739 0.130450 34.000000
1.175611 1.069937 0.130791 33.000000
1.202132 1.070243 0.132825 46.000000
1.209957 1.053713 0.132807 30.000000
1.232784 1.050041 0.134392 37.000000
1.240362 1.033314 0.134374 31.000000
1.267036 1.032207 0.136383 25.000000
1.282144 1.021398 0.137150 41.000000
1.297169 1.010353 0.137920 36.000000
1.323646 1.008483 0.139999 35.000000
1.330608 0.990931 0.139936 36.000000
1.345408 0.979229 0.140713 28.000000
1.368188 0.973061 0.142285 35.000000
1.386912 0.963731 0.143492 35.000000
1.405605 0.954067 0.144650 23.000000
1.428417 0.946871 0.146238 44.000000
1.451199 0.939297 0.147831 35.000000
1.461365 0.923360 0.148201 34.000000
1.488119 0.918044 0.150231 36.000000
1.502295 0.904277 0.150981 46.000000
1.524957 0.895354 0.152593 62.000000
1.543299 0.883566 0.153780 36.000000
1.557182 0.869052 0.154484 21.000000
1.597209 0.868613 0.157838 34.000000
1.646066 0.872397 0.162073 58.000000
1.668704 0.861159 0.163660 50.000000
1.686925 0.847337 0.164818 55.000000
1.700537 0.831076 0.165543 39.000000
1.718464 0.816739 0.166705 40.000000
1.736191 0.802324 0.167871 58.000000
1.767523 0.793480 0.170354 22.000000
1.803465 0.786070 0.173283 37.000000
1.825665 0.772182 0.174842 35.000000
1.847686 0.758055 0.176465 32.000000
1.869708 0.743383 0.178032 35.000000
1.919553 0.739021 0.182250 36.000000
1.941494 0.723252 0.183828 32.000000
1.958546 0.705617 0.185031 32.000000
1.984886 0.690734 0.187059 18.000000
2.025273 0.680262 0.190424 73.000000
2.051491 0.664273 0.192397 76.000000
2.082398 0.649287 0.194886 63.000000
2.127442 0.638144 0.198718 63.000000
2.143818 0.617627 0.199814 52.000000
2.174381 0.600949 0.202321 50.000000
2.214508 0.586090 0.205588 52.000000
2.225513 0.563237 0.206316 12.000000
2.279897 0.550731 0.211007 32.000000
2.305202 0.530258 0.212944 10.000000
2.359432 0.515816 0.217649 33.000000
2.389288 0.495189 0.220117 41.000000
2.467824 0.483532 0.227087 53.000000
2.487600 0.459352 0.228591 35.000000
2.526750 0.438177 0.231898 35.000000
2.590370 0.420243 0.237542 10.000000
2.619411 0.395737 0.239877 8.000000
2.677798 0.374754 0.245086 9.000000
2.736017 0.352590 0.250135 8.000000
2.779214 0.327410 0.253919 8.000000
2.822255 0.301369 0.257620 8.000000
2.899649 0.277700 0.264578 30.000000
2.967006 0.251570 0.270549 37.000000
3.058945 0.225868 0.278787 50.000000
3.081079 0.193750 0.280692 95.000000
3.078093 0.159907 0.280333 98.000000
3.044778 0.124948 0.277256 95.000000
2.986267 0.089996 0.271912 10.000000
2.992069 0.057499 0.272365 10.000000
2.957583 0.024653 0.269283 20.000000
2.967632 -0.007639 0.270190 95.000000
2.962471 -0.039857 0.269736 76.000000
2.936946 -0.071571 0.267470 83.000000
2.926003 -0.103180 0.266563 86.000000
2.904851 -0.134202 0.264750 76.000000
2.908218 -0.166120 0.265114 95.000000
2.881326 -0.196030 0.262848 46.000000
2.854206 -0.225487 0.260494 29.000000
2.787189 -0.250746 0.254519 23.000000
2.779319 -0.280603 0.253981 10.000000
2.741428 -0.306942 0.250727 9.000000
2.708309 -0.333135 0.247928 10.000000
2.709481 -0.363314 0.248296 9.000000
2.705376 -0.392717 0.248129 10.000000
2.661579 -0.416052 0.244431 9.000000
2.627407 -0.440010 0.241557 8.000000
2.647018 -0.472961 0.243649 11.000000
2.656421 -0.504588 0.244837 21.000000
2.665432 -0.536369 0.246023 73.000000
2.649692 -0.563291 0.244956 75.000000
2.648326 -0.593100 0.245240 81.000000
2.636826 -0.620815 0.244624 92.000000
2.620268 -0.647065 0.243477 62.000000
2.598691 -0.671776 0.241882 23.000000
2.591207 -0.700068 0.241718 91.000000
2.583476 -0.728114 0.241471 29.000000
2.704426 -0.794124 0.253308 10.000000
2.824296 -0.862680 0.265120 3.000000
2.866917 -0.910018 0.269761 2.000000
3.131207 -1.031648 0.295363 1.000000
3.233001 -1.104115 0.305652 1.000000
3.389773 -1.199073 0.321361 1.000000
3.082023 -1.127830 0.292918 2.000000
3.167371 -1.198425 0.301837 1.000000
3.293349 -1.287265 0.314828 1.000000
3.232971 -1.304489 0.309967 1.000000
3.319816 -1.381512 0.319158 1.000000
3.304613 -1.417648 0.318717 1.000000
3.425630 -1.513960 0.331501 1.000000
3.153051 -1.476053 0.307178 1.000000
3.302768 -1.590347 0.322988 1.000000
3.120094 -1.544635 0.306218 1.000000
3.254074 -1.655334 0.320665 1.000000
2.979801 -1.557003 0.294777 4.000000
2.936573 -1.574910 0.291646 6.000000
2.884310 -1.587647 0.287654 3.000000
3.088057 -1.744039 0.309305 1.000000
3.025725 -1.752751 0.304319 1.000000
3.093100 -1.883282 0.314047 1.000000
3.000946 -1.871529 0.306053 1.000000
2.858629 -1.826467 0.292929 1.000000
2.976126 -1.947659 0.306470 1.000000
2.892590 -1.938633 0.299498 1.000000
2.935217 -2.061584 0.307178 1.000000
2.948882 -2.119835 0.310350 1.000000
2.873352 -2.113607 0.304051 1.000000
2.937696 -2.260404 0.314465 1.000000
2.818872 -2.218469 0.303552 1.000000
2.875988 -2.314833 0.311614 1.000000
2.729466 -2.297043 0.299681 1.000000
2.779766 -2.391865 0.307266 1.000000
2.686146 -2.362949 0.298984 2.000000
2.667590 -2.398865 0.299048 5.000000
2.571524 -2.363907 0.290301 8.000000
2.465644 -2.316864 0.280465 8.000000
2.357600 -2.264309 0.270164 10.000000
2.258002 -2.216725 0.260837 9.000000
2.178344 -2.183917 0.253414 19.000000
2.088318 -2.139862 0.244904 17.000000
2.033907 -2.130129 0.240509 24.000000
1.945914 -2.083031 0.232078 23.000000
1.889512 -2.067453 0.227249 20.000000
1.807080 -2.021074 0.219307 24.000000
1.742344 -1.991898 0.213418 16.000000
1.668784 -1.950189 0.206280 9.000000
1.634614 -1.953053 0.204054 21.000000
1.572284 -1.920616 0.198179 21.000000
1.551311 -1.937714 0.197495 31.000000
1.514822 -1.934883 0.194835 33.000000
1.496714 -1.955241 0.194552 32.000000
1.472395 -1.967456 0.193481 33.000000
1.453899 -1.987427 0.193195 28.000000
1.449585 -2.027512 0.194778 15.000000
1.416040 -2.026807 0.192539 27.000000
1.399637 -2.050405 0.192632 26.000000
1.395044 -2.089643 0.194106 29.000000
1.380449 -2.117245 0.194488 24.000000
1.362749 -2.140587 0.194556 27.000000
1.347344 -2.168047 0.194922 26.000000
1.331506 -2.195367 0.195278 24.000000
1.343083 -2.269899 0.199780 9.000000
0.744902 1.278664 0.123312 7.000000
0.753660 1.261907 0.122977 11.000000
0.767344 1.253579 0.123517 26.000000
0.786232 1.253558 0.124853 24.000000
0.797090 1.240710 0.124974 28.000000
0.813288 1.236065 0.125895 21.000000
0.842663 1.252390 0.128993 26.000000
0.844907 1.226687 0.127792 31.000000
0.869664 1.233665 0.130057 26.000000
0.859711 1.191730 0.127073 18.000000
0.881505 1.194301 0.128865 29.000000
0.894464 1.184570 0.129366 29.000000
0.904242 1.170806 0.129430 31.000000
0.944717 1.196013 0.133819 27.000000
0.954521 1.181726 0.133847 30.000000
0.976834 1.182728 0.135681 30.000000
0.992877 1.175771 0.136593 29.000000
0.999099 1.157293 0.136177 19.000000
0.998472 1.131349 0.134865 31.000000
1.030739 1.142530 0.138007 32.000000
1.029636 1.116524 0.136639 42.000000
1.054926 1.120134 0.138950 33.000000
1.080904 1.122838 0.141226 37.000000
1.100068 1.118044 0.142561 32.000000
1.119290 1.112905 0.143902 30.000000
1.124245 1.093627 0.143427 24.000000
1.139723 1.084659 0.144316 34.000000
1.158777 1.078859 0.145666 66.000000
1.177881 1.072803 0.147021 43.000000
1.196936 1.066438 0.148333 55.000000
1.216038 1.059763 0.149700 58.000000
1.227557 1.046365 0.150095 43.000000
1.246228 1.039593 0.151519 40.000000
1.261377 1.028960 0.152383 24.000000
1.284228 1.024402 0.154184 34.000000
1.283581 1.001018 0.153132 52.000000
1.318210 1.004955 0.156348 46.000000
1.329134 0.990423 0.156754 28.000000
1.343879 0.978719 0.157582 41.000000
1.366646 0.972598 0.159357 33.000000
1.389239 0.966418 0.161243 32.000000
1.395602 0.948265 0.161131 22.000000
1.422485 0.943909 0.163398 34.000000
1.445222 0.936379 0.165197 47.000000
1.459565 0.923148 0.165992 54.000000
1.469572 0.907105 0.166363 34.000000
1.487734 0.896357 0.167694 55.000000
1.510298 0.887573 0.169512 57.000000
1.524230 0.873451 0.170316 33.000000
1.551035 0.866407 0.172573 32.000000
1.604113 0.873148 0.177743 51.000000
1.630937 0.865116 0.180077 41.000000
1.662384 0.858645 0.182791 54.000000
1.676124 0.842636 0.183622 37.000000
1.694154 0.828600 0.184943 42.000000
1.707553 0.812173 0.185721 43.000000
1.729741 0.799943 0.187538 34.000000
1.761026 0.791144 0.190282 31.000000
1.787794 0.779801 0.192543 34.000000
1.819018 0.770120 0.195362 35.000000
1.845728 0.757749 0.197636 35.000000
1.872359 0.744914 0.199855 35.000000
1.917410 0.738895 0.204181 37.000000
1.939336 0.723125 0.205918 36.000000
1.942336 0.700363 0.205740 28.000000
1.982697 0.690541 0.209467 34.000000
2.008965 0.675180 0.211713 55.000000
2.039845 0.661008 0.214527 47.000000
2.061129 0.643159 0.216219 39.000000
2.082245 0.625000 0.217980 41.000000
2.146274 0.618869 0.224308 64.000000
2.167236 0.599416 0.226014 49.000000
2.197695 0.582128 0.228793 33.000000
2.223121 0.563096 0.231006 35.000000
2.272618 0.549419 0.235803 33.000000
2.268803 0.522301 0.234943 9.000000
2.337477 0.511415 0.241689 9.000000
2.377004 0.492944 0.245430 16.000000
2.450559 0.480506 0.252701 37.000000
2.484965 0.459197 0.255953 45.000000
2.494672 0.432917 0.256613 22.000000
2.563086 0.416096 0.263405 21.000000
2.611733 0.394831 0.268109 8.000000
2.645423 0.370531 0.271302 8.000000
2.718343 0.350597 0.278544 8.000000
2.766418 0.326160 0.283264 8.000000
2.829190 0.302339 0.289509 8.000000
2.896614 0.277611 0.296178 34.000000
3.018423 0.256104 0.308514 31.000000
3.050789 0.225407 0.311648 80.000000
3.072898 0.193343 0.313769 98.000000
3.055012 0.158874 0.311835 94.000000
3.036633 0.124743 0.309900 75.000000
2.963267 0.089305 0.302383 10.000000
2.949075 0.056734 0.300861 10.000000
2.959475 0.024695 0.301876 24.000000
2.974488 -0.007665 0.303489 57.000000
2.929452 -0.039455 0.298922 83.000000
2.923940 -0.071329 0.298414 79.000000
2.903069 -0.102478 0.296384 75.000000
2.906790 -0.134342 0.296803 95.000000
2.890196 -0.165179 0.295280 90.000000
2.893205 -0.197044 0.295699 68.000000
2.821471 -0.223047 0.288511 35.000000
2.774280 -0.249768 0.283862 21.000000
2.736817 -0.276517 0.280230 10.000000
2.708894 -0.303534 0.277612 9.000000
2.695592 -0.331836 0.276516 9.000000
2.691843 -0.361162 0.276432 9.000000
2.677915 -0.389058 0.275254 9.000000
2.673516 -0.418193 0.275088 9.000000
2.644255 -0.443135 0.272395 9.000000
2.614836 -0.467625 0.269705 9.000000
2.643830 -0.502565 0.273076 19.000000
2.647970 -0.533256 0.273919 46.000000
2.651736 -0.564077 0.274679 79.000000
2.626082 -0.588582 0.272498 81.000000
2.619478 -0.617227 0.272250 58.000000
2.617456 -0.646900 0.272505 56.000000
2.576630 -0.666627 0.268741 37.000000
2.574004 -0.695845 0.268998 60.000000
2.566316 -0.723898 0.268752 42.000000
2.625122 -0.771423 0.275520 9.000000
2.692766 -0.823142 0.283190 4.000000
2.821111 -0.896186 0.297427 2.000000
3.057000 -1.007680 0.323026 1.000000
3.121166 -1.066793 0.330610 1.000000
3.115978 -1.141317 0.331790 1.000000
3.228981 -1.222781 0.344797 2.000000
3.303674 -1.292160 0.353802 1.000000
3.155630 -1.274150 0.338890 1.000000
3.306885 -1.377466 0.356287 1.000000
3.287261 -1.411099 0.355243 1.000000
3.248931 -1.436912 0.352337 1.000000
3.163049 -1.481852 0.345237 1.000000
3.146660 -1.516344 0.344702 1.000000
3.103198 -1.537474 0.341224 1.000000
3.104050 -1.580276 0.342651 1.000000
2.967583 -1.551876 0.328921 4.000000
2.950742 -1.583813 0.328305 6.000000
2.924567 -1.611256 0.326715 4.000000
2.976063 -1.682383 0.333982 1.000000
2.888732 -1.674940 0.325589 1.000000
2.972860 -1.767512 0.336598 1.000000
3.111022 -1.895118 0.353736 1.000000
3.039477 -1.897559 0.347278 1.000000
2.934753 -1.877106 0.336990 1.000000
2.959932 -1.939150 0.341635 1.000000
3.033619 -2.035255 0.351902 1.000000
2.923777 -2.054762 0.342698 1.000000
2.864734 -2.060596 0.337645 1.000000
2.970400 -2.186275 0.352093 1.000000
2.807541 -2.162856 0.336792 1.000000
2.783640 -2.193602 0.336031 1.000000
2.782776 -2.242764 0.337987 1.000000
2.719711 -2.241453 0.332523 1.000000
2.672990 -2.251057 0.328741 1.000000
2.723584 -2.345266 0.337226 1.000000
2.671649 -2.351985 0.333083 2.000000
2.679096 -2.411087 0.336392 4.000000
2.594070 -2.386432 0.328094 8.000000
2.484400 -2.336292 0.316495 8.000000
2.376234 -2.284009 0.305060 10.000000
2.283604 -2.243671 0.295421 13.000000
2.206279 -2.215670 0.287763 25.000000
2.105595 -2.161168 0.276850 23.000000
2.030390 -2.130038 0.269186 23.000000
1.960370 -2.100359 0.261929 27.000000
1.903814 -2.084981 0.256524 26.000000
1.834530 -2.053667 0.249431 26.000000
1.759655 -2.013586 0.241476 24.000000
1.689076 -1.975899 0.233935 12.000000
1.645130 -1.967555 0.230012 24.000000
1.576309 -1.927567 0.222626 26.000000
1.549031 -1.936954 0.220975 32.000000
1.518702 -1.941978 0.218889 35.000000
1.479401 -1.934705 0.215489 35.000000
1.464249 -1.958726 0.215547 35.000000
1.448699 -1.982652 0.215672 35.000000
1.415530 -1.982160 0.213176 21.000000
1.408144 -2.017956 0.214527 32.000000
1.391746 -2.041414 0.214639 30.000000
1.390050 -2.084730 0.216747 29.000000
1.375409 -2.112297 0.217190 33.000000
1.347056 -2.118867 0.215486 29.000000
1.339746 -2.158800 0.217195 30.000000
1.321328 -2.181875 0.217187 26.000000
1.340662 -2.269092 0.223511 9.000000
0.748504 1.286773 0.137510 7.000000
0.757319 1.269918 0.137179 12.000000
0.771096 1.261579 0.137769 22.000000
0.779498 1.244576 0.137426 24.000000
0.803024 1.253194 0.139883 23.000000
0.813889 1.240181 0.140006 28.000000
0.832855 1.239441 0.141495 27.000000
0.851956 1.238441 0.142991 24.000000
0.859634 1.220901 0.142593 29.000000
0.872864 1.211380 0.143143 13.000000
0.877142 1.189749 0.142255 29.000000
0.884064 1.172105 0.141837 30.000000
0.902837 1.170262 0.143343 28.000000
0.921646 1.168106 0.144810 31.000000
0.959328 1.188913 0.149247 25.000000
0.972210 1.178326 0.149762 28.000000
0.991416 1.175205 0.151256 30.000000
0.991148 1.149195 0.149810 13.000000
0.993242 1.127523 0.148936 36.000000
1.018770 1.131345 0.151375 40.000000
1.041206 1.131073 0.153378 36.000000
1.043237 1.108699 0.152402 36.000000
1.072527 1.115094 0.155367 30.000000
1.095090 1.113920 0.157345 35.000000
1.110738 1.105307 0.158327 34.000000
1.115626 1.086110 0.157799 16.000000
1.113015 1.060066 0.156254 47.000000
1.153198 1.075321 0.160831 64.000000
1.172253 1.069255 0.162333 43.000000
1.191309 1.062930 0.163792 66.000000
1.210363 1.056295 0.165305 43.000000
1.225629 1.046168 0.166262 40.000000
1.240818 1.035809 0.167221 47.000000
1.263633 1.031556 0.169215 24.000000
1.259297 1.005183 0.167547 39.000000
1.285604 1.003879 0.170116 36.000000
1.312326 1.001735 0.172646 60.000000
1.331189 0.993193 0.174094 46.000000
1.346011 0.981394 0.175024 43.000000
1.368793 0.975226 0.177004 43.000000
1.391608 0.968636 0.178992 36.000000
1.406022 0.956396 0.179986 19.000000
1.412213 0.938145 0.179876 52.000000
1.434925 0.930704 0.181826 56.000000
1.453405 0.920171 0.183253 57.000000
1.480301 0.914627 0.185799 63.000000
1.494278 0.901173 0.186758 36.000000
1.504026 0.884730 0.187133 41.000000
1.522237 0.873128 0.188576 40.000000
1.557697 0.870932 0.192110 20.000000
1.571484 0.856165 0.193030 52.000000
1.628899 0.864776 0.199324 61.000000
1.647071 0.851396 0.200740 55.000000
1.674053 0.842233 0.203238 62.000000
1.687434 0.826298 0.204239 44.000000
1.705350 0.811999 0.205609 37.000000
1.723127 0.797446 0.207041 41.000000
1.754243 0.788928 0.210164 16.000000
1.780966 0.777633 0.212635 34.000000
1.816837 0.769757 0.216201 34.000000
1.843403 0.757565 0.218746 40.000000
1.865393 0.742828 0.220691 42.000000
1.896468 0.731489 0.223797 42.000000
1.927612 0.719396 0.226848 37.000000
1.953954 0.705171 0.229359 33.000000
1.947466 0.678833 0.228030 25.000000
1.992365 0.670296 0.232748 49.000000
2.027892 0.657679 0.236311 46.000000
2.053869 0.641479 0.238845 42.000000
2.079777 0.624867 0.241318 60.000000
2.115092 0.610328 0.244902 69.000000
2.169473 0.600535 0.250707 72.000000
2.190242 0.580715 0.252645 39.000000
2.249418 0.570211 0.259025 30.000000
2.260305 0.546866 0.259865 25.000000
2.266089 0.522158 0.260079 9.000000
2.295857 0.502765 0.263074 8.000000
2.359579 0.489766 0.269971 8.000000
2.394015 0.469827 0.273610 9.000000
2.452704 0.453620 0.279893 24.000000
2.525987 0.438792 0.287935 37.000000
2.540442 0.412750 0.289288 10.000000
2.608654 0.394750 0.296711 8.000000
2.647230 0.371057 0.300868 8.000000
2.695437 0.347885 0.306068 8.000000
2.743434 0.323660 0.311274 8.000000
2.801172 0.299610 0.317519 8.000000
2.873439 0.275624 0.325536 35.000000
2.925782 0.248444 0.331319 30.000000
3.037313 0.224581 0.343746 62.000000
3.054434 0.192406 0.345522 95.000000
3.046390 0.158522 0.344494 95.000000
3.028126 0.124446 0.342343 83.000000
2.984550 0.090055 0.337384 10.000000
2.940669 0.056638 0.332422 9.000000
2.946089 0.024612 0.332983 25.000000
2.936243 -0.007575 0.331860 66.000000
2.916101 -0.039321 0.329614 84.000000
2.900573 -0.070754 0.327930 63.000000
2.899683 -0.102389 0.327930 84.000000
2.893383 -0.133794 0.327368 93.000000
2.881861 -0.164807 0.326156 91.000000
2.874954 -0.195941 0.325507 77.000000
2.798361 -0.221393 0.317088 29.000000
2.771033 -0.249683 0.314197 24.000000
2.733610 -0.276348 0.310101 9.000000
2.695842 -0.302260 0.306092 9.000000
2.687495 -0.331062 0.305365 9.000000
2.668980 -0.358351 0.303601 10.000000
2.650177 -0.385317 0.301756 9.000000
2.640909 -0.413417 0.301032 9.000000
2.611729 -0.438121 0.298072 8.000000
2.616631 -0.468256 0.299027 10.000000
2.621169 -0.498685 0.299981 17.000000
2.635080 -0.531044 0.301968 63.000000
2.629136 -0.559772 0.301720 86.000000
2.618097 -0.587329 0.300916 71.000000
2.606669 -0.614698 0.300112 79.000000
2.604748 -0.644266 0.300421 44.000000
2.563908 -0.663891 0.296283 33.000000
