x y z intensity
2.484869 0.715936 -0.269617 35.000000
2.535626 0.700722 -0.274445 38.000000
2.557474 0.676933 -0.276326 31.000000
2.622549 0.663731 -0.282808 32.000000
2.644106 0.638679 -0.284534 38.000000
2.660559 0.611945 -0.285826 37.000000
2.691299 0.588270 -0.288598 44.000000
2.726770 0.564990 -0.291980 33.000000
2.727871 0.534383 -0.291629 10.000000
2.782401 0.513642 -0.297020 14.000000
2.841678 0.492596 -0.302939 27.000000
2.954885 0.479223 -0.314613 48.000000
2.984429 0.450693 -0.317412 79.000000
3.023624 0.423006 -0.321259 95.000000
3.047754 0.392568 -0.323447 84.000000
3.071656 0.361606 -0.325635 95.000000
3.035804 0.323976 -0.321541 26.000000
3.024327 0.289390 -0.320063 10.000000
3.027310 0.256479 -0.320156 13.000000
3.084469 0.227498 -0.326015 33.000000
3.042084 0.191001 -0.321391 19.000000
3.038989 0.157632 -0.320867 8.000000
3.020703 0.123667 -0.318770 8.000000
3.046667 0.091479 -0.321485 8.000000
3.037566 0.058083 -0.320436 8.000000
3.023115 0.024863 -0.318862 8.000000
3.033153 -0.008098 -0.319818 8.000000
3.052761 -0.041411 -0.321915 8.000000
3.042164 -0.074520 -0.320773 8.000000
3.051168 -0.108023 -0.321822 8.000000
3.059697 -0.141649 -0.322776 8.000000
3.043112 -0.174165 -0.321110 16.000000
3.075781 -0.209738 -0.324683 22.000000
2.989053 -0.236559 -0.315596 7.000000
3.055626 -0.275379 -0.322829 8.000000
3.057467 -0.309113 -0.323164 8.000000
3.034117 -0.340185 -0.320978 9.000000
3.069758 -0.378120 -0.324971 17.000000
3.104915 -0.416821 -0.328958 35.000000
3.110046 -0.451993 -0.329810 37.000000
3.124587 -0.488917 -0.331606 55.000000
3.124057 -0.523705 -0.331933 44.000000
3.098547 -0.554223 -0.329655 98.000000
3.077710 -0.585146 -0.327805 98.000000
3.061519 -0.616635 -0.326476 98.000000
3.040028 -0.646782 -0.324631 95.000000
3.018317 -0.676611 -0.322788 98.000000
2.991363 -0.704982 -0.320429 95.000000
2.993191 -0.739807 -0.321182 93.000000
2.883949 -0.746191 -0.309938 26.000000
2.918931 -0.789131 -0.314224 24.000000
3.068068 -0.865510 -0.330985 21.000000
3.087209 -0.907178 -0.333688 23.000000
3.081995 -0.942100 -0.333809 21.000000
3.080994 -0.978729 -0.334442 19.000000
3.079729 -1.015168 -0.334974 18.000000
3.101431 -1.059955 -0.338168 17.000000
3.099042 -1.097162 -0.338791 10.000000
3.091711 -1.132358 -0.338798 23.000000
3.107195 -1.176665 -0.341461 29.000000
3.112881 -1.217446 -0.342993 36.000000
3.113285 -1.256973 -0.344009 82.000000
3.103972 -1.292772 -0.344003 95.000000
3.071558 -1.318447 -0.341455 91.000000
3.043452 -1.345840 -0.339420 71.000000
3.033075 -1.381078 -0.339314 54.000000
3.000028 -1.405352 -0.336679 95.000000
2.980100 -1.435915 -0.335666 98.000000
2.955355 -1.463970 -0.334049 98.000000
2.934837 -1.493985 -0.333040 98.000000
2.905147 -1.519091 -0.330928 95.000000
2.871122 -1.540853 -0.328220 94.000000
2.854131 -1.572236 -0.327620 52.000000
2.815186 -1.591080 -0.324524 35.000000
2.797729 -1.621826 -0.323929 75.000000
2.771323 -1.647290 -0.322339 71.000000
2.762024 -1.682228 -0.322540 67.000000
2.743477 -1.712379 -0.321945 51.000000
2.728824 -1.745013 -0.321745 37.000000
2.742951 -1.796624 -0.324995 33.000000
2.756199 -1.848763 -0.328228 30.000000
2.719437 -1.867621 -0.325551 25.000000
2.715590 -1.908099 -0.326701 32.000000
2.702704 -1.943526 -0.326864 27.000000
2.697402 -1.984927 -0.328100 17.000000
2.699381 -2.032358 -0.330196 10.000000
2.704600 -2.083038 -0.332867 10.000000
2.705131 -2.131140 -0.334934 9.000000
2.732069 -2.201296 -0.340366 9.000000
2.730910 -2.250082 -0.342394 8.000000
2.699319 -2.272638 -0.340349 9.000000
2.696960 -2.321655 -0.342357 9.000000
2.697585 -2.374130 -0.344827 10.000000
2.693676 -2.423519 -0.346693 9.000000
2.656136 -2.442738 -0.344269 9.000000
2.476938 -2.328532 -0.323491 9.000000
2.347319 -2.255610 -0.308858 10.000000
2.187620 -2.148612 -0.290066 9.000000
2.079714 -2.087844 -0.277861 10.000000
1.970000 -2.021391 -0.265349 10.000000
1.889450 -1.981598 -0.256554 14.000000
1.804003 -1.932264 -0.246881 10.000000
1.732493 -1.896735 -0.239119 17.000000
1.642120 -1.837594 -0.228632 20.000000
1.595814 -1.825507 -0.224194 21.000000
1.562955 -1.827685 -0.221616 21.000000
1.514231 -1.810264 -0.216763 29.000000
1.497566 -1.830608 -0.216496 30.000000
1.471341 -1.839068 -0.214790 32.000000
1.451276 -1.855018 -0.214068 30.000000
1.428042 -1.866797 -0.212823 31.000000
1.437483 -1.922234 -0.216597 33.000000
1.410644 -1.929785 -0.214893 28.000000
1.392446 -1.949145 -0.214533 20.000000
1.371235 -1.964191 -0.213726 27.000000
1.363834 -1.999663 -0.215132 24.000000
1.345982 -2.017822 -0.214608 28.000000
1.321268 -2.028213 -0.213352 24.000000
1.323228 -2.080350 -0.216472 28.000000
1.300568 -2.094701 -0.215565 27.000000
1.282921 -2.117346 -0.215602 25.000000
1.282604 -2.169818 -0.218580 9.000000
0.987717 1.691550 -0.155195 7.000000
0.995827 1.663530 -0.154149 13.000000
1.003387 1.635615 -0.153152 22.000000
1.031738 1.641450 -0.155336 14.000000
1.041392 1.617482 -0.154727 26.000000
1.058885 1.606056 -0.155258 18.000000
1.080948 1.603247 -0.156713 27.000000
1.086973 1.574941 -0.155625 25.000000
1.118399 1.583340 -0.158245 17.000000
1.120957 1.550859 -0.156738 25.000000
1.137715 1.538555 -0.157266 23.000000
1.154414 1.526016 -0.157793 19.000000
1.183076 1.529124 -0.159969 31.000000
1.199653 1.516099 -0.160502 21.000000
1.216052 1.502896 -0.161035 26.000000
1.232333 1.489516 -0.161568 28.000000
1.248496 1.475958 -0.162042 18.000000
1.264481 1.462223 -0.162574 29.000000
1.276989 1.444636 -0.162628 24.000000
1.295978 1.434278 -0.163581 26.000000
1.314929 1.423670 -0.164477 29.000000
1.330361 1.409187 -0.164952 24.000000
1.359453 1.408926 -0.167128 34.000000
1.374744 1.393934 -0.167608 29.000000
1.403457 1.393401 -0.169859 24.000000
1.407821 1.367541 -0.168996 33.000000
1.433503 1.362325 -0.170768 29.000000
1.444697 1.343122 -0.170760 33.000000
1.466629 1.333934 -0.172109 35.000000
1.484804 1.321091 -0.172967 27.000000
1.495415 1.301443 -0.172959 34.000000
1.517090 1.291443 -0.174255 32.000000
1.550267 1.290653 -0.176866 29.000000
1.564295 1.273597 -0.177299 30.000000
1.578076 1.256417 -0.177670 24.000000
1.603524 1.248230 -0.179421 28.000000
1.624585 1.237019 -0.180739 32.000000
1.646026 1.225074 -0.181998 23.000000
1.675400 1.218686 -0.184209 35.000000
1.692663 1.203164 -0.185034 28.000000
1.705707 1.184520 -0.185415 24.000000
1.726802 1.171405 -0.186688 33.000000
1.739525 1.152416 -0.187008 28.000000
1.756174 1.136005 -0.187839 26.000000
1.797888 1.135326 -0.191295 35.000000
1.814180 1.118589 -0.192200 30.000000
1.843330 1.108938 -0.194326 35.000000
1.859622 1.091155 -0.195106 32.000000
1.888737 1.080697 -0.197242 26.000000
1.909103 1.064811 -0.198480 31.000000
1.920558 1.043911 -0.198815 30.000000
1.944878 1.030137 -0.200578 31.000000
1.978133 1.020237 -0.203188 37.000000
1.984665 0.996314 -0.203006 27.000000
2.008771 0.981160 -0.204714 32.000000
2.037380 0.967712 -0.206814 33.000000
2.056650 0.949837 -0.208074 23.000000
2.103267 0.943648 -0.212015 29.000000
2.127064 0.926582 -0.213673 29.000000
2.146190 0.907207 -0.214876 26.000000
2.178863 0.893371 -0.217533 30.000000
2.206969 0.876907 -0.219591 29.000000
2.253604 0.867118 -0.223569 30.000000
2.276852 0.847686 -0.225176 31.000000
2.276493 0.819665 -0.224550 18.000000
2.327639 0.809466 -0.229010 32.000000
2.364491 0.793744 -0.232015 34.000000
2.387263 0.772504 -0.233635 33.000000
2.414504 0.752357 -0.235722 32.000000
2.451100 0.734655 -0.238820 32.000000
2.473295 0.712043 -0.240372 32.000000
2.533652 0.699719 -0.245728 34.000000
2.502563 0.661902 -0.242242 10.000000
2.582018 0.652995 -0.249475 29.000000
2.632510 0.635425 -0.253838 32.000000
2.644085 0.607736 -0.254471 30.000000
2.674805 0.584274 -0.257057 32.000000
2.710263 0.561209 -0.260031 30.000000
2.784595 0.545073 -0.266753 31.000000
2.805021 0.517515 -0.268331 26.000000
2.844775 0.492862 -0.271698 10.000000
2.908962 0.471443 -0.277500 36.000000
2.968075 0.447907 -0.282840 34.000000
3.007277 0.420436 -0.286217 36.000000
3.051149 0.392757 -0.290065 71.000000
3.094753 0.364122 -0.294011 77.000000
3.123323 0.333043 -0.296359 36.000000
3.111827 0.297633 -0.295046 51.000000
3.085134 0.261191 -0.292322 9.000000
3.092756 0.227959 -0.292887 29.000000
3.104973 0.194931 -0.293827 29.000000
3.072177 0.159272 -0.290630 15.000000
3.063739 0.125388 -0.289690 8.000000
3.084863 0.092618 -0.291571 7.000000
3.075666 0.058843 -0.290630 7.000000
3.056228 0.025109 -0.288749 8.000000
3.056321 -0.008151 -0.288749 6.000000
3.080927 -0.041748 -0.291006 8.000000
3.060455 -0.074886 -0.289126 7.000000
3.079321 -0.108903 -0.290912 8.000000
3.112806 -0.144044 -0.294106 26.000000
3.110991 -0.177954 -0.294011 26.000000
3.113856 -0.212106 -0.294385 29.000000
3.096482 -0.244893 -0.292881 8.000000
3.098679 -0.279045 -0.293255 8.000000
3.140010 -0.317213 -0.297284 27.000000
3.121494 -0.349700 -0.295781 26.000000
3.132368 -0.385512 -0.296994 30.000000
3.152683 -0.422873 -0.299239 52.000000
3.157758 -0.458626 -0.299882 52.000000
3.152574 -0.492957 -0.299784 88.000000
3.132368 -0.524722 -0.298089 66.000000
3.072621 -0.549161 -0.292758 33.000000
3.061512 -0.581621 -0.292100 27.000000
3.045256 -0.612993 -0.290881 77.000000
3.023888 -0.642927 -0.289199 80.000000
2.997350 -0.671360 -0.287053 83.000000
2.965589 -0.698324 -0.284540 41.000000
2.953005 -0.729348 -0.283796 46.000000
2.882328 -0.745128 -0.277393 35.000000
2.902861 -0.784308 -0.279899 21.000000
3.042741 -0.857603 -0.293974 19.000000
3.124004 -0.917392 -0.302471 10.000000
3.123447 -0.954131 -0.302996 10.000000
3.136663 -0.995595 -0.304902 15.000000
3.144584 -1.036018 -0.306442 11.000000
3.152066 -1.076447 -0.307877 16.000000
3.149510 -1.114067 -0.308388 24.000000
3.137326 -1.148059 -0.307876 31.000000
3.143360 -1.189201 -0.309299 70.000000
3.130177 -1.223499 -0.308887 63.000000
3.107449 -1.253865 -0.307561 67.000000
3.084597 -1.283517 -0.306136 88.000000
3.043012 -1.305322 -0.302891 36.000000
3.024049 -1.336389 -0.302030 38.000000
3.000293 -1.365193 -0.300615 71.000000
2.980935 -1.395406 -0.299657 57.000000
2.961118 -1.425623 -0.298700 95.000000
2.940944 -1.455741 -0.297745 62.000000
2.920517 -1.485460 -0.296791 93.000000
2.899738 -1.514982 -0.295738 95.000000
2.861354 -1.534393 -0.292891 40.000000
2.840178 -1.563131 -0.291945 53.000000
2.809885 -1.586679 -0.290006 42.000000
2.779555 -1.609843 -0.288171 29.000000
2.774685 -1.647784 -0.288918 33.000000
2.773507 -1.688399 -0.290105 24.000000
2.767978 -1.725951 -0.290740 26.000000
2.791060 -1.782946 -0.294570 31.000000
2.767207 -1.810660 -0.293519 20.000000
2.780449 -1.863032 -0.296440 18.000000
2.768155 -1.899019 -0.296603 10.000000
2.743202 -1.926393 -0.295547 9.000000
2.758345 -1.982437 -0.298770 9.000000
2.736596 -2.012616 -0.298146 9.000000
2.742290 -2.063447 -0.300470 9.000000
2.763641 -2.125977 -0.304413 9.000000
2.767652 -2.177658 -0.306702 8.000000
2.774749 -2.232847 -0.309409 8.000000
2.777126 -2.285224 -0.311556 8.000000
2.763443 -2.325142 -0.312077 8.000000
2.764323 -2.378084 -0.314196 8.000000
2.745668 -2.414821 -0.314271 7.000000
2.745169 -2.468040 -0.316363 7.000000
2.663012 -2.447325 -0.309073 8.000000
2.541794 -2.387665 -0.297150 8.000000
2.425678 -2.329170 -0.285713 9.000000
2.204568 -2.163605 -0.261676 8.000000
2.093794 -2.098606 -0.250307 9.000000
2.004697 -2.053564 -0.241523 9.000000
1.906488 -1.996094 -0.231622 9.000000
1.813238 -1.940437 -0.222110 9.000000
1.734855 -1.897601 -0.214318 10.000000
1.650954 -1.845853 -0.205819 9.000000
1.607813 -1.837500 -0.202248 9.000000
1.561852 -1.824710 -0.198284 14.000000
1.532323 -1.830164 -0.196319 17.000000
1.493354 -1.823694 -0.193210 24.000000
1.464160 -1.828192 -0.191339 23.000000
1.444223 -1.844041 -0.190622 21.000000
1.445280 -1.887373 -0.192806 26.000000
1.424682 -1.903022 -0.192078 22.000000
1.412768 -1.930517 -0.192627 19.000000
1.394647 -1.949879 -0.192294 19.000000
1.367653 -1.956828 -0.190764 18.000000
1.357627 -1.988056 -0.191620 24.000000
1.334296 -1.997840 -0.190414 18.000000
1.317972 -2.020679 -0.190466 20.000000
1.314708 -2.064364 -0.192396 21.000000
1.300127 -2.091223 -0.192818 16.000000
1.282534 -2.113843 -0.192842 19.000000
1.262066 -2.131983 -0.192396 7.000000
0.984361 1.683479 -0.136805 6.000000
0.982104 1.638398 -0.134532 13.000000
1.004034 1.636732 -0.135822 17.000000
1.021775 1.625687 -0.136292 23.000000
1.033999 1.606080 -0.136109 16.000000
1.070572 1.623830 -0.139073 25.000000
1.077026 1.595513 -0.138177 22.000000
1.099953 1.591880 -0.139366 21.000000
1.120061 1.583874 -0.140200 27.000000
1.128386 1.559467 -0.139590 10.000000
1.142323 1.543090 -0.139758 23.000000
1.159006 1.530518 -0.140228 27.000000
1.181680 1.525714 -0.141369 21.000000
1.201251 1.516631 -0.142208 27.000000
1.214512 1.499554 -0.142314 24.000000
1.230752 1.486267 -0.142787 21.000000
1.259760 1.487967 -0.144680 29.000000
1.269343 1.466585 -0.144415 10.000000
1.278583 1.445168 -0.144086 33.000000
1.297576 1.434811 -0.144932 31.000000
1.316531 1.424204 -0.145721 25.000000
1.345660 1.424277 -0.147639 34.000000
1.361072 1.409465 -0.148059 28.000000
1.376364 1.394534 -0.148478 29.000000
1.398556 1.386442 -0.149656 32.000000
1.406407 1.364070 -0.149258 12.000000
1.431524 1.359437 -0.150881 32.000000
1.457285 1.353907 -0.152450 45.000000
1.464580 1.331128 -0.152049 30.000000
1.486448 1.321700 -0.153181 52.000000
1.508339 1.311865 -0.154377 35.000000
1.533925 1.304974 -0.155901 33.000000
1.548104 1.288083 -0.156271 36.000000
1.565964 1.274215 -0.157029 18.000000
1.579745 1.256973 -0.157400 42.000000
1.601271 1.245729 -0.158488 35.000000
1.626649 1.237207 -0.160031 30.000000
1.652101 1.228236 -0.161517 35.000000
1.673463 1.215947 -0.162679 30.000000
1.690698 1.200469 -0.163389 34.000000
1.711583 1.187999 -0.164557 36.000000
1.724467 1.169183 -0.164940 21.000000
1.741251 1.152992 -0.165654 35.000000
1.762090 1.139288 -0.166766 35.000000
1.803927 1.138573 -0.169800 36.000000
1.820514 1.121399 -0.170524 45.000000
1.841168 1.106568 -0.171648 37.000000
1.861670 1.091419 -0.172775 46.000000
1.873497 1.071070 -0.173039 43.000000
1.897920 1.058133 -0.174570 23.000000
1.900538 1.032617 -0.174101 45.000000
1.951374 1.032806 -0.177981 53.000000
1.971319 1.016012 -0.179057 34.000000
1.995615 1.001123 -0.180537 44.000000
2.024330 0.988060 -0.182425 49.000000
2.039454 0.968058 -0.183105 35.000000
2.081427 0.960626 -0.186215 36.000000
2.078103 0.931768 -0.185280 19.000000
2.120129 0.922959 -0.188330 34.000000
2.148404 0.907564 -0.190239 41.000000
2.167338 0.887920 -0.191267 32.000000
2.195331 0.871826 -0.193184 35.000000
2.227917 0.856756 -0.195442 37.000000
2.274490 0.846320 -0.198929 32.000000
2.302237 0.828248 -0.200787 33.000000
2.296957 0.798391 -0.199858 11.000000
2.348040 0.787635 -0.203772 36.000000
2.380164 0.769668 -0.205975 70.000000
2.407314 0.749781 -0.207848 42.000000
2.439211 0.730679 -0.210136 37.000000
2.485317 0.715114 -0.213584 46.000000
2.512133 0.693412 -0.215469 35.000000
2.548379 0.673600 -0.218103 42.000000
2.594211 0.655763 -0.221647 24.000000
2.601176 0.627412 -0.221729 45.000000
2.656375 0.610300 -0.226108 54.000000
2.682358 0.585589 -0.227846 41.000000
2.717772 0.562473 -0.230497 50.000000
2.762841 0.540550 -0.233980 71.000000
2.763631 0.509559 -0.233738 15.000000
2.813240 0.487176 -0.237555 9.000000
2.897007 0.469234 -0.244368 23.000000
2.936439 0.442889 -0.247363 44.000000
2.980554 0.416485 -0.250776 76.000000
3.019479 0.388494 -0.253775 76.000000
3.068118 0.360822 -0.257608 84.000000
3.111444 0.331651 -0.261028 95.000000
3.159534 0.301996 -0.264866 95.000000
3.172574 0.268525 -0.265795 94.000000
3.190212 0.235009 -0.267043 47.000000
3.177644 0.199395 -0.265892 60.000000
3.194522 0.165555 -0.267141 95.000000
3.166316 0.129556 -0.264644 37.000000
3.167481 0.095008 -0.264644 13.000000
3.203226 0.061223 -0.267557 9.000000
3.183787 0.026228 -0.265892 8.000000
3.104163 -0.008270 -0.259235 9.000000
3.133770 -0.042422 -0.261635 14.000000
3.138080 -0.076712 -0.262051 36.000000
3.186914 -0.112598 -0.266113 66.000000
3.155586 -0.145885 -0.263522 64.000000
3.193640 -0.182502 -0.266847 86.000000
3.196456 -0.217617 -0.267164 40.000000
3.174037 -0.250779 -0.265405 30.000000
3.215775 -0.289314 -0.269044 86.000000
3.217371 -0.324817 -0.269261 89.000000
3.208755 -0.359319 -0.268748 95.000000
3.204701 -0.394124 -0.268550 98.000000
3.175558 -0.425619 -0.266380 90.000000
3.126370 -0.453714 -0.262458 84.000000
3.081858 -0.481612 -0.258955 19.000000
3.017440 -0.505171 -0.253803 8.000000
2.997103 -0.535334 -0.252377 9.000000
2.976450 -0.565083 -0.250952 10.000000
3.014107 -0.606305 -0.254479 55.000000
2.997581 -0.636903 -0.253372 64.000000
2.961366 -0.662934 -0.250714 48.000000
2.958783 -0.696228 -0.250847 78.000000
2.931706 -0.723657 -0.249017 49.000000
2.880332 -0.744155 -0.245045 27.000000
2.881664 -0.778089 -0.245592 35.000000
2.983390 -0.840330 -0.254738 21.000000
3.112753 -0.913482 -0.266316 24.000000
3.207574 -0.979370 -0.275008 27.000000
3.225291 -1.023017 -0.277046 35.000000
3.232932 -1.064374 -0.278365 72.000000
3.230588 -1.102715 -0.278867 71.000000
3.195074 -1.129218 -0.276416 46.000000
3.168582 -1.158842 -0.274783 95.000000
3.141788 -1.187954 -0.273257 89.000000
3.119443 -1.218472 -0.272036 95.000000
3.096869 -1.248378 -0.270715 85.000000
3.069263 -1.276273 -0.269198 72.000000
3.050637 -1.307692 -0.268388 87.000000
3.018072 -1.332869 -0.266372 43.000000
2.989714 -1.359509 -0.264662 32.000000
2.975033 -1.391586 -0.264159 95.000000
2.950665 -1.419644 -0.262956 95.000000
2.930659 -1.449514 -0.262156 98.000000
2.905757 -1.476829 -0.260858 95.000000
2.876336 -1.501544 -0.259164 73.000000
2.850961 -1.528125 -0.257972 64.000000
2.847327 -1.566428 -0.258667 30.000000
2.821732 -1.591972 -0.257278 16.000000
2.851631 -1.650180 -0.261128 40.000000
2.833477 -1.681144 -0.260624 29.000000
2.849089 -1.732728 -0.263268 37.000000
2.821539 -1.758488 -0.261870 28.000000
2.835812 -1.810684 -0.264496 20.000000
2.815933 -1.841583 -0.263878 10.000000
2.828776 -1.894466 -0.266484 8.000000
2.853156 -1.956323 -0.270141 7.000000
2.807703 -1.969538 -0.267175 9.000000
2.834671 -2.034973 -0.271194 9.000000
2.832328 -2.080598 -0.272486 9.000000
2.857344 -2.147412 -0.276468 9.000000
2.837664 -2.181631 -0.276086 9.000000
2.848940 -2.240260 -0.278882 9.000000
2.832083 -2.277569 -0.278981 6.000000
2.753256 -2.264050 -0.272860 2.000000
2.758798 -2.319721 -0.275251 2.000000
2.831608 -2.434341 -0.284349 1.000000
2.775019 -2.438869 -0.280521 2.000000
2.707425 -2.432405 -0.275577 1.000000
2.618264 -2.404482 -0.268506 3.000000
2.570124 -2.412512 -0.265384 6.000000
2.371801 -2.273960 -0.246562 8.000000
2.236464 -2.191522 -0.234293 8.000000
2.117384 -2.120594 -0.223578 9.000000
2.021008 -2.068622 -0.215057 9.000000
1.946671 -2.036504 -0.208892 10.000000
1.835870 -1.962938 -0.198621 10.000000
1.767277 -1.931419 -0.192822 10.000000
1.682935 -1.879973 -0.185226 12.000000
1.609831 -1.838173 -0.178845 10.000000
1.557348 -1.817724 -0.174609 10.000000
1.534297 -1.830821 -0.173588 29.000000
1.514343 -1.847413 -0.173003 30.000000
1.462977 -1.824875 -0.168819 30.000000
1.443082 -1.840762 -0.168246 33.000000
1.444284 -1.884070 -0.170104 30.000000
1.423729 -1.899686 -0.169523 30.000000
1.400082 -1.911060 -0.168514 24.000000
1.385088 -1.934319 -0.168569 19.000000
1.369699 -1.957413 -0.168618 32.000000
1.351245 -1.976367 -0.168384 26.000000
1.335252 -1.999238 -0.168423 30.000000
1.324308 -2.030364 -0.169154 26.000000
1.310248 -2.057298 -0.169526 28.000000
1.287863 -2.071475 -0.168780 26.000000
1.271778 -2.093133 -0.168721 22.000000
1.271820 -2.145538 -0.171127 9.000000
0.984958 1.684493 -0.119264 8.000000
0.985254 1.643672 -0.117598 16.000000
1.005620 1.637143 -0.118374 27.000000
1.023361 1.626099 -0.118785 26.000000
1.040926 1.614819 -0.119196 26.000000
1.058433 1.603423 -0.119666 28.000000
1.075763 1.591791 -0.120078 25.000000
1.104331 1.596398 -0.121741 30.000000
1.115837 1.576144 -0.121528 23.000000
1.124062 1.551797 -0.120996 24.000000
1.120024 1.511428 -0.119193 31.000000
1.166563 1.538882 -0.122768 29.000000
1.180158 1.522125 -0.122863 34.000000
1.190391 1.501406 -0.122637 30.000000
1.209763 1.492216 -0.123367 32.000000
1.238655 1.494364 -0.125005 31.000000
1.251575 1.476965 -0.125098 28.000000
1.254492 1.448145 -0.124160 31.000000
1.266829 1.430640 -0.124246 34.000000
1.289012 1.424129 -0.125247 34.000000
1.321404 1.428342 -0.127231 36.000000
1.333448 1.410196 -0.127261 33.000000
1.359104 1.406298 -0.128601 33.000000
1.381369 1.398503 -0.129618 33.000000
1.400063 1.386864 -0.130309 33.000000
1.411489 1.368022 -0.130339 31.000000
1.429416 1.356486 -0.131092 52.000000
1.440466 1.337361 -0.131061 39.000000
1.466094 1.331612 -0.132422 68.000000
1.484241 1.318812 -0.133059 54.000000
1.509807 1.312293 -0.134429 62.000000
1.531666 1.302174 -0.135407 60.000000
1.549645 1.288576 -0.136052 40.000000
1.548157 1.258911 -0.135010 31.000000
1.577385 1.254363 -0.136668 48.000000
1.602823 1.246226 -0.137993 36.000000
1.628213 1.237645 -0.139323 46.000000
1.645606 1.222790 -0.139977 35.000000
1.666973 1.210528 -0.140973 37.000000
1.680081 1.192253 -0.141225 37.000000
1.701135 1.179536 -0.142226 33.000000
1.713927 1.160855 -0.142479 33.000000
1.738945 1.150367 -0.143828 54.000000
1.772074 1.145216 -0.145871 62.000000
1.788685 1.128450 -0.146475 44.000000
1.809343 1.114077 -0.147426 36.000000
1.825709 1.096820 -0.148032 44.000000
1.841805 1.079339 -0.148640 43.000000
1.857826 1.061634 -0.149249 34.000000
1.886711 1.051050 -0.150905 32.000000
1.902392 1.032816 -0.151452 48.000000
1.922336 1.016619 -0.152416 37.000000
1.937747 0.997946 -0.153033 71.000000
1.988612 0.996858 -0.156389 43.000000
2.017090 0.984169 -0.158066 52.000000
2.063711 0.979232 -0.161155 54.000000
2.060677 0.950462 -0.160308 32.000000
2.093640 0.938165 -0.162280 35.000000
2.117468 0.921252 -0.163551 43.000000
2.131953 0.900090 -0.164116 34.000000
2.169275 0.888135 -0.166454 36.000000
2.197212 0.872115 -0.168087 35.000000
2.225235 0.855259 -0.169724 41.000000
2.257724 0.839664 -0.171721 52.000000
2.304260 0.828547 -0.174715 29.000000
2.308464 0.801813 -0.174583 38.000000
2.345283 0.786353 -0.176948 63.000000
2.367996 0.765373 -0.178171 37.000000
2.399952 0.746971 -0.180110 46.000000
2.422283 0.725115 -0.181337 52.000000
2.453906 0.705781 -0.183359 35.000000
2.499866 0.689673 -0.186383 56.000000
2.536175 0.670021 -0.188694 30.000000
2.577083 0.651041 -0.191368 42.000000
2.588844 0.624152 -0.191890 53.000000
2.634327 0.604970 -0.194930 62.000000
2.684628 0.585841 -0.198251 63.000000
2.705501 0.559698 -0.199500 52.000000
2.745678 0.536895 -0.202106 49.000000
2.761136 0.508827 -0.202998 16.000000
2.756635 0.477144 -0.202363 7.000000
2.860141 0.463038 -0.209666 9.000000
2.894604 0.436381 -0.211920 14.000000
2.953501 0.412439 -0.215983 35.000000
3.007251 0.386680 -0.219687 68.000000
3.036004 0.356841 -0.221588 44.000000
3.089333 0.329106 -0.225298 18.000000
3.167122 0.302664 -0.230722 60.000000
3.244773 0.274508 -0.236246 29.000000
3.252536 0.239502 -0.236608 70.000000
3.269962 0.205012 -0.237693 82.000000
3.262007 0.169007 -0.237070 66.000000
3.273571 0.133834 -0.237794 81.000000
3.269890 0.098096 -0.237432 64.000000
3.250847 0.062080 -0.235984 24.000000
3.256232 0.026803 -0.236346 28.000000
3.206562 -0.008536 -0.232628 32.000000
3.231200 -0.043704 -0.234437 55.000000
3.230508 -0.078904 -0.234437 37.000000
3.229420 -0.114005 -0.234338 43.000000
3.247962 -0.150027 -0.235685 70.000000
3.241192 -0.185061 -0.235324 52.000000
3.248958 -0.221001 -0.235947 58.000000
3.256310 -0.257159 -0.236570 64.000000
3.253312 -0.292539 -0.236470 95.000000
3.235029 -0.326418 -0.235287 95.000000
3.201611 -0.358210 -0.232925 64.000000
3.152925 -0.387530 -0.229583 29.000000
3.123837 -0.418530 -0.227588 17.000000
3.084564 -0.447369 -0.224972 9.000000
3.035165 -0.474012 -0.221544 9.000000
3.020064 -0.505358 -0.220731 9.000000
2.970164 -0.530261 -0.217311 9.000000
2.949558 -0.559690 -0.216050 13.000000
2.972646 -0.597646 -0.218018 28.000000
2.917184 -0.619480 -0.214249 14.000000
2.900607 -0.649056 -0.213351 12.000000
2.917696 -0.686139 -0.214866 37.000000
2.934295 -0.723842 -0.216468 75.000000
2.844161 -0.734363 -0.210126 37.000000
2.874593 -0.775674 -0.212798 39.000000
2.985953 -0.840710 -0.221519 32.000000
3.134677 -0.919295 -0.232872 35.000000
3.243738 -0.989661 -0.241553 61.000000
3.232843 -1.024939 -0.241241 95.000000
3.202583 -1.053774 -0.239513 90.000000
3.186310 -1.086720 -0.238850 85.000000
3.169556 -1.119665 -0.238187 70.000000
3.143162 -1.148879 -0.236820 75.000000
3.139900 -1.186602 -0.237115 95.000000
3.122109 -1.218882 -0.236455 95.000000
3.095003 -1.246821 -0.234991 95.000000
3.053587 -1.268922 -0.232580 87.000000
3.030457 -1.298177 -0.231475 62.000000
3.025362 -1.335186 -0.231872 94.000000
2.969824 -1.349494 -0.228325 63.000000
2.954955 -1.381727 -0.227926 89.000000
2.935292 -1.411598 -0.227179 95.000000
2.902061 -1.434245 -0.225391 54.000000
2.912999 -1.479387 -0.227075 79.000000
2.901130 -1.513276 -0.227021 54.000000
2.915294 -1.561291 -0.229039 34.000000
2.898096 -1.593057 -0.228533 32.000000
2.902318 -1.636771 -0.229849 33.000000
2.884379 -1.668369 -0.229442 33.000000
2.866031 -1.699763 -0.228932 26.000000
2.868691 -1.743910 -0.230235 16.000000
2.853722 -1.777663 -0.230063 10.000000
2.880437 -1.838241 -0.233295 9.000000
2.889915 -1.888070 -0.235151 9.000000
2.902283 -1.941727 -0.237335 9.000000
2.872689 -1.967598 -0.236125 8.000000
2.904277 -2.036140 -0.239980 9.000000
2.881819 -2.067711 -0.239437 9.000000
2.887294 -2.119730 -0.241137 9.000000
2.883903 -2.166154 -0.242265 7.000000
2.872051 -2.206714 -0.242716 6.000000
2.902707 -2.281110 -0.246719 4.000000
2.873751 -2.309601 -0.245822 2.000000
2.840671 -2.334501 -0.244482 1.000000
2.818850 -2.368636 -0.244138 1.000000
2.781484 -2.389625 -0.242473 2.000000
2.803973 -2.462593 -0.246077 2.000000
2.754761 -2.473069 -0.243423 2.000000
2.643040 -2.425484 -0.235220 2.000000
2.594547 -2.433748 -0.232604 7.000000
2.442770 -2.340143 -0.220462 7.000000
2.278075 -2.230591 -0.207195 9.000000
2.176107 -2.177614 -0.199403 10.000000
2.068569 -2.115621 -0.191104 12.000000
1.966072 -2.055135 -0.183083 14.000000
1.872025 -1.999943 -0.175835 16.000000
1.779390 -1.942939 -0.168545 17.000000
1.708252 -1.906451 -0.163209 15.000000
1.618354 -1.846126 -0.156002 12.000000
1.555931 -1.814449 -0.151369 10.000000
1.542538 -1.838906 -0.151487 30.000000
1.497179 -1.824705 -0.148462 33.000000
1.474208 -1.837052 -0.147644 34.000000
1.435700 -1.829414 -0.145198 43.000000
1.415720 -1.844915 -0.144701 33.000000
1.404653 -1.872179 -0.145131 32.000000
1.384257 -1.887350 -0.144559 29.000000
1.378257 -1.922587 -0.145521 22.000000
1.363082 -1.945589 -0.145627 32.000000
1.347511 -1.968570 -0.145655 30.000000
1.323294 -1.978936 -0.144768 32.000000
1.304478 -1.997380 -0.144488 33.000000
1.285427 -2.015665 -0.144279 29.000000
1.284602 -2.063448 -0.146094 32.000000
1.267269 -2.085876 -0.146097 28.000000
1.270038 -2.142465 -0.148400 9.000000
0.976358 1.667497 -0.100683 7.000000
0.979010 1.631121 -0.099471 15.000000
1.004531 1.633125 -0.100605 23.000000
1.016844 1.613661 -0.100431 23.000000
1.039688 1.610918 -0.101367 25.000000
1.059901 1.603657 -0.101984 24.000000
1.077232 1.592026 -0.102336 25.000000
1.100130 1.588427 -0.103222 27.000000
1.120142 1.580513 -0.103844 26.000000
1.119607 1.543948 -0.102588 24.000000
1.133361 1.527697 -0.102668 29.000000
1.164962 1.535200 -0.104369 29.000000
1.175391 1.514531 -0.104121 31.000000
1.194901 1.505610 -0.104745 33.000000
1.211115 1.492509 -0.105097 28.000000
1.240021 1.494601 -0.106486 31.000000
1.252936 1.477201 -0.106567 28.000000
1.259110 1.452209 -0.106037 29.000000
1.261609 1.423460 -0.105284 35.000000
1.293715 1.428122 -0.106960 33.000000
1.315338 1.421846 -0.107870 34.000000
1.330731 1.407400 -0.108166 36.000000
1.349474 1.396425 -0.108741 36.000000
1.371626 1.388690 -0.109599 37.000000
1.393754 1.380681 -0.110459 34.000000
1.405161 1.361915 -0.110477 27.000000
1.419935 1.346483 -0.110776 36.000000
1.441849 1.337662 -0.111642 36.000000
1.463730 1.328560 -0.112451 52.000000
1.478112 1.312487 -0.112753 41.000000
1.503678 1.306114 -0.113850 40.000000
1.521606 1.292847 -0.114441 65.000000
1.547162 1.285694 -0.115545 58.000000
1.557247 1.265574 -0.115565 30.000000
1.559203 1.239143 -0.114946 60.000000
1.600248 1.243474 -0.117211 35.000000
1.621641 1.231981 -0.118037 42.000000
1.638970 1.217152 -0.118576 38.000000
1.660280 1.205042 -0.119407 37.000000
1.677333 1.189743 -0.119949 48.000000
1.698426 1.177072 -0.120784 44.000000
1.707053 1.155639 -0.120744 28.000000
1.727858 1.142428 -0.121519 68.000000
1.761172 1.137094 -0.123239 37.000000
1.781922 1.123127 -0.124019 72.000000
1.798279 1.106231 -0.124571 56.000000
1.818520 1.092072 -0.125420 49.000000
1.838935 1.077208 -0.126205 58.000000
1.867934 1.066978 -0.127585 40.000000
1.875082 1.044162 -0.127551 30.000000
1.895076 1.028386 -0.128342 61.000000
1.914975 1.012353 -0.129135 79.000000
1.934777 0.996062 -0.129930 66.000000
1.985647 0.995030 -0.132816 80.000000
2.018738 0.984306 -0.134514 53.000000
2.051860 0.972957 -0.136147 45.000000
2.075941 0.956869 -0.137255 36.000000
2.072549 0.928107 -0.136564 27.000000
2.105292 0.915704 -0.138275 42.000000
2.133511 0.900515 -0.139619 49.000000
2.166234 0.886675 -0.141338 36.000000
2.194308 0.870419 -0.142688 62.000000
2.212936 0.850109 -0.143436 44.000000
2.250137 0.836407 -0.145468 39.000000
2.310755 0.830460 -0.148945 36.000000
2.305469 0.800400 -0.148186 31.000000
2.332903 0.781822 -0.149549 49.000000
2.364999 0.764067 -0.151218 66.000000
2.392190 0.744237 -0.152585 53.000000
2.424063 0.725347 -0.154260 64.000000
2.441392 0.701723 -0.155024 49.000000
2.482526 0.684604 -0.157313 38.000000
2.528370 0.667793 -0.159832 35.000000
2.569357 0.648760 -0.162129 33.000000
2.581096 0.621976 -0.162516 59.000000
2.616856 0.600669 -0.164513 50.000000
2.642763 0.576437 -0.165819 54.000000
2.697671 0.557845 -0.169047 58.000000
2.732954 0.534194 -0.170969 52.000000
2.738658 0.504478 -0.171054 10.000000
2.763607 0.478081 -0.172366 8.000000
2.847490 0.460823 -0.177362 8.000000
2.871991 0.432841 -0.178678 9.000000
2.925945 0.408481 -0.181838 9.000000
2.945130 0.378593 -0.182760 21.000000
3.018423 0.354699 -0.187153 37.000000
3.081690 0.328144 -0.190936 9.000000
3.124749 0.298491 -0.193395 9.000000
3.242192 0.274187 -0.200566 19.000000
3.284793 0.241800 -0.203027 62.000000
3.312113 0.207610 -0.204565 95.000000
3.324212 0.172103 -0.205181 92.000000
3.315867 0.135565 -0.204565 46.000000
3.277281 0.098245 -0.202104 10.000000
3.322988 0.063515 -0.204873 9.000000
3.288564 0.027049 -0.202720 10.000000
3.263713 -0.008582 -0.201182 32.000000
3.268503 -0.044176 -0.201389 37.000000
3.277782 -0.080000 -0.202004 37.000000
3.291641 -0.116116 -0.202826 72.000000
3.300202 -0.152429 -0.203441 93.000000
3.288419 -0.187720 -0.202725 95.000000
3.291081 -0.223810 -0.202932 78.000000
3.248659 -0.256373 -0.200475 32.000000
3.245769 -0.291746 -0.200376 90.000000
3.187763 -0.321411 -0.196902 73.000000
3.134444 -0.350543 -0.193739 18.000000
3.120584 -0.383368 -0.192934 10.000000
3.096472 -0.414652 -0.191613 9.000000
3.037463 -0.440398 -0.188152 9.000000
3.022628 -0.471797 -0.187353 9.000000
2.968075 -0.496397 -0.184205 9.000000
3.011684 -0.537366 -0.187073 34.000000
2.995891 -0.568244 -0.186369 51.000000
2.935730 -0.589966 -0.182831 18.000000
2.894965 -0.614481 -0.180517 9.000000
2.892958 -0.646968 -0.180640 9.000000
2.914948 -0.685181 -0.182281 36.000000
2.892812 -0.713183 -0.181188 58.000000
2.793073 -0.720912 -0.175245 25.000000
2.828502 -0.762950 -0.177795 63.000000
2.969014 -0.835398 -0.186901 63.000000
3.089083 -0.905457 -0.194870 40.000000
3.193614 -0.973958 -0.201917 63.000000
3.220956 -1.020624 -0.204021 95.000000
3.204955 -1.054084 -0.203514 98.000000
3.188679 -1.086926 -0.202904 90.000000
3.139081 -1.108240 -0.200194 30.000000
3.131556 -1.144048 -0.200290 98.000000
3.104909 -1.172700 -0.199086 95.000000
3.073424 -1.199132 -0.197586 95.000000
3.078730 -1.239975 -0.198477 95.000000
3.028259 -1.258040 -0.195789 95.000000
3.009836 -1.288957 -0.195190 95.000000
2.991256 -1.319175 -0.194593 91.000000
2.953941 -1.341339 -0.192711 34.000000
2.952828 -1.379714 -0.193301 63.000000
2.960177 -1.422608 -0.194480 59.000000
2.957938 -1.461369 -0.194964 58.000000
2.959704 -1.502480 -0.195839 65.000000
2.969720 -1.548493 -0.197196 51.000000
2.952724 -1.580745 -0.196889 33.000000
2.922194 -1.605581 -0.195601 23.000000
2.913257 -1.642183 -0.195880 10.000000
2.912549 -1.683869 -0.196638 21.000000
2.906918 -1.723181 -0.197100 15.000000
2.939520 -1.785264 -0.200068 10.000000
2.945393 -1.833050 -0.201386 10.000000
2.933662 -1.870337 -0.201540 9.000000
2.954823 -1.929535 -0.204000 9.000000
2.958575 -1.978331 -0.205296 9.000000
2.949173 -2.018994 -0.205723 8.000000
2.922907 -2.048141 -0.204890 8.000000
2.920715 -2.094434 -0.205884 6.000000
2.970198 -2.179451 -0.210468 6.000000
2.942220 -2.208661 -0.209733 5.000000
2.882407 -2.213348 -0.206616 3.000000
2.881635 -2.263174 -0.207871 2.000000
2.852880 -2.291408 -0.207029 1.000000
2.847003 -2.338231 -0.207878 1.000000
2.844265 -2.388461 -0.209000 1.000000
2.867281 -2.461613 -0.212075 1.000000
2.799094 -2.456578 -0.208424 1.000000
2.779548 -2.493638 -0.208412 1.000000
2.627057 -2.409162 -0.198394 2.000000
2.637116 -2.471848 -0.200510 6.000000
2.494689 -2.389943 -0.191119 6.000000
2.293709 -2.245830 -0.177096 8.000000
2.202034 -2.203652 -0.171292 10.000000
2.090687 -2.138306 -0.163972 10.000000
1.984459 -2.074390 -0.156876 10.000000
1.893500 -2.022986 -0.150911 15.000000
1.801484 -1.965344 -0.144712 13.000000
1.720052 -1.917914 -0.139362 12.000000
1.643130 -1.872773 -0.134313 12.000000
1.564116 -1.822319 -0.129028 10.000000
1.541089 -1.835376 -0.128320 24.000000
1.517925 -1.848144 -0.127614 32.000000
1.472737 -1.833447 -0.125052 31.000000
1.440492 -1.833625 -0.123562 34.000000
1.420468 -1.849159 -0.123064 34.000000
1.403372 -1.868472 -0.122899 32.000000
1.377109 -1.875562 -0.121947 29.000000
1.377081 -1.918748 -0.123273 24.000000
1.361958 -1.941792 -0.123360 30.000000
1.338043 -1.952313 -0.122594 32.000000
1.319557 -1.970928 -0.122417 31.000000
1.292638 -1.976776 -0.121397 32.000000
1.284567 -2.011749 -0.122169 29.000000
1.273252 -2.042557 -0.122677 29.000000
1.258827 -2.069035 -0.122997 25.000000
1.220962 -2.056887 -0.120963 9.000000
0.989391 1.689818 -0.084338 6.000000
0.974276 1.623253 -0.081831 10.000000
0.994473 1.616809 -0.082336 15.000000
1.019915 1.618586 -0.083279 20.000000
1.029321 1.594833 -0.082916 12.000000
1.060313 1.604421 -0.084301 20.000000
1.055250 1.559693 -0.082837 21.000000
1.086382 1.568662 -0.084227 19.000000
1.114839 1.573072 -0.085403 21.000000
1.117199 1.540662 -0.084588 9.000000
1.142754 1.540488 -0.085547 20.000000
1.159395 1.527949 -0.085781 21.000000
1.172856 1.511347 -0.085850 17.000000
1.186114 1.494577 -0.085917 25.000000
1.205407 1.485457 -0.086376 21.000000
1.221420 1.472308 -0.086668 21.000000
1.243836 1.466544 -0.087356 24.000000
1.279329 1.475557 -0.089015 10.000000
1.265503 1.427895 -0.087200 27.000000
1.284303 1.417724 -0.087662 27.000000
1.306401 1.411028 -0.088413 24.000000
1.331974 1.407578 -0.089339 35.000000
1.350721 1.396544 -0.089807 24.000000
1.369368 1.385316 -0.090276 26.000000
1.384364 1.370320 -0.090514 25.000000
1.395594 1.351671 -0.090519 10.000000
1.417506 1.343227 -0.091223 33.000000
1.439389 1.334507 -0.091929 32.000000
1.453841 1.318675 -0.092109 26.000000
1.468113 1.302724 -0.092349 33.000000
1.497291 1.299749 -0.093531 28.000000
1.519020 1.289797 -0.094185 32.000000
1.536804 1.276306 -0.094666 34.000000
1.550659 1.259460 -0.094910 14.000000
1.548688 1.230068 -0.094142 31.000000
1.585648 1.231469 -0.095752 28.000000
1.602936 1.217129 -0.096236 25.000000
1.636146 1.214425 -0.097617 34.000000
1.649344 1.196495 -0.097804 26.000000
1.674517 1.187106 -0.098711 29.000000
1.687310 1.168794 -0.098899 33.000000
1.704114 1.153092 -0.099329 16.000000
1.720728 1.137174 -0.099759 34.000000
1.753998 1.131934 -0.101158 36.000000
1.761955 1.110074 -0.101107 26.000000
1.799248 1.106877 -0.102755 49.000000
1.811188 1.087191 -0.102949 30.000000
1.835864 1.074945 -0.103874 33.000000
1.860444 1.062354 -0.104736 33.000000
1.884990 1.049282 -0.105666 20.000000
1.883159 1.021572 -0.105129 34.000000
1.907402 1.008018 -0.105996 36.000000
1.949295 1.003184 -0.107848 35.000000
1.973475 0.988592 -0.108787 45.000000
2.002086 0.975829 -0.109908 35.000000
2.044154 0.968957 -0.111771 35.000000
2.068198 0.952969 -0.112720 34.000000
2.064753 0.924304 -0.112116 20.000000
2.097536 0.911793 -0.113494 33.000000
2.125724 0.896704 -0.114626 34.000000
2.144556 0.877292 -0.115264 28.000000
2.177183 0.863202 -0.116649 31.000000
2.195667 0.843238 -0.117290 28.000000
2.218765 0.824596 -0.118182 28.000000
2.283983 0.820703 -0.121248 31.000000
2.254993 0.782687 -0.119398 10.000000
2.324938 0.778800 -0.122795 34.000000
2.352262 0.759615 -0.123871 36.000000
2.374649 0.738535 -0.124774 31.000000
2.416041 0.722717 -0.126604 43.000000
2.428469 0.697819 -0.127010 30.000000
2.450324 0.675472 -0.127840 29.000000
2.525141 0.666678 -0.131516 35.000000
2.537086 0.640448 -0.131848 10.000000
2.568156 0.618630 -0.133186 35.000000
2.608763 0.598518 -0.135031 62.000000
2.649213 0.577667 -0.136877 31.000000
2.689575 0.555992 -0.138725 36.000000
2.719954 0.531491 -0.140071 32.000000
2.681345 0.493796 -0.137883 9.000000
2.755481 0.476550 -0.141504 8.000000
2.844324 0.460114 -0.145888 6.000000
2.854016 0.429954 -0.146140 7.000000
2.907969 0.405811 -0.148759 8.000000
2.981616 0.383139 -0.152300 7.000000
3.000444 0.352461 -0.153152 9.000000
3.053792 0.325161 -0.155683 9.000000
3.121697 0.298112 -0.159070 7.000000
3.298914 0.278813 -0.167935 8.000000
3.276847 0.241168 -0.166669 14.000000
3.314142 0.207711 -0.168442 45.000000
3.356169 0.173754 -0.170468 95.000000
3.392737 0.138727 -0.172345 36.000000
3.384103 0.101489 -0.171735 29.000000
3.354975 0.064087 -0.170215 10.000000
3.375461 0.027850 -0.171228 22.000000
3.375564 -0.008871 -0.171228 36.000000
3.345297 -0.045187 -0.169708 31.000000
3.354668 -0.081826 -0.170112 62.000000
3.353540 -0.118228 -0.170112 81.000000
3.312198 -0.152889 -0.167986 83.000000
3.290332 -0.187720 -0.166974 78.000000
3.278152 -0.222794 -0.166367 51.000000
3.235718 -0.255295 -0.164246 35.000000
3.217822 -0.289065 -0.163389 61.000000
3.194690 -0.322010 -0.162281 37.000000
3.126448 -0.349530 -0.158903 15.000000
3.097725 -0.380421 -0.157547 9.000000
3.068686 -0.410678 -0.156192 9.000000
3.044282 -0.441208 -0.155090 25.000000
3.044235 -0.474970 -0.155248 32.000000
2.984690 -0.498959 -0.152388 21.000000
3.013555 -0.537554 -0.153961 68.000000
2.978131 -0.564617 -0.152361 33.000000
2.927769 -0.588091 -0.150011 22.000000
2.901659 -0.615699 -0.148826 9.000000
2.870404 -0.641612 -0.147394 9.000000
2.902194 -0.681937 -0.149305 30.000000
2.865542 -0.706195 -0.147624 33.000000
2.843190 -0.733564 -0.146695 21.000000
2.801364 -0.755328 -0.144860 44.000000
2.946863 -0.828826 -0.152558 43.000000
3.062297 -0.897229 -0.158833 35.000000
3.166994 -0.965425 -0.164597 33.000000
3.203979 -1.014799 -0.166874 87.000000
3.192786 -1.049509 -0.166669 95.000000
3.171728 -1.080894 -0.165968 45.000000
3.141015 -1.108647 -0.164776 33.000000
3.119420 -1.139316 -0.164079 90.000000
3.111509 -1.174870 -0.164020 64.000000
3.075441 -1.199232 -0.162587 58.000000
3.057596 -1.230652 -0.162039 65.000000
3.025652 -1.256125 -0.160857 34.000000
3.021021 -1.292887 -0.161046 37.000000
3.006763 -1.325619 -0.160845 28.000000
2.974015 -1.349993 -0.159568 10.000000
2.995445 -1.399134 -0.161217 33.000000
2.997996 -1.440209 -0.161886 26.000000
3.009111 -1.486099 -0.163140 32.000000
2.974891 -1.509666 -0.161863 19.000000
2.971665 -1.548903 -0.162283 11.000000
2.976686 -1.592833 -0.163182 10.000000
2.946018 -1.618010 -0.162150 9.000000
2.928252 -1.649947 -0.161842 9.000000
2.966288 -1.714267 -0.164550 9.000000
2.981819 -1.766875 -0.166151 8.000000
3.005127 -1.825098 -0.168223 9.000000
2.989709 -1.859747 -0.168031 8.000000
2.969378 -1.892235 -0.167709 8.000000
3.002878 -1.959994 -0.170363 8.000000
3.043690 -2.034160 -0.173586 6.000000
2.955371 -2.022142 -0.169360 4.000000
3.006910 -2.105768 -0.173275 6.000000
2.991813 -2.144335 -0.173297 5.000000
2.960255 -2.170928 -0.172378 4.000000
2.920386 -2.191015 -0.171105 3.000000
2.864707 -2.198478 -0.168791 1.000000
2.946625 -2.312851 -0.174637 1.000000
2.917438 -2.341654 -0.173947 1.000000
2.984271 -2.504388 -0.180194 1.000000
2.956778 -2.536761 -0.179718 1.000000
2.707381 -2.374583 -0.165574 1.000000
2.811583 -2.520654 -0.173150 1.000000
2.713931 -2.486993 -0.168349 1.000000
2.613807 -2.448167 -0.163342 3.000000
2.529273 -2.421240 -0.159163 4.000000
2.345655 -2.294929 -0.148771 6.000000
2.218162 -2.217970 -0.141725 9.000000
2.113567 -2.159910 -0.136166 9.000000
2.013937 -2.103429 -0.130769 9.000000
1.912354 -2.041382 -0.125183 9.000000
1.809049 -1.973686 -0.119409 9.000000
1.747519 -1.948609 -0.116416 10.000000
1.647186 -1.877365 -0.110703 9.000000
1.568103 -1.826990 -0.106349 8.000000
1.535324 -1.828604 -0.105102 15.000000
1.509072 -1.837440 -0.104299 20.000000
1.485897 -1.849815 -0.103718 28.000000
1.434961 -1.826553 -0.101109 28.000000
1.411980 -1.838130 -0.100537 24.000000
1.388944 -1.849358 -0.099967 29.000000
1.380634 -1.880442 -0.100475 18.000000
1.377659 -1.919614 -0.101332 15.000000
1.351063 -1.926302 -0.100545 26.000000
1.338549 -1.953181 -0.100823 22.000000
1.317285 -1.967647 -0.100389 27.000000
1.295877 -1.981823 -0.100028 24.000000
1.282389 -2.008413 -0.100224 24.000000
1.273767 -2.043366 -0.100833 24.000000
1.264538 -2.078459 -0.101508 18.000000
1.252074 -2.109241 -0.101892 9.000000
0.975602 1.663954 -0.065672 8.000000
0.978122 1.627536 -0.064883 19.000000
0.998369 1.621064 -0.065229 24.000000
1.015868 1.610134 -0.065461 24.000000
1.033309 1.599030 -0.065694 28.000000
1.047818 1.583527 -0.065753 24.000000
1.064923 1.572104 -0.065985 26.000000
1.084759 1.564556 -0.066391 30.000000
1.110293 1.564922 -0.067090 23.000000
1.118420 1.540662 -0.066798 27.000000
1.129089 1.520430 -0.066679 26.000000
1.151558 1.516012 -0.067205 24.000000
1.155632 1.487670 -0.066730 31.000000
1.184172 1.490665 -0.067612 27.000000
1.187674 1.462187 -0.067132 32.000000
1.222589 1.472308 -0.068376 33.000000
1.232018 1.451307 -0.068252 25.000000
1.244440 1.434045 -0.068246 29.000000
1.266611 1.427895 -0.068839 29.000000
1.288769 1.421484 -0.069375 31.000000
1.293933 1.396368 -0.069007 33.000000
1.312484 1.385869 -0.069363 35.000000
1.323989 1.367882 -0.069356 36.000000
1.366925 1.381824 -0.071050 33.000000
1.381883 1.366806 -0.071228 30.000000
1.385892 1.341305 -0.070855 30.000000
1.396753 1.322674 -0.070848 30.000000
1.425748 1.320924 -0.071762 32.000000
1.440053 1.305313 -0.071881 37.000000
1.469192 1.302784 -0.072800 32.000000
1.490833 1.293261 -0.073351 45.000000
1.504816 1.276927 -0.073532 37.000000
1.537842 1.276428 -0.074646 35.000000
1.532300 1.243838 -0.073833 31.000000
1.553568 1.233235 -0.074389 32.000000
1.574484 1.222826 -0.074946 32.000000
1.595654 1.211640 -0.075444 40.000000
1.608809 1.194140 -0.075628 31.000000
1.617676 1.173584 -0.075562 35.000000
1.662979 1.178939 -0.077260 35.000000
1.675741 1.160761 -0.077384 29.000000
1.700668 1.150858 -0.078078 36.000000
1.733989 1.146006 -0.079219 34.000000
1.750565 1.129736 -0.079536 34.000000
1.767009 1.113246 -0.079855 48.000000
1.787512 1.099155 -0.080365 34.000000
1.803653 1.082243 -0.080685 36.000000
1.836904 1.075140 -0.081773 47.000000
1.839796 1.050101 -0.081519 28.000000
1.872947 1.042192 -0.082611 36.000000
1.892925 1.026466 -0.083127 37.000000
1.899556 1.003482 -0.083066 34.000000
1.928153 0.991956 -0.083971 71.000000
1.970086 0.986557 -0.085460 37.000000
2.012158 0.980410 -0.086885 35.000000
2.018171 0.956327 -0.086827 41.000000
2.055628 0.946907 -0.088131 33.000000
2.061229 0.922470 -0.088005 29.000000
2.080325 0.904037 -0.088533 32.000000
2.122179 0.894974 -0.089969 32.000000
2.154937 0.881287 -0.091087 44.000000
2.173612 0.861575 -0.091549 34.000000
2.187560 0.839729 -0.091888 31.000000
2.229289 0.828076 -0.093332 43.000000
2.238150 0.803816 -0.093405 25.000000
2.274967 0.789457 -0.094729 30.000000
2.307112 0.772678 -0.095786 36.000000
2.324869 0.750632 -0.096254 33.000000
2.380559 0.740246 -0.098298 44.000000
2.402838 0.718653 -0.099043 36.000000
2.429705 0.698051 -0.099909 33.000000
2.466016 0.679531 -0.101172 47.000000
2.473281 0.652734 -0.101172 25.000000
2.533521 0.639306 -0.103425 34.000000
2.550018 0.614113 -0.103901 50.000000
2.585724 0.593097 -0.105169 36.000000
2.621251 0.571447 -0.106440 42.000000
2.661562 0.550010 -0.107910 39.000000
2.696793 0.526871 -0.109100 35.000000
2.663025 0.490261 -0.107596 9.000000
2.702696 0.467273 -0.108986 6.000000
2.781531 0.449919 -0.112050 8.000000
2.835666 0.427067 -0.114124 8.000000
2.894561 0.403830 -0.116311 8.000000
2.938488 0.377502 -0.117901 9.000000
2.952302 0.346726 -0.118390 10.000000
3.035421 0.323139 -0.121573 33.000000
3.038684 0.290135 -0.121573 24.000000
3.051624 0.257880 -0.121971 7.000000
3.213682 0.236501 -0.128339 9.000000
3.275877 0.205312 -0.130827 9.000000
3.322886 0.171947 -0.132619 34.000000
3.394397 0.138727 -0.135303 95.000000
3.435696 0.102986 -0.136895 98.000000
3.441636 0.065813 -0.137093 95.000000
3.442056 0.028386 -0.137093 95.000000
3.422178 -0.008989 -0.136298 95.000000
3.411978 -0.046064 -0.135795 95.000000
3.381281 -0.082435 -0.134603 59.000000
3.355181 -0.118228 -0.133608 91.000000
3.298847 -0.152199 -0.131320 95.000000
3.272092 -0.186582 -0.130327 91.000000
3.259821 -0.221440 -0.129830 92.000000
3.237305 -0.255295 -0.128937 91.000000
3.194620 -0.286831 -0.127350 59.000000
3.176377 -0.320105 -0.126657 54.000000
3.132951 -0.350085 -0.124975 30.000000
3.099251 -0.380516 -0.123692 55.000000
3.090007 -0.413423 -0.123398 82.000000
3.060620 -0.443357 -0.122315 71.000000
3.050677 -0.475834 -0.122118 77.000000
3.025591 -0.505639 -0.121140 52.000000
3.005214 -0.535800 -0.120455 66.000000
2.959978 -0.560988 -0.118786 68.000000
2.948731 -0.592116 -0.118497 29.000000
2.883560 -0.611642 -0.116045 9.000000
2.857215 -0.638434 -0.115079 10.000000
2.864742 -0.672889 -0.115578 27.000000
2.876687 -0.708676 -0.116273 70.000000
2.830112 -0.729911 -0.114526 75.000000
2.802782 -0.755328 -0.113654 43.000000
2.832837 -0.796556 -0.115039 32.000000
2.967868 -0.869430 -0.120804 25.000000
3.096925 -0.943781 -0.126266 37.000000
3.200757 -1.013599 -0.130737 98.000000
3.175341 -1.043577 -0.130052 95.000000
3.187554 -1.086035 -0.130818 98.000000
3.114373 -1.098674 -0.128093 71.000000
3.088190 -1.127323 -0.127311 68.000000
3.061817 -1.155465 -0.126530 65.000000
3.062989 -1.193990 -0.126909 35.000000
3.073112 -1.236549 -0.127671 35.000000
3.073299 -1.275579 -0.128046 36.000000
3.059275 -1.308810 -0.127842 31.000000
3.095238 -1.364206 -0.129747 35.000000
3.052960 -1.385289 -0.128393 26.000000
3.033177 -1.416246 -0.127997 18.000000
3.017637 -1.449165 -0.127792 15.000000
3.042010 -1.501786 -0.129198 9.000000
3.052272 -1.548295 -0.130131 9.000000
3.083976 -1.606824 -0.132008 9.000000
3.075158 -1.644884 -0.132068 9.000000
3.044019 -1.671113 -0.131288 6.000000
3.025566 -1.704095 -0.130970 6.000000
3.084778 -1.781956 -0.134144 11.000000
3.052298 -1.807718 -0.133255 10.000000
3.036743 -1.843462 -0.133226 7.000000
3.054639 -1.900195 -0.134583 5.000000
3.008483 -1.917263 -0.133134 3.000000
3.000009 -1.958140 -0.133475 1.000000
3.049186 -2.037831 -0.136303 1.000000
3.002045 -2.054054 -0.134856 1.000000
2.983587 -2.089468 -0.134707 1.000000
2.989101 -2.142324 -0.135664 1.000000
2.917167 -2.139322 -0.133121 1.000000
2.901629 -2.177025 -0.133156 1.000000
2.822317 -2.165898 -0.130262 1.000000
2.932845 -2.300630 -0.136141 1.000000
2.853008 -2.288617 -0.133251 1.000000
2.770038 -2.272134 -0.130083 1.000000
2.760408 -2.314954 -0.130479 1.000000
2.685681 -2.302599 -0.127802 1.000000
2.765728 -2.423984 -0.132520 1.000000
2.701895 -2.420628 -0.130276 1.000000
2.675419 -2.449984 -0.129944 1.000000
2.564701 -2.400365 -0.125398 1.000000
2.574529 -2.462687 -0.126855 6.000000
2.372471 -2.319380 -0.117732 6.000000
2.255235 -2.253288 -0.112830 9.000000
2.150192 -2.195611 -0.108387 9.000000
