x y z intensity
2.741582 -0.584712 2.242654 31.000000
2.715636 -0.615998 2.225840 29.000000
2.705526 -0.650117 2.220437 31.000000
2.690559 -0.683392 2.212575 33.000000
2.664082 -0.713219 2.195272 30.000000
2.633729 -0.741386 2.174562 31.000000
2.617366 -0.773511 2.166958 29.000000
2.579229 -0.798170 2.139773 15.000000
2.566247 -0.830605 2.134883 28.000000
2.560516 -0.865350 2.136093 30.000000
2.544173 -0.895754 2.126958 29.000000
2.534214 -0.928880 2.124651 31.000000
2.509245 -0.956196 2.109780 29.000000
2.494333 -0.987680 2.104817 30.000000
2.483718 -1.020149 2.102008 29.000000
2.443785 -1.039961 2.074368 20.000000
2.435463 -1.073639 2.075077 29.000000
2.416129 -1.102292 2.066361 31.000000
2.404730 -1.133510 2.062870 32.000000
2.377882 -1.158112 2.047751 29.000000
2.358051 -1.185590 2.038576 34.000000
2.359087 -1.223723 2.047627 33.000000
2.327382 -1.245701 2.029829 26.000000
2.300070 -1.268322 2.014102 19.000000
2.300249 -1.306167 2.022613 32.000000
2.271685 -1.328626 2.007536 30.000000
2.254234 -1.356071 2.000469 30.000000
2.235617 -1.383829 1.994220 33.000000
2.216744 -1.411195 1.987679 29.000000
2.197818 -1.438371 1.981048 31.000000
2.188586 -1.471848 1.983343 29.000000
2.152624 -1.487108 1.961421 20.000000
2.142991 -1.520083 1.963416 32.000000
2.126575 -1.548311 1.959211 29.000000
2.109858 -1.576338 1.954907 32.000000
2.096232 -1.606510 1.953476 34.000000
2.071561 -1.629704 1.943732 27.000000
2.057507 -1.659419 1.941995 29.000000
2.038689 -1.687046 1.937891 26.000000
2.005667 -1.700710 1.918253 10.000000
2.011108 -1.748860 1.937502 16.000000
1.979512 -1.765130 1.921244 25.000000
1.959923 -1.791715 1.916646 29.000000
1.941633 -1.817301 1.911249 32.000000
1.918810 -1.840572 1.903542 26.000000
1.907361 -1.874880 1.907261 28.000000
1.895627 -1.909122 1.910934 29.000000
1.857936 -1.917014 1.888373 14.000000
1.844203 -1.951571 1.892424 28.000000
1.825926 -1.979341 1.889983 29.000000
1.804841 -2.003840 1.884461 25.000000
1.783455 -2.028137 1.878838 29.000000
1.760363 -2.052836 1.873818 27.000000
1.757172 -2.098521 1.887867 26.000000
1.741146 -2.132552 1.891083 26.000000
1.708531 -2.143086 1.873680 16.000000
1.694463 -2.179847 1.879463 29.000000
1.669332 -2.199382 1.870340 29.000000
1.652202 -2.232584 1.872925 28.000000
1.632114 -2.262524 1.872671 29.000000
1.611232 -2.287867 1.868885 25.000000
1.592833 -2.320759 1.871130 30.000000
1.571579 -2.350178 1.870562 24.000000
1.556906 -2.389812 1.878000 18.000000
0.868319 1.330822 1.068655 24.000000
0.880740 1.314757 1.069420 18.000000
0.898828 1.309336 1.078887 28.000000
0.913418 1.296328 1.082344 25.000000
0.925416 1.279861 1.082915 26.000000
0.938623 1.267004 1.086596 28.000000
0.952708 1.253563 1.089928 29.000000
0.975826 1.253368 1.104972 26.000000
0.984824 1.232968 1.102375 25.000000
1.002872 1.225732 1.111704 29.000000
1.010496 1.205651 1.109366 35.000000
1.032164 1.200541 1.121030 33.000000
1.047586 1.189389 1.127302 31.000000
1.065680 1.181007 1.136439 33.000000
1.072694 1.160364 1.133832 32.000000
1.099107 1.160309 1.151652 32.000000
1.095513 1.127365 1.136778 24.000000
1.119128 1.123794 1.151548 25.000000
1.121723 1.100354 1.146178 30.000000
1.136627 1.087770 1.152040 31.000000
1.151474 1.074868 1.157798 27.000000
1.169177 1.064535 1.166539 32.000000
1.189946 1.056467 1.178163 33.000000
1.212952 1.051086 1.193237 28.000000
1.227671 1.037010 1.198790 21.000000
1.241528 1.023157 1.204785 24.000000
1.253060 1.006166 1.207239 35.000000
1.273041 0.996741 1.219153 33.000000
1.286778 0.982104 1.224889 32.000000
1.300380 0.967258 1.230638 33.000000
1.320413 0.956808 1.242337 34.000000
1.337164 0.943622 1.250975 32.000000
1.350619 0.927889 1.256469 19.000000
1.367291 0.914208 1.264960 28.000000
1.380615 0.897939 1.270293 31.000000
1.397203 0.883632 1.278632 31.000000
1.409624 0.867269 1.284377 30.000000
1.426053 0.852330 1.292499 32.000000
1.448616 0.841427 1.307308 30.000000
1.471807 0.829643 1.321445 30.000000
1.487481 0.813912 1.329908 13.000000
1.503105 0.797868 1.338259 24.000000
1.518610 0.781574 1.346564 25.000000
1.541149 0.768397 1.360956 27.000000
1.563641 0.754714 1.375317 28.000000
1.589629 0.742246 1.392617 29.000000
1.590086 0.718176 1.388646 27.000000
1.619616 0.706388 1.408983 25.000000
1.637794 0.689693 1.420347 14.000000
1.666708 0.676981 1.441047 27.000000
1.677513 0.656455 1.446006 28.000000
1.692422 0.636853 1.453398 21.000000
1.706045 0.617413 1.461796 26.000000
1.720080 0.597497 1.469570 25.000000
1.748786 0.582157 1.489712 23.000000
1.754717 0.559302 1.491520 20.000000
1.787089 0.544075 1.514648 12.000000
1.818756 0.528240 1.538254 20.000000
1.839294 0.508546 1.552289 18.000000
1.878444 0.493233 1.581985 18.000000
1.891315 0.470488 1.589528 16.000000
1.903998 0.447469 1.596850 17.000000
1.923507 0.426005 1.610974 13.000000
1.932188 0.401472 1.614839 10.000000
1.981793 0.385112 1.654110 10.000000
2.000993 0.361978 1.667828 11.000000
2.016199 0.337728 1.678229 12.000000
2.054195 0.316712 1.707602 16.000000
2.084415 0.293556 1.730402 12.000000
2.094819 0.267424 1.737837 10.000000
2.124839 0.243034 1.760330 10.000000
2.146404 0.217336 1.776985 9.000000
2.190816 0.192998 1.812561 10.000000
2.212051 0.165913 1.828899 10.000000
2.263857 0.140145 1.870428 10.000000
2.288589 0.111756 1.889605 10.000000
2.308585 0.082626 1.906059 10.000000
2.332263 0.053082 1.925613 9.000000
2.398082 0.023253 1.979910 13.000000
2.436733 -0.008101 2.011742 16.000000
2.486758 -0.040647 2.052926 20.000000
2.521057 -0.074046 2.081172 22.000000
2.543481 -0.107858 2.099661 17.000000
2.603491 -0.144512 2.150562 22.000000
2.628470 -0.180296 2.172623 20.000000
2.683960 -0.219190 2.219805 14.000000
2.739136 -0.259585 2.266856 21.000000
2.774685 -0.299411 2.297656 24.000000
2.820532 -0.341743 2.338745 23.000000
2.840016 -0.381439 2.356339 24.000000
2.816380 -0.415755 2.339674 25.000000
2.803802 -0.451300 2.332315 26.000000
2.791140 -0.486534 2.324738 25.000000
2.774370 -0.520744 2.313776 18.000000
2.719383 -0.546918 2.271040 17.000000
2.712819 -0.582584 2.270055 23.000000
2.702917 -0.616951 2.264813 24.000000
2.676990 -0.647794 2.247587 24.000000
2.662104 -0.680807 2.239642 26.000000
2.650787 -0.714633 2.234647 26.000000
2.627969 -0.744971 2.220088 26.000000
2.597583 -0.772597 2.198930 10.000000
2.584822 -0.805630 2.194291 21.000000
2.572511 -0.838033 2.188488 24.000000
2.533494 -0.861890 2.161443 22.000000
2.512726 -0.891161 2.149927 23.000000
2.507287 -0.925120 2.149926 26.000000
2.496192 -0.958407 2.148251 24.000000
2.474854 -0.986732 2.136251 24.000000
2.471335 -1.022023 2.139580 11.000000
2.442505 -1.046625 2.120953 25.000000
2.426894 -1.077307 2.115451 24.000000
2.404825 -1.104111 2.102804 25.000000
2.385369 -1.132521 2.093909 24.000000
2.369199 -1.162264 2.087927 26.000000
2.345757 -1.188162 2.075552 26.000000
2.332670 -1.219037 2.072383 25.000000
2.298609 -1.238516 2.050481 10.000000
2.281794 -1.266899 2.043852 23.000000
2.267226 -1.297350 2.041019 26.000000
2.253366 -1.327093 2.037175 27.000000
2.234917 -1.355092 2.030971 29.000000
2.224028 -1.386477 2.029891 30.000000
2.198456 -1.409711 2.017181 29.000000
2.189360 -1.443377 2.019758 25.000000
2.156984 -1.461348 2.000694 10.000000
2.144102 -1.492388 1.999824 24.000000
2.124603 -1.518591 1.992774 24.000000
2.108062 -1.546761 1.988564 25.000000
2.091320 -1.574831 1.984253 24.000000
2.080693 -1.607378 1.985869 25.000000
2.060467 -1.632550 1.978237 26.000000
2.029380 -1.650368 1.962219 23.000000
2.021245 -1.684906 1.966308 11.000000
2.008293 -1.717487 1.968171 11.000000
1.984353 -1.738740 1.956985 10.000000
1.964905 -1.765707 1.952574 26.000000
1.939434 -1.786818 1.942033 24.000000
1.916714 -1.810335 1.934278 24.000000
1.911257 -1.850421 1.944239 25.000000
1.883838 -1.867021 1.929683 24.000000
1.877621 -1.906971 1.939247 10.000000
1.838589 -1.915647 1.917146 20.000000
1.826127 -1.949421 1.920606 18.000000
1.821603 -1.992223 1.932648 24.000000
1.797412 -2.013907 1.924173 24.000000
1.775965 -2.038288 1.918406 19.000000
1.763170 -2.075622 1.924892 25.000000
1.743694 -2.102687 1.921866 20.000000
1.742194 -2.151903 1.938693 12.000000
1.694776 -2.147374 1.907488 20.000000
1.667371 -2.163969 1.895477 18.000000
1.657842 -2.207145 1.906846 24.000000
1.632368 -2.226347 1.897563 22.000000
1.621818 -2.269597 1.908574 23.000000
1.591617 -2.285816 1.896962 23.000000
1.577372 -2.321314 1.901392 20.000000
1.569815 -2.371314 1.917547 13.000000
0.879513 1.328659 1.097768 27.000000
0.892024 1.312386 1.098465 28.000000
0.907858 1.303208 1.105208 22.000000
0.929654 1.299921 1.117227 32.000000
0.932069 1.269920 1.106311 29.000000
0.950198 1.263407 1.115778 24.000000
0.966862 1.252877 1.121977 25.000000
0.969844 1.226601 1.113984 19.000000
0.992971 1.225703 1.129200 30.000000
1.009539 1.214497 1.135197 35.000000
1.024988 1.203516 1.141566 29.000000
1.037782 1.189293 1.144958 37.000000
1.055845 1.180857 1.154180 36.000000
1.073917 1.172092 1.163375 32.000000
1.092057 1.163057 1.172543 33.000000
1.099047 1.142093 1.169808 21.000000
1.111371 1.126822 1.172934 34.000000
1.112228 1.100148 1.164001 33.000000
1.130015 1.090298 1.172902 29.000000
1.150717 1.082851 1.184771 36.000000
1.176514 1.080811 1.203064 33.000000
1.197390 1.072498 1.214916 35.000000
1.209320 1.055956 1.217621 35.000000
1.208154 1.029281 1.208641 19.000000
1.234205 1.025658 1.226807 35.000000
1.248816 1.011079 1.232316 50.000000
1.262617 0.996663 1.238208 36.000000
1.276284 0.981977 1.244115 38.000000
1.293103 0.969453 1.252912 41.000000
1.306712 0.954243 1.258665 48.000000
1.329884 0.945676 1.273472 36.000000
1.333644 0.923190 1.269835 20.000000
1.366532 0.920526 1.293839 36.000000
1.379919 0.904138 1.299234 46.000000
1.389917 0.885425 1.301477 36.000000
1.402413 0.869032 1.307210 46.000000
1.415467 0.851972 1.312375 39.000000
1.434544 0.839027 1.324169 48.000000
1.450155 0.823755 1.332811 50.000000
1.476035 0.813823 1.350725 18.000000
1.494981 0.799628 1.362362 34.000000
1.513979 0.784959 1.373829 37.000000
1.522534 0.764709 1.375834 36.000000
1.555354 0.756220 1.399792 50.000000
1.577762 0.741985 1.414155 44.000000
1.599490 0.727581 1.429035 36.000000
1.625391 0.713948 1.446415 39.000000
1.636434 0.693935 1.451674 25.000000
1.654461 0.676687 1.463136 55.000000
1.676039 0.660361 1.477653 86.000000
1.690373 0.640844 1.485709 58.000000
1.704553 0.621063 1.493636 59.000000
1.725931 0.603494 1.507794 68.000000
1.739968 0.583016 1.515536 46.000000
1.753187 0.562490 1.523727 37.000000
1.803182 0.552910 1.563699 31.000000
1.813230 0.529989 1.567790 57.000000
1.841075 0.512273 1.588389 71.000000
1.857681 0.490875 1.599350 56.000000
1.881036 0.471203 1.617116 54.000000
1.927284 0.456035 1.653364 62.000000
1.939892 0.432273 1.660641 54.000000
1.963006 0.410669 1.678028 36.000000
2.001007 0.391515 1.708202 32.000000
2.013256 0.366424 1.715032 47.000000
2.035396 0.343290 1.732653 70.000000
2.058013 0.319414 1.749473 52.000000
2.084236 0.295494 1.769356 50.000000
2.106571 0.270488 1.785864 45.000000
2.151000 0.247694 1.822210 42.000000
2.164746 0.220616 1.832650 36.000000
2.208896 0.195853 1.868698 31.000000
2.237615 0.168927 1.891699 48.000000
2.258482 0.140737 1.908084 37.000000
2.286832 0.112331 1.930645 41.000000
2.310477 0.083176 1.950630 39.000000
2.360689 0.054034 1.992922 37.000000
2.383989 0.023232 2.012461 34.000000
2.418470 -0.008113 2.041583 32.000000
2.456481 -0.040521 2.073640 34.000000
2.475187 -0.073268 2.089369 31.000000
2.531775 -0.108146 2.137026 34.000000
2.560686 -0.143034 2.162812 30.000000
2.604604 -0.179879 2.201283 33.000000
2.648033 -0.217718 2.239534 28.000000
2.691273 -0.256861 2.277447 20.000000
2.749311 -0.298749 2.328105 32.000000
2.791690 -0.340269 2.365512 34.000000
2.813975 -0.380646 2.387475 35.000000
2.790402 -0.414742 2.370712 32.000000
2.770448 -0.448954 2.356838 34.000000
2.762424 -0.484530 2.351501 33.000000
2.744874 -0.518807 2.341307 31.000000
2.716766 -0.550281 2.320383 23.000000
2.688422 -0.580943 2.299266 31.000000
2.681420 -0.616391 2.298172 32.000000
2.663119 -0.649002 2.287140 34.000000
2.634258 -0.678010 2.265436 33.000000
2.604328 -0.706649 2.244416 32.000000
2.592810 -0.739871 2.239294 31.000000
2.576560 -0.771997 2.231625 30.000000
2.560892 -0.803503 2.222794 19.000000
2.537736 -0.832306 2.207394 33.000000
2.520923 -0.863328 2.199231 31.000000
2.507377 -0.895349 2.193942 29.000000
2.486517 -0.924477 2.182097 31.000000
2.472640 -0.955895 2.176409 30.000000
2.458583 -0.987112 2.170623 31.000000
2.437097 -1.015049 2.158203 29.000000
2.394153 -1.033283 2.126744 18.000000
2.407019 -1.076300 2.146478 30.000000
2.392186 -1.106214 2.140006 32.000000
2.369136 -1.133096 2.127869 32.000000
2.356345 -1.164557 2.124981 32.000000
2.339985 -1.194145 2.118748 31.000000
2.306016 -1.214257 2.096750 29.000000
2.296173 -1.246742 2.096510 26.000000
2.265643 -1.267676 2.077313 16.000000
2.258718 -1.301615 2.079897 31.000000
2.248241 -1.333431 2.079142 32.000000
2.229609 -1.361663 2.072874 34.000000
2.198653 -1.380648 2.053194 29.000000
2.189692 -1.414506 2.055851 30.000000
2.173887 -1.443888 2.052203 30.000000
2.148028 -1.466412 2.039199 27.000000
2.115764 -1.483948 2.019871 18.000000
2.121851 -1.528514 2.037276 28.000000
2.095633 -1.549896 2.023828 28.000000
2.085114 -1.582776 2.025617 31.000000
2.055547 -1.600923 2.008860 28.000000
2.035280 -1.625959 2.001195 26.000000
2.025842 -1.661380 2.006406 30.000000
2.011261 -1.691029 2.004503 24.000000
1.981446 -1.707462 1.987361 10.000000
1.950252 -1.723969 1.970877 10.000000
1.945706 -1.764078 1.981450 24.000000
1.936221 -1.798244 1.985037 31.000000
1.910452 -1.819148 1.974305 28.000000
1.887372 -1.842492 1.966389 27.000000
1.875604 -1.876915 1.970312 29.000000
1.857834 -1.905412 1.968141 24.000000
1.831476 -1.925034 1.956958 15.000000
1.816116 -1.956120 1.957433 22.000000
1.805749 -1.992939 1.963773 26.000000
1.786883 -2.020765 1.961022 26.000000
1.765205 -2.045191 1.955221 26.000000
1.746039 -2.072516 1.952241 26.000000
1.724766 -2.100425 1.949957 26.000000
1.707602 -2.130458 1.949643 23.000000
1.682667 -2.150694 1.940501 14.000000
1.648334 -2.161634 1.923327 22.000000
1.635435 -2.197517 1.928438 20.000000
1.617907 -2.230771 1.931219 26.000000
1.585545 -2.243829 1.916681 23.000000
1.557573 -2.259046 1.904232 23.000000
1.513742 -2.254147 1.875485 23.000000
0.863336 1.318033 1.105841 30.000000
0.883799 1.315811 1.118425 32.000000
0.896284 1.299369 1.119085 52.000000
0.910929 1.286142 1.122569 35.000000
0.933827 1.286369 1.137990 35.000000
0.937561 1.260100 1.130128 36.000000
0.961630 1.259223 1.145150 29.000000
0.984788 1.258363 1.160602 25.000000
0.980361 1.222446 1.143646 44.000000
1.004644 1.220574 1.158606 54.000000
1.014968 1.203380 1.159111 60.000000
1.022538 1.182979 1.156624 61.000000
1.045885 1.180631 1.171876 62.000000
1.061232 1.168906 1.178224 51.000000
1.084759 1.165712 1.193466 30.000000
1.089119 1.141797 1.187664 30.000000
1.093169 1.117932 1.181754 34.000000
1.108191 1.105432 1.187767 36.000000
1.117513 1.087187 1.187736 45.000000
1.134337 1.077404 1.197162 35.000000
1.157939 1.072309 1.212170 36.000000
1.180679 1.067138 1.227604 37.000000
1.198574 1.055864 1.236424 28.000000
1.209546 1.039528 1.239568 32.000000
1.224344 1.025169 1.245232 37.000000
1.238146 1.010911 1.251280 42.000000
1.251940 0.996509 1.257218 49.000000
1.265662 0.981775 1.263171 45.000000
1.282439 0.969258 1.272116 36.000000
1.296040 0.954000 1.277853 57.000000
1.322280 0.947705 1.296001 32.000000
1.332627 0.929614 1.298540 31.000000
1.355695 0.920160 1.313461 37.000000
1.369137 0.903786 1.318901 38.000000
1.378451 0.885413 1.321663 56.000000
1.391577 0.868649 1.326928 36.000000
1.417252 0.859981 1.345256 47.000000
1.422968 0.838986 1.344640 66.000000
1.449337 0.829104 1.362264 32.000000
1.475066 0.818964 1.380396 33.000000
1.487251 0.800971 1.385829 34.000000
1.495986 0.780900 1.387896 33.000000
1.517552 0.767995 1.403225 37.000000
1.539873 0.754319 1.417853 37.000000
1.555183 0.736770 1.425999 37.000000
1.566250 0.717705 1.431514 42.000000
1.595470 0.705842 1.452210 27.000000
1.620465 0.692114 1.470304 32.000000
1.642005 0.676315 1.485096 46.000000
1.667021 0.661410 1.502990 72.000000
1.677740 0.640495 1.507919 52.000000
1.695458 0.621978 1.519149 60.000000
1.709513 0.601830 1.527033 37.000000
1.733758 0.585302 1.545114 53.000000
1.769403 0.571446 1.572109 33.000000
1.786209 0.551340 1.583513 32.000000
1.803013 0.530869 1.594788 42.000000
1.823253 0.510984 1.609168 47.000000
1.843508 0.490710 1.623418 49.000000
1.863621 0.469893 1.637536 45.000000
1.905789 0.453894 1.670984 37.000000
1.928815 0.432831 1.688715 55.000000
1.933179 0.407281 1.690143 26.000000
1.978934 0.389645 1.726463 34.000000
2.005392 0.367500 1.747036 54.000000
2.020550 0.342856 1.757703 42.000000
2.042419 0.319170 1.775391 37.000000
2.072190 0.295811 1.798784 50.000000
2.098119 0.271269 1.818762 38.000000
2.130877 0.247003 1.845787 47.000000
2.144603 0.220008 1.856352 29.000000
2.188275 0.195322 1.892859 31.000000
2.231851 0.169628 1.929209 42.000000
2.248772 0.140997 1.942448 35.000000
2.276882 0.112618 1.965392 43.000000
2.315544 0.083952 1.998600 34.000000
2.338812 0.053845 2.018665 36.000000
2.373159 0.023248 2.048255 34.000000
2.388395 -0.008088 2.061322 29.000000
2.429835 -0.040360 2.097060 27.000000
2.463501 -0.073408 2.126061 32.000000
2.512087 -0.108107 2.167909 29.000000
2.551952 -0.143578 2.203823 28.000000
2.599211 -0.180776 2.246057 28.000000
2.634754 -0.218232 2.278277 22.000000
2.684993 -0.258026 2.323213 21.000000
2.738674 -0.299737 2.371269 32.000000
2.761796 -0.339023 2.392869 30.000000
2.776324 -0.378205 2.408606 29.000000
2.794205 -0.418221 2.427480 32.000000
2.745171 -0.447723 2.386478 32.000000
2.732550 -0.482641 2.378739 31.000000
2.723465 -0.518071 2.374037 26.000000
2.676063 -0.545920 2.337606 21.000000
2.662821 -0.579630 2.329243 28.000000
2.649283 -0.612926 2.320673 29.000000
2.634801 -0.646352 2.312768 28.000000
2.608870 -0.676498 2.295037 29.000000
2.593960 -0.709059 2.286722 31.000000
2.582433 -0.742371 2.281547 29.000000
2.581560 -0.778675 2.285754 27.000000
2.536856 -0.801376 2.251084 20.000000
2.527391 -0.835196 2.249382 29.000000
2.496988 -0.861009 2.227172 28.000000
2.479878 -0.891739 2.218623 29.000000
2.466306 -0.923408 2.213198 30.000000
2.441739 -0.950603 2.197826 29.000000
2.420534 -0.978750 2.185589 27.000000
2.423986 -1.016797 2.195499 28.000000
2.391979 -1.039802 2.173264 24.000000
2.383362 -1.073498 2.174182 29.000000
2.368460 -1.103416 2.167566 29.000000
2.345515 -1.130208 2.155307 28.000000
2.332724 -1.161669 2.152419 29.000000
2.317429 -1.190643 2.145321 29.000000
2.300728 -1.219836 2.138954 28.000000
2.294146 -1.254400 2.141897 29.000000
2.236674 -1.260323 2.097166 22.000000
2.228606 -1.294566 2.100652 28.000000
2.224696 -1.330272 2.106255 32.000000
2.203910 -1.355861 2.095884 31.000000
2.188463 -1.385738 2.092530 31.000000
2.170666 -1.412780 2.085126 32.000000
2.151597 -1.439937 2.078343 32.000000
2.141919 -1.473541 2.080742 29.000000
2.106409 -1.488968 2.058069 24.000000
2.105826 -1.529066 2.069601 31.000000
2.079558 -1.550451 2.056022 32.000000
2.059573 -1.576249 2.048479 29.000000
2.048708 -1.608940 2.050124 33.000000
2.016089 -1.624217 2.030045 30.000000
2.010870 -1.661465 2.037537 30.000000
2.000906 -1.696899 2.042610 30.000000
1.950145 -1.695374 2.003833 11.000000
1.939742 -1.730219 2.008614 14.000000
1.930472 -1.764404 2.012448 33.000000
1.910632 -1.791092 2.007816 31.000000
1.897937 -1.822278 2.008243 32.000000
1.871960 -1.842957 1.997241 32.000000
1.848812 -1.866007 1.989187 30.000000
1.839295 -1.903029 1.996102 29.000000
1.821198 -1.931432 1.993743 21.000000
1.800123 -1.956660 1.988271 28.000000
1.773488 -1.975616 1.976727 30.000000
1.760115 -2.009226 1.980003 31.000000
1.751471 -2.048971 1.989062 32.000000
1.721747 -2.063918 1.974253 29.000000
1.705568 -2.098044 1.977817 29.000000
1.683281 -2.121762 1.971683 28.000000
1.645917 -2.125862 1.947744 21.000000
1.609389 -2.133384 1.927547 31.000000
1.572616 -2.136180 1.903620 31.000000
1.533580 -2.134966 1.876905 28.000000
1.488303 -2.127189 1.845119 28.000000
1.455004 -2.135274 1.827834 23.000000
1.412322 -2.125100 1.795466 24.000000
0.876512 1.318666 1.137996 35.000000
0.887976 1.302642 1.139055 32.000000
0.902756 1.289346 1.142557 31.000000
0.920881 1.282909 1.152309 32.000000
0.930713 1.262754 1.149798 32.000000
0.953656 1.262246 1.165459 35.000000
0.959587 1.239043 1.160252 32.000000
0.973750 1.224879 1.163466 33.000000
0.989253 1.214119 1.170088 44.000000
0.999696 1.196970 1.170607 35.000000
1.022875 1.194878 1.186100 34.000000
1.033052 1.177333 1.186448 63.000000
1.051087 1.168558 1.195861 36.000000
1.069130 1.159451 1.205248 53.000000
1.065441 1.127013 1.190194 29.000000
1.077732 1.111918 1.193297 32.000000
1.097364 1.105480 1.206000 50.000000
1.112384 1.092735 1.212014 36.000000
1.124499 1.076944 1.214967 33.000000
1.141339 1.066889 1.224451 55.000000
1.170702 1.066595 1.245723 35.000000
1.187636 1.055697 1.255181 37.000000
1.199563 1.038949 1.257838 31.000000
1.210439 1.022449 1.260866 37.000000
1.230300 1.013214 1.273257 45.000000
1.234987 0.991335 1.269927 34.000000
1.257915 0.983897 1.285254 45.000000
1.274675 0.971283 1.294289 59.000000
1.291413 0.958373 1.303289 42.000000
1.308125 0.945103 1.312187 37.000000
1.324810 0.931468 1.320984 30.000000
1.338273 0.915412 1.326573 34.000000
1.363754 0.908026 1.345315 53.000000
1.370606 0.887102 1.344401 36.000000
1.379836 0.868513 1.347112 52.000000
1.402853 0.857505 1.361870 55.000000
1.411844 0.838480 1.364411 38.000000
1.427425 0.823162 1.373224 37.000000
1.459631 0.816901 1.397960 24.000000
1.471848 0.798904 1.403366 31.000000
1.487292 0.782464 1.411933 44.000000
1.502681 0.765707 1.420384 42.000000
1.517337 0.748901 1.429259 32.000000
1.549759 0.739792 1.453697 35.000000
1.571224 0.725378 1.468905 35.000000
1.589905 0.708623 1.480215 34.000000
1.618338 0.696238 1.501769 32.000000
1.629268 0.675935 1.506924 35.000000
1.643543 0.656806 1.515268 36.000000
1.668365 0.641430 1.533251 72.000000
1.686079 0.622877 1.544608 42.000000
1.699440 0.602917 1.553232 36.000000
1.716948 0.583620 1.564337 36.000000
1.755314 0.571205 1.595591 36.000000
1.772098 0.551116 1.607123 33.000000
1.789333 0.530438 1.617847 33.000000
1.813154 0.511594 1.635669 35.000000
1.828957 0.490388 1.647417 46.000000
1.859975 0.472372 1.671554 34.000000
1.890908 0.453594 1.695566 37.000000
1.910089 0.431720 1.710217 35.000000
1.922454 0.407653 1.717512 29.000000
1.963503 0.389324 1.751632 30.000000
1.982356 0.365916 1.765865 33.000000
2.004810 0.342583 1.783246 35.000000
2.030801 0.319339 1.803774 35.000000
2.063466 0.296656 1.831510 36.000000
2.085559 0.271472 1.848352 36.000000
2.114224 0.246747 1.872495 35.000000
2.124113 0.219400 1.879794 29.000000
2.174863 0.195462 1.923364 26.000000
2.203088 0.168514 1.946946 34.000000
2.234924 0.141106 1.973572 35.000000
2.255296 0.112250 1.990193 34.000000
2.301001 0.083945 2.030427 34.000000
2.327802 0.053917 2.054049 35.000000
2.350580 0.023153 2.074086 32.000000
2.380669 -0.008236 2.100550 24.000000
2.425559 -0.040576 2.140048 28.000000
2.462647 -0.073985 2.172724 26.000000
2.495671 -0.108127 2.201877 26.000000
2.527748 -0.143269 2.231632 28.000000
2.574436 -0.180356 2.274402 26.000000
2.613357 -0.218011 2.310339 21.000000
2.674293 -0.258929 2.365763 18.000000
2.705032 -0.298138 2.394615 26.000000
2.739091 -0.338699 2.426411 30.000000
2.772038 -0.380253 2.458968 28.000000
2.757025 -0.415405 2.447368 32.000000
2.722484 -0.447214 2.419973 31.000000
2.713630 -0.482843 2.415558 31.000000
2.697177 -0.516846 2.404223 26.000000
2.654626 -0.545142 2.369641 16.000000
2.644247 -0.579821 2.365472 26.000000
2.627205 -0.612363 2.353527 27.000000
2.590721 -0.640199 2.325826 24.000000
2.597861 -0.678690 2.337445 28.000000
2.583847 -0.711018 2.328171 30.000000
2.561426 -0.741378 2.313008 28.000000
2.552377 -0.775742 2.311715 23.000000
2.522354 -0.802902 2.289719 17.000000
2.499444 -0.831661 2.274086 26.000000
2.475366 -0.860248 2.259116 28.000000
2.455803 -0.889320 2.246273 28.000000
2.442161 -0.920889 2.240808 27.000000
2.428338 -0.952256 2.235035 29.000000
2.403673 -0.979019 2.219416 25.000000
2.399946 -1.014184 2.223093 22.000000
2.364558 -1.035580 2.197272 16.000000
2.359393 -1.070697 2.201471 27.000000
2.348083 -1.102240 2.198047 30.000000
2.331990 -1.132323 2.192121 30.000000
2.313345 -1.159978 2.181945 30.000000
2.303727 -1.192935 2.182064 31.000000
2.276971 -1.216750 2.166003 27.000000
2.263499 -1.247501 2.162609 24.000000
2.223116 -1.262876 2.133383 21.000000
2.212715 -1.294694 2.132922 27.000000
2.208661 -1.330472 2.138631 31.000000
2.186779 -1.356671 2.129087 32.000000
2.175659 -1.388101 2.127987 32.000000
2.143694 -1.407211 2.108638 29.000000
2.122590 -1.431660 2.097842 27.000000
2.119257 -1.469476 2.106656 24.000000
2.102896 -1.498439 2.102693 21.000000
2.079965 -1.522612 2.092224 28.000000
2.066354 -1.553317 2.091113 31.000000
2.040163 -1.574391 2.077235 31.000000
2.022991 -1.602271 2.072690 29.000000
2.002688 -1.627386 2.064919 30.000000
1.994249 -1.662128 2.069427 31.000000
1.982472 -1.694369 2.070681 23.000000
1.933586 -1.696155 2.035286 10.000000
1.924430 -1.730358 2.039364 10.000000
1.904821 -1.757206 2.034839 28.000000
1.897971 -1.793972 2.041626 31.000000
1.880671 -1.823224 2.039944 32.000000
1.851901 -1.841109 2.025684 30.000000
1.835814 -1.869148 2.022890 32.000000
1.834299 -1.914841 2.038972 21.000000
1.796906 -1.923060 2.015424 21.000000
1.789257 -1.962943 2.025120 26.000000
1.765205 -1.984940 2.016389 28.000000
1.733172 -1.997720 1.998631 29.000000
1.706360 -2.015901 1.986752 29.000000
1.679577 -2.033633 1.974908 32.000000
1.632601 -2.025946 1.938998 29.000000
1.596832 -2.033824 1.918754 21.000000
1.545862 -2.018010 1.877118 15.000000
1.514900 -2.026894 1.859200 26.000000
1.482114 -2.035884 1.841931 28.000000
1.444305 -2.033758 1.815149 28.000000
1.418653 -2.051704 1.806755 27.000000
1.388057 -2.058365 1.788767 24.000000
0.878357 1.302003 1.155670 25.000000
0.896559 1.295760 1.165544 34.000000
0.909068 1.278971 1.166031 27.000000
0.924851 1.268964 1.172902 30.000000
0.940643 1.258768 1.179731 28.000000
0.961238 1.254600 1.192544 18.000000
0.970752 1.234015 1.189767 31.000000
0.978923 1.213815 1.187377 35.000000
0.996964 1.205819 1.196982 36.000000
1.009950 1.191451 1.200469 34.000000
1.025351 1.179889 1.207011 30.000000
1.040817 1.168132 1.213451 36.000000
1.050846 1.150235 1.213641 33.000000
1.079597 1.152471 1.235381 26.000000
1.083119 1.128910 1.229782 29.000000
1.095508 1.113423 1.232879 28.000000
1.119032 1.108727 1.248337 34.000000
1.130380 1.093207 1.251833 34.000000
1.142648 1.077013 1.254717 32.000000
1.159552 1.066406 1.264288 32.000000
1.180273 1.057681 1.276408 29.000000
1.200171 1.048961 1.289070 25.000000
1.202381 1.024642 1.282681 31.000000
1.216230 1.010413 1.288883 31.000000
1.230070 0.995914 1.294975 35.000000
1.240742 0.978814 1.297846 33.000000
1.266649 0.973282 1.316492 33.000000
1.277199 0.955657 1.319145 33.000000
1.296953 0.944638 1.331313 33.000000
1.310459 0.928853 1.337057 26.000000
1.319963 0.910931 1.340054 27.000000
1.342833 0.901103 1.355196 35.000000
1.361782 0.889027 1.367683 34.000000
1.375062 0.872138 1.373047 35.000000
1.387476 0.855290 1.378876 36.000000
1.409615 0.844164 1.394292 34.000000
1.435082 0.834398 1.412928 34.000000
1.447376 0.816641 1.418503 26.000000
1.466241 0.802240 1.430524 25.000000
1.478322 0.783943 1.435928 29.000000
1.497118 0.768816 1.447661 29.000000
1.521856 0.756989 1.466498 28.000000
1.540577 0.741011 1.478159 30.000000
1.565359 0.728148 1.496812 30.000000
1.566770 0.703578 1.491858 21.000000
1.584578 0.686832 1.503721 19.000000
1.609295 0.672571 1.522115 22.000000
1.634030 0.657768 1.540338 29.000000
1.651691 0.639633 1.551937 28.000000
1.672169 0.622669 1.567364 28.000000
1.682589 0.601174 1.572116 24.000000
1.727715 0.591956 1.610453 25.000000
1.734477 0.568399 1.611642 21.000000
1.740422 0.545066 1.613351 16.000000
1.764071 0.526939 1.631492 18.000000
1.812865 0.515413 1.672668 18.000000
1.829303 0.493802 1.683940 18.000000
1.838337 0.470049 1.688424 17.000000
1.868384 0.451537 1.713340 15.000000
1.877129 0.427139 1.717533 16.000000
1.899691 0.405839 1.735527 10.000000
1.911213 0.381780 1.743387 9.000000
1.948161 0.362211 1.774443 13.000000
1.988750 0.342306 1.808707 11.000000
2.007177 0.317922 1.822805 10.000000
2.039544 0.295276 1.850865 13.000000
2.061449 0.270220 1.867911 10.000000
2.075085 0.243971 1.878879 10.000000
2.110755 0.219562 1.909752 10.000000
2.138836 0.193590 1.933781 9.000000
2.185402 0.168350 1.974289 10.000000
2.198324 0.139708 1.984599 10.000000
2.229723 0.111789 2.011373 10.000000
2.256436 0.082847 2.035449 10.000000
2.297731 0.053554 2.072653 10.000000
2.324097 0.023020 2.096378 9.000000
2.372362 -0.008288 2.139913 16.000000
2.413101 -0.040764 2.176552 16.000000
2.453535 -0.074233 2.212982 18.000000
2.471484 -0.107924 2.229011 15.000000
2.514257 -0.143595 2.269173 16.000000
2.549345 -0.179832 2.302432 16.000000
2.602675 -0.218722 2.352201 16.000000
2.677770 -0.261160 2.421803 10.000000
2.682287 -0.297773 2.427496 21.000000
2.738231 -0.341019 2.479862 24.000000
2.748553 -0.379853 2.492776 22.000000
2.737324 -0.415503 2.484390 26.000000
2.725097 -0.450956 2.476692 25.000000
2.708892 -0.485555 2.465438 22.000000
2.696051 -0.520452 2.457416 20.000000
2.668525 -0.552020 2.435737 10.000000
2.629831 -0.580588 2.403876 21.000000
2.608250 -0.612539 2.389462 23.000000
2.587400 -0.643772 2.373863 22.000000
2.572765 -0.676735 2.365692 24.000000
2.554135 -0.708286 2.353885 22.000000
2.549829 -0.743736 2.355255 22.000000
2.530964 -0.774684 2.343038 21.000000
2.504710 -0.802947 2.324111 13.000000
2.484406 -0.833326 2.312472 23.000000
2.465035 -0.862885 2.299786 21.000000
2.447998 -0.893656 2.291060 22.000000
2.438785 -0.926378 2.287883 25.000000
2.400414 -0.948253 2.259102 22.000000
2.396809 -0.983562 2.262959 21.000000
2.399868 -1.021802 2.273265 19.000000
2.343905 -1.034310 2.227554 12.000000
2.348954 -1.074177 2.241557 27.000000
2.327221 -1.100951 2.228400 26.000000
2.311145 -1.130981 2.222430 24.000000
2.289172 -1.156879 2.208803 24.000000
2.276156 -1.188076 2.205808 21.000000
2.266173 -1.220868 2.205859 23.000000
2.242653 -1.246159 2.192699 22.000000
2.212444 -1.267189 2.172879 12.000000
2.201924 -1.299182 2.172334 29.000000
2.181375 -1.325117 2.161980 27.000000
2.160707 -1.350671 2.151547 26.000000
2.145135 -1.380491 2.148189 27.000000
2.130480 -1.409599 2.143812 26.000000
2.114501 -1.439013 2.140148 24.000000
2.099540 -1.467612 2.135467 21.000000
2.080030 -1.494272 2.128200 10.000000
2.057168 -1.518357 2.117756 27.000000
2.037276 -1.544397 2.110217 26.000000
2.026375 -1.577163 2.112219 23.000000
2.009226 -1.605067 2.107551 27.000000
1.994768 -1.635224 2.106046 25.000000
1.974219 -1.660166 2.098013 21.000000
1.965287 -1.694973 2.102484 18.000000
1.929756 -1.706517 2.078447 9.000000
1.910159 -1.733689 2.074003 10.000000
1.900551 -1.767928 2.077922 23.000000
1.874804 -1.789319 2.066918 21.000000
1.859091 -1.817854 2.064362 24.000000
1.844162 -1.849650 2.065600 24.000000
1.831747 -1.884115 2.069698 24.000000
1.785361 -1.880788 2.032828 18.000000
1.751158 -1.891467 2.012016 11.000000
1.711782 -1.895804 1.985150 25.000000
1.675368 -1.902186 1.961361 23.000000
1.636563 -1.904922 1.934427 21.000000
1.597924 -1.906851 1.907520 25.000000
1.577354 -1.929429 1.901876 26.000000
1.526802 -1.914461 1.859846 21.000000
1.509454 -1.943189 1.860810 13.000000
1.474265 -1.945549 1.836841 10.000000
1.446431 -1.956963 1.821977 22.000000
1.416270 -1.964640 1.804092 20.000000
1.388983 -1.979079 1.792791 21.000000
1.345315 -1.965806 1.757048 21.000000
0.883340 1.292172 1.179541 26.000000
0.900465 1.281915 1.186088 30.000000
0.909426 1.262147 1.183930 33.000000
0.932230 1.261558 1.199899 13.000000
0.946816 1.247454 1.203274 31.000000
0.957706 1.230468 1.203956 29.000000
0.978264 1.225723 1.216818 33.000000
0.991410 1.211487 1.220453 35.000000
0.994373 1.184949 1.211694 31.000000
1.020021 1.185388 1.230572 34.000000
1.027765 1.164688 1.227772 37.000000
1.055238 1.167613 1.250239 19.000000
1.052117 1.135080 1.234841 32.000000
1.056559 1.111369 1.228665 30.000000
1.074292 1.101655 1.237991 32.000000
1.091120 1.092029 1.247773 37.000000
1.122811 1.095256 1.272795 30.000000
1.139769 1.084818 1.282503 34.000000
1.146360 1.063077 1.279021 35.000000
1.174646 1.062537 1.301332 25.000000
1.168491 1.030713 1.285432 32.000000
1.182321 1.016826 1.291765 33.000000
1.210875 1.015020 1.313913 35.000000
1.218752 0.995534 1.313657 43.000000
1.247505 0.992710 1.335801 50.000000
1.264345 0.979879 1.345029 42.000000
1.272010 0.959782 1.344548 37.000000
1.291736 0.948679 1.356848 29.000000
1.302246 0.930542 1.359412 33.000000
1.314918 0.914771 1.365668 36.000000
1.340870 0.906979 1.384227 43.000000
1.359805 0.894710 1.396855 53.000000
1.372357 0.878030 1.402867 33.000000
1.388891 0.862734 1.411435 47.000000
1.397988 0.843552 1.414006 41.000000
1.413533 0.828054 1.422937 32.000000
1.438861 0.817833 1.441741 32.000000
1.457664 0.803391 1.453820 33.000000
1.469073 0.785335 1.459813 31.000000
1.494404 0.773623 1.478340 37.000000
1.509796 0.756340 1.486862 36.000000
1.520928 0.737376 1.492575 39.000000
1.542123 0.722948 1.508173 40.000000
1.560677 0.706190 1.519655 32.000000
1.575003 0.687866 1.528397 34.000000
1.606453 0.676457 1.553579 37.000000
1.624159 0.658643 1.565423 44.000000
1.637624 0.639407 1.574390 49.000000
1.655136 0.620857 1.585991 45.000000
1.679590 0.604468 1.604150 46.000000
1.692766 0.584113 1.612820 47.000000
1.705846 0.563495 1.621359 31.000000
1.739973 0.549236 1.649885 35.000000
1.760703 0.529634 1.664207 36.000000
1.783498 0.510969 1.683047 35.000000
1.806933 0.491593 1.701156 36.000000
1.833906 0.472500 1.722500 37.000000
1.845697 0.449483 1.730875 43.000000
1.876080 0.430086 1.755243 35.000000
1.894890 0.407833 1.770081 27.000000
1.938927 0.390206 1.808476 33.000000
1.961141 0.367348 1.826420 36.000000
1.976001 0.342656 1.837461 36.000000
1.997932 0.318748 1.855019 42.000000
2.019087 0.294431 1.873267 40.000000
2.040807 0.269537 1.890514 35.000000
2.079920 0.246315 1.925289 35.000000
2.089670 0.218952 1.932841 26.000000
2.154217 0.196401 1.991014 32.000000
2.181951 0.169232 2.015079 34.000000
2.194869 0.140521 2.025513 32.000000
2.222223 0.112164 2.049223 34.000000
2.241333 0.082840 2.066811 33.000000
2.293345 0.053796 2.114626 34.000000
2.308333 0.022998 2.128469 30.000000
2.359891 -0.008327 2.175919 32.000000
2.378073 -0.040477 2.192668 32.000000
2.429227 -0.074133 2.239710 33.000000
2.457914 -0.108206 2.266103 33.000000
2.500339 -0.143919 2.306750 32.000000
2.535051 -0.180194 2.340412 32.000000
2.591377 -0.219427 2.394173 27.000000
2.621852 -0.257618 2.423995 22.000000
2.673767 -0.299155 2.473773 33.000000
2.699871 -0.338851 2.499718 35.000000
2.728301 -0.379958 2.529705 33.000000
2.702680 -0.413367 2.507715 36.000000
2.679519 -0.446793 2.489804 33.000000
2.667089 -0.481693 2.481926 35.000000
2.665215 -0.518511 2.483843 32.000000
2.616126 -0.545408 2.441688 23.000000
2.617482 -0.582253 2.446661 31.000000
2.599605 -0.615260 2.435447 32.000000
2.578860 -0.646745 2.419669 30.000000
2.582128 -0.684477 2.428113 33.000000
2.563500 -0.716521 2.416268 32.000000
2.531589 -0.743658 2.389811 32.000000
2.518812 -0.777114 2.385152 27.000000
2.478573 -0.801019 2.352604 23.000000
2.455930 -0.829684 2.336643 28.000000
2.436572 -0.859206 2.323736 29.000000
2.419621 -0.889831 2.315040 30.000000
2.405993 -0.921491 2.309377 30.000000
2.389668 -0.951150 2.299333 29.000000
2.375587 -0.982258 2.293372 28.000000
2.364758 -1.014534 2.290429 24.000000
2.326390 -1.034551 2.260821 23.000000
2.324322 -1.071255 2.268484 29.000000
2.306079 -1.099550 2.258417 27.000000
2.280967 -1.124138 2.241654 29.000000
2.278174 -1.160597 2.248663 30.000000
2.271630 -1.195375 2.252245 31.000000
2.239484 -1.215348 2.228328 27.000000
2.235815 -1.251654 2.234778 25.000000
2.192606 -1.265292 2.201616 21.000000
2.191772 -1.303013 2.211033 29.000000
2.171210 -1.329138 2.200477 26.000000
2.145992 -1.353270 2.187498 28.000000
2.125214 -1.378484 2.176790 28.000000
2.113797 -1.409641 2.175659 28.000000
2.097669 -1.439142 2.171984 27.000000
2.095115 -1.476501 2.180246 26.000000
2.047595 -1.483292 2.143804 18.000000
2.040194 -1.518662 2.149338 23.000000
2.020287 -1.544692 2.141849 27.000000
1.997316 -1.568069 2.130956 24.000000
1.992064 -1.605518 2.139232 28.000000
1.971598 -1.630753 2.131249 27.000000
1.948048 -1.653110 2.119985 24.000000
1.924503 -1.675203 2.108549 21.000000
1.866204 -1.665879 2.058915 10.000000
1.845751 -1.689174 2.050604 10.000000
1.831947 -1.720836 2.052387 25.000000
1.780385 -1.713901 2.009093 26.000000
1.749887 -1.728445 1.991840 25.000000
1.718337 -1.738844 1.970549 25.000000
1.693379 -1.757759 1.959498 25.000000
1.660334 -1.767693 1.938825 18.000000
1.616940 -1.765514 1.905776 10.000000
1.609462 -1.799612 1.912405 18.000000
1.587048 -1.819682 1.904045 24.000000
1.544127 -1.815522 1.870910 18.000000
1.509247 -1.819427 1.847076 18.000000
1.487080 -1.838057 1.838514 18.000000
1.454999 -1.843833 1.817639 16.000000
1.430317 -1.858491 1.806008 15.000000
1.380084 -1.841705 1.764532 10.000000
1.369730 -1.874457 1.770998 13.000000
1.347369 -1.891085 1.762273 21.000000
1.316391 -1.898165 1.744969 14.000000
0.887212 1.278257 1.200000 35.000000
0.898473 1.261786 1.200835 32.000000
0.911991 1.248328 1.204723 34.000000
0.928829 1.237480 1.211154 25.000000
0.944539 1.226861 1.217963 37.000000
0.967429 1.225167 1.234033 39.000000
0.973276 1.201768 1.228408 35.000000
0.993785 1.196441 1.241321 46.000000
1.010742 1.188232 1.251526 44.000000
1.018685 1.167473 1.248730 37.000000
1.034030 1.155368 1.255216 34.000000
1.036320 1.128778 1.245887 21.000000
1.055791 1.122472 1.259054 32.000000
1.068301 1.106986 1.262212 35.000000
1.083405 1.094121 1.268427 35.000000
1.102960 1.086828 1.281461 39.000000
1.119791 1.076454 1.291288 35.000000
1.146069 1.073238 1.310140 35.000000
1.154535 1.054428 1.310237 35.000000
1.162822 1.035448 1.310193 21.000000
1.173876 1.018928 1.313360 36.000000
1.184744 1.002223 1.316403 42.000000
1.216112 1.002340 1.342013 35.000000
1.229942 0.987474 1.348167 38.000000
1.234727 0.965322 1.344443 36.000000
1.263406 0.961572 1.366724 35.000000
1.277060 0.945923 1.372613 34.000000
1.283673 0.925961 1.372478 22.000000
1.309473 0.918572 1.391315 34.000000
1.322094 0.902451 1.397514 36.000000
1.341745 0.889947 1.409665 36.000000
1.357397 0.875340 1.419008 37.000000
1.376184 0.862419 1.431551 38.000000
1.388567 0.845140 1.437439 34.000000
1.410588 0.833414 1.453094 32.000000
1.419610 0.813765 1.455500 24.000000
1.441545 0.801165 1.471018 29.000000
1.466037 0.790244 1.490386 33.000000
1.488033 0.776670 1.505788 35.000000
1.496773 0.755887 1.507715 33.000000
1.511221 0.738503 1.516820 36.000000
1.539011 0.727203 1.539222 31.000000
1.536606 0.701367 1.531388 33.000000
1.565143 0.688883 1.552948 24.000000
1.588781 0.674747 1.572391 35.000000
1.616627 0.661187 1.594397 42.000000
1.627350 0.640236 1.599504 35.000000
1.644782 0.621652 1.611229 35.000000
1.658038 0.601674 1.620104 34.000000
1.678811 0.583556 1.634886 37.000000
1.698808 0.565278 1.650283 33.000000
1.732757 0.550923 1.679130 29.000000
1.745597 0.529261 1.687507 32.000000
1.768980 0.510457 1.705862 32.000000
1.792247 0.491017 1.724168 33.000000
1.804054 0.468489 1.732834 31.000000
1.841407 0.451559 1.764422 32.000000
1.860167 0.429716 1.779560 33.000000
1.875263 0.406712 1.791149 28.000000
1.923125 0.389705 1.832663 29.000000
1.945249 0.366786 1.850720 34.000000
1.962854 0.342916 1.866044 34.000000
1.988298 0.319563 1.887308 42.000000
2.002746 0.294031 1.898073 34.000000
2.045290 0.272135 1.936816 33.000000
2.073208 0.247260 1.961731 38.000000
2.086523 0.220254 1.972793 29.000000
2.132236 0.195773 2.014521 26.000000
2.163337 0.169062 2.042384 34.000000
2.179779 0.140533 2.056274 33.000000
2.217877 0.112718 2.090546 34.000000
2.233170 0.083102 2.104910 32.000000
2.273655 0.053692 2.143097 31.000000
2.303144 0.023085 2.170722 32.000000
2.321336 -0.008275 2.187868 26.000000
2.364899 -0.040565 2.228821 30.000000
2.397241 -0.073707 2.259279 29.000000
2.425732 -0.107577 2.285994 25.000000
2.467612 -0.143082 2.327224 14.000000
2.512850 -0.180032 2.371570 11.000000
2.536029 -0.216411 2.395133 11.000000
2.558841 -0.253374 2.418365 17.000000
2.581383 -0.291027 2.441472 25.000000
2.585460 -0.326974 2.447120 32.000000
2.585798 -0.362610 2.449123 30.000000
2.595630 -0.400012 2.462146 30.000000
2.590796 -0.435388 2.461267 30.000000
2.597399 -0.472395 2.469426 31.000000
2.588518 -0.507105 2.464578 25.000000
2.578332 -0.541718 2.460505 20.000000
2.576069 -0.577613 2.462045 28.000000
2.555662 -0.609253 2.446432 29.000000
2.541332 -0.642407 2.438307 30.000000
2.534777 -0.676822 2.435794 27.000000
2.530550 -0.712449 2.437336 28.000000
2.497827 -0.739728 2.411591 27.000000
2.482580 -0.771674 2.402637 21.000000
2.467165 -0.803213 2.393372 18.000000
2.423723 -0.824971 2.356923 24.000000
2.420889 -0.860784 2.361885 26.000000
2.398015 -0.888573 2.345279 27.000000
2.391183 -0.922835 2.346431 26.000000
2.373834 -0.952960 2.337141 27.000000
2.359744 -0.984106 2.331129 26.000000
2.346528 -1.014632 2.323964 19.000000
2.300516 -1.032058 2.288254 14.000000
2.302740 -1.069790 2.298454 26.000000
2.291347 -1.101356 2.295005 26.000000
2.286296 -1.135915 2.298037 29.000000
2.253339 -1.157480 2.275161 24.000000
2.246722 -1.192144 2.278821 29.000000
2.224609 -1.217413 2.264661 29.000000
2.207765 -1.246394 2.257911 20.000000
2.161674 -1.258152 2.221085 15.000000
2.160632 -1.295763 2.230565 25.000000
2.143271 -1.323677 2.223354 29.000000
2.125850 -1.351297 2.215950 27.000000
2.105018 -1.376464 2.205160 28.000000
2.086073 -1.403966 2.198297 30.000000
2.064990 -1.428420 2.187243 28.000000
2.048730 -1.457485 2.183382 21.000000
2.003054 -1.463328 2.145793 16.000000
1.980581 -1.486908 2.135160 26.000000
1.942994 -1.498537 2.108160 26.000000
1.932264 -1.530601 2.110319 30.000000
1.891819 -1.538533 2.079807 26.000000
1.863295 -1.555273 2.062260 29.000000
1.834788 -1.571586 2.044674 29.000000
1.800558 -1.582138 2.020510 19.000000
1.760867 -1.586981 1.989913 11.000000
1.749595 -1.616840 1.991415 24.000000
1.700267 -1.612959 1.951859 25.000000
1.672196 -1.626147 1.933881 24.000000
1.657913 -1.652356 1.931886 26.000000
1.631102 -1.667968 1.917729 23.000000
1.617640 -1.697070 1.919364 27.000000
1.579039 -1.697113 1.888551 13.000000
1.547016 -1.705545 1.867874 11.000000
1.530591 -1.730808 1.866039 24.000000
1.501288 -1.741209 1.848431 22.000000
1.481218 -1.759379 1.839457 25.000000
1.452056 -1.768764 1.821698 22.000000
1.422978 -1.777593 1.803923 25.000000
1.386740 -1.776583 1.776846 24.000000
1.367559 -1.796815 1.771503 10.000000
1.346451 -1.817398 1.766598 13.000000
1.308339 -1.811587 1.736449 19.000000
1.284353 -1.824291 1.724720 21.000000
0.894166 1.270915 1.226986 34.000000
0.912407 1.263730 1.237130 29.000000
0.921357 1.243663 1.234720 19.000000
0.938283 1.232508 1.241170 35.000000
0.944479 1.209186 1.235518 30.000000
0.973436 1.216779 1.261630 35.000000
0.981792 1.196221 1.258991 55.000000
0.989835 1.175686 1.256193 35.000000
1.010315 1.169739 1.269165 57.000000
1.023315 1.154663 1.272522 27.000000
1.045385 1.151353 1.289131 26.000000
1.042491 1.118950 1.273204 34.000000
1.056617 1.106723 1.280056 33.000000
1.071777 1.093811 1.286316 34.000000
1.093961 1.089153 1.302693 36.000000
1.103613 1.070346 1.302420 31.000000
1.134232 1.072859 1.328484 37.000000
1.142823 1.053954 1.328551 26.000000
1.165281 1.047688 1.344821 26.000000
1.179347 1.033421 1.351236 33.000000
1.190465 1.016491 1.354331 34.000000
1.201457 0.999434 1.357300 34.000000
1.218179 0.986934 1.366841 43.000000
1.229033 0.969414 1.369634 33.000000
1.248637 0.958695 1.382260 35.000000
1.267429 0.947916 1.395377 28.000000
1.281018 0.931961 1.401265 20.000000
1.290635 0.913953 1.404234 33.000000
1.310189 0.901779 1.416598 36.000000
1.325875 0.887530 1.426122 36.000000
1.341453 0.872913 1.435542 34.000000
1.356987 0.858054 1.444856 35.000000
1.385191 0.850590 1.467463 35.000000
1.397598 0.832972 1.473292 27.000000
1.406641 0.813345 1.475703 21.000000
1.428515 0.800747 1.491380 29.000000
1.450349 0.787652 1.507029 29.000000
1.461660 0.769248 1.512998 29.000000
1.476906 0.752014 1.521675 31.000000
1.501161 0.739611 1.541013 32.000000
1.522202 0.725102 1.556871 31.000000
1.536503 0.707018 1.565906 21.000000
1.557497 0.691583 1.581551 21.000000
1.571679 0.672752 1.590348 33.000000
1.592543 0.656451 1.605767 33.000000
1.620181 0.642323 1.627969 35.000000
1.640300 0.625250 1.643896 32.000000
1.650770 0.603603 1.648711 33.000000
1.674211 0.586903 1.667820 33.000000
1.694106 0.568348 1.683392 22.000000
1.703562 0.546083 1.688472 21.000000
1.737213 0.531006 1.717529 32.000000
1.756879 0.511106 1.732731 30.000000
1.772984 0.489702 1.744282 30.000000
1.792508 0.468848 1.759213 31.000000
1.825322 0.451163 1.788418 30.000000
1.847465 0.430164 1.807167 32.000000
1.859653 0.406202 1.814706 23.000000
1.888711 0.385664 1.840076 23.000000
1.917636 0.364444 1.865314 30.000000
1.946501 0.342459 1.890412 32.000000
1.963845 0.318143 1.905665 32.000000
1.985399 0.293712 1.923552 32.000000
2.016720 0.270313 1.952347 32.000000
2.047944 0.246130 1.981000 32.000000
2.061932 0.219082 1.991390 23.000000
2.114472 0.195477 2.040505 28.000000
2.133691 0.167951 2.059005 29.000000
2.157166 0.140076 2.079987 29.000000
2.184092 0.111793 2.104253 30.000000
2.228026 0.083495 2.146514 29.000000
2.250099 0.053501 2.167797 27.000000
2.271989 0.022915 2.188801 26.000000
2.322496 -0.008366 2.237462 18.000000
2.344001 -0.040628 2.257977 11.000000
2.394004 -0.074277 2.306130 11.000000
2.411391 -0.107857 2.322856 11.000000
2.442021 -0.142771 2.354059 18.000000
2.465208 -0.178053 2.378118 27.000000
2.463847 -0.211758 2.376757 22.000000
2.454159 -0.244748 2.369202 13.000000
2.446923 -0.278052 2.365738 27.000000
2.436849 -0.310594 2.357771 27.000000
2.444348 -0.345465 2.366801 24.000000
2.429263 -0.377410 2.355797 27.000000
2.439873 -0.412969 2.367857 24.000000
2.420846 -0.443810 2.352887 28.000000
2.440586 -0.481965 2.375813 24.000000
2.389217 -0.505611 2.329376 12.000000
2.379301 -0.537772 2.325103 23.000000
2.373542 -0.570374 2.323148 25.000000
2.367680 -0.602873 2.321092 27.000000
2.353477 -0.633589 2.312768 25.000000
2.346196 -0.665991 2.311128 25.000000
2.345568 -0.700369 2.316052 26.000000
2.334284 -0.731575 2.310562 24.000000
2.322817 -0.762583 2.304873 14.000000
2.314512 -0.794473 2.302310 27.000000
2.302672 -0.825030 2.296221 25.000000
2.282693 -0.853143 2.284019 24.000000
2.287441 -0.889731 2.294619 26.000000
2.267124 -0.917303 2.281925 26.000000
2.266933 -0.952895 2.289595 26.000000
2.236124 -0.975484 2.266408 20.000000
2.211987 -1.000435 2.249866 17.000000
2.201178 -1.030941 2.246735 23.000000
2.183450 -1.058139 2.236624 24.000000
2.165589 -1.084953 2.226433 24.000000
2.146494 -1.111885 2.216863 27.000000
2.128374 -1.137934 2.206312 25.000000
2.115501 -1.167672 2.203119 26.000000
2.092685 -1.191719 2.189834 22.000000
2.041044 -1.198515 2.146055 20.000000
2.027784 -1.226986 2.142448 26.000000
2.011176 -1.253298 2.135396 27.000000
1.988251 -1.275310 2.121479 24.000000
1.971382 -1.300969 2.114172 26.000000
1.954461 -1.326348 2.106684 26.000000
1.920723 -1.341234 2.083175 25.000000
1.906659 -1.368023 2.078774 22.000000
1.869952 -1.379523 2.051782 12.000000
1.837709 -1.391843 2.027335 21.000000
1.825124 -1.420198 2.026602 23.000000
1.800439 -1.439138 2.012701 23.000000
1.781648 -1.462238 2.005123 23.000000
1.748182 -1.472896 1.981094 21.000000
1.729256 -1.495254 1.973304 21.000000
1.710199 -1.517253 1.965436 20.000000
1.676967 -1.526205 1.941234 14.000000
1.660661 -1.550072 1.936406 21.000000
1.635911 -1.565667 1.921781 23.000000
1.612427 -1.584153 1.911065 22.000000
1.598411 -1.609721 1.909135 24.000000
1.566720 -1.619297 1.888551 20.000000
1.523582 -1.613630 1.851142 23.000000
1.510535 -1.641605 1.852945 20.000000
1.485993 -1.654420 1.837902 11.000000
1.457244 -1.664547 1.820352 21.000000
1.428751 -1.674112 1.802696 20.000000
1.410258 -1.695123 1.797660 20.000000
