x y z intensity
1.358240 0.791473 -1.153766 28.000000
1.341926 0.760086 -1.135220 24.000000
1.322136 0.726986 -1.113110 28.000000
0.850091 0.426691 -0.706740 24.000000
0.840223 0.408681 -0.695843 65.000000
0.848221 0.399510 -0.699829 79.000000
0.848898 0.386852 -0.697763 84.000000
0.853129 0.375866 -0.698652 85.000000
0.849613 0.361819 -0.693712 95.000000
0.849936 0.349232 -0.691446 98.000000
0.853551 0.338353 -0.692429 34.000000
0.849921 0.324417 -0.686999 95.000000
0.827131 0.303868 -0.666716 98.000000
0.856670 0.302499 -0.688599 98.000000
0.833539 0.282522 -0.668132 100.000000
0.847964 0.275488 -0.677817 100.000000
0.843137 0.262290 -0.672612 98.000000
0.849861 0.252549 -0.676153 103.000000
0.848658 0.240577 -0.673798 95.000000
0.832193 0.224463 -0.658986 98.000000
0.857653 0.219713 -0.677786 98.000000
0.844541 0.204978 -0.666129 100.000000
0.839047 0.192345 -0.660477 100.000000
0.844810 0.182487 -0.664152 100.000000
0.850724 0.172430 -0.667500 103.000000
0.848569 0.160832 -0.664951 100.000000
0.846530 0.149234 -0.662066 95.000000
0.863720 0.140991 -0.674641 103.000000
0.857374 0.128755 -0.668836 108.000000
0.858577 0.117827 -0.669304 105.000000
0.844174 0.104882 -0.657243 105.000000
0.865015 0.096277 -0.672629 105.000000
0.869891 0.085620 -0.675990 108.000000
0.870768 0.074525 -0.676192 105.000000
0.855735 0.062250 -0.664119 100.000000
0.860344 0.051559 -0.667246 100.000000
0.860743 0.040582 -0.667512 100.000000
0.861242 0.029605 -0.667445 100.000000
0.865394 0.018713 -0.670641 100.000000
0.857623 0.007583 -0.664582 101.000000
0.861608 -0.003360 -0.667645 103.000000
0.865494 -0.014436 -0.670607 100.000000
0.869312 -0.025580 -0.673535 103.000000
0.876774 -0.037025 -0.679692 100.000000
0.868573 -0.047769 -0.673300 103.000000
0.867969 -0.058847 -0.673199 98.000000
0.875148 -0.070561 -0.679150 98.000000
0.874369 -0.081705 -0.678913 103.000000
0.877423 -0.093268 -0.681665 103.000000
0.876266 -0.104463 -0.681529 103.000000
0.867159 -0.114655 -0.675214 100.000000
0.873850 -0.126819 -0.680814 105.000000
0.888070 -0.140455 -0.692714 98.000000
0.866984 -0.148438 -0.677050 95.000000
0.884641 -0.163142 -0.692126 95.000000
0.882909 -0.174400 -0.691571 100.000000
0.884745 -0.186544 -0.694270 98.000000
0.878960 -0.196914 -0.690567 100.000000
0.880605 -0.209088 -0.693157 95.000000
0.878275 -0.220325 -0.692600 100.000000
0.879681 -0.232578 -0.695044 100.000000
0.876955 -0.243900 -0.694624 98.000000
0.870516 -0.253967 -0.690861 76.000000
0.875204 -0.267496 -0.696394 98.000000
0.868639 -0.277410 -0.692493 98.000000
0.873088 -0.291076 -0.697871 98.000000
0.866080 -0.300977 -0.694113 95.000000
0.866532 -0.313423 -0.696356 98.000000
0.859412 -0.323122 -0.692499 95.000000
0.855656 -0.334247 -0.691832 84.000000
0.870636 -0.352665 -0.705868 73.000000
0.870308 -0.365473 -0.708115 93.000000
0.866490 -0.376564 -0.706999 95.000000
0.862277 -0.387728 -0.706099 95.000000
0.865263 -0.402235 -0.711102 81.000000
0.860832 -0.413384 -0.710049 85.000000
0.849133 -0.420894 -0.703038 70.000000
0.848175 -0.433634 -0.704859 81.000000
0.860973 -0.454082 -0.718807 35.000000
0.863211 -0.468967 -0.723444 95.000000
0.850855 -0.476275 -0.716443 95.000000
0.852861 -0.491194 -0.720987 95.000000
0.847388 -0.502252 -0.719796 85.000000
0.841803 -0.513273 -0.718567 84.000000
0.832717 -0.522070 -0.714324 87.000000
0.823567 -0.530704 -0.710055 72.000000
0.848220 -0.561510 -0.735045 28.000000
0.842131 -0.572502 -0.733552 70.000000
0.845956 -0.590390 -0.740769 71.000000
0.839639 -0.601320 -0.739141 67.000000
0.836057 -0.614816 -0.740689 67.000000
0.823053 -0.620726 -0.733181 56.000000
0.825742 -0.639062 -0.740391 69.000000
0.819023 -0.649727 -0.738555 35.000000
0.814968 -0.663088 -0.739832 31.000000
0.829592 -0.692186 -0.758331 64.000000
0.819347 -0.700199 -0.753412 36.000000
0.836372 -0.732621 -0.774510 71.000000
0.822236 -0.738133 -0.766906 49.000000
0.820245 -0.754538 -0.770665 62.000000
0.818050 -0.770978 -0.774394 48.000000
0.803787 -0.775999 -0.766695 32.000000
0.804240 -0.795292 -0.773092 37.000000
0.812537 -0.823816 -0.788141 32.000000
0.795124 -0.825556 -0.777456 39.000000
0.783536 -0.833020 -0.772418 47.000000
0.788083 -0.858916 -0.784353 34.000000
0.784581 -0.875479 -0.787560 53.000000
0.794562 -0.907666 -0.804562 31.000000
0.776270 -0.908962 -0.794006 32.000000
0.779412 -0.935535 -0.805566 30.000000
0.785515 -0.965217 -0.819391 31.000000
0.761739 -0.959573 -0.803273 36.000000
0.756991 -0.976206 -0.806010 35.000000
0.766423 -1.013267 -0.825325 35.000000
1.112411 -1.668327 -1.272736 9.000000
1.131002 -1.740407 -1.311111 10.000000
0.465767 0.736750 -0.539307 34.000000
0.494509 0.762336 -0.564976 35.000000
0.507469 0.762539 -0.572201 77.000000
0.506191 0.741495 -0.563481 35.000000
0.499661 0.713751 -0.549356 30.000000
0.480329 0.669122 -0.521718 37.000000
0.487589 0.662517 -0.523384 46.000000
0.489745 0.649096 -0.519665 85.000000
0.491693 0.635724 -0.515854 51.000000
0.503910 0.635578 -0.522816 60.000000
0.513033 0.632181 -0.527272 84.000000
0.503936 0.605831 -0.512456 41.000000
0.510649 0.598946 -0.513890 33.000000
0.514067 0.589055 -0.512783 32.000000
0.534551 0.597627 -0.527900 61.000000
0.540762 0.590566 -0.529482 95.000000
0.550234 0.586250 -0.533624 37.000000
0.565037 0.588006 -0.543474 95.000000
0.568314 0.577597 -0.542248 58.000000
0.583673 0.578658 -0.551890 54.000000
0.568955 0.550769 -0.533807 30.000000
0.586851 0.554656 -0.546414 32.000000
0.604931 0.558139 -0.559050 34.000000
0.614014 0.552917 -0.563263 54.000000
0.623064 0.547554 -0.567459 33.000000
0.641501 0.550068 -0.580097 48.000000
0.656951 0.549517 -0.589919 33.000000
0.666136 0.543452 -0.594095 30.000000
0.639578 0.509282 -0.567097 29.000000
0.654891 0.508390 -0.576817 29.000000
0.673611 0.509625 -0.589434 34.000000
0.688779 0.508245 -0.599389 42.000000
0.697778 0.501512 -0.603378 35.000000
0.716457 0.501889 -0.616210 42.000000
0.779082 0.531748 -0.666536 32.000000
1.375373 0.890110 -1.164546 22.000000
1.391832 0.876599 -1.172498 17.000000
1.383922 0.847912 -1.160056 24.000000
1.379209 0.821571 -1.150416 16.000000
1.395218 0.807739 -1.158058 23.000000
1.400526 0.787577 -1.156954 22.000000
1.401569 0.765804 -1.153215 18.000000
1.360001 0.720966 -1.113803 12.000000
1.324353 0.681352 -1.080483 20.000000
0.876942 0.423706 -0.709511 28.000000
0.819321 0.383325 -0.660420 58.000000
0.827099 0.374462 -0.664261 79.000000
0.820102 0.358968 -0.656251 95.000000
0.816339 0.345395 -0.651346 76.000000
0.820132 0.334888 -0.652084 51.000000
0.831111 0.327363 -0.658927 95.000000
0.838530 0.318085 -0.662508 98.000000
0.853190 0.311502 -0.672248 100.000000
0.856501 0.300605 -0.672972 98.000000
0.855938 0.288357 -0.670715 98.000000
0.859028 0.277405 -0.671333 98.000000
0.862083 0.266418 -0.671917 98.000000
0.864761 0.255466 -0.672672 98.000000
0.856043 0.241119 -0.664144 66.000000
0.858550 0.230245 -0.664787 95.000000
0.860988 0.219304 -0.665363 98.000000
0.863292 0.208328 -0.665871 98.000000
0.861629 0.196430 -0.663310 88.000000
0.867696 0.186276 -0.666684 93.000000
0.865844 0.174410 -0.664018 95.000000
0.871523 0.164190 -0.667531 98.000000
0.869250 0.152423 -0.664963 95.000000
0.871037 0.141329 -0.665064 95.000000
0.880247 0.131481 -0.671661 95.000000
0.873735 0.119207 -0.665873 98.000000
0.882969 0.109057 -0.672069 98.000000
0.887988 0.098301 -0.675425 98.000000
0.889116 0.087021 -0.675459 98.000000
0.886032 0.075404 -0.672682 95.000000
0.866897 0.062703 -0.657732 62.000000
0.871542 0.051930 -0.660850 77.000000
0.871943 0.040902 -0.661117 82.000000
0.868461 0.029705 -0.658032 98.000000
0.876630 0.018866 -0.664203 100.000000
0.876764 0.007721 -0.664270 100.000000
0.880783 -0.003406 -0.667256 98.000000
0.876730 -0.014502 -0.664169 100.000000
0.876596 -0.025613 -0.664035 98.000000
0.876160 -0.036758 -0.664069 105.000000
0.875858 -0.047836 -0.663767 105.000000
0.879232 -0.059216 -0.666682 95.000000
0.878524 -0.070378 -0.666514 100.000000
0.881720 -0.081875 -0.669293 100.000000
0.880670 -0.093087 -0.669225 103.000000
0.879687 -0.104232 -0.668852 100.000000
0.882391 -0.115930 -0.671695 100.000000
0.873128 -0.125985 -0.665401 100.000000
0.875859 -0.137632 -0.667836 103.000000
0.889882 -0.151492 -0.679731 95.000000
0.888261 -0.162769 -0.679283 98.000000
0.882614 -0.173241 -0.675728 100.000000
0.888416 -0.186107 -0.681388 103.000000
0.886303 -0.197433 -0.681007 100.000000
0.880157 -0.207771 -0.677524 100.000000
0.877881 -0.218944 -0.676972 100.000000
0.875502 -0.230083 -0.676386 98.000000
0.884608 -0.244389 -0.684666 93.000000
0.881777 -0.255710 -0.684212 98.000000
0.875248 -0.265692 -0.680424 93.000000
0.876047 -0.278073 -0.682814 100.000000
0.876784 -0.290518 -0.685129 100.000000
0.881151 -0.304302 -0.690343 98.000000
0.874040 -0.314164 -0.686557 100.000000
0.870656 -0.325267 -0.685711 98.000000
0.870673 -0.337932 -0.688007 46.000000
0.874536 -0.351985 -0.692974 98.000000
0.878014 -0.366301 -0.698104 98.000000
0.866788 -0.374194 -0.691081 98.000000
0.869983 -0.388592 -0.696088 90.000000
0.862030 -0.398025 -0.692170 95.000000
0.868640 -0.414292 -0.699953 100.000000
0.867440 -0.427338 -0.702092 95.000000
0.862845 -0.438388 -0.700961 37.000000
0.865358 -0.453162 -0.705613 95.000000
0.863779 -0.466268 -0.707507 95.000000
0.862417 -0.479244 -0.709096 98.000000
0.860568 -0.492386 -0.710897 95.000000
0.862104 -0.507645 -0.715561 95.000000
0.863436 -0.522974 -0.720129 95.000000
0.857684 -0.534099 -0.718805 98.000000
0.851857 -0.545149 -0.717443 60.000000
0.828898 -0.544911 -0.701606 95.000000
0.836550 -0.564697 -0.711685 95.000000
0.840569 -0.582428 -0.718803 95.000000
0.847739 -0.602715 -0.728715 90.000000
0.850811 -0.621089 -0.735950 94.000000
0.850871 -0.636869 -0.739938 95.000000
0.843718 -0.648014 -0.738436 81.000000
0.833256 -0.656495 -0.734050 62.000000
0.839259 -0.677508 -0.743511 67.000000
0.831783 -0.688462 -0.741832 88.000000
0.827333 -0.702005 -0.742938 95.000000
0.816551 -0.710090 -0.738354 82.000000
0.818056 -0.728976 -0.744989 95.000000
0.813188 -0.742483 -0.745933 95.000000
0.808219 -0.755908 -0.746782 54.000000
0.800071 -0.766419 -0.744786 81.000000
0.818575 -0.803035 -0.767785 37.000000
0.806461 -0.811077 -0.763199 51.000000
0.797817 -0.821568 -0.761017 74.000000
0.797740 -0.841050 -0.767071 58.000000
0.785403 -0.848676 -0.762325 62.000000
0.779287 -0.862005 -0.762744 61.000000
0.772384 -0.875621 -0.763402 80.000000
0.774217 -0.898366 -0.771885 38.000000
0.775000 -0.921618 -0.780562 33.000000
0.759380 -0.925589 -0.772861 73.000000
0.794584 -0.991260 -0.816196 95.000000
1.229645 -1.693632 -1.321113 18.000000
1.230714 -1.737966 -1.338012 10.000000
1.245483 -1.803457 -1.370678 9.000000
1.237615 -1.838024 -1.379235 9.000000
1.226873 -1.869123 -1.384988 9.000000
1.224918 -1.914581 -1.401082 10.000000
0.441053 0.708636 -0.503895 31.000000
0.476249 0.745801 -0.536799 36.000000
0.500681 0.764230 -0.556911 90.000000
0.513666 0.764451 -0.564027 46.000000
0.514657 0.746911 -0.558111 78.000000
0.488360 0.691259 -0.523158 32.000000
0.493338 0.681169 -0.522221 58.000000
0.488066 0.657430 -0.510683 78.000000
0.497788 0.654146 -0.514957 59.000000
0.507525 0.650734 -0.519218 95.000000
0.511997 0.640559 -0.518095 65.000000
0.521718 0.636868 -0.522313 77.000000
0.520078 0.620361 -0.515977 69.000000
0.510467 0.594164 -0.501271 35.000000
0.528142 0.599925 -0.513472 95.000000
0.537158 0.596146 -0.517777 62.000000
0.546621 0.591973 -0.521865 95.000000
0.558531 0.590946 -0.528870 94.000000
0.559307 0.577412 -0.524736 91.000000
0.568316 0.573057 -0.528971 95.000000
0.583281 0.574428 -0.538689 57.000000
0.583752 0.560811 -0.534435 32.000000
0.571464 0.536065 -0.519283 37.000000
0.580243 0.531418 -0.523372 36.000000
0.598325 0.534920 -0.535803 69.000000
0.613457 0.535280 -0.545448 59.000000
0.650822 0.554166 -0.574660 34.000000
0.663171 0.550945 -0.581572 62.000000
0.672387 0.544887 -0.585676 36.000000
0.665337 0.525826 -0.575687 27.000000
0.644573 0.497129 -0.554604 51.000000
0.650043 0.488682 -0.555716 62.000000
0.665436 0.487488 -0.565277 86.000000
0.694001 0.495706 -0.586388 56.000000
0.753598 0.524221 -0.632836 95.000000
1.387948 0.892256 -1.147800 25.000000
1.400993 0.876581 -1.152808 21.000000
1.403402 0.854242 -1.149167 23.000000
1.412703 0.836130 -1.151125 23.000000
1.418213 0.815918 -1.150146 23.000000
1.419988 0.793619 -1.146218 24.000000
1.428733 0.775279 -1.147918 19.000000
1.422370 0.749511 -1.138425 11.000000
1.372626 0.701425 -1.093637 20.000000
0.841517 0.378830 -0.660709 61.000000
0.823253 0.358329 -0.644089 95.000000
0.830908 0.349348 -0.647782 98.000000
0.830976 0.337219 -0.645573 81.000000
0.853328 0.334089 -0.661144 69.000000
0.857052 0.323123 -0.661765 98.000000
0.864239 0.313642 -0.665489 98.000000
0.863742 0.301329 -0.663316 100.000000
0.863148 0.289078 -0.661102 98.000000
0.862388 0.276890 -0.658779 98.000000
0.869259 0.267071 -0.662304 98.000000
0.876088 0.257154 -0.665765 98.000000
0.859268 0.240640 -0.651744 83.000000
0.861966 0.229714 -0.652115 95.000000
0.864360 0.218788 -0.652688 98.000000
0.870609 0.208802 -0.656149 95.000000
0.868913 0.196869 -0.653666 95.000000
0.871037 0.185875 -0.654037 95.000000
0.872892 0.174882 -0.654610 98.000000
0.874848 0.163821 -0.654846 90.000000
0.872534 0.152069 -0.652319 57.000000
0.890005 0.143623 -0.664556 100.000000
0.887529 0.131787 -0.661929 98.000000
0.896931 0.121639 -0.668106 100.000000
0.894277 0.109819 -0.665308 103.000000
0.895303 0.098540 -0.665649 98.000000
0.900467 0.087616 -0.668690 100.000000
0.905331 0.076591 -0.671869 100.000000
0.874016 0.062869 -0.648252 73.000000
0.882706 0.052335 -0.654266 95.000000
0.875080 0.040815 -0.648585 95.000000
0.875546 0.029771 -0.648551 95.000000
0.887831 0.018985 -0.657578 100.000000
0.883948 0.007755 -0.654669 100.000000
0.892018 -0.003421 -0.660621 103.000000
0.879896 -0.014469 -0.651593 103.000000
0.883780 -0.025681 -0.654434 103.000000
0.875313 -0.036491 -0.648518 105.000000
0.883008 -0.047937 -0.654199 103.000000
0.886448 -0.059351 -0.657072 98.000000
0.889748 -0.070832 -0.659842 100.000000
0.888969 -0.082044 -0.659604 100.000000
0.883919 -0.092870 -0.656566 105.000000
0.890932 -0.104940 -0.662133 103.000000
0.913610 -0.119294 -0.679774 103.000000
0.896313 -0.128540 -0.667625 103.000000
0.910780 -0.142321 -0.679145 100.000000
0.905237 -0.153146 -0.675797 98.000000
0.879823 -0.160226 -0.657538 100.000000
0.901653 -0.176003 -0.675031 100.000000
0.895863 -0.186488 -0.671482 100.000000
0.893750 -0.197814 -0.671066 100.000000
0.891533 -0.209106 -0.670581 100.000000
0.889213 -0.220363 -0.670027 108.000000
0.890729 -0.232606 -0.672387 100.000000
0.888016 -0.243913 -0.671970 95.000000
0.889325 -0.256234 -0.674183 100.000000
0.886390 -0.267521 -0.673624 100.000000
0.887242 -0.279955 -0.675969 103.000000
0.887998 -0.292451 -0.678203 98.000000
0.884755 -0.303695 -0.677498 100.000000
0.885258 -0.316267 -0.679617 98.000000
0.881859 -0.327454 -0.678767 98.000000
0.881892 -0.340171 -0.681017 98.000000
0.885840 -0.354279 -0.685859 98.000000
0.885612 -0.367130 -0.687985 100.000000
0.881507 -0.378401 -0.687157 98.000000
0.881047 -0.391251 -0.689165 98.000000
0.880443 -0.404160 -0.691092 100.000000
0.876013 -0.415345 -0.690039 100.000000
0.867884 -0.424666 -0.686055 100.000000
0.870613 -0.439336 -0.690713 83.000000
0.880104 -0.458072 -0.701309 98.000000
0.878848 -0.471127 -0.702930 98.000000
0.869981 -0.480394 -0.698973 100.000000
0.868200 -0.493577 -0.700733 98.000000
0.869799 -0.508846 -0.705313 100.000000
0.867681 -0.522109 -0.706936 98.000000
0.865480 -0.535386 -0.708474 100.000000
0.866585 -0.550842 -0.712852 95.000000
0.874404 -0.570895 -0.722785 38.000000
0.844314 -0.566017 -0.701434 95.000000
0.858647 -0.590768 -0.716929 79.000000
0.858664 -0.606683 -0.721273 94.000000
0.852244 -0.617617 -0.719639 95.000000
0.861893 -0.640994 -0.732281 95.000000
0.854752 -0.652182 -0.730774 90.000000
0.851229 -0.665563 -0.731753 63.000000
0.834162 -0.668857 -0.721767 50.000000
0.833209 -0.684912 -0.725735 98.000000
0.838414 -0.706406 -0.735168 93.000000
0.827533 -0.714566 -0.730618 95.000000
0.832256 -0.736311 -0.739897 90.000000
0.815050 -0.738673 -0.729730 95.000000
0.816245 -0.757741 -0.736108 82.000000
0.832352 -0.791271 -0.756107 64.000000
0.817342 -0.796514 -0.748859 26.000000
0.817733 -0.815964 -0.754940 79.000000
0.809099 -0.826492 -0.752792 69.000000
0.799750 -0.837274 -0.750855 84.000000
0.805319 -0.862904 -0.762185 81.000000
0.795629 -0.873666 -0.760127 71.000000
0.786539 -0.883913 -0.757726 72.000000
0.801553 -0.923021 -0.779826 59.000000
1.196082 -1.516776 -1.211250 29.000000
1.241528 -1.613452 -1.271045 24.000000
1.259498 -1.677622 -1.303896 24.000000
1.263794 -1.725378 -1.323353 20.000000
1.264868 -1.769974 -1.339956 14.000000
1.267548 -1.818445 -1.358954 15.000000
1.266987 -1.863743 -1.375107 10.000000
1.256210 -1.895071 -1.380735 14.000000
1.242641 -1.922819 -1.383623 10.000000
1.231041 -1.954056 -1.388951 10.000000
0.441221 0.720016 -0.497267 22.000000
0.467261 0.743117 -0.519432 27.000000
0.498526 0.772883 -0.546821 31.000000
0.511490 0.773251 -0.553876 60.000000
0.519796 0.766329 -0.555820 47.000000
0.513368 0.738217 -0.542207 40.000000
0.493978 0.692990 -0.515537 46.000000
0.496378 0.679412 -0.512039 42.000000
0.501185 0.669324 -0.511085 37.000000
0.516205 0.672706 -0.520547 41.000000
0.523523 0.665783 -0.522156 35.000000
0.525446 0.652118 -0.518502 58.000000
0.527163 0.638535 -0.514755 55.000000
0.517720 0.612052 -0.500387 91.000000
0.521205 0.602159 -0.499346 37.000000
0.536255 0.604686 -0.508743 64.000000
0.542929 0.597487 -0.510112 95.000000
0.551982 0.593584 -0.514365 80.000000
0.555665 0.583148 -0.513027 93.000000
0.567609 0.581980 -0.519901 81.000000
0.583011 0.583340 -0.529298 55.000000
0.589172 0.575804 -0.530793 98.000000
0.559137 0.533195 -0.499447 23.000000
0.573989 0.534526 -0.508960 35.000000
0.579667 0.527079 -0.510272 50.000000
0.607197 0.539024 -0.530706 37.000000
0.612970 0.531150 -0.532008 49.000000
0.631409 0.533974 -0.544307 75.000000
0.653270 0.539064 -0.559322 34.000000
0.655847 0.527963 -0.557830 80.000000
0.632133 0.496312 -0.534125 23.000000
0.640825 0.490624 -0.538047 51.000000
0.662868 0.494737 -0.553038 63.000000
0.678070 0.493657 -0.562700 51.000000
0.724131 0.513644 -0.597238 80.000000
1.417818 0.905466 -1.144998 21.000000
1.427506 0.887394 -1.147171 25.000000
1.426415 0.862729 -1.140812 21.000000
1.417955 0.834030 -1.128641 22.000000
1.441271 0.824005 -1.141862 22.000000
1.439453 0.799561 -1.135132 21.000000
1.451863 0.783081 -1.139683 24.000000
1.391290 0.728199 -1.087257 9.000000
1.391544 0.706934 -1.083420 16.000000
1.380558 0.680237 -1.070938 26.000000
1.306729 0.623632 -1.009295 30.000000
1.164532 0.538303 -0.896264 98.000000
0.860357 0.372139 -0.657515 50.000000
0.834179 0.348584 -0.635321 94.000000
0.841782 0.339524 -0.638907 91.000000
0.860501 0.334848 -0.651385 28.000000
0.868049 0.325350 -0.654890 98.000000
0.871444 0.314404 -0.655722 98.000000
0.870881 0.302087 -0.653592 95.000000
0.870255 0.289799 -0.651386 98.000000
0.877226 0.280017 -0.654936 98.000000
0.884156 0.270137 -0.658423 100.000000
0.883192 0.257809 -0.656040 103.000000
0.862531 0.240088 -0.639059 57.000000
0.872845 0.231329 -0.645513 95.000000
0.871307 0.219361 -0.643178 98.000000
0.873634 0.208401 -0.643684 98.000000
0.875860 0.197408 -0.644156 98.000000
0.874011 0.185504 -0.641611 98.000000
0.883989 0.176080 -0.647782 98.000000
0.889775 0.165746 -0.651211 100.000000
0.891646 0.154517 -0.651415 54.000000
0.901222 0.144608 -0.657635 95.000000
0.898721 0.132686 -0.655020 100.000000
0.904175 0.121948 -0.658184 98.000000
0.905479 0.110584 -0.658390 100.000000
0.906544 0.099220 -0.658733 100.000000
0.911711 0.088212 -0.661696 98.000000
0.912607 0.076798 -0.661937 100.000000
0.897200 0.064192 -0.650391 72.000000
0.893833 0.052707 -0.647528 84.000000
0.894238 0.041512 -0.647798 98.000000
0.902807 0.030556 -0.653627 98.000000
0.903045 0.019225 -0.653729 95.000000
0.907197 0.007930 -0.656729 100.000000
0.903181 -0.003403 -0.653797 98.000000
0.890997 -0.014536 -0.644901 103.000000
0.886780 -0.025597 -0.641836 105.000000
0.890427 -0.036893 -0.644800 105.000000
0.890091 -0.048038 -0.644531 103.000000
0.889520 -0.059183 -0.644431 98.000000
0.896895 -0.070967 -0.650086 98.000000
0.896116 -0.082213 -0.649849 100.000000
0.923289 -0.096407 -0.670269 100.000000
0.902139 -0.105615 -0.655259 103.000000
0.896852 -0.116407 -0.652163 100.000000
0.899541 -0.128242 -0.654814 98.000000
0.922162 -0.143259 -0.672003 100.000000
0.900604 -0.151440 -0.656982 98.000000
0.910734 -0.164940 -0.665533 98.000000
0.912981 -0.177124 -0.667893 103.000000
0.906976 -0.187797 -0.664629 100.000000
0.912791 -0.200920 -0.670038 100.000000
0.906586 -0.211473 -0.666635 100.000000
0.904245 -0.222864 -0.666076 98.000000
0.897896 -0.233163 -0.662576 100.000000
0.899353 -0.245472 -0.664783 95.000000
0.900438 -0.257950 -0.667195 95.000000
0.897525 -0.269286 -0.666669 100.000000
0.898396 -0.281841 -0.668933 98.000000
0.899170 -0.294425 -0.671156 98.000000
0.892051 -0.304400 -0.667523 100.000000
0.896468 -0.318341 -0.672485 98.000000
0.893055 -0.329576 -0.671631 100.000000
0.893103 -0.342381 -0.673835 55.000000
0.893298 -0.355067 -0.675711 95.000000
0.896887 -0.369481 -0.680666 98.000000
0.896531 -0.382443 -0.682703 100.000000
0.892318 -0.393773 -0.681759 100.000000
0.891764 -0.406733 -0.683675 98.000000
0.887352 -0.417966 -0.682617 98.000000
0.886230 -0.431103 -0.684668 100.000000
0.881616 -0.442236 -0.683496 53.000000
0.895198 -0.462777 -0.696502 95.000000
0.893634 -0.476115 -0.698331 100.000000
0.888304 -0.487488 -0.697243 100.000000
0.879310 -0.496796 -0.693324 100.000000
0.877381 -0.510048 -0.694953 98.000000
0.878876 -0.525433 -0.699354 100.000000
0.873162 -0.536597 -0.698068 98.000000
0.867334 -0.547684 -0.696705 71.000000
0.885745 -0.574427 -0.714931 90.000000
0.862350 -0.574150 -0.699463 98.000000
0.876367 -0.599336 -0.714961 93.000000
0.873398 -0.612775 -0.716146 98.000000
0.873279 -0.628925 -0.720336 87.000000
0.870026 -0.642383 -0.721411 98.000000
0.866203 -0.656084 -0.722672 94.000000
0.858955 -0.667235 -0.721119 36.000000
0.851587 -0.678307 -0.719526 81.000000
0.844180 -0.689259 -0.717893 95.000000
0.839818 -0.702774 -0.718965 95.000000
0.838575 -0.719015 -0.722681 91.000000
0.840201 -0.738063 -0.729060 86.000000
0.835373 -0.751664 -0.729950 95.000000
0.845840 -0.779405 -0.744327 90.000000
0.840576 -0.793159 -0.745029 44.000000
0.840626 -0.812968 -0.751333 46.000000
0.829022 -0.820780 -0.746517 50.000000
0.825684 -0.837732 -0.750034 80.000000
0.819800 -0.851288 -0.750501 81.000000
0.818910 -0.871377 -0.756555 83.000000
1.244588 -1.491233 -1.203586 16.000000
1.298004 -1.593467 -1.268229 21.000000
1.291142 -1.623977 -1.274793 20.000000
1.304682 -1.681506 -1.302093 20.000000
1.296643 -1.712407 -1.308310 16.000000
1.298319 -1.757108 -1.324829 19.000000
1.291811 -1.791702 -1.333304 16.000000
1.284772 -1.826314 -1.341693 9.000000
1.281973 -1.868174 -1.355046 9.000000
1.269001 -1.895966 -1.357965 10.000000
1.260421 -1.930912 -1.365845 10.000000
1.248816 -1.962296 -1.371176 10.000000
1.248184 -2.012006 -1.388919 10.000000
0.464460 0.751397 -0.509969 10.000000
0.486964 0.766768 -0.526698 20.000000
0.516356 0.792812 -0.551243 28.000000
0.524810 0.785862 -0.553181 28.000000
0.538033 0.785957 -0.560155 33.000000
0.529122 0.754107 -0.544306 18.000000
0.509575 0.708623 -0.518063 22.000000
0.507004 0.688010 -0.509525 32.000000
0.511828 0.677815 -0.508596 21.000000
0.519170 0.670987 -0.510227 28.000000
0.531738 0.670807 -0.516998 32.000000
0.525526 0.647134 -0.505621 30.000000
0.540772 0.649990 -0.514940 35.000000
0.517406 0.607117 -0.487759 10.000000
0.529659 0.606660 -0.494389 25.000000
0.539159 0.602824 -0.498396 27.000000
0.548204 0.599061 -0.502593 28.000000
0.554791 0.591804 -0.503963 46.000000
0.546227 0.569387 -0.492246 27.000000
0.570381 0.580283 -0.509414 35.000000
0.570818 0.566788 -0.505354 35.000000
0.576732 0.559482 -0.506804 21.000000
0.558086 0.528815 -0.486798 24.000000
0.567128 0.524321 -0.490589 21.000000
0.582045 0.525509 -0.499937 23.000000
0.593954 0.523615 -0.506604 29.000000
0.612275 0.526963 -0.518672 21.000000
0.627585 0.527193 -0.528056 31.000000
0.633595 0.518891 -0.529067 27.000000
0.658488 0.526668 -0.546818 21.000000
0.624540 0.487237 -0.515297 24.000000
0.639844 0.486797 -0.524590 25.000000
0.661977 0.491027 -0.539363 26.000000
0.701234 0.506982 -0.567848 33.000000
1.375116 0.896023 -1.089488 10.000000
1.426786 0.905347 -1.124962 12.000000
1.425775 0.880702 -1.118802 10.000000
1.445867 0.868982 -1.129175 14.000000
1.451637 0.848550 -1.128433 10.000000
1.460783 0.830072 -1.130287 14.000000
1.458918 0.805521 -1.123755 17.000000
1.467690 0.786935 -1.125472 10.000000
1.413907 0.735739 -1.079405 12.000000
1.425236 0.719863 -1.084152 16.000000
1.425762 0.698027 -1.079883 19.000000
1.395823 0.662387 -1.053473 26.000000
0.875345 0.363586 -0.651192 27.000000
0.867599 0.348072 -0.643668 36.000000
0.879087 0.340097 -0.650038 95.000000
0.875115 0.326077 -0.645019 95.000000
0.874640 0.313743 -0.642970 91.000000
0.881835 0.304117 -0.646612 98.000000
0.889164 0.294254 -0.649913 95.000000
0.892330 0.283087 -0.650574 100.000000
0.899283 0.273077 -0.654021 103.000000
0.894166 0.259573 -0.649071 95.000000
0.873297 0.241752 -0.632387 73.000000
0.875792 0.230860 -0.633028 94.000000
0.882363 0.220828 -0.636231 95.000000
0.880682 0.208840 -0.633871 95.000000
0.882907 0.197813 -0.634309 98.000000
0.885032 0.186752 -0.634714 94.000000
0.891069 0.176486 -0.637925 98.000000
0.892830 0.165375 -0.638433 95.000000
0.914844 0.157635 -0.653020 95.000000
0.912435 0.145595 -0.650522 95.000000
0.922040 0.135368 -0.656592 98.000000
0.919416 0.123309 -0.653990 95.000000
0.920733 0.111810 -0.654163 100.000000
0.921806 0.100345 -0.654544 100.000000
0.922949 0.088845 -0.654579 103.000000
0.923815 0.077311 -0.654821 100.000000
0.908319 0.064651 -0.643418 71.000000
0.909000 0.053320 -0.643521 98.000000
0.905330 0.041801 -0.640906 95.000000
0.913965 0.030762 -0.646611 98.000000
0.914170 0.019380 -0.646748 103.000000
0.914307 0.007964 -0.646816 105.000000
0.918423 -0.003433 -0.649670 108.000000
0.897946 -0.014569 -0.635165 105.000000
0.889650 -0.025514 -0.629258 105.000000
0.901488 -0.037128 -0.637951 105.000000
0.892996 -0.047886 -0.631877 103.000000
0.933143 -0.061744 -0.660625 98.000000
0.908013 -0.071423 -0.643146 105.000000
0.935709 -0.085352 -0.663089 100.000000
0.918366 -0.095351 -0.651488 103.000000
0.933603 -0.108655 -0.662633 100.000000
0.920144 -0.118737 -0.653782 103.000000
0.934983 -0.132496 -0.665020 105.000000
0.937544 -0.144788 -0.667545 103.000000
0.923883 -0.154446 -0.658494 95.000000
0.922031 -0.166012 -0.658284 100.000000
0.924303 -0.178249 -0.660597 100.000000
0.922267 -0.189795 -0.660246 103.000000
0.924127 -0.202217 -0.662694 100.000000
0.917880 -0.212817 -0.659334 98.000000
0.919545 -0.225233 -0.661636 103.000000
0.916901 -0.236795 -0.661249 100.000000
0.910405 -0.247105 -0.657719 61.000000
0.907597 -0.258546 -0.657228 98.000000
0.908829 -0.270985 -0.659275 95.000000
0.909719 -0.283593 -0.661492 100.000000
0.906604 -0.294956 -0.660819 95.000000
0.907063 -0.307711 -0.663170 95.000000
0.907600 -0.320422 -0.665195 100.000000
0.896444 -0.328905 -0.658660 98.000000
0.900423 -0.343130 -0.663659 53.000000
0.911893 -0.360508 -0.674241 95.000000
0.908116 -0.371839 -0.673188 95.000000
0.904012 -0.383242 -0.672317 95.000000
0.903580 -0.396230 -0.674230 95.000000
0.902746 -0.409424 -0.676318 95.000000
0.898315 -0.420740 -0.675293 95.000000
0.893811 -0.431982 -0.674194 91.000000
0.892608 -0.445145 -0.676121 62.000000
0.910006 -0.467648 -0.691710 78.000000
0.897441 -0.475301 -0.685100 55.000000
0.899415 -0.490638 -0.689599 81.000000
0.894026 -0.501983 -0.688469 95.000000
0.888485 -0.513289 -0.687300 83.000000
0.882870 -0.524483 -0.686057 95.000000
0.877179 -0.535639 -0.684775 93.000000
0.874940 -0.548895 -0.686185 71.000000
0.904079 -0.582445 -0.712397 58.000000
0.897465 -0.594058 -0.711177 64.000000
0.884219 -0.600625 -0.704141 66.000000
0.887783 -0.619124 -0.711049 57.000000
0.881262 -0.630230 -0.709389 42.000000
0.877643 -0.643970 -0.710699 51.000000
0.873850 -0.657717 -0.711920 60.000000
0.876562 -0.676556 -0.718572 51.000000
0.869150 -0.687755 -0.716960 30.000000
0.862060 -0.698551 -0.715027 39.000000
0.860474 -0.715208 -0.719023 45.000000
0.855927 -0.728897 -0.719974 41.000000
0.873474 -0.761940 -0.739658 75.000000
0.865292 -0.773060 -0.737770 32.000000
0.869491 -0.795458 -0.746500 42.000000
0.857382 -0.803933 -0.742086 37.000000
0.842748 -0.808931 -0.734725 18.000000
0.843309 -0.828537 -0.740583 35.000000
0.842953 -0.848590 -0.746653 28.000000
1.162759 -1.286283 -1.065257 29.000000
1.236019 -1.400630 -1.143120 15.000000
1.273528 -1.478263 -1.189221 10.000000
1.317806 -1.566822 -1.242742 9.000000
1.335928 -1.627137 -1.272642 10.000000
1.334211 -1.664686 -1.284134 10.000000
1.318692 -1.685541 -1.282677 10.000000
1.321112 -1.730125 -1.299064 10.000000
1.320372 -1.771581 -1.312686 10.000000
1.308830 -1.799355 -1.315930 9.000000
1.314364 -1.851689 -1.336799 9.000000
1.296877 -1.872524 -1.334744 9.000000
1.298580 -1.921814 -1.352661 9.000000
1.280311 -1.942550 -1.350418 9.000000
1.275930 -1.984956 -1.362999 9.000000
1.262174 -2.017283 -1.368479 9.000000
0.441797 0.725775 -0.478187 21.000000
0.477133 0.764184 -0.509509 30.000000
0.503972 0.787091 -0.531135 30.000000
0.526635 0.802143 -0.547914 34.000000
0.528501 0.784070 -0.542206 52.000000
0.531892 0.769955 -0.539110 32.000000
0.545067 0.769999 -0.545965 35.000000
0.517751 0.713795 -0.512646 18.000000
0.515106 0.693085 -0.504242 37.000000
0.517327 0.679416 -0.500831 60.000000
0.524608 0.672619 -0.502432 30.000000
0.534576 0.669062 -0.506579 57.000000
0.528189 0.645384 -0.495361 40.000000
0.537934 0.641718 -0.499432 33.000000
0.542102 0.631382 -0.498321 81.000000
0.537680 0.611406 -0.489467 22.000000
0.561538 0.623446 -0.506359 86.000000
0.553858 0.600343 -0.494812 65.000000
0.557104 0.590213 -0.493729 65.000000
0.557666 0.576771 -0.489822 98.000000
0.570035 0.575514 -0.496309 70.000000
0.579039 0.571257 -0.500378 73.000000
0.588428 0.566631 -0.504229 84.000000
0.581992 0.547511 -0.495101 32.000000
0.578351 0.531463 -0.488527 59.000000
0.584307 0.523898 -0.489600 35.000000
0.599405 0.524820 -0.498830 57.000000
0.608217 0.519940 -0.502752 49.000000
0.610851 0.509272 -0.501096 43.000000
0.629414 0.512139 -0.512959 42.000000
0.628308 0.498860 -0.508804 52.000000
0.663688 0.514079 -0.534090 25.000000
0.632280 0.477659 -0.505629 54.000000
0.677826 0.499725 -0.539246 95.000000
1.425784 0.948157 -1.108839 19.000000
1.421669 0.921107 -1.100311 10.000000
1.446141 0.911862 -1.113010 14.000000
1.448655 0.889240 -1.109723 13.000000
1.468907 0.877463 -1.119982 18.000000
1.478269 0.858927 -1.122041 21.000000
1.480231 0.836158 -1.118418 20.000000
1.481980 0.813386 -1.114776 18.000000
1.472412 0.784851 -1.102722 24.000000
1.480957 0.766235 -1.104309 13.000000
1.493103 0.749366 -1.108661 18.000000
1.504678 0.732526 -1.113266 21.000000
1.501486 0.708125 -1.106358 15.000000
1.501411 0.685918 -1.102448 20.000000
1.504880 0.665458 -1.101302 19.000000
1.458555 0.623746 -1.063766 24.000000
0.831970 0.319994 -0.600849 36.000000
0.870454 0.322520 -0.626650 98.000000
0.881606 0.314467 -0.633073 103.000000
0.877085 0.300781 -0.628223 100.000000
0.884365 0.291035 -0.631508 103.000000
0.887455 0.280014 -0.632126 100.000000
0.890476 0.268925 -0.632710 100.000000
0.893360 0.257801 -0.633259 100.000000
0.896004 0.246746 -0.633980 95.000000
0.886733 0.232379 -0.625933 100.000000
0.889138 0.221370 -0.626509 100.000000
0.895457 0.211274 -0.629842 98.000000
0.893847 0.199148 -0.627254 100.000000
0.895811 0.188071 -0.627864 100.000000
0.893800 0.176130 -0.625407 100.000000
0.899775 0.165748 -0.628508 95.000000
0.901469 0.154569 -0.628948 98.000000
0.903196 0.143323 -0.629084 103.000000
0.904687 0.132111 -0.629388 103.000000
0.910191 0.121409 -0.632496 103.000000
0.907227 0.109652 -0.630066 105.000000
0.908447 0.098372 -0.630201 103.000000
0.909395 0.087125 -0.630506 105.000000
0.914512 0.076153 -0.633312 103.000000
0.911157 0.064497 -0.630642 98.000000
0.895405 0.052258 -0.619379 103.000000
0.912241 0.041903 -0.630981 100.000000
0.916826 0.030726 -0.633789 105.000000
0.908840 0.019188 -0.628239 100.000000
0.913087 0.007961 -0.631116 98.000000
0.921348 -0.003418 -0.636802 100.000000
0.908941 -0.014635 -0.628206 98.000000
0.900548 -0.025664 -0.622387 100.000000
0.904257 -0.036993 -0.625229 98.000000
0.899813 -0.047986 -0.622120 100.000000
0.907457 -0.059688 -0.627700 95.000000
0.914955 -0.071559 -0.633210 95.000000
0.914002 -0.082958 -0.633176 103.000000
0.917212 -0.094678 -0.635708 98.000000
0.916084 -0.106060 -0.635571 98.000000
0.919075 -0.117931 -0.637962 100.000000
0.938130 -0.132204 -0.651859 100.000000
0.932584 -0.143195 -0.648675 100.000000
0.926772 -0.154155 -0.645668 91.000000
0.929194 -0.166327 -0.648046 98.000000
0.927272 -0.177893 -0.647731 100.000000
0.937367 -0.191906 -0.655828 100.000000
0.931353 -0.202604 -0.652331 98.000000
0.940984 -0.217018 -0.660553 103.000000
0.934617 -0.227717 -0.657161 98.000000
0.944166 -0.242352 -0.664974 100.000000
0.945382 -0.255205 -0.667358 98.000000
0.918804 -0.260164 -0.649723 95.000000
0.911949 -0.270409 -0.646313 100.000000
0.908931 -0.281744 -0.645717 95.000000
0.909781 -0.294319 -0.647819 100.000000
0.906362 -0.305739 -0.647326 100.000000
0.906993 -0.318356 -0.649314 100.000000
0.903595 -0.329578 -0.648464 98.000000
0.907635 -0.343845 -0.653376 81.000000
0.915366 -0.359753 -0.660993 70.000000
0.911352 -0.371180 -0.660198 98.000000
0.911094 -0.384186 -0.662112 98.000000
0.910728 -0.397178 -0.663982 98.000000
0.910181 -0.410229 -0.665771 95.000000
0.909523 -0.423339 -0.667516 95.000000
0.904743 -0.434775 -0.666670 98.000000
0.903844 -0.447879 -0.668292 91.000000
0.906251 -0.463048 -0.672847 69.000000
0.904768 -0.476385 -0.674595 100.000000
0.906840 -0.491731 -0.679009 98.000000
0.901451 -0.503113 -0.677878 100.000000
0.899537 -0.516503 -0.679449 95.000000
0.893937 -0.527780 -0.678201 98.000000
0.891804 -0.541116 -0.679644 98.000000
0.882395 -0.550068 -0.675590 95.000000
0.890321 -0.570361 -0.685333 72.000000
0.891225 -0.586088 -0.689299 98.000000
0.888158 -0.599757 -0.690729 91.000000
0.881815 -0.610808 -0.689172 95.000000
0.881908 -0.626892 -0.693205 95.000000
0.878332 -0.640551 -0.694485 73.000000
0.875058 -0.653942 -0.695438 95.000000
0.877957 -0.672750 -0.701974 46.000000
0.863956 -0.678644 -0.695029 33.000000
0.853282 -0.686902 -0.690735 95.000000
0.852344 -0.703078 -0.694396 68.000000
0.847534 -0.716886 -0.695618 95.000000
0.878283 -0.760884 -0.725638 72.000000
0.870172 -0.771963 -0.723757 88.000000
0.864536 -0.786110 -0.724762 89.000000
0.862413 -0.802816 -0.728004 36.000000
0.869331 -0.828323 -0.739080 34.000000
1.372238 -1.438438 -1.205711 14.000000
1.401123 -1.502563 -1.240723 17.000000
1.404688 -1.542905 -1.255250 10.000000
1.396219 -1.570728 -1.259393 11.000000
1.381762 -1.592064 -1.258217 9.000000
1.380977 -1.629644 -1.269801 9.000000
1.376946 -1.664116 -1.278669 16.000000
1.375032 -1.702067 -1.289921 10.000000
1.361847 -1.726744 -1.290875 15.000000
1.364160 -1.771772 -1.306935 18.000000
1.350226 -1.796387 -1.307617 13.000000
1.335984 -1.820978 -1.308266 13.000000
1.339086 -1.870038 -1.326285 9.000000
1.321558 -1.891012 -1.324155 9.000000
1.320914 -1.936917 -1.339288 12.000000
1.296344 -1.951177 -1.332531 9.000000
1.306216 -2.015588 -1.359701 10.000000
1.287065 -2.036453 -1.357186 10.000000
1.283685 -2.083034 -1.371598 9.000000
0.434468 0.725900 -0.464241 19.000000
0.465002 0.757471 -0.490123 27.000000
0.493996 0.784616 -0.513761 26.000000
0.521835 0.807175 -0.534894 34.000000
0.527951 0.796655 -0.534401 54.000000
0.541271 0.796950 -0.541203 46.000000
0.545328 0.782420 -0.538010 40.000000
0.538448 0.754028 -0.525090 32.000000
0.520819 0.711906 -0.502110 32.000000
0.517996 0.691229 -0.493856 37.000000
0.533295 0.694776 -0.502966 38.000000
0.530046 0.674160 -0.494577 77.000000
0.531870 0.660531 -0.491136 49.000000
0.538988 0.653593 -0.492662 65.000000
0.543260 0.643265 -0.491636 44.000000
0.553044 0.639446 -0.495623 36.000000
0.557126 0.629013 -0.494522 42.000000
0.555293 0.612188 -0.488320 45.000000
0.561943 0.604980 -0.489668 95.000000
0.565603 0.594573 -0.488458 95.000000
0.580703 0.596659 -0.497640 95.000000
0.566085 0.567854 -0.480939 100.000000
0.578455 0.566487 -0.487294 87.000000
0.575063 0.550343 -0.480950 77.000000
0.571791 0.534122 -0.474310 24.000000
0.583714 0.532648 -0.480820 32.000000
0.596017 0.530760 -0.487103 64.000000
0.598392 0.520400 -0.485775 36.000000
0.603898 0.512851 -0.486996 63.000000
0.609376 0.505216 -0.488188 62.000000
0.618387 0.499972 -0.491782 34.000000
0.640400 0.505283 -0.506104 76.000000
0.615575 0.473863 -0.483469 24.000000
0.657994 0.494088 -0.513655 95.000000
1.409848 0.956461 -1.075942 25.000000
1.452084 0.959464 -1.101982 24.000000
1.447947 0.932219 -1.093586 10.000000
1.469004 0.920511 -1.103446 14.000000
1.482322 0.904330 -1.108331 22.000000
1.488320 0.883698 -1.107711 20.000000
1.490438 0.860800 -1.104317 25.000000
1.485008 0.833903 -1.095433 23.000000
1.482903 0.809202 -1.089098 23.000000
1.484253 0.786682 -1.085388 22.000000
1.496530 0.769925 -1.089754 10.000000
1.504974 0.751141 -1.091283 18.000000
1.524493 0.737650 -1.100927 25.000000
1.517090 0.711609 -1.091797 23.000000
1.524536 0.692810 -1.093506 23.000000
1.516965 0.666848 -1.083719 23.000000
1.497094 0.636482 -1.066046 22.000000
1.273693 0.505143 -0.901129 20.000000
0.884882 0.326227 -0.622452 98.000000
0.892399 0.316552 -0.625829 100.000000
0.891744 0.304156 -0.623831 100.000000
0.899084 0.294314 -0.627076 100.000000
0.898227 0.281914 -0.624969 100.000000
0.897274 0.269543 -0.622787 103.000000
0.900158 0.258419 -0.623302 98.000000
0.898960 0.246128 -0.621045 93.000000
0.897465 0.234004 -0.618885 98.000000
0.891979 0.220811 -0.613705 103.000000
0.898318 0.210733 -0.616990 103.000000
0.900520 0.199622 -0.617465 98.000000
0.902654 0.188478 -0.617871 103.000000
0.904687 0.177299 -0.618210 100.000000
0.910701 0.166835 -0.621267 103.000000
0.912403 0.155606 -0.621743 94.000000
0.909869 0.143696 -0.619328 100.000000
0.915465 0.133046 -0.622424 105.000000
0.912749 0.121203 -0.619904 105.000000
0.914070 0.109889 -0.620073 105.000000
0.915255 0.098609 -0.620208 105.000000
0.916204 0.087328 -0.620513 105.000000
0.921352 0.076323 -0.623308 103.000000
0.926235 0.065249 -0.626274 95.000000
0.922781 0.053593 -0.623547 100.000000
0.919049 0.042004 -0.621021 103.000000
0.923666 0.030795 -0.623785 103.000000
0.928047 0.019517 -0.626685 100.000000
0.928184 0.008066 -0.626753 103.000000
0.928218 -0.003384 -0.626753 98.000000
0.928149 -0.014834 -0.626650 103.000000
0.898979 -0.025463 -0.606935 100.000000
0.906864 -0.036892 -0.612562 98.000000
0.910669 -0.048306 -0.615091 100.000000
0.914235 -0.059789 -0.617752 90.000000
0.925928 -0.072017 -0.625967 98.000000
0.916746 -0.082722 -0.620378 100.000000
0.915865 -0.094036 -0.620039 98.000000
0.927074 -0.106739 -0.628281 100.000000
0.942298 -0.120307 -0.639240 100.000000
0.924500 -0.129639 -0.627800 98.000000
0.923058 -0.141037 -0.627457 100.000000
0.941991 -0.155788 -0.640979 95.000000
0.936253 -0.166641 -0.637703 98.000000
0.934331 -0.178242 -0.637388 100.000000
0.936375 -0.190602 -0.639821 100.000000
0.938296 -0.203063 -0.642144 100.000000
0.948233 -0.217411 -0.649984 103.000000
0.941834 -0.228143 -0.646638 98.000000
0.947265 -0.241863 -0.651794 100.000000
0.916544 -0.245966 -0.631718 52.000000
0.929791 -0.261857 -0.642269 95.000000
0.926888 -0.273362 -0.641703 98.000000
0.923844 -0.284832 -0.641066 98.000000
0.920729 -0.296230 -0.640358 103.000000
0.917330 -0.307700 -0.639862 100.000000
0.914003 -0.319028 -0.639048 100.000000
0.910392 -0.330392 -0.638446 95.000000
0.914741 -0.344559 -0.643022 63.000000
0.930348 -0.363518 -0.655995 95.000000
0.930212 -0.376648 -0.657935 98.000000
0.918357 -0.384949 -0.651580 98.000000
0.921863 -0.399646 -0.656103 103.000000
0.924892 -0.414645 -0.660869 98.000000
0.920461 -0.426055 -0.659799 98.000000
0.919704 -0.439236 -0.661413 100.000000
0.918537 -0.452585 -0.663241 81.000000
0.920961 -0.467856 -0.667701 95.000000
0.919504 -0.481329 -0.669398 98.000000
0.917891 -0.494781 -0.671049 98.000000
0.912441 -0.506248 -0.669913 100.000000
0.914230 -0.521774 -0.674095 98.000000
0.908585 -0.533142 -0.672874 100.000000
0.899213 -0.542256 -0.668891 98.000000
0.900576 -0.557871 -0.672885 66.000000
0.908508 -0.578318 -0.682480 95.000000
0.909437 -0.594187 -0.686342 95.000000
0.909835 -0.610390 -0.690419 98.000000
0.903038 -0.621851 -0.689075 98.000000
0.896122 -0.633273 -0.687732 95.000000
0.886127 -0.641811 -0.683383 100.000000
0.885855 -0.658014 -0.687213 95.000000
0.878674 -0.669162 -0.685706 60.000000
0.884780 -0.690655 -0.694684 95.000000
0.870641 -0.696457 -0.687782 93.000000
0.865978 -0.710352 -0.689003 95.000000
0.864841 -0.726672 -0.692544 93.000000
0.886185 -0.762556 -0.714225 98.000000
0.894055 -0.787753 -0.725342 95.000000
0.913755 -0.825029 -0.747026 95.000000
0.964715 -0.891638 -0.794108 95.000000
1.400620 -1.423892 -1.190172 20.000000
1.424533 -1.481642 -1.219653 21.000000
1.422925 -1.515566 -1.229020 10.000000
1.426649 -1.556073 -1.243318 16.000000
1.421034 -1.587243 -1.249850 15.000000
1.420746 -1.625061 -1.261292 9.000000
1.411387 -1.653155 -1.265098 15.000000
1.401661 -1.681236 -1.268706 21.000000
1.388907 -1.706020 -1.269767 20.000000
1.394739 -1.754389 -1.288082 21.000000
1.381049 -1.779232 -1.288868 15.000000
1.375004 -1.814283 -1.296967 24.000000
1.358162 -1.835449 -1.295116 15.000000
1.356301 -1.877699 -1.307839 9.000000
1.341274 -1.902277 -1.308192 10.000000
1.334427 -1.941779 -1.318689 10.000000
1.333208 -1.988105 -1.333375 11.000000
1.319235 -2.016309 -1.335798 10.000000
1.303340 -2.045124 -1.338591 10.000000
1.302436 -2.095615 -1.355183 12.000000
1.282460 -2.116291 -1.352426 10.000000
0.452924 0.750289 -0.471052 10.000000
0.486259 0.785513 -0.498981 20.000000
0.509282 0.801134 -0.514984 24.000000
0.527307 0.809189 -0.526468 28.000000
0.546191 0.816621 -0.537783 58.000000
0.544830 0.795056 -0.530093 34.000000
0.558252 0.795170 -0.536776 33.000000
0.557042 0.773425 -0.528734 26.000000
0.528926 0.717001 -0.496490 23.000000
0.533922 0.706671 -0.495698 52.000000
0.530810 0.685975 -0.487540 36.000000
0.538128 0.679113 -0.489119 42.000000
0.542645 0.668782 -0.488202 66.000000
0.552612 0.665115 -0.492186 36.000000
0.565374 0.664592 -0.498666 72.000000
0.564005 0.647482 -0.492674 32.000000
0.547943 0.614334 -0.474159 27.000000
0.566287 0.620045 -0.485533 83.000000
0.570053 0.609574 -0.484385 64.000000
0.573721 0.599121 -0.483193 98.000000
0.583276 0.594820 -0.487035 87.000000
0.586348 0.584473 -0.485947 83.000000
0.574240 0.558886 -0.471982 98.000000
0.580399 0.551506 -0.473145 88.000000
0.573527 0.532537 -0.464276 90.000000
0.585809 0.530920 -0.470472 36.000000
0.591368 0.523564 -0.471736 47.000000
0.600454 0.518760 -0.475372 76.000000
0.602655 0.508459 -0.473982 74.000000
0.611350 0.503601 -0.477744 81.000000
0.620331 0.498405 -0.481291 85.000000
0.639122 0.501150 -0.492801 37.000000
0.651269 0.498311 -0.499131 33.000000
0.748970 0.559029 -0.570558 98.000000
1.418081 0.981045 -1.061629 33.000000
1.438857 0.970693 -1.071984 24.000000
1.463714 0.961853 -1.084442 15.000000
1.459962 0.934149 -1.075781 10.000000
1.502157 0.936303 -1.101802 19.000000
1.501710 0.910679 -1.095644 18.000000
1.500361 0.885579 -1.089775 23.000000
1.502421 0.862672 -1.086469 19.000000
1.507961 0.841948 -1.085742 23.000000
1.498398 0.813059 -1.074220 28.000000
1.518349 0.800279 -1.083951 18.000000
1.519500 0.777473 -1.080276 10.000000
1.531789 0.760364 -1.084495 18.000000
1.532465 0.737546 -1.080615 18.000000
1.536330 0.716884 -1.079713 27.000000
1.544243 0.697624 -1.081001 21.000000
1.540025 0.673483 -1.074516 24.000000
1.539817 0.650904 -1.070221 25.000000
1.519510 0.620741 -1.052779 20.000000
0.926881 0.327027 -0.634666 79.000000
0.902444 0.306195 -0.616477 100.000000
0.905873 0.294938 -0.616928 98.000000
0.908991 0.283785 -0.617620 100.000000
0.912004 0.272562 -0.618209 100.000000
0.914914 0.261305 -0.618763 100.000000
0.929883 0.253317 -0.627432 71.000000
0.908291 0.235498 -0.611475 103.000000
0.931046 0.229363 -0.625718 95.000000
0.909000 0.212193 -0.609868 100.000000
0.907295 0.200029 -0.607370 100.000000
0.913492 0.189735 -0.610514 100.000000
0.911258 0.177740 -0.608352 103.000000
0.937870 0.170993 -0.625073 95.000000
0.923262 0.156646 -0.614346 98.000000
0.920739 0.144649 -0.611977 103.000000
0.918101 0.132754 -0.609572 100.000000
0.923632 0.122021 -0.612590 105.000000
0.924925 0.110656 -0.612760 105.000000
0.926116 0.099257 -0.612896 103.000000
0.931226 0.088286 -0.615952 108.000000
0.932251 0.076836 -0.615952 100.000000
0.928838 0.065094 -0.613373 87.000000
0.937855 0.054176 -0.618977 100.000000
0.934097 0.042485 -0.616465 103.000000
0.938747 0.031174 -0.619183 100.000000
0.938988 0.019638 -0.619320 103.000000
0.943299 0.008173 -0.622107 100.000000
0.943333 -0.003414 -0.622107 105.000000
0.934917 -0.014868 -0.616533 98.000000
0.926400 -0.026083 -0.610893 100.000000
0.925994 -0.037465 -0.610893 100.000000
0.921485 -0.048593 -0.607871 98.000000
0.920912 -0.059890 -0.607770 55.000000
0.936859 -0.072475 -0.618565 103.000000
0.927613 -0.083264 -0.613066 100.000000
0.935040 -0.095478 -0.618221 100.000000
0.954660 -0.109322 -0.631819 100.000000
0.957507 -0.121570 -0.634355 100.000000
0.956132 -0.133342 -0.634073 105.000000
0.954687 -0.145080 -0.633685 98.000000
0.953101 -0.156782 -0.633262 87.000000
0.951268 -0.168484 -0.633015 98.000000
0.949329 -0.180187 -0.632698 98.000000
0.951562 -0.192614 -0.634835 98.000000
0.953531 -0.205212 -0.637109 98.000000
0.955160 -0.217911 -0.639558 100.000000
0.956875 -0.230604 -0.641753 103.000000
0.958462 -0.243361 -0.643836 100.000000
0.959775 -0.256253 -0.646094 81.000000
0.944769 -0.264685 -0.637380 100.000000
0.945866 -0.277470 -0.639530 95.000000
0.938771 -0.287894 -0.636166 100.000000
0.935664 -0.299427 -0.635452 98.000000
0.928217 -0.309666 -0.632239 100.000000
0.928880 -0.322421 -0.634131 98.000000
0.929192 -0.335345 -0.636195 95.000000
0.925678 -0.346712 -0.635263 89.000000
0.945341 -0.367296 -0.650710 98.000000
0.941296 -0.378953 -0.649901 100.000000
0.941066 -0.392157 -0.651712 98.000000
0.936561 -0.403900 -0.651010 95.000000
0.936056 -0.417137 -0.652736 95.000000
0.923681 -0.425251 -0.646555 95.000000
0.934377 -0.443823 -0.656165 94.000000
0.921854 -0.451732 -0.649918 85.000000
0.931903 -0.470814 -0.659637 98.000000
0.926702 -0.482347 -0.658619 95.000000
0.932579 -0.499840 -0.665512 100.000000
0.923416 -0.509353 -0.661710 98.000000
0.921555 -0.522881 -0.663185 100.000000
0.908582 -0.529974 -0.656669 98.000000
0.910149 -0.545540 -0.660667 93.000000
0.911239 -0.561440 -0.664876 98.000000
0.926794 -0.586303 -0.679250 82.000000
0.920259 -0.597916 -0.678029 98.000000
0.924189 -0.616538 -0.684639 100.000000
0.917737 -0.627848 -0.683046 95.000000
0.910808 -0.639358 -0.681692 98.000000
0.907221 -0.653241 -0.682865 98.000000
0.896670 -0.662018 -0.678785 95.000000
0.889422 -0.673209 -0.677311 95.000000
0.895653 -0.694808 -0.686074 56.000000
0.901537 -0.716625 -0.694788 98.000000
0.890048 -0.725411 -0.690815 95.000000
0.918491 -0.766722 -0.717339 95.000000
0.942901 -0.806021 -0.741153 100.000000
0.995210 -0.871796 -0.788094 89.000000
1.440935 -1.421184 -1.184451 15.000000
1.459643 -1.472754 -1.208569 22.000000
1.449398 -1.497571 -1.210295 13.000000
1.453733 -1.537974 -1.224440 16.000000
1.442747 -1.562920 -1.226002 13.000000
1.434376 -1.590937 -1.229874 10.000000
1.434250 -1.628723 -1.241150 12.000000
1.436304 -1.670092 -1.254735 10.000000
1.420999 -1.691680 -1.253257 18.000000
1.419272 -1.729934 -1.264059 19.000000
1.414151 -1.765056 -1.272317 16.000000
1.411354 -1.803726 -1.282780 21.000000
1.389316 -1.818201 -1.276099 17.000000
1.390720 -1.863981 -1.291197 18.000000
1.378562 -1.892288 -1.293989 14.000000
1.354474 -1.907003 -1.287577 9.000000
1.351674 -1.949584 -1.299750 10.000000
1.350803 -1.995838 -1.314196 10.000000
1.345035 -2.039526 -1.326540 10.000000
