x y z intensity
1.097859 -1.876043 0.879948 30.000000
1.084283 -1.901511 0.882047 32.000000
0.784952 1.409771 0.664333 15.000000
0.795703 1.391844 0.663121 23.000000
0.806172 1.373872 0.661931 14.000000
0.830590 1.379524 0.672162 16.000000
0.838286 1.357370 0.668971 20.000000
0.867808 1.370273 0.683149 10.000000
0.875163 1.347891 0.679830 25.000000
0.869411 1.306327 0.666692 24.000000
0.893980 1.310701 0.676987 16.000000
0.910932 1.303360 0.681325 23.000000
0.925187 1.292009 0.683701 18.000000
0.946522 1.292135 0.692291 22.000000
0.955182 1.273082 0.690654 26.000000
0.977486 1.272125 0.698975 14.000000
0.988592 1.256402 0.699214 27.000000
0.984366 1.223288 0.689705 21.000000
1.012363 1.228748 0.701937 24.000000
1.022955 1.212721 0.702090 30.000000
1.044510 1.210922 0.710617 25.000000
1.060884 1.201421 0.714790 29.000000
1.065038 1.178143 0.710698 26.000000
1.102125 1.192298 0.729426 18.000000
1.102793 1.165420 0.723271 32.000000
1.115093 1.152261 0.725527 29.000000
1.130434 1.142176 0.729797 34.000000
1.149622 1.134618 0.735882 33.000000
1.158376 1.117701 0.735970 28.000000
1.184138 1.115855 0.746143 35.000000
1.192651 1.098575 0.746129 28.000000
1.217912 1.096452 0.756582 24.000000
1.222833 1.075861 0.754417 26.000000
1.248089 1.073004 0.764817 26.000000
1.263136 1.060908 0.768868 34.000000
1.267574 1.039999 0.766577 31.000000
1.285853 1.030360 0.772700 29.000000
1.307762 1.023283 0.780917 32.000000
1.315257 1.004746 0.780576 28.000000
1.337073 0.996991 0.788719 24.000000
1.351593 0.983546 0.792551 31.000000
1.366002 0.969844 0.796391 29.000000
1.391029 0.963993 0.806923 35.000000
1.401672 0.947227 0.808468 34.000000
1.419618 0.935252 0.814333 29.000000
1.456055 0.935508 0.831270 36.000000
1.473592 0.923005 0.837366 35.000000
1.495373 0.912194 0.845299 28.000000
1.512846 0.899045 0.851315 28.000000
1.530299 0.885533 0.857349 35.000000
1.547670 0.871777 0.863279 33.000000
1.572779 0.861975 0.873604 34.000000
1.578190 0.841110 0.872872 32.000000
1.595276 0.826416 0.878662 31.000000
1.612269 0.811349 0.884405 31.000000
1.625135 0.794058 0.887896 31.000000
1.665925 0.790317 0.907153 27.000000
1.678653 0.772249 0.910554 29.000000
1.699172 0.757925 0.918641 29.000000
1.723669 0.744899 0.928902 31.000000
1.760591 0.736608 0.945785 27.000000
1.776759 0.719102 0.951467 32.000000
1.797039 0.702900 0.959385 29.000000
1.821350 0.687918 0.969418 20.000000
1.854076 0.675470 0.983865 33.000000
1.856921 0.652118 0.982977 25.000000
1.897930 0.641484 1.001807 32.000000
1.917521 0.623277 1.009685 32.000000
1.932660 0.603299 1.015268 27.000000
1.960491 0.586826 1.027523 30.000000
2.009795 0.575931 1.050958 27.000000
1.998777 0.547432 1.042825 10.000000
2.056280 0.537476 1.070884 28.000000
2.096821 0.521694 1.089620 24.000000
2.119735 0.501135 1.099594 27.000000
2.151149 0.481970 1.113942 28.000000
2.160640 0.457491 1.116952 22.000000
2.195944 0.438224 1.133744 26.000000
2.213844 0.414797 1.141135 23.000000
2.218159 0.388752 1.141906 9.000000
2.283850 0.372683 1.174276 26.000000
2.336299 0.353085 1.199730 25.000000
2.370925 0.329807 1.216067 26.000000
2.405234 0.305884 1.232666 28.000000
2.421670 0.279109 1.240048 23.000000
2.477696 0.256146 1.267678 24.000000
2.502526 0.229005 1.279448 22.000000
2.522701 0.200901 1.288695 9.000000
2.609148 0.176989 1.332340 25.000000
2.641984 0.148101 1.348591 24.000000
2.692386 0.119180 1.373749 18.000000
2.729204 0.088672 1.391915 22.000000
2.769938 0.057420 1.412730 21.000000
2.828219 0.025386 1.442451 17.000000
2.819408 -0.007920 1.437908 21.000000
2.877113 -0.041893 1.467340 21.000000
2.952321 -0.077695 1.505549 23.000000
3.004623 -0.114429 1.532799 26.000000
3.056467 -0.152420 1.559944 24.000000
3.103595 -0.191392 1.584495 24.000000
3.088135 -0.226838 1.577155 27.000000
3.058636 -0.260835 1.563329 21.000000
3.064457 -0.297758 1.567445 28.000000
3.025643 -0.329848 1.548777 22.000000
2.999769 -0.362712 1.536714 26.000000
2.995734 -0.397886 1.535887 29.000000
2.969021 -0.429970 1.524047 26.000000
2.964195 -0.464885 1.523328 29.000000
2.941370 -0.496728 1.513355 23.000000
2.909528 -0.526568 1.498771 12.000000
2.916595 -0.563401 1.504943 26.000000
2.884176 -0.592163 1.490076 25.000000
2.890610 -0.628948 1.495837 28.000000
2.853184 -0.655940 1.478943 28.000000
2.850214 -0.690524 1.479994 26.000000
2.859599 -0.728617 1.488097 30.000000
2.825747 -0.755185 1.473090 24.000000
2.765638 -0.774120 1.444925 10.000000
2.744140 -0.802930 1.436914 28.000000
2.756623 -0.841779 1.446664 25.000000
2.751533 -0.875515 1.447428 29.000000
2.712259 -0.898009 1.430086 26.000000
2.680879 -0.922906 1.417638 23.000000
2.687766 -0.960368 1.424636 26.000000
2.664372 -0.987440 1.416483 24.000000
2.603185 -0.999675 1.388099 10.000000
2.637926 -1.048573 1.410867 29.000000
2.609747 -1.072911 1.400139 28.000000
2.610294 -1.108928 1.404778 29.000000
2.590012 -1.136043 1.398317 29.000000
2.573506 -1.164619 1.393890 30.000000
2.560432 -1.195189 1.392064 29.000000
2.535420 -1.219347 1.383043 24.000000
2.509673 -1.243506 1.374521 12.000000
2.507866 -1.279430 1.379025 33.000000
2.493706 -1.309088 1.376824 31.000000
2.463348 -1.330111 1.365759 29.000000
2.452734 -1.361477 1.365571 32.000000
2.433879 -1.388194 1.361006 29.000000
2.414787 -1.414724 1.356259 30.000000
2.391696 -1.438556 1.349249 26.000000
2.363930 -1.460122 1.340555 10.000000
2.367142 -1.499952 1.348571 31.000000
2.350912 -1.527761 1.345629 29.000000
2.356341 -1.570958 1.356118 26.000000
2.331357 -1.594133 1.349220 17.000000
2.306960 -1.616177 1.341672 16.000000
2.299969 -1.651692 1.345348 29.000000
2.274418 -1.673794 1.338196 25.000000
2.241479 -1.690087 1.326789 10.000000
2.240709 -1.730632 1.334415 29.000000
2.218151 -1.754570 1.329231 28.000000
2.191850 -1.775288 1.321746 30.000000
2.186406 -1.812996 1.326979 33.000000
2.156235 -1.830220 1.317297 25.000000
2.146606 -1.864659 1.320282 27.000000
2.126419 -1.890204 1.316742 24.000000
2.099228 -1.909256 1.309013 10.000000
2.065325 -1.921768 1.297035 33.000000
2.066662 -1.968920 1.308397 24.000000
2.061770 -2.009226 1.315047 29.000000
2.032726 -2.027912 1.307523 28.000000
2.011062 -2.051886 1.303575 24.000000
1.989206 -2.075572 1.299531 26.000000
1.984696 -2.119802 1.308292 21.000000
1.953002 -2.133036 1.297970 10.000000
1.950504 -2.180648 1.308487 29.000000
1.932159 -2.211294 1.308743 26.000000
1.917911 -2.244381 1.310413 28.000000
1.892874 -2.267841 1.306470 28.000000
1.882194 -2.308638 1.312510 27.000000
1.858155 -2.330690 1.307841 20.000000
1.798553 -2.309959 1.279541 10.000000
1.761908 -2.317300 1.267365 9.000000
1.627044 -2.191484 1.183627 13.000000
1.558508 -2.147303 1.145487 9.000000
1.487073 -2.098889 1.105969 10.000000
1.411716 -2.041480 1.062762 11.000000
1.363657 -2.020576 1.039361 10.000000
1.298469 -1.971891 1.002423 13.000000
1.249561 -1.945158 0.977328 10.000000
1.186672 -1.894087 0.940679 9.000000
1.144387 -1.873175 0.919737 22.000000
1.112099 -1.867441 0.906626 24.000000
1.098642 -1.893150 0.908857 29.000000
1.080158 -1.910698 0.907223 29.000000
0.781895 1.377081 0.671245 19.000000
0.799223 1.371135 0.675829 24.000000
0.811761 1.357082 0.676494 26.000000
0.850592 1.385945 0.698806 14.000000
0.831427 1.320862 0.673712 25.000000
0.850773 1.318142 0.680180 21.000000
0.864185 1.307966 0.682946 24.000000
0.883621 1.304645 0.689407 27.000000
0.890067 1.282288 0.685840 21.000000
0.912070 1.282336 0.694288 26.000000
0.926085 1.270946 0.696650 28.000000
0.947399 1.270805 0.705373 21.000000
0.947524 1.240856 0.697505 29.000000
0.969575 1.239791 0.705888 24.000000
0.988116 1.235277 0.712521 32.000000
0.996002 1.215891 0.710678 32.000000
1.012299 1.207009 0.714903 27.000000
1.030842 1.201772 0.721531 43.000000
1.047170 1.192339 0.725734 31.000000
1.071776 1.193292 0.736476 28.000000
1.069658 1.163221 0.728115 35.000000
1.094360 1.163594 0.738794 30.000000
1.110450 1.153272 0.742940 37.000000
1.119497 1.136685 0.743091 43.000000
1.138011 1.129585 0.749528 35.000000
1.153847 1.118584 0.753541 40.000000
1.172332 1.110886 0.759965 32.000000
1.197531 1.109066 0.770628 32.000000
1.206024 1.091547 0.770581 33.000000
1.224490 1.082973 0.776961 26.000000
1.243030 1.074071 0.783253 34.000000
1.254583 1.059075 0.785253 36.000000
1.272980 1.049592 0.791522 30.000000
1.284373 1.034178 0.793421 40.000000
1.299138 1.021435 0.797493 33.000000
1.317423 1.011124 0.803640 33.000000
1.339259 1.003224 0.811934 32.000000
1.353901 0.989643 0.815881 32.000000
1.364259 0.973593 0.817873 35.000000
1.386018 0.964728 0.826114 36.000000
1.403657 0.953306 0.832470 32.000000
1.421637 0.941186 0.838382 44.000000
1.435436 0.926688 0.842449 36.000000
1.457109 0.916348 0.850547 32.000000
1.470715 0.901286 0.854465 31.000000
1.488039 0.888312 0.860617 34.000000
1.524694 0.886284 0.877807 40.000000
1.538147 0.870210 0.881662 39.000000
1.555385 0.856080 0.887641 34.000000
1.572536 0.841702 0.893634 47.000000
1.589596 0.826891 0.899521 33.000000
1.602271 0.810122 0.903482 35.000000
1.643228 0.806599 0.922775 30.000000
1.660108 0.790731 0.928534 32.000000
1.676632 0.774734 0.934557 36.000000
1.705192 0.763951 0.947315 35.000000
1.721554 0.747234 0.953250 35.000000
1.737801 0.730194 0.959134 37.000000
1.766244 0.717861 0.971777 32.000000
1.778161 0.698460 0.975226 29.000000
1.806567 0.685078 0.987718 31.000000
1.826590 0.668076 0.995613 35.000000
1.846179 0.650909 1.003790 34.000000
1.895210 0.643387 1.027908 41.000000
1.914964 0.624797 1.035590 36.000000
1.934326 0.606112 1.043562 36.000000
1.957892 0.588266 1.053769 43.000000
1.985346 0.571317 1.066500 37.000000
2.012933 0.553578 1.078828 31.000000
2.035923 0.534349 1.089167 37.000000
2.059012 0.514352 1.099015 32.000000
2.094641 0.497166 1.116071 34.000000
2.112959 0.475297 1.123794 37.000000
2.165536 0.460503 1.150267 43.000000
2.179185 0.436586 1.155489 41.000000
2.201130 0.414104 1.165639 27.000000
2.257852 0.397359 1.194127 31.000000
2.301410 0.377067 1.215636 36.000000
2.327338 0.353184 1.227759 45.000000
2.348707 0.328089 1.237498 35.000000
2.404810 0.307070 1.265922 38.000000
2.429909 0.281239 1.278168 45.000000
2.459301 0.255262 1.292487 36.000000
2.475176 0.227358 1.299778 26.000000
2.539402 0.203026 1.332478 32.000000
2.572359 0.175215 1.349143 33.000000
2.605006 0.146585 1.365729 35.000000
2.677247 0.118903 1.403014 37.000000
2.709437 0.088341 1.419340 36.000000
2.745517 0.057047 1.438177 35.000000
2.790184 0.025090 1.461566 29.000000
2.852286 -0.008058 1.494045 35.000000
2.891948 -0.042247 1.514825 34.000000
2.953441 -0.078062 1.546997 33.000000
3.018716 -0.115408 1.581787 38.000000
3.083514 -0.154426 1.616364 42.000000
3.108235 -0.192441 1.629957 37.000000
3.092728 -0.228149 1.622467 36.000000
3.054637 -0.261654 1.603713 26.000000
3.038345 -0.296370 1.596340 35.000000
3.026066 -0.331256 1.591182 35.000000
2.995897 -0.363797 1.576558 33.000000
2.996342 -0.399609 1.578041 36.000000
2.991659 -0.435095 1.577520 36.000000
2.977905 -0.468994 1.572168 37.000000
2.955127 -0.501203 1.562095 32.000000
2.923378 -0.531309 1.547208 29.000000
2.917448 -0.565762 1.546083 35.000000
2.906663 -0.599421 1.542959 35.000000
2.856880 -0.624047 1.518387 32.000000
2.854166 -0.658832 1.519684 44.000000
2.829561 -0.688271 1.509172 33.000000
2.821653 -0.721904 1.508271 35.000000
2.783720 -0.747079 1.490692 28.000000
2.762474 -0.776450 1.482717 29.000000
2.724252 -0.800115 1.464895 30.000000
2.728128 -0.836297 1.470401 33.000000
2.714586 -0.867173 1.466546 34.000000
2.700391 -0.898144 1.463086 33.000000
2.690625 -0.929980 1.461328 34.000000
2.667904 -0.957114 1.452534 31.000000
2.657212 -0.988800 1.451076 31.000000
2.617053 -1.009177 1.433496 26.000000
2.622351 -1.046831 1.440856 31.000000
2.594270 -1.071181 1.429939 35.000000
2.594744 -1.107093 1.434817 32.000000
2.586653 -1.139606 1.434955 34.000000
2.545752 -1.157256 1.416911 34.000000
2.537259 -1.189095 1.416871 28.000000
2.527863 -1.221413 1.417304 29.000000
2.498245 -1.243687 1.406288 29.000000
2.488869 -1.275001 1.405959 32.000000
2.482543 -1.308876 1.408247 47.000000
2.460213 -1.334128 1.401470 33.000000
2.453221 -1.367809 1.403552 33.000000
2.434294 -1.394715 1.398829 33.000000
2.411270 -1.419067 1.391792 30.000000
2.388154 -1.443045 1.384677 29.000000
2.361044 -1.464288 1.375265 28.000000
2.351956 -1.497580 1.377329 31.000000
2.350843 -1.535198 1.383225 32.000000
2.329826 -1.561069 1.378536 29.000000
2.331546 -1.601243 1.386392 21.000000
2.317338 -1.631900 1.385897 25.000000
2.278042 -1.643372 1.369381 30.000000
2.267058 -1.676088 1.370893 27.000000
2.234153 -1.692488 1.359200 26.000000
2.201202 -1.708257 1.347451 27.000000
2.192888 -1.743016 1.350849 32.000000
2.194684 -1.786373 1.360622 29.000000
2.171673 -1.809839 1.355202 31.000000
2.145004 -1.829910 1.347446 30.000000
2.121577 -1.852595 1.341863 26.000000
2.121693 -1.896075 1.351208 24.000000
2.091116 -1.912208 1.341139 20.000000
2.073753 -1.940269 1.339636 26.000000
2.062573 -1.974282 1.342184 33.000000
2.033769 -1.993267 1.334667 28.000000
2.021964 -2.027075 1.337079 26.000000
2.000362 -2.051088 1.333029 30.000000
1.986603 -2.085531 1.335771 25.000000
1.964415 -2.109077 1.331605 23.000000
1.943829 -2.136562 1.330014 17.000000
1.918197 -2.156167 1.323563 23.000000
1.923898 -2.214038 1.340568 30.000000
1.897626 -2.233403 1.333969 25.000000
1.881489 -2.267205 1.336136 26.000000
1.856215 -2.290307 1.331989 28.000000
1.843553 -2.326518 1.335555 20.000000
1.806656 -2.334733 1.323104 15.000000
1.739504 -2.302206 1.288186 10.000000
1.617865 -2.190438 1.210261 10.000000
1.548129 -2.147308 1.171853 13.000000
1.490310 -2.117750 1.141569 12.000000
1.407296 -2.049258 1.091369 10.000000
1.346506 -2.009568 1.057515 12.000000
1.295748 -1.979328 1.029307 10.000000
1.246934 -1.952775 1.003666 10.000000
1.174551 -1.886341 0.958384 9.000000
1.139568 -1.877326 0.943003 12.000000
1.119000 -1.891402 0.939356 17.000000
1.082202 -1.877431 0.922078 19.000000
0.774861 1.374247 0.684997 32.000000
0.788823 1.364799 0.687937 28.000000
0.806120 1.358659 0.692569 27.000000
0.830536 1.364027 0.703261 30.000000
0.823593 1.318579 0.687720 21.000000
0.845358 1.319641 0.696352 27.000000
0.857296 1.305148 0.696879 34.000000
0.876692 1.301863 0.703474 27.000000
0.892612 1.295013 0.708256 33.000000
0.901621 1.276306 0.706611 32.000000
0.915647 1.264896 0.709018 30.000000
0.937699 1.264344 0.717595 33.000000
0.942496 1.242129 0.713990 26.000000
0.961837 1.237475 0.720470 35.000000
0.980279 1.232947 0.727241 47.000000
0.991075 1.217093 0.727415 31.000000
1.007495 1.208167 0.731741 50.000000
1.025976 1.202883 0.738462 34.000000
1.042320 1.193405 0.742767 35.000000
1.054871 1.180801 0.745224 36.000000
1.067314 1.168037 0.747574 24.000000
1.089605 1.164583 0.756082 60.000000
1.098818 1.148125 0.756250 37.000000
1.117269 1.141252 0.762870 36.000000
1.126879 1.124078 0.762708 71.000000
1.151796 1.122979 0.773584 48.000000
1.167040 1.112086 0.777935 55.000000
1.185535 1.104071 0.784479 66.000000
1.190748 1.083570 0.782196 22.000000
1.222590 1.087012 0.797416 38.000000
1.234310 1.072127 0.799527 37.000000
1.245918 1.057131 0.801526 31.000000
1.264268 1.047637 0.807885 36.000000
1.275661 1.032279 0.809840 35.000000
1.290458 1.019475 0.813900 35.000000
1.315789 1.014680 0.824639 36.000000
1.323308 0.995911 0.824223 19.000000
1.348171 0.990755 0.835188 36.000000
1.355438 0.971658 0.834663 35.000000
1.380328 0.965740 0.845627 35.000000
1.402097 0.956378 0.853979 36.000000
1.412244 0.939621 0.855893 33.000000
1.429760 0.927546 0.862205 36.000000
1.447617 0.914766 0.868184 35.000000
1.461198 0.899700 0.872207 18.000000
1.482352 0.889009 0.880720 35.000000
1.518860 0.886906 0.898297 42.000000
1.532313 0.870842 0.902142 36.000000
1.549525 0.856657 0.908278 36.000000
1.566711 0.842163 0.914307 35.000000
1.587317 0.829785 0.922947 35.000000
1.592456 0.808588 0.922007 36.000000
1.636826 0.807312 0.944342 21.000000
1.645731 0.787495 0.945596 31.000000
1.670233 0.775339 0.956382 35.000000
1.686618 0.759032 0.962455 30.000000
1.706891 0.744177 0.970789 34.000000
1.743483 0.735796 0.988337 36.000000
1.759636 0.718295 0.994210 32.000000
1.775665 0.700401 1.000094 32.000000
1.791569 0.682245 1.005858 23.000000
1.823696 0.670129 1.021203 35.000000
1.847749 0.654131 1.031522 37.000000
1.883949 0.642151 1.049057 35.000000
1.907623 0.625206 1.059560 36.000000
1.926992 0.606465 1.067677 35.000000
1.941939 0.586007 1.073400 32.000000
1.969253 0.569097 1.086367 35.000000
1.992513 0.550294 1.096589 25.000000
2.023917 0.533409 1.111805 31.000000
2.055176 0.515771 1.126904 31.000000
2.082134 0.496426 1.139531 32.000000
2.104679 0.475524 1.149750 33.000000
2.152897 0.459665 1.174024 52.000000
2.166571 0.435745 1.179341 32.000000
2.201416 0.415789 1.196749 32.000000
2.249177 0.397337 1.221097 27.000000
2.279467 0.374914 1.235961 32.000000
2.296538 0.349800 1.243600 31.000000
2.339356 0.328130 1.265655 36.000000
2.382296 0.305365 1.287240 32.000000
2.424764 0.281666 1.309089 36.000000
2.445252 0.254751 1.318966 34.000000
2.473954 0.228230 1.333923 30.000000
2.515968 0.201970 1.355384 27.000000
2.566228 0.175460 1.381938 32.000000
2.598701 0.146812 1.398863 33.000000
2.653031 0.118325 1.427451 32.000000
2.685039 0.087866 1.444022 30.000000
2.725315 0.056860 1.465705 31.000000
2.787340 0.025113 1.498951 33.000000
2.813858 -0.007995 1.513257 27.000000
2.892921 -0.042506 1.555683 35.000000
2.936343 -0.077961 1.579057 29.000000
2.979230 -0.114459 1.602731 28.000000
3.061355 -0.153885 1.647605 33.000000
3.090214 -0.192119 1.663747 30.000000
3.079283 -0.228047 1.658478 35.000000
3.054452 -0.262742 1.646543 29.000000
3.003460 -0.294127 1.619579 28.000000
3.008770 -0.330627 1.623784 34.000000
2.987500 -0.364136 1.613600 32.000000
2.974491 -0.398400 1.608563 32.000000
2.965765 -0.432989 1.605163 35.000000
2.934660 -0.464033 1.590383 32.000000
2.924966 -0.498055 1.587099 28.000000
2.902069 -0.529598 1.576748 23.000000
2.883263 -0.561368 1.568458 28.000000
2.876759 -0.595616 1.567746 36.000000
2.852814 -0.625979 1.557320 35.000000
2.828549 -0.655932 1.546906 31.000000
2.808356 -0.686323 1.538654 32.000000
2.800761 -0.719604 1.537255 33.000000
2.754490 -0.742344 1.514654 25.000000
2.758765 -0.778768 1.520599 25.000000
2.720781 -0.802598 1.502337 30.000000
2.724440 -0.838827 1.508077 30.000000
2.698252 -0.865804 1.497160 33.000000
2.671889 -0.892185 1.486165 27.000000
2.674609 -0.928223 1.491406 34.000000
2.664160 -0.960254 1.490039 35.000000
2.653711 -0.991699 1.487988 26.000000
2.601288 -1.007350 1.463104 19.000000
2.610596 -1.046641 1.473069 31.000000
2.578505 -1.069258 1.459547 31.000000
2.566585 -1.100020 1.457625 37.000000
2.534199 -1.121521 1.443958 30.000000
2.525931 -1.153500 1.444167 32.000000
2.533494 -1.192850 1.453391 35.000000
2.520014 -1.223371 1.451466 25.000000
2.459055 -1.229292 1.421407 20.000000
2.472918 -1.273091 1.435379 33.000000
2.459354 -1.302224 1.432609 32.000000
2.452646 -1.335995 1.434982 36.000000
2.434007 -1.363143 1.430210 34.000000
2.418890 -1.392228 1.427722 33.000000
2.407416 -1.423387 1.427412 40.000000
2.357520 -1.431324 1.404311 26.000000
2.330585 -1.452303 1.394685 20.000000
2.336676 -1.495112 1.405992 30.000000
2.327908 -1.527722 1.407561 31.000000
2.322453 -1.562908 1.411171 32.000000
2.323325 -1.603723 1.419821 23.000000
2.291468 -1.620883 1.407576 22.000000
2.266117 -1.643422 1.400228 34.000000
2.230676 -1.656828 1.385633 24.000000
2.197950 -1.672987 1.373789 23.000000
2.189999 -1.707800 1.377347 33.000000
2.174580 -1.736992 1.376441 33.000000
2.151968 -1.760400 1.371008 33.000000
2.153308 -1.803609 1.380933 32.000000
2.140256 -1.835436 1.381991 32.000000
2.113476 -1.855285 1.374055 32.000000
2.103257 -1.889707 1.376993 24.000000
2.072784 -1.905911 1.366796 22.000000
2.058613 -1.936915 1.367425 29.000000
2.047457 -1.971008 1.370106 30.000000
2.026179 -1.995464 1.366159 32.000000
2.013077 -2.030201 1.369171 30.000000
2.000734 -2.064010 1.371568 34.000000
1.972360 -2.081365 1.363095 32.000000
1.955050 -2.112415 1.363695 22.000000
1.929564 -2.132389 1.357284 23.000000
1.906952 -2.155389 1.352917 31.000000
1.900550 -2.199528 1.361664 32.000000
1.891954 -2.239463 1.367727 35.000000
1.861107 -2.255866 1.359366 30.000000
1.850143 -2.296562 1.365738 30.000000
1.826141 -2.318581 1.360878 24.000000
1.786407 -2.323185 1.346178 16.000000
1.729411 -2.300826 1.316303 13.000000
1.615082 -2.201111 1.243561 11.000000
1.534965 -2.143420 1.195972 12.000000
1.466915 -2.099010 1.156913 19.000000
1.398931 -2.048633 1.115542 18.000000
1.338321 -2.009015 1.080989 17.000000
1.293811 -1.991180 1.058789 20.000000
1.227960 -1.937805 1.018385 10.000000
1.177821 -1.906436 0.990378 10.000000
1.135564 -1.885879 0.968591 16.000000
1.107767 -1.888193 0.958903 21.000000
1.074849 -1.877600 0.942905 26.000000
0.786335 1.369830 0.705716 24.000000
0.801382 1.359693 0.708409 35.000000
0.816270 1.349345 0.711101 24.000000
0.832448 1.343238 0.716069 16.000000
0.835013 1.313393 0.708360 30.000000
0.849364 1.302696 0.710917 24.000000
0.868713 1.299448 0.717646 31.000000
0.882098 1.288845 0.720428 28.000000
0.896323 1.277612 0.722948 26.000000
0.913037 1.269850 0.727471 33.000000
0.928882 1.262391 0.732325 23.000000
0.951048 1.261408 0.741071 18.000000
0.956706 1.238633 0.737077 35.000000
0.972390 1.230511 0.741854 29.000000
0.988892 1.221685 0.746276 43.000000
0.995933 1.202732 0.744521 37.000000
1.018041 1.200433 0.753266 33.000000
1.030715 1.188025 0.755716 37.000000
1.046913 1.178398 0.760071 31.000000
1.068437 1.175625 0.769063 22.000000
1.080933 1.162590 0.771433 36.000000
1.097013 1.152164 0.775725 35.000000
1.109275 1.138822 0.778048 58.000000
1.124596 1.128442 0.782521 36.000000
1.139878 1.117823 0.787007 43.000000
1.155064 1.107018 0.791451 50.000000
1.176800 1.102039 0.800299 31.000000
1.188666 1.087646 0.802441 26.000000
1.210425 1.082032 0.811289 35.000000
1.228901 1.073067 0.817819 35.000000
1.243940 1.060929 0.822126 40.000000
1.258874 1.048483 0.826388 41.000000
1.270354 1.033027 0.828292 33.000000
1.285102 1.020232 0.832458 37.000000
1.302814 1.010307 0.839185 30.000000
1.321038 0.999648 0.845537 23.000000
1.339212 0.988701 0.851909 32.000000
1.360481 0.980409 0.860756 33.000000
1.367659 0.961171 0.860194 53.000000
1.388865 0.952242 0.869024 33.000000
1.398985 0.935471 0.870932 34.000000
1.420609 0.925506 0.879341 39.000000
1.438008 0.913125 0.885762 33.000000
1.462874 0.905112 0.896765 24.000000
1.476438 0.889697 0.900797 34.000000
1.508975 0.885278 0.916379 35.000000
1.530153 0.873540 0.924918 52.000000
1.543495 0.857166 0.928824 35.000000
1.560226 0.842983 0.935316 33.000000
1.581269 0.830180 0.943793 49.000000
1.578154 0.805231 0.938498 25.000000
1.622708 0.803659 0.960875 24.000000
1.643152 0.790004 0.969544 32.000000
1.659595 0.774009 0.975759 29.000000
1.671909 0.755879 0.979570 32.000000
1.704265 0.746369 0.995115 35.000000
1.716372 0.727612 0.998829 30.000000
1.752780 0.718591 1.016605 37.000000
1.760654 0.697464 1.017851 26.000000
1.780271 0.681187 1.026406 25.000000
1.808381 0.667332 1.039328 35.000000
1.848624 0.657540 1.059672 32.000000
1.872276 0.641121 1.070412 34.000000
1.895846 0.624167 1.081173 37.000000
1.923519 0.608069 1.094131 36.000000
1.942647 0.588779 1.102340 49.000000
1.952999 0.566881 1.105997 27.000000
1.988837 0.551642 1.123579 24.000000
2.015865 0.533520 1.136620 32.000000
2.042798 0.514819 1.149609 30.000000
2.073895 0.496560 1.164943 33.000000
2.100625 0.476570 1.177753 35.000000
2.131452 0.456989 1.192827 28.000000
2.157721 0.435926 1.205823 34.000000
2.179469 0.413457 1.216358 24.000000
2.226951 0.395173 1.241184 24.000000
2.265715 0.374274 1.261067 33.000000
2.295782 0.351225 1.276073 33.000000
2.329628 0.328168 1.293746 35.000000
2.372337 0.305342 1.315762 35.000000
2.401608 0.280144 1.330811 32.000000
2.439404 0.255151 1.350610 33.000000
2.450517 0.226992 1.356120 25.000000
2.505382 0.201972 1.385251 27.000000
2.537886 0.174293 1.402677 31.000000
2.609506 0.148029 1.441578 32.000000
2.628458 0.117750 1.451512 29.000000
2.682249 0.088111 1.480494 34.000000
2.709164 0.056766 1.495363 32.000000
2.770824 0.025113 1.529280 30.000000
2.836582 -0.008108 1.565618 34.000000
2.871401 -0.042341 1.584746 30.000000
2.936444 -0.078326 1.620676 34.000000
2.979063 -0.114927 1.644829 33.000000
3.043195 -0.153673 1.680846 33.000000
3.076240 -0.192070 1.699844 36.000000
3.074092 -0.228701 1.699307 32.000000
3.010116 -0.260056 1.665408 20.000000
3.011738 -0.296176 1.666873 33.000000
2.982137 -0.329142 1.651877 32.000000
2.982722 -0.365107 1.653660 35.000000
2.965301 -0.398945 1.646012 35.000000
2.939248 -0.430992 1.633031 30.000000
2.942938 -0.467438 1.637122 36.000000
2.916046 -0.498814 1.624260 33.000000
2.862953 -0.524829 1.596879 20.000000
2.882996 -0.563820 1.610081 34.000000
2.842410 -0.590927 1.589644 30.000000
2.822892 -0.622036 1.581536 34.000000
2.811580 -0.654727 1.578031 34.000000
2.787204 -0.684077 1.567241 31.000000
2.771119 -0.715015 1.561155 32.000000
2.767498 -0.749093 1.561955 34.000000
2.699779 -0.765501 1.527492 21.000000
2.712551 -0.803723 1.537676 32.000000
2.707709 -0.837449 1.538686 35.000000
2.681625 -0.864434 1.527578 30.000000
2.672040 -0.896418 1.525916 33.000000
2.653855 -0.925310 1.519400 32.000000
2.647851 -0.958398 1.519922 33.000000
2.632794 -0.988687 1.516084 32.000000
2.589338 -1.007120 1.494985 21.000000
2.598404 -1.046446 1.505085 33.000000
2.562355 -1.067432 1.489059 34.000000
2.566725 -1.105069 1.496482 34.000000
2.534293 -1.126779 1.482665 35.000000
2.513989 -1.153333 1.475750 32.000000
2.529189 -1.196586 1.489904 33.000000
2.484476 -1.211194 1.468716 31.000000
2.454933 -1.233351 1.457338 23.000000
2.445572 -1.264518 1.457019 31.000000
2.454824 -1.306450 1.468940 36.000000
2.437026 -1.333408 1.463730 33.000000
2.422173 -1.362730 1.461238 35.000000
2.399367 -1.387428 1.454101 32.000000
2.368850 -1.407226 1.442247 32.000000
2.364731 -1.442623 1.446438 33.000000
2.318928 -1.452119 1.425193 21.000000
2.329145 -1.496682 1.438411 33.000000
2.308492 -1.522707 1.433729 30.000000
2.299309 -1.555252 1.435184 29.000000
2.308088 -1.600444 1.447980 26.000000
2.264690 -1.610470 1.429272 20.000000
2.240237 -1.632219 1.421276 28.000000
2.229118 -1.664829 1.422977 32.000000
2.196374 -1.681180 1.410838 20.000000
2.182068 -1.709893 1.409503 32.000000
2.166564 -1.739259 1.408538 33.000000
2.140468 -1.759923 1.400794 30.000000
2.141536 -1.803142 1.410884 33.000000
2.114964 -1.823235 1.402950 31.000000
2.111696 -1.863679 1.410617 31.000000
2.091316 -1.889250 1.406964 29.000000
2.047641 -1.893260 1.387624 17.000000
2.056295 -1.945780 1.403909 31.000000
2.022391 -1.958092 1.391094 29.000000
2.010773 -1.991998 1.393792 29.000000
2.001816 -2.029043 1.398558 35.000000
1.973778 -2.046703 1.390000 29.000000
1.956760 -2.077780 1.390710 29.000000
1.928479 -2.094803 1.382080 26.000000
1.906070 -2.117985 1.377733 17.000000
1.908974 -2.172099 1.393403 33.000000
1.880078 -2.188281 1.384473 29.000000
1.864166 -2.222086 1.386940 29.000000
1.855031 -2.261810 1.392979 30.000000
1.838189 -2.295625 1.395156 29.000000
1.808477 -2.310557 1.386017 24.000000
1.779884 -2.329442 1.379432 18.000000
1.732226 -2.322656 1.358105 10.000000
1.606595 -2.204314 1.272783 15.000000
1.521624 -2.139445 1.220003 13.000000
1.464314 -2.109977 1.188552 13.000000
1.388862 -2.048573 1.140129 17.000000
1.326132 -2.005383 1.102783 15.000000
1.276900 -1.979886 1.075900 18.000000
1.216241 -1.934281 1.038914 15.000000
1.155812 -1.882912 0.999661 9.000000
1.130336 -1.889593 0.991854 20.000000
1.100291 -1.888124 0.979912 25.000000
0.778046 1.367296 0.719601 24.000000
0.790853 1.353236 0.720259 22.000000
0.805804 1.342918 0.722996 15.000000
0.820596 1.332495 0.725681 16.000000
0.826977 1.310889 0.722293 15.000000
0.843840 1.303992 0.727022 22.000000
0.860735 1.296929 0.731714 25.000000
0.872469 1.282115 0.732151 21.000000
0.898621 1.289919 0.745638 26.000000
0.899789 1.260029 0.737437 24.000000
0.923519 1.263498 0.748791 23.000000
0.940252 1.255298 0.753391 24.000000
0.951476 1.239671 0.753662 21.000000
0.964395 1.228023 0.756309 31.000000
0.978055 1.215686 0.758639 26.000000
0.996527 1.210604 0.765621 24.000000
1.012146 1.201790 0.770378 32.000000
1.022674 1.185522 0.770414 25.000000
1.044087 1.183037 0.779561 29.000000
1.053653 1.166876 0.779810 24.000000
1.063683 1.150200 0.779724 27.000000
1.085188 1.146862 0.788777 32.000000
1.103633 1.139926 0.795630 33.000000
1.128394 1.139076 0.806950 32.000000
1.131078 1.115759 0.802488 32.000000
1.152716 1.111084 0.811552 31.000000
1.164657 1.096896 0.813743 33.000000
1.179822 1.085559 0.818207 21.000000
1.194887 1.073977 0.822628 19.000000
1.213249 1.065083 0.829290 30.000000
1.234948 1.058806 0.838210 30.000000
1.249915 1.046411 0.842516 29.000000
1.271649 1.039383 0.851379 33.000000
1.279079 1.021315 0.851331 30.000000
1.293780 1.008218 0.855557 31.000000
1.301376 0.989559 0.855047 20.000000
1.326012 0.984350 0.866421 29.000000
1.347693 0.975743 0.875168 30.000000
1.361632 0.962001 0.879509 32.000000
1.379149 0.950507 0.886141 28.000000
1.392993 0.936258 0.890451 32.000000
1.403488 0.918979 0.891959 28.000000
1.435661 0.916173 0.907868 29.000000
1.460536 0.907993 0.919061 22.000000
1.474125 0.892541 0.923148 26.000000
1.502765 0.885767 0.936645 29.000000
1.519646 0.872143 0.943380 26.000000
1.536865 0.857910 0.949707 30.000000
1.550130 0.841270 0.953550 32.000000
1.570604 0.828762 0.962533 31.000000
1.579789 0.809590 0.963889 30.000000
1.608016 0.800326 0.977503 18.000000
1.628423 0.786645 0.986308 26.000000
1.644793 0.770754 0.992612 25.000000
1.669040 0.758110 1.003669 25.000000
1.689242 0.743251 1.012286 24.000000
1.709431 0.727909 1.020858 25.000000
1.753777 0.722217 1.043849 24.000000
1.765774 0.702628 1.047451 24.000000
1.769039 0.679866 1.046492 23.000000
1.813160 0.672348 1.069727 25.000000
1.841242 0.657650 1.082783 28.000000
1.873076 0.644013 1.098561 27.000000
1.884139 0.622851 1.102164 25.000000
1.907169 0.605695 1.113412 29.000000
1.926273 0.586520 1.121690 27.000000
1.945322 0.566902 1.129839 21.000000
1.980635 0.551809 1.148178 21.000000
2.003326 0.532578 1.159016 18.000000
2.042889 0.517079 1.179568 25.000000
2.082345 0.500695 1.200004 20.000000
2.096168 0.477609 1.205720 21.000000
2.118180 0.456230 1.216640 22.000000
2.140274 0.434216 1.226967 18.000000
2.174751 0.414316 1.245040 10.000000
2.200540 0.392092 1.258077 17.000000
2.234851 0.370703 1.275879 18.000000
2.268715 0.348594 1.294019 19.000000
2.328552 0.329343 1.326352 23.000000
2.349121 0.303726 1.336924 18.000000
2.378220 0.278625 1.352257 19.000000
2.415792 0.253814 1.372352 20.000000
2.405514 0.223656 1.365227 9.000000
2.472702 0.200217 1.402734 16.000000
2.535395 0.174836 1.437722 14.000000
2.558900 0.145776 1.450391 13.000000
2.608154 0.117279 1.477661 19.000000
2.648484 0.087350 1.499826 18.000000
2.696985 0.056763 1.527295 16.000000
2.745220 0.024937 1.554585 18.000000
2.801876 -0.008058 1.586613 22.000000
2.862585 -0.042470 1.620903 25.000000
2.914279 -0.078004 1.650157 23.000000
2.974026 -0.115225 1.684638 22.000000
3.015918 -0.153020 1.709161 27.000000
3.053205 -0.191476 1.730897 24.000000
3.050953 -0.227947 1.730361 29.000000
3.018131 -0.261786 1.712494 22.000000
2.988954 -0.295221 1.697415 21.000000
2.981153 -0.330538 1.694429 29.000000
2.960083 -0.364053 1.683861 27.000000
2.943060 -0.397632 1.675654 25.000000
2.925452 -0.430902 1.667765 28.000000
2.903584 -0.463074 1.656807 26.000000
2.894037 -0.497046 1.653530 22.000000
2.871239 -0.528549 1.642796 23.000000
2.839751 -0.557758 1.626869 22.000000
2.837533 -0.592692 1.628609 27.000000
2.826782 -0.625641 1.624741 29.000000
2.806950 -0.656502 1.616392 26.000000
2.795352 -0.689044 1.612738 29.000000
2.753908 -0.713722 1.591797 27.000000
2.754472 -0.748943 1.595183 18.000000
2.716894 -0.773407 1.576529 26.000000
2.682896 -0.798609 1.560736 25.000000
2.682241 -0.833479 1.564232 25.000000
2.669155 -0.864020 1.559742 26.000000
2.634699 -0.887582 1.543515 24.000000
2.641406 -0.924902 1.551465 27.000000
2.614319 -0.950856 1.540506 24.000000
2.583561 -0.974384 1.526374 16.000000
2.593357 -1.013159 1.536237 26.000000
2.577847 -1.042766 1.532174 28.000000
2.574302 -1.077251 1.535153 30.000000
2.542137 -1.099558 1.521174 26.000000
2.525983 -1.128340 1.516649 27.000000
2.521433 -1.162342 1.519235 29.000000
2.496794 -1.186922 1.509727 25.000000
2.456218 -1.203393 1.490576 12.000000
2.451038 -1.236725 1.492786 27.000000
2.429221 -1.262427 1.485918 26.000000
2.442769 -1.305931 1.499826 30.000000
2.416594 -1.329180 1.490388 29.000000
2.394104 -1.354122 1.483250 26.000000
2.368281 -1.375905 1.473093 28.000000
2.345434 -1.400052 1.465707 27.000000
2.333772 -1.430642 1.465418 15.000000
2.325508 -1.463483 1.467286 26.000000
2.309537 -1.491527 1.464339 26.000000
2.303561 -1.527269 1.469002 31.000000
2.275980 -1.547518 1.458825 27.000000
2.266502 -1.579857 1.460266 13.000000
2.260229 -1.614846 1.463921 20.000000
2.220696 -1.626847 1.447088 24.000000
2.220944 -1.666713 1.455180 12.000000
2.195263 -1.688480 1.447487 24.000000
2.176380 -1.715374 1.444340 24.000000
2.147901 -1.732956 1.433705 27.000000
2.132056 -1.762074 1.432683 26.000000
2.126132 -1.799602 1.438438 27.000000
2.102873 -1.822617 1.432705 25.000000
2.092891 -1.857170 1.435924 25.000000
2.065859 -1.876714 1.427722 12.000000
2.035503 -1.892776 1.417178 20.000000
2.021394 -1.923678 1.417804 21.000000
2.016358 -1.963884 1.425180 28.000000
1.995079 -1.988436 1.421233 22.000000
1.982991 -2.022171 1.423830 24.000000
1.961128 -2.046260 1.419670 28.000000
1.929992 -2.060263 1.408716 19.000000
1.939832 -2.120865 1.429355 14.000000
1.914119 -2.141035 1.422727 21.000000
1.873529 -2.143958 1.404856 19.000000
1.866877 -2.187984 1.414120 26.000000
1.843599 -2.210577 1.409425 20.000000
1.842940 -2.260745 1.422262 24.000000
1.823090 -2.290857 1.422274 28.000000
1.798952 -2.312909 1.417308 15.000000
1.789366 -2.357084 1.425859 10.000000
1.666398 -2.249249 1.343466 10.000000
1.592632 -2.199997 1.297585 9.000000
1.529034 -2.164706 1.261043 13.000000
1.444869 -2.093982 1.204931 10.000000
1.378663 -2.048416 1.164549 10.000000
1.326118 -2.020426 1.134962 13.000000
1.269611 -1.983801 1.101239 10.000000
1.213107 -1.941448 1.065234 9.000000
1.149060 -1.887110 1.023476 10.000000
1.114206 -1.878319 1.007123 10.000000
1.093362 -1.892558 1.003380 24.000000
0.798467 1.378008 0.748999 13.000000
0.827591 1.390844 0.764607 13.000000
0.819395 1.341427 0.746010 15.000000
0.834263 1.330754 0.748718 19.000000
0.847963 1.320346 0.751692 20.000000
0.864991 1.313117 0.756515 20.000000
0.878571 1.302413 0.759444 24.000000
0.887938 1.283565 0.757686 17.000000
0.915181 1.290405 0.771182 21.000000
0.931246 1.282706 0.776227 21.000000
0.937485 1.259895 0.772141 16.000000
0.950676 1.248253 0.774864 30.000000
0.961806 1.232491 0.775100 30.000000
0.980386 1.227557 0.782220 25.000000
0.994097 1.214918 0.784576 30.000000
1.004028 1.199226 0.784958 28.000000
1.019644 1.190174 0.789771 26.000000
1.038866 1.183759 0.796534 26.000000
1.060406 1.180890 0.805856 18.000000
1.069940 1.164465 0.806030 35.000000
1.082399 1.151193 0.808522 34.000000
1.107030 1.150579 0.820042 34.000000
1.119355 1.136884 0.822453 35.000000
1.134778 1.126099 0.827051 32.000000
1.143732 1.108947 0.827054 32.000000
1.168606 1.106902 0.838540 36.000000
1.180570 1.092390 0.840756 16.000000
1.199049 1.083705 0.847616 35.000000
1.210856 1.068779 0.849732 33.000000
1.232544 1.062402 0.858794 34.000000
1.254310 1.055609 0.867890 35.000000
1.261938 1.037633 0.867865 30.000000
1.280226 1.027405 0.874543 34.000000
1.294481 1.014629 0.879170 35.000000
1.326697 1.014526 0.895163 21.000000
1.333924 0.995757 0.894993 45.000000
1.348557 0.981736 0.899096 36.000000
1.362610 0.967859 0.903555 35.000000
1.380157 0.956224 0.910351 35.000000
1.390357 0.939379 0.912274 37.000000
1.400966 0.922009 0.913848 51.000000
1.425648 0.914347 0.925243 44.000000
1.450420 0.906207 0.936616 25.000000
1.452336 0.884272 0.933945 62.000000
1.503434 0.891016 0.962127 48.000000
1.516968 0.874756 0.966187 43.000000
1.537999 0.862561 0.974970 54.000000
1.554716 0.848179 0.981725 36.000000
1.575696 0.835225 0.990491 37.000000
1.580652 0.814112 0.989802 37.000000
1.597157 0.798890 0.996351 28.000000
1.641040 0.796698 1.019934 35.000000
1.665372 0.784167 1.031239 36.000000
1.677774 0.765758 1.035168 35.000000
1.690087 0.747124 1.039038 36.000000
1.714260 0.733339 1.050212 45.000000
1.714179 0.709177 1.046539 37.000000
1.745903 0.698203 1.062861 36.000000
1.782031 0.687880 1.081222 25.000000
1.785256 0.664860 1.080163 56.000000
1.825078 0.655022 1.101253 54.000000
1.844410 0.637230 1.109962 44.000000
1.871877 0.621742 1.123431 67.000000
1.899286 0.605687 1.136924 42.000000
1.913893 0.585395 1.143285 40.000000
1.941121 0.568279 1.156538 42.000000
1.984699 0.555481 1.180107 25.000000
2.007406 0.536039 1.191141 44.000000
2.038323 0.518184 1.207098 53.000000
2.064945 0.498703 1.220439 40.000000
2.082702 0.476857 1.229190 47.000000
2.130244 0.460817 1.254814 52.000000
2.160547 0.440373 1.270791 57.000000
2.177891 0.416875 1.279141 34.000000
2.212181 0.395966 1.297421 28.000000
2.246271 0.374258 1.315562 68.000000
2.267396 0.349850 1.326132 66.000000
2.296664 0.326249 1.341963 50.000000
2.334346 0.303145 1.362656 52.000000
2.380469 0.280145 1.388297 42.000000
2.417845 0.255119 1.408773 62.000000
2.446432 0.228462 1.424160 34.000000
2.491708 0.202586 1.449851 33.000000
2.519534 0.174480 1.465347 37.000000
2.581758 0.147639 1.500840 37.000000
2.609137 0.117784 1.516083 35.000000
2.649231 0.087737 1.538673 37.000000
2.688791 0.056756 1.561644 34.000000
2.745375 0.024998 1.594476 36.000000
2.775737 -0.008033 1.612053 31.000000
2.844713 -0.042370 1.652028 33.000000
2.878791 -0.077437 1.671809 32.000000
2.938165 -0.114343 1.706952 31.000000
2.984113 -0.152042 1.734459 34.000000
3.034112 -0.191154 1.764258 33.000000
3.010295 -0.225900 1.751177 33.000000
2.973372 -0.259003 1.730369 28.000000
2.961604 -0.293945 1.725039 31.000000
2.945241 -0.327992 1.716994 33.000000
2.937184 -0.362895 1.713862 35.000000
2.915961 -0.395740 1.703009 35.000000
2.907321 -0.430073 1.699468 35.000000
2.889421 -0.463038 1.691341 34.000000
2.884161 -0.497696 1.690516 33.000000
2.852939 -0.527629 1.674591 25.000000
2.825864 -0.557684 1.660978 34.000000
2.815434 -0.590686 1.657163 35.000000
2.808646 -0.624628 1.656353 34.000000
2.793419 -0.656283 1.649747 35.000000
2.752376 -0.681483 1.628613 32.000000
2.736398 -0.712429 1.622339 32.000000
2.715984 -0.741830 1.613389 31.000000
2.695248 -0.770831 1.604354 20.000000
2.686475 -0.803459 1.603073 34.000000
2.686091 -0.838180 1.606157 33.000000
2.668437 -0.867826 1.599721 36.000000
2.642215 -0.894486 1.588151 31.000000
2.628221 -0.924783 1.583916 32.000000
2.613965 -0.954883 1.579590 33.000000
2.599447 -0.984787 1.575074 29.000000
2.551781 -1.001967 1.551352 18.000000
2.573184 -1.045745 1.568812 37.000000
2.525271 -1.061706 1.544858 31.000000
2.545337 -1.106119 1.562466 35.000000
2.509230 -1.126222 1.545727 37.000000
2.504627 -1.160217 1.548404 32.000000
2.476131 -1.182926 1.536316 35.000000
2.467090 -1.214703 1.536355 28.000000
2.442139 -1.238482 1.526456 18.000000
2.436492 -1.271898 1.528638 34.000000
2.418245 -1.299581 1.524004 35.000000
2.400426 -1.326405 1.518707 35.000000
2.374182 -1.349194 1.509060 34.000000
2.362919 -1.380348 1.508904 34.000000
2.347565 -1.409054 1.506329 35.000000
2.325223 -1.432493 1.498181 29.000000
2.298321 -1.453693 1.488129 13.000000
2.304420 -1.495843 1.499569 34.000000
2.279919 -1.519534 1.492302 31.000000
2.270702 -1.552105 1.493933 31.000000
2.253795 -1.579519 1.490685 21.000000
2.233219 -1.604176 1.484871 19.000000
2.211460 -1.629126 1.479639 32.000000
2.190424 -1.653133 1.473750 29.000000
2.150970 -1.663949 1.456544 11.000000
2.154016 -1.706272 1.467001 34.000000
2.141762 -1.738358 1.468468 28.000000
2.130151 -1.769656 1.469149 31.000000
2.117270 -1.801599 1.470476 31.000000
2.097403 -1.827609 1.466828 29.000000
2.087058 -1.862267 1.470256 31.000000
2.050168 -1.872983 1.454893 27.000000
2.023220 -1.892090 1.446438 12.000000
2.018449 -1.932220 1.454164 29.000000
2.013249 -1.972554 1.461636 29.000000
1.982425 -1.987729 1.450680 30.000000
1.960824 -2.012031 1.446533 28.000000
1.948234 -2.045708 1.449136 27.000000
1.929175 -2.072803 1.447051 29.000000
1.906952 -2.096385 1.442684 22.000000
1.908141 -2.146241 1.456311 14.000000
1.886696 -2.173784 1.454439 29.000000
1.849023 -2.179785 1.438574 27.000000
1.848702 -2.229873 1.451711 28.000000
1.820675 -2.249830 1.445226 27.000000
1.805115 -2.282578 1.446968 26.000000
1.787639 -2.316129 1.449162 25.000000
1.755127 -2.327110 1.437447 14.000000
1.705101 -2.316896 1.413044 15.000000
1.588975 -2.210084 1.330988 10.000000
1.522984 -2.171358 1.291525 10.000000
1.447874 -2.116539 1.243570 13.000000
1.370836 -2.051822 1.191057 13.000000
1.320950 -2.027680 1.163052 13.000000
1.266002 -1.990538 1.128261 16.000000
1.205842 -1.945346 1.089877 10.000000
1.158489 -1.918276 1.062295 9.000000
1.107342 -1.882518 1.030620 14.000000
0.787683 1.371361 0.760796 26.000000
0.807522 1.368672 0.767986 18.000000
0.818104 1.350260 0.766420 15.000000
0.825927 1.328046 0.762631 26.000000
0.846865 1.328997 0.772258 26.000000
0.859192 1.314156 0.772781 28.000000
0.867823 1.295920 0.771339 23.000000
0.887283 1.291939 0.778389 24.000000
0.900742 1.280830 0.781326 30.000000
0.920283 1.276333 0.788369 22.000000
0.925647 1.254059 0.784473 22.000000
0.934320 1.234853 0.782413 29.000000
0.955482 1.233780 0.791954 27.000000
0.980392 1.235294 0.803436 35.000000
0.987852 1.216177 0.801636 30.000000
1.006374 1.210663 0.808837 33.000000
1.014277 1.190879 0.806577 43.000000
1.032734 1.184897 0.813753 30.000000
1.057186 1.185230 0.825515 33.000000
1.060894 1.162189 0.821143 33.000000
1.082369 1.158682 0.830595 34.000000
1.097882 1.148333 0.835381 48.000000
1.116447 1.140905 0.842458 42.000000
1.125604 1.123846 0.842487 36.000000
1.140960 1.112867 0.847140 43.000000
1.153023 1.098600 0.849454 35.000000
1.177885 1.096181 0.861094 29.000000
1.189803 1.081422 0.863322 30.000000
1.204903 1.069473 0.867865 33.000000
1.226603 1.062981 0.877062 57.000000
1.244403 1.053741 0.884250 33.000000
1.259394 1.040971 0.888677 36.000000
1.273764 1.028345 0.893399 36.000000
1.278256 1.006924 0.890534 29.000000
1.302738 1.001987 0.902367 28.000000
1.313953 0.985622 0.904198 34.000000
1.342084 0.982471 0.918399 36.000000
1.352579 0.966003 0.920486 33.000000
1.370073 0.954359 0.927371 34.000000
1.380332 0.937513 0.929353 51.000000
1.394055 0.922961 0.933656 40.000000
1.426044 0.919969 0.950182 32.000000
1.439708 0.904720 0.954410 33.000000
1.453303 0.889260 0.958647 35.000000
1.481737 0.882444 0.972598 54.000000
1.514002 0.877228 0.988990 73.000000
1.530843 0.863160 0.995883 36.000000
1.547962 0.848415 1.002300 37.000000
1.564614 0.833668 1.009105 41.000000
1.569660 0.812621 1.008371 32.000000
1.601623 0.805191 1.024938 30.000000
1.625852 0.793265 1.036519 35.000000
1.653975 0.782686 1.050557 34.000000
1.670354 0.766080 1.057024 35.000000
1.678700 0.745636 1.058447 32.000000
1.694744 0.728482 1.064805 34.000000
1.726391 0.717978 1.081450 36.000000
1.758389 0.706430 1.097673 31.000000
1.753780 0.680418 1.091682 34.000000
1.797449 0.672816 1.115691 45.000000
1.804631 0.650933 1.116978 35.000000
1.844319 0.640315 1.138414 68.000000
1.855312 0.619267 1.142108 41.000000
1.882569 0.603249 1.155762 39.000000
1.905355 0.585536 1.167266 36.000000
1.936670 0.569647 1.183282 27.000000
1.963423 0.552059 1.197151 32.000000
1.990086 0.533826 1.210900 37.000000
2.020901 0.516082 1.227134 40.000000
2.047076 0.496864 1.241079 34.000000
2.073509 0.476844 1.254598 44.000000
2.116275 0.460050 1.278607 34.000000
2.133993 0.436851 1.286773 35.000000
2.159758 0.415125 1.300346 26.000000
2.193770 0.394333 1.318949 32.000000
2.235906 0.374326 1.342911 53.000000
2.257009 0.349862 1.353671 36.000000
2.307404 0.329322 1.382540 35.000000
2.340555 0.305344 1.401066 51.000000
2.369353 0.280142 1.416971 41.000000
2.402238 0.254691 1.435271 39.000000
2.430658 0.228029 1.450854 29.000000
2.475744 0.202233 1.477103 30.000000
2.503404 0.174124 1.492882 35.000000
2.573730 0.147858 1.534149 37.000000
2.592455 0.117600 1.544469 35.000000
2.632301 0.087550 1.567482 35.000000
2.693088 0.057117 1.603664 34.000000
2.727837 0.024902 1.624319 30.000000
2.775190 -0.008083 1.652457 29.000000
2.817949 -0.042241 1.677937 29.000000
2.860398 -0.077336 1.703109 29.000000
2.932160 -0.114744 1.746686 30.000000
2.973610 -0.152271 1.772048 30.000000
3.023165 -0.191375 1.802410 32.000000
2.995303 -0.225904 1.786537 32.000000
2.941365 -0.257457 1.755238 24.000000
2.955328 -0.294700 1.765141 34.000000
2.921946 -0.326992 1.746738 32.000000
2.918188 -0.362269 1.746112 33.000000
2.909858 -0.396860 1.742725 35.000000
2.871449 -0.426819 1.721283 28.000000
2.866402 -0.461529 1.720665 32.000000
2.861458 -0.495930 1.719326 30.000000
2.809355 -0.521891 1.690395 24.000000
2.807701 -0.556568 1.691825 33.000000
2.784358 -0.587009 1.680943 32.000000
2.773700 -0.619656 1.676990 32.000000
2.770741 -0.654182 1.678522 34.000000
2.730332 -0.679145 1.656414 29.000000
2.710251 -0.708855 1.647514 27.000000
2.718946 -0.746148 1.656156 31.000000
2.673459 -0.768260 1.631790 26.000000
2.660470 -0.799497 1.628081 30.000000
2.660058 -0.834016 1.631264 33.000000
2.638286 -0.862324 1.622217 29.000000
2.628671 -0.894211 1.620549 33.000000
2.610518 -0.923218 1.613846 30.000000
2.584119 -0.948852 1.601831 28.000000
2.585840 -0.984668 1.607422 32.000000
2.559003 -1.009471 1.595240 26.000000
2.551460 -1.042356 1.595999 33.000000
2.512367 -1.061279 1.576057 32.000000
2.500447 -1.091849 1.574135 32.000000
2.500087 -1.127666 1.579602 34.000000
2.495390 -1.161654 1.582365 33.000000
2.474781 -1.188227 1.575063 32.000000
2.465534 -1.220191 1.575036 30.000000
2.413506 -1.230366 1.547717 26.000000
2.407869 -1.263539 1.549908 32.000000
2.405587 -1.298867 1.554552 36.000000
2.394800 -1.330444 1.554716 37.000000
2.361584 -1.348495 1.539421 35.000000
2.346516 -1.377487 1.536846 34.000000
2.331161 -1.406193 1.534176 33.000000
2.319226 -1.437003 1.533956 30.000000
2.292236 -1.458350 1.523753 29.000000
2.279824 -1.488779 1.523152 32.000000
2.263542 -1.516582 1.520105 32.000000
2.246880 -1.544194 1.516963 34.000000
2.255139 -1.589150 1.530610 28.000000
2.216625 -1.601219 1.512718 24.000000
2.202883 -1.630718 1.511604 30.000000
2.187841 -1.660685 1.511053 31.000000
2.152741 -1.673732 1.495302 26.000000
2.140810 -1.705964 1.496968 32.000000
2.109018 -1.720761 1.483493 35.000000
2.103296 -1.758142 1.489731 33.000000
2.114797 -1.809192 1.507065 41.000000
2.088089 -1.829665 1.498741 35.000000
2.071146 -1.858409 1.497451 31.000000
2.047361 -1.881080 1.491327 31.000000
2.017025 -1.897339 1.480403 22.000000
2.012028 -1.937558 1.488230 33.000000
1.990875 -1.962381 1.484173 34.000000
1.956987 -1.974455 1.470668 31.000000
1.957027 -2.020787 1.482764 36.000000
1.929010 -2.038520 1.473845 30.000000
1.918984 -2.075330 1.478763 31.000000
1.905512 -2.108758 1.481217 29.000000
1.876945 -2.125677 1.472013 21.000000
1.859933 -2.155413 1.471925 33.000000
1.843973 -2.189380 1.474687 37.000000
1.826239 -2.218949 1.474437 32.000000
1.805372 -2.244893 1.471783 34.000000
1.793756 -2.285422 1.478680 32.000000
1.780337 -2.321665 1.482646 30.000000
1.740841 -2.326618 1.466776 20.000000
1.684668 -2.304791 1.434571 10.000000
1.575573 -2.209841 1.358377 15.000000
1.498710 -2.152166 1.306554 18.000000
1.436823 -2.115809 1.268841 18.000000
1.370180 -2.066240 1.224117 20.000000
1.317829 -2.038656 1.193426 21.000000
1.260743 -1.997862 1.155842 20.000000
1.207745 -1.964376 1.123205 19.000000
1.139521 -1.902837 1.075504 10.000000
1.097818 -1.882649 1.052029 19.000000
0.801221 1.369633 0.784152 22.000000
0.802615 1.335905 0.773676 17.000000
0.825859 1.340947 0.785684 20.000000
0.838456 1.326158 0.786237 28.000000
0.850807 1.311325 0.786774 24.000000
0.871781 1.311685 0.796534 25.000000
0.881410 1.292845 0.794699 32.000000
0.894906 1.281705 0.797644 21.000000
0.917032 1.280776 0.807109 24.000000
0.919968 1.254822 0.800873 23.000000
0.938491 1.250337 0.808296 29.000000
0.952563 1.238037 0.810820 35.000000
0.965669 1.226006 0.813560 27.000000
0.984174 1.220710 0.820937 30.000000
