x y z intensity
2.051101 -1.121858 -0.827524 15.000000
2.038840 -1.145093 -0.826011 12.000000
2.014021 -1.161186 -0.819435 9.000000
2.029800 -1.200790 -0.829468 12.000000
2.024821 -1.228650 -0.831100 10.000000
2.051094 -1.276953 -0.846172 16.000000
2.009412 -1.282304 -0.832831 10.000000
2.015300 -1.317957 -0.839209 10.000000
2.020206 -1.354295 -0.845786 13.000000
1.993906 -1.368984 -0.838906 10.000000
2.001859 -1.408265 -0.846998 9.000000
1.982375 -1.428582 -0.843628 10.000000
1.986095 -1.464780 -0.849556 10.000000
2.003809 -1.513288 -0.862340 17.000000
1.987118 -1.536299 -0.860396 12.000000
1.970751 -1.558500 -0.858046 12.000000
1.960932 -1.587061 -0.859245 14.000000
1.943446 -1.609589 -0.857130 13.000000
1.914877 -1.622688 -0.850203 10.000000
1.782545 -1.545308 -0.796818 19.000000
1.737161 -1.540596 -0.781924 23.000000
1.723774 -1.563594 -0.781422 33.000000
1.682361 -1.560726 -0.768214 29.000000
1.665301 -1.580001 -0.766072 29.000000
1.648093 -1.598981 -0.763857 32.000000
1.623926 -1.611128 -0.758494 29.000000
1.626418 -1.649949 -0.765702 24.000000
1.598585 -1.658159 -0.758701 31.000000
1.577342 -1.672908 -0.754773 28.000000
1.556027 -1.687360 -0.750855 32.000000
1.531455 -1.697988 -0.745397 29.000000
1.522544 -1.726081 -0.747609 31.000000
1.502973 -1.744101 -0.745394 33.000000
1.475015 -1.750245 -0.738278 29.000000
1.471363 -1.785273 -0.743431 27.000000
1.440278 -1.787127 -0.734812 21.000000
1.440676 -1.830392 -0.743096 22.000000
1.409502 -1.831553 -0.734427 26.000000
1.387098 -1.843729 -0.730254 21.000000
1.374741 -1.871654 -0.732328 21.000000
1.351969 -1.883383 -0.728155 27.000000
1.345575 -1.918193 -0.732874 20.000000
1.334784 -1.949908 -0.736276 23.000000
1.295431 -1.937227 -0.723035 15.000000
1.285329 -1.967820 -0.726108 18.000000
1.268242 -1.991196 -0.726422 25.000000
1.242162 -1.997399 -0.720628 19.000000
1.227077 -2.024382 -0.722303 20.000000
1.213009 -2.050633 -0.723641 17.000000
1.203236 -2.085114 -0.727913 16.000000
1.186787 -2.111988 -0.729398 18.000000
1.168998 -2.133901 -0.729180 8.000000
0.719216 1.324352 -0.440029 6.000000
0.707475 1.269959 -0.426371 9.000000
0.716951 1.253034 -0.425210 18.000000
0.727661 1.240723 -0.425537 26.000000
0.736542 1.223721 -0.424246 14.000000
0.749411 1.215309 -0.425974 33.000000
0.760446 1.202212 -0.426086 21.000000
0.780899 1.205612 -0.432083 24.000000
0.794357 1.196228 -0.433594 25.000000
0.801566 1.179250 -0.432340 10.000000
0.803099 1.154359 -0.428152 28.000000
0.802141 1.125290 -0.422281 21.000000
0.828086 1.135428 -0.431157 23.000000
0.837251 1.122132 -0.431256 31.000000
0.846914 1.108322 -0.431121 23.000000
0.876275 1.121229 -0.441525 32.000000
0.923955 1.155972 -0.460913 12.000000
1.009400 1.233592 -0.498075 9.000000
1.092964 1.306229 -0.534171 36.000000
1.215370 1.420533 -0.588514 31.000000
1.672323 1.867839 -0.794426 35.000000
1.711612 1.869825 -0.806004 35.000000
1.734836 1.853658 -0.810040 30.000000
1.767849 1.847576 -0.818578 35.000000
1.787678 1.827255 -0.821036 10.000000
1.800613 1.800041 -0.820345 33.000000
1.824261 1.781977 -0.823923 42.000000
1.850278 1.767611 -0.829378 32.000000
1.876273 1.752841 -0.834686 48.000000
1.898734 1.734459 -0.838543 36.000000
1.921017 1.715832 -0.842244 33.000000
1.943204 1.696875 -0.846035 46.000000
1.961597 1.674504 -0.848106 13.000000
1.994326 1.664053 -0.856524 32.000000
2.011687 1.641768 -0.858861 37.000000
2.036969 1.624482 -0.864095 33.000000
2.058388 1.603859 -0.867599 36.000000
2.087167 1.588812 -0.874273 22.000000
2.096853 1.559020 -0.873044 16.000000
2.113333 1.535479 -0.875230 24.000000
2.110818 1.497301 -0.869038 9.000000
2.060917 1.427112 -0.843675 24.000000
1.178763 0.740159 -0.472744 54.000000
1.194731 0.731780 -0.476908 91.000000
1.194644 0.713108 -0.474493 35.000000
1.194092 0.694801 -0.472156 49.000000
1.209762 0.685877 -0.476288 59.000000
1.217119 0.672150 -0.477185 62.000000
1.220178 0.656049 -0.476411 95.000000
1.214676 0.635570 -0.472285 88.000000
1.221490 0.621719 -0.473082 84.000000
1.219746 0.603589 -0.470566 95.000000
1.217734 0.585607 -0.467997 88.000000
1.224062 0.571686 -0.468651 81.000000
1.217354 0.551871 -0.464383 62.000000
1.210217 0.532434 -0.460229 60.000000
1.220371 0.520443 -0.462431 95.000000
1.217177 0.503031 -0.459820 95.000000
1.218244 0.487357 -0.458681 62.000000
1.227862 0.475274 -0.460970 95.000000
1.224090 0.458046 -0.458215 63.000000
1.233430 0.445786 -0.460463 86.000000
1.233727 0.430192 -0.459314 48.000000
1.242847 0.417704 -0.461439 95.000000
1.247259 0.403706 -0.462032 92.000000
1.251585 0.389495 -0.462457 98.000000
1.251183 0.374019 -0.461300 98.000000
1.218906 0.349467 -0.448429 98.000000
1.227187 0.336923 -0.450549 98.000000
1.226213 0.321802 -0.449250 98.000000
1.234232 0.309032 -0.451291 62.000000
1.232944 0.293931 -0.449907 85.000000
1.217643 0.275853 -0.443621 95.000000
1.215948 0.261116 -0.442269 91.000000
1.227961 0.249213 -0.445944 95.000000
1.221346 0.233522 -0.442833 100.000000
2.200732 0.344054 -0.794781 26.000000
2.209001 0.319828 -0.796823 30.000000
2.198254 0.293009 -0.792283 29.000000
2.210620 0.269281 -0.796008 31.000000
2.194716 0.242243 -0.789563 26.000000
2.197221 0.217411 -0.789777 26.000000
2.199511 0.192578 -0.789920 23.000000
2.154504 0.164169 -0.773288 9.000000
2.212556 0.143450 -0.793648 25.000000
2.199820 0.117757 -0.788879 24.000000
2.201034 0.092834 -0.788879 27.000000
2.206596 0.068129 -0.790636 29.000000
2.202462 0.043132 -0.789093 27.000000
2.193405 0.018203 -0.785792 24.000000
2.207598 -0.006655 -0.790851 25.000000
2.193334 -0.031358 -0.785650 24.000000
2.169379 -0.055501 -0.777009 26.000000
2.168605 -0.080050 -0.776939 25.000000
2.172322 -0.104756 -0.778553 35.000000
2.185151 -0.130128 -0.783325 74.000000
2.183590 -0.154749 -0.783183 33.000000
2.144279 -0.176354 -0.769430 10.000000
2.189134 -0.204940 -0.786124 24.000000
2.177346 -0.228683 -0.782474 21.000000
2.179469 -0.253848 -0.783801 23.000000
2.181295 -0.278977 -0.785055 25.000000
2.173496 -0.302911 -0.782877 20.000000
2.179396 -0.328920 -0.785879 24.000000
2.194350 -0.356506 -0.792092 21.000000
2.129921 -0.370850 -0.769926 9.000000
2.172174 -0.403405 -0.786056 22.000000
2.158421 -0.426126 -0.782205 19.000000
2.167482 -0.453390 -0.786656 23.000000
2.167063 -0.478862 -0.787683 24.000000
2.170996 -0.505435 -0.790306 18.000000
2.165294 -0.529974 -0.789729 20.000000
2.168579 -0.556786 -0.792416 16.000000
2.116894 -0.569046 -0.775024 10.000000
2.124196 -0.596783 -0.779238 21.000000
2.113101 -0.619379 -0.776718 16.000000
2.128883 -0.650066 -0.784098 20.000000
2.148578 -0.682836 -0.793336 22.000000
2.136660 -0.705427 -0.790657 17.000000
2.142261 -0.734253 -0.794751 18.000000
2.134131 -0.758423 -0.793799 13.000000
2.108066 -0.776071 -0.786167 10.000000
2.126034 -0.809904 -0.795047 18.000000
2.117134 -0.833880 -0.793944 16.000000
2.120987 -0.863344 -0.797923 20.000000
2.120296 -0.890832 -0.800025 22.000000
2.110413 -0.914983 -0.798984 15.000000
2.096142 -0.936760 -0.795935 13.000000
2.098635 -0.966494 -0.799729 13.000000
2.083695 -0.988272 -0.796902 10.000000
2.111052 -1.030614 -0.810385 23.000000
2.091227 -1.050259 -0.805765 17.000000
2.092275 -1.080484 -0.809280 19.000000
2.076243 -1.101976 -0.806290 16.000000
2.084951 -1.136731 -0.812870 14.000000
2.068414 -1.158012 -0.809722 18.000000
2.064007 -1.186044 -0.811419 13.000000
2.038879 -1.202087 -0.804977 9.000000
2.078114 -1.257373 -0.824498 23.000000
2.068439 -1.283275 -0.824301 18.000000
2.054165 -1.307039 -0.822811 13.000000
2.047985 -1.335273 -0.824202 13.000000
2.029164 -1.356103 -0.821033 10.000000
2.034186 -1.392200 -0.827020 13.000000
2.026478 -1.420972 -0.828449 10.000000
2.010707 -1.444150 -0.826696 9.000000
2.052589 -1.508756 -0.848322 25.000000
2.028373 -1.526566 -0.843285 18.000000
2.018994 -1.555543 -0.844471 17.000000
2.005597 -1.581590 -0.844073 19.000000
1.977106 -1.595547 -0.837325 13.000000
1.993184 -1.644634 -0.849004 20.000000
1.942412 -1.639793 -0.832835 13.000000
1.787762 -1.543873 -0.771709 10.000000
1.756598 -1.551683 -0.763467 37.000000
1.711443 -1.546115 -0.749080 35.000000
1.687581 -1.559122 -0.743927 36.000000
1.670557 -1.578358 -0.741864 58.000000
1.646538 -1.590685 -0.736663 34.000000
1.631942 -1.613335 -0.736283 36.000000
1.614365 -1.631869 -0.734076 32.000000
1.593401 -1.646759 -0.730351 30.000000
1.578841 -1.668275 -0.729590 76.000000
1.554346 -1.679077 -0.724292 42.000000
1.542656 -1.703798 -0.724956 44.000000
1.526547 -1.725463 -0.724397 50.000000
1.504853 -1.739101 -0.720543 33.000000
1.483088 -1.752447 -0.716627 60.000000
1.467343 -1.772859 -0.715616 30.000000
1.438330 -1.778928 -0.708969 24.000000
1.422290 -1.798901 -0.707959 34.000000
1.411870 -1.826211 -0.709804 28.000000
1.382666 -1.831421 -0.703125 34.000000
1.357431 -1.839252 -0.697643 33.000000
1.365873 -1.893293 -0.709557 28.000000
1.336311 -1.897639 -0.702827 34.000000
1.318821 -1.916606 -0.701532 22.000000
1.306517 -1.943360 -0.703176 22.000000
1.279400 -1.950794 -0.697774 33.000000
1.261401 -1.969171 -0.696451 25.000000
1.246830 -1.996261 -0.698111 30.000000
1.223280 -2.006177 -0.693848 26.000000
1.213028 -2.041301 -0.698284 24.000000
1.186687 -2.046594 -0.692529 26.000000
1.175394 -2.081560 -0.696893 18.000000
1.171885 -2.128511 -0.705077 9.000000
0.723816 1.326173 -0.426757 7.000000
0.716612 1.280157 -0.416294 10.000000
0.706936 1.229812 -0.404176 15.000000
0.725551 1.229584 -0.408457 23.000000
0.735890 1.217269 -0.408752 25.000000
0.751201 1.212998 -0.411765 28.000000
0.759557 1.195872 -0.410477 32.000000
0.777395 1.195278 -0.414892 31.000000
0.793381 1.189981 -0.417744 32.000000
0.786956 1.153237 -0.409485 19.000000
0.794335 1.136006 -0.408038 25.000000
0.814656 1.138664 -0.413833 38.000000
0.824521 1.125129 -0.413792 28.000000
0.842125 1.123429 -0.418112 30.000000
0.859847 1.121465 -0.422496 30.000000
0.907846 1.156450 -0.441041 21.000000
0.959082 1.194678 -0.461328 21.000000
1.068901 1.302168 -0.509233 18.000000
1.151173 1.370085 -0.542658 35.000000
1.249882 1.454983 -0.583731 77.000000
1.558826 1.774860 -0.721522 77.000000
1.686335 1.878083 -0.773599 35.000000
1.713750 1.865141 -0.778712 47.000000
1.740267 1.852616 -0.784086 33.000000
1.756766 1.829283 -0.784962 32.000000
1.783065 1.816084 -0.790277 45.000000
1.806780 1.798388 -0.793797 35.000000
1.829511 1.781102 -0.797569 49.000000
1.858980 1.770074 -0.804258 69.000000
1.874534 1.745561 -0.805058 42.000000
1.896906 1.727304 -0.808691 53.000000
1.922662 1.711972 -0.813840 72.000000
1.948309 1.696231 -0.819004 39.000000
1.973926 1.680078 -0.824102 37.000000
1.981119 1.648277 -0.821621 36.000000
2.006422 1.631585 -0.826647 39.000000
2.035253 1.617438 -0.833213 52.000000
2.060352 1.599950 -0.838188 48.000000
2.096702 1.590668 -0.847693 52.000000
2.121053 1.572878 -0.852960 37.000000
2.118896 1.534538 -0.847122 22.000000
2.131798 1.507455 -0.847341 23.000000
2.132565 1.472105 -0.842831 29.000000
2.100818 1.416269 -0.826225 32.000000
1.993186 1.311147 -0.779626 45.000000
1.211865 0.721427 -0.464878 75.000000
1.215463 0.705312 -0.464216 29.000000
1.223186 0.691356 -0.464939 95.000000
1.230593 0.677490 -0.465797 95.000000
1.233683 0.661292 -0.465034 82.000000
1.240750 0.647338 -0.465844 95.000000
1.239268 0.628956 -0.463446 95.000000
1.246019 0.614873 -0.464206 95.000000
1.244085 0.596644 -0.461748 95.000000
1.254821 0.584481 -0.464003 72.000000
1.230915 0.556554 -0.453532 93.000000
1.228236 0.538743 -0.450954 95.000000
1.229576 0.523070 -0.450049 78.000000
1.230876 0.507237 -0.449010 89.000000
1.231879 0.491632 -0.448053 65.000000
1.246056 0.480987 -0.451770 95.000000
1.246740 0.465260 -0.450768 87.000000
1.251714 0.451154 -0.451283 50.000000
1.256516 0.437004 -0.451840 98.000000
1.252213 0.419803 -0.449092 95.000000
1.256726 0.405584 -0.449561 95.000000
1.265503 0.392853 -0.451727 100.000000
1.265198 0.377146 -0.450497 98.000000
1.237356 0.353821 -0.439651 95.000000
1.263948 0.346081 -0.448198 100.000000
1.267625 0.331795 -0.448578 84.000000
1.248188 0.311736 -0.440854 95.000000
1.246949 0.296530 -0.439523 95.000000
1.259276 0.284597 -0.443183 98.000000
1.262317 0.270309 -0.443433 98.000000
1.269825 0.257042 -0.445392 103.000000
2.233253 0.374073 -0.780012 25.000000
2.232529 0.348128 -0.778821 27.000000
2.226819 0.321614 -0.775926 29.000000
2.225548 0.295860 -0.774658 29.000000
2.223900 0.270212 -0.773389 24.000000
2.226649 0.245187 -0.773678 28.000000
2.229180 0.220018 -0.773968 27.000000
2.217299 0.193687 -0.769357 20.000000
2.252295 0.171183 -0.780864 21.000000
2.239899 0.144886 -0.776108 29.000000
2.255431 0.120419 -0.781228 24.000000
2.237715 0.094242 -0.774908 32.000000
2.233932 0.068854 -0.773345 27.000000
2.239306 0.043758 -0.774908 29.000000
2.239595 0.018516 -0.774980 29.000000
2.211317 -0.006570 -0.765170 18.000000
2.206450 -0.031425 -0.763464 21.000000
2.196503 -0.056053 -0.760123 33.000000
2.191001 -0.080642 -0.758418 63.000000
2.204241 -0.105961 -0.763108 93.000000
2.207675 -0.131111 -0.764456 88.000000
2.210890 -0.156295 -0.765875 36.000000
2.190118 -0.179654 -0.759272 35.000000
2.206954 -0.206032 -0.765446 23.000000
2.204592 -0.230936 -0.765159 22.000000
2.216029 -0.257333 -0.769694 25.000000
2.213148 -0.282252 -0.769261 25.000000
2.205297 -0.306593 -0.767344 23.000000
2.201847 -0.331387 -0.766913 21.000000
2.179443 -0.353157 -0.759901 10.000000
2.194086 -0.380977 -0.766051 19.000000
2.189845 -0.405628 -0.765404 22.000000
2.199237 -0.433020 -0.769773 23.000000
2.199093 -0.458721 -0.770817 24.000000
2.189328 -0.482563 -0.768688 21.000000
2.202406 -0.511434 -0.774445 24.000000
2.205908 -0.538477 -0.777100 24.000000
2.209069 -0.565726 -0.779676 10.000000
2.157115 -0.578332 -0.762780 20.000000
2.187231 -0.612817 -0.774902 24.000000
2.171408 -0.634698 -0.770798 20.000000
2.173388 -0.662036 -0.773291 23.000000
2.166211 -0.686352 -0.772339 22.000000
2.158594 -0.710815 -0.771533 20.000000
2.164199 -0.739800 -0.775471 20.000000
2.138163 -0.757793 -0.768099 10.000000
2.147617 -0.788442 -0.773481 15.000000
2.152279 -0.817589 -0.777247 18.000000
2.156387 -0.847259 -0.781149 21.000000
2.155917 -0.874998 -0.783146 25.000000
2.141881 -0.897591 -0.780579 17.000000
2.145140 -0.927234 -0.784079 19.000000
2.147900 -0.957246 -0.787715 22.000000
2.115759 -0.971646 -0.778650 10.000000
2.126482 -1.005759 -0.785369 18.000000
2.123962 -1.033903 -0.787320 22.000000
2.125366 -1.064289 -0.790763 21.000000
2.113670 -1.088293 -0.789387 22.000000
2.114330 -1.118727 -0.792729 19.000000
2.118785 -1.151635 -0.797548 23.000000
2.106228 -1.175432 -0.795998 22.000000
2.105489 -1.206623 -0.799451 10.000000
2.092390 -1.230249 -0.797814 16.000000
2.087194 -1.258625 -0.799214 18.000000
2.081264 -1.287500 -0.800916 20.000000
2.091441 -1.326031 -0.808418 22.000000
2.072668 -1.347369 -0.805359 12.000000
2.069623 -1.378924 -0.808409 16.000000
2.078353 -1.418071 -0.815746 17.000000
2.078290 -1.452705 -0.820206 12.000000
2.062187 -1.476372 -0.818417 16.000000
2.061275 -1.511132 -0.822756 23.000000
2.067983 -1.551133 -0.829795 24.000000
2.050915 -1.574664 -0.827889 23.000000
2.048579 -1.609800 -0.831985 24.000000
2.034597 -1.636073 -0.831499 21.000000
2.020299 -1.662179 -0.830922 24.000000
2.013062 -1.694341 -0.833357 15.000000
1.828320 -1.574069 -0.761903 10.000000
1.757414 -1.547486 -0.737369 31.000000
1.722832 -1.551453 -0.727858 35.000000
1.691883 -1.558027 -0.719882 63.000000
1.654045 -1.557517 -0.708887 43.000000
1.633755 -1.572872 -0.705368 52.000000
1.616650 -1.591354 -0.703339 47.000000
1.618869 -1.630612 -0.710388 34.000000
1.591267 -1.638530 -0.703769 45.000000
1.576835 -1.659938 -0.703049 69.000000
1.545910 -1.663689 -0.695004 66.000000
1.527138 -1.681736 -0.692974 66.000000
1.512267 -1.702490 -0.692181 50.000000
1.493964 -1.719486 -0.689857 62.000000
1.475516 -1.736264 -0.687533 55.000000
1.465154 -1.764529 -0.689820 35.000000
1.446297 -1.780974 -0.687408 31.000000
1.421334 -1.789623 -0.682063 35.000000
1.409985 -1.817651 -0.684155 41.000000
1.387752 -1.829579 -0.680245 36.000000
1.362597 -1.837443 -0.674930 35.000000
1.353253 -1.868924 -0.678315 37.000000
1.336135 -1.887961 -0.677151 34.000000
1.309497 -1.895727 -0.671997 32.000000
1.300174 -1.926296 -0.674938 26.000000
1.281251 -1.945521 -0.673891 32.000000
1.263202 -1.963919 -0.672610 31.000000
1.246285 -1.986893 -0.672921 34.000000
1.225361 -2.000818 -0.670092 31.000000
1.206831 -2.018573 -0.668704 35.000000
1.184148 -2.032749 -0.666167 28.000000
1.173190 -2.067705 -0.670340 27.000000
1.167721 -2.110307 -0.676934 10.000000
0.716769 1.306753 -0.406854 7.000000
0.728972 1.293970 -0.407089 10.000000
0.740096 1.281524 -0.407453 11.000000
0.747012 1.260281 -0.405002 10.000000
0.737635 1.214777 -0.394633 14.000000
0.746047 1.197823 -0.393388 17.000000
0.756020 1.185359 -0.393649 25.000000
0.777112 1.188444 -0.399089 33.000000
0.792257 1.183666 -0.401978 26.000000
0.780956 1.138567 -0.391113 16.000000
0.795674 1.133701 -0.393970 29.000000
0.813191 1.132503 -0.398210 22.000000
0.820107 1.115156 -0.396782 31.000000
0.831885 1.105884 -0.398188 24.000000
0.864663 1.122680 -0.409217 29.000000
0.927059 1.177046 -0.434323 22.000000
1.111229 1.348060 -0.509987 19.000000
1.187402 1.408887 -0.539883 30.000000
1.636514 1.856107 -0.729955 40.000000
1.685165 1.869576 -0.745090 53.000000
1.715742 1.860359 -0.751443 37.000000
1.742136 1.847835 -0.756634 49.000000
1.758625 1.824653 -0.757467 32.000000
1.778078 1.804715 -0.759808 32.000000
1.794053 1.781162 -0.760547 58.000000
1.831130 1.776721 -0.769701 54.000000
1.846690 1.752606 -0.770449 42.000000
1.879549 1.744601 -0.778368 90.000000
1.891196 1.716743 -0.777582 53.000000
1.923997 1.707930 -0.785541 81.000000
1.935246 1.679744 -0.784665 36.000000
1.960610 1.663846 -0.789564 30.000000
1.982266 1.644486 -0.793005 63.000000
2.003824 1.624878 -0.796454 42.000000
2.032604 1.610871 -0.802784 73.000000
2.065189 1.599367 -0.810618 70.000000
2.093971 1.584389 -0.816910 34.000000
2.118853 1.566145 -0.821649 51.000000
2.135867 1.541887 -0.823418 34.000000
2.133130 1.503716 -0.817712 29.000000
2.153419 1.482048 -0.820880 32.000000
2.165097 1.455222 -0.821301 29.000000
2.133110 1.399052 -0.804835 29.000000
2.056015 1.315547 -0.771719 39.000000
1.261755 0.729888 -0.464724 44.000000
1.240511 0.699321 -0.454960 70.000000
1.239826 0.680504 -0.452642 95.000000
1.242924 0.664302 -0.451931 95.000000
1.250015 0.650255 -0.452699 94.000000
1.261217 0.638313 -0.454999 95.000000
1.259521 0.619835 -0.452700 95.000000
1.266183 0.605566 -0.453375 95.000000
1.264081 0.587243 -0.451017 66.000000
1.240078 0.559248 -0.440853 53.000000
1.237386 0.541340 -0.438376 78.000000
1.247614 0.529200 -0.440485 95.000000
1.248914 0.513216 -0.439503 77.000000
1.254330 0.499219 -0.440153 95.000000
1.250876 0.481546 -0.437527 86.000000
1.264904 0.470791 -0.441237 95.000000
1.260988 0.453362 -0.438689 54.000000
1.270296 0.440676 -0.440762 95.000000
1.270497 0.424876 -0.439721 100.000000
1.275059 0.410504 -0.440152 100.000000
1.279448 0.396132 -0.440582 95.000000
1.279155 0.380321 -0.439448 98.000000
1.274053 0.363352 -0.436789 95.000000
1.282465 0.350256 -0.438782 98.000000
1.276995 0.333417 -0.436072 86.000000
1.266739 0.315594 -0.431702 54.000000
1.274714 0.302422 -0.433608 95.000000
1.273285 0.286976 -0.432331 95.000000
1.304153 0.278659 -0.442150 110.000000
2.269663 0.379202 -0.764991 17.000000
2.283035 0.355203 -0.768591 29.000000
2.267969 0.326786 -0.762647 22.000000
2.285466 0.303157 -0.767755 26.000000
2.288581 0.277498 -0.768126 29.000000
2.253826 0.247548 -0.755627 23.000000
2.261027 0.222704 -0.757647 24.000000
2.263366 0.197269 -0.757793 17.000000
2.274798 0.172551 -0.761251 15.000000
2.290758 0.147853 -0.766146 26.000000
2.287499 0.121900 -0.764637 24.000000
2.279201 0.095780 -0.761618 22.000000
2.299043 0.070749 -0.768025 30.000000
2.271259 0.044292 -0.758524 27.000000
2.290594 0.018941 -0.764932 26.000000
2.257470 -0.006682 -0.753773 27.000000
2.228799 -0.031627 -0.744200 32.000000
2.261485 -0.057572 -0.755284 49.000000
2.232320 -0.081931 -0.745640 68.000000
2.264475 -0.108603 -0.756503 66.000000
2.258428 -0.133778 -0.754847 42.000000
2.271020 -0.160107 -0.759375 64.000000
2.250279 -0.184122 -0.752756 34.000000
2.229281 -0.207638 -0.746215 44.000000
2.250494 -0.235094 -0.753683 28.000000
2.224239 -0.257693 -0.745566 19.000000
2.235477 -0.284409 -0.749870 22.000000
2.232216 -0.309559 -0.749580 21.000000
2.228737 -0.334637 -0.749146 18.000000
2.215672 -0.358128 -0.745486 15.000000
2.206954 -0.382218 -0.743550 15.000000
2.230633 -0.412167 -0.752491 18.000000
2.230695 -0.438172 -0.753554 23.000000
2.230517 -0.464136 -0.754541 21.000000
2.230027 -0.490204 -0.755452 21.000000
2.233772 -0.517374 -0.758004 20.000000
2.228023 -0.542505 -0.757414 15.000000
2.245056 -0.573439 -0.764511 15.000000
2.197439 -0.587567 -0.749680 15.000000
2.200082 -0.614755 -0.752003 19.000000
2.197963 -0.640745 -0.752757 22.000000
2.186284 -0.664076 -0.750462 16.000000
2.192534 -0.692958 -0.754330 21.000000
2.189368 -0.719108 -0.755074 19.000000
2.181449 -0.743752 -0.754186 17.000000
2.182196 -0.771341 -0.756330 15.000000
2.173799 -0.795863 -0.755364 13.000000
2.187334 -0.828583 -0.761993 17.000000
2.182527 -0.855092 -0.762715 23.000000
2.173199 -0.879465 -0.761511 15.000000
2.163495 -0.903989 -0.760533 19.000000
2.157858 -0.930245 -0.761021 16.000000
2.164996 -0.962322 -0.766119 14.000000
2.175987 -0.996621 -0.772659 12.000000
2.160708 -1.019151 -0.769898 15.000000
2.162370 -1.049669 -0.773266 19.000000
2.163666 -1.080399 -0.776542 24.000000
2.147648 -1.102487 -0.773621 20.000000
2.160853 -1.139957 -0.781367 23.000000
2.156783 -1.168683 -0.782920 24.000000
2.156225 -1.200230 -0.786295 18.000000
2.159734 -1.233792 -0.790774 21.000000
2.121367 -1.243940 -0.780346 15.000000
2.116073 -1.272473 -0.781711 20.000000
2.130329 -1.314102 -0.790833 25.000000
2.112119 -1.335346 -0.787567 14.000000
2.113337 -1.369709 -0.792048 18.000000
2.102165 -1.396358 -0.791934 14.000000
2.095042 -1.425053 -0.793065 16.000000
2.114566 -1.473431 -0.804776 16.000000
2.086676 -1.489090 -0.798584 16.000000
2.085710 -1.524039 -0.802717 21.000000
2.087990 -1.561952 -0.808303 25.000000
2.078413 -1.591421 -0.809424 19.000000
2.075980 -1.626790 -0.813311 21.000000
2.065581 -1.656269 -0.814313 22.000000
2.069665 -1.697791 -0.821082 19.000000
2.058363 -1.727351 -0.821870 21.000000
1.876192 -1.610418 -0.754090 9.000000
1.761610 -1.546353 -0.712764 21.000000
1.730470 -1.553456 -0.705017 45.000000
1.685428 -1.547067 -0.691516 36.000000
1.647635 -1.546373 -0.680891 71.000000
1.620489 -1.554937 -0.674560 45.000000
1.602956 -1.573829 -0.672842 36.000000
1.599450 -1.605368 -0.676560 41.000000
1.572093 -1.613043 -0.670189 35.000000
1.571278 -1.648033 -0.675217 61.000000
1.550250 -1.662067 -0.671625 79.000000
1.525055 -1.672987 -0.666919 51.000000
1.510315 -1.693637 -0.666167 67.000000
1.495281 -1.714142 -0.665333 62.000000
1.466700 -1.720613 -0.659110 44.000000
1.448302 -1.736928 -0.656810 43.000000
1.445010 -1.771708 -0.661458 27.000000
1.422115 -1.784729 -0.658039 35.000000
1.406080 -1.804393 -0.657028 38.000000
1.382904 -1.816910 -0.653473 32.000000
1.369366 -1.839990 -0.653822 44.000000
1.348768 -1.855930 -0.651639 32.000000
1.329044 -1.870996 -0.649164 29.000000
1.312064 -1.889652 -0.647972 32.000000
1.301715 -1.920910 -0.651115 22.000000
1.289391 -1.947445 -0.652577 32.000000
1.259719 -1.950329 -0.646187 30.000000
1.249483 -1.980604 -0.648880 30.000000
1.219734 -1.982897 -0.642442 31.000000
1.203841 -2.004651 -0.642438 30.000000
1.188726 -2.031273 -0.643881 29.000000
1.169821 -2.048643 -0.642514 27.000000
1.158566 -2.083460 -0.646521 9.000000
0.739873 1.342229 -0.403844 6.000000
0.732449 1.296038 -0.394070 9.000000
0.751727 1.295703 -0.398143 10.000000
0.758693 1.274310 -0.395789 10.000000
0.759378 1.245215 -0.390910 9.000000
0.763007 1.219810 -0.387187 10.000000
0.760120 1.186874 -0.380906 10.000000
0.775956 1.181907 -0.383552 14.000000
0.791031 1.177193 -0.386386 21.000000
0.787676 1.144028 -0.379819 9.000000
0.794120 1.127312 -0.378578 29.000000
0.809465 1.121882 -0.381216 21.000000
0.824106 1.116650 -0.383950 22.000000
0.836499 1.106982 -0.385181 24.000000
0.898255 1.162366 -0.409406 10.000000
0.958944 1.212224 -0.432255 10.000000
1.050435 1.298761 -0.468907 10.000000
1.150074 1.390800 -0.508461 9.000000
1.258765 1.487480 -0.550806 21.000000
1.586074 1.833475 -0.687755 43.000000
1.659686 1.876875 -0.713259 31.000000
1.686965 1.864528 -0.718072 32.000000
1.710100 1.849064 -0.721683 34.000000
1.742974 1.843682 -0.729529 28.000000
1.760178 1.819845 -0.730077 32.000000
1.789688 1.810229 -0.736417 24.000000
1.792030 1.773045 -0.731632 32.000000
1.832443 1.772161 -0.741857 50.000000
1.847996 1.748120 -0.742644 32.000000
1.866678 1.727174 -0.744666 37.000000
1.888835 1.709205 -0.748096 35.000000
1.917922 1.697350 -0.754360 29.000000
1.943507 1.681870 -0.759230 35.000000
1.954914 1.652942 -0.758026 17.000000
1.972759 1.630779 -0.759900 29.000000
1.994086 1.611384 -0.763201 36.000000
2.030273 1.603537 -0.772229 32.000000
2.051451 1.583393 -0.775475 34.000000
2.076186 1.565798 -0.780082 35.000000
2.108591 1.553545 -0.787665 26.000000
2.140993 1.540775 -0.795106 36.000000
2.141476 1.505886 -0.791337 22.000000
2.165725 1.486931 -0.795822 34.000000
2.177919 1.459555 -0.795961 35.000000
2.177793 1.424248 -0.791728 24.000000
2.169125 1.383994 -0.784474 19.000000
2.135029 1.329447 -0.768662 26.000000
2.018785 1.225653 -0.723181 18.000000
1.261347 0.690634 -0.443857 34.000000
1.251836 0.667452 -0.438775 70.000000
1.259132 0.653177 -0.439409 74.000000
1.266156 0.638992 -0.440180 71.000000
1.277286 0.626820 -0.442389 95.000000
1.279661 0.610396 -0.441584 72.000000
1.281902 0.593933 -0.440775 50.000000
1.279566 0.575565 -0.438470 38.000000
1.285756 0.561119 -0.439053 54.000000
1.261055 0.533571 -0.429169 57.000000
1.266792 0.519338 -0.429738 76.000000
1.267964 0.503258 -0.428764 46.000000
1.273288 0.489075 -0.429375 88.000000
1.274098 0.473014 -0.428352 44.000000
1.270166 0.455488 -0.425908 43.000000
1.288519 0.445915 -0.430946 62.000000
1.288754 0.429918 -0.429918 89.000000
1.288825 0.413979 -0.428886 95.000000
1.288692 0.398055 -0.427808 80.000000
1.292967 0.383546 -0.428196 77.000000
1.292486 0.367646 -0.427071 95.000000
1.291761 0.351936 -0.425985 72.000000
1.290881 0.336243 -0.424896 62.000000
1.289804 0.320610 -0.423762 38.000000
1.293210 0.306093 -0.424102 85.000000
2.123576 0.378514 -0.690877 29.000000
2.136978 0.356232 -0.694275 9.000000
2.305324 0.357840 -0.748204 24.000000
2.299638 0.330615 -0.745522 19.000000
2.293698 0.303528 -0.742764 18.000000
2.282635 0.276080 -0.738473 15.000000
2.290241 0.251025 -0.740298 19.000000
2.297563 0.225790 -0.742123 18.000000
2.299931 0.199962 -0.742271 18.000000
2.263959 0.171335 -0.730246 8.000000
2.303632 0.148380 -0.742715 19.000000
2.324198 0.123563 -0.748916 24.000000
2.315881 0.097124 -0.746001 23.000000
2.307258 0.070823 -0.743011 23.000000
2.307924 0.044921 -0.743011 24.000000
2.298702 0.019015 -0.740021 41.000000
2.294016 -0.006766 -0.738489 60.000000
2.293869 -0.032508 -0.738342 36.000000
2.283838 -0.057935 -0.735278 37.000000
2.287862 -0.083743 -0.736663 50.000000
2.291589 -0.109586 -0.737974 48.000000
2.290265 -0.135327 -0.737901 51.000000
2.302891 -0.161997 -0.742271 43.000000
2.244108 -0.183106 -0.723617 13.000000
2.279862 -0.211817 -0.735636 41.000000
2.277440 -0.237359 -0.735342 35.000000
2.251151 -0.260095 -0.727335 20.000000
2.257619 -0.286570 -0.730099 18.000000
2.254410 -0.311879 -0.729735 16.000000
2.250909 -0.337115 -0.729297 18.000000
2.270622 -0.366068 -0.736410 13.000000
2.191414 -0.378597 -0.711659 9.000000
2.276197 -0.419510 -0.740094 21.000000
2.257503 -0.442273 -0.735010 14.000000
2.280622 -0.473286 -0.743543 25.000000
2.266018 -0.496913 -0.739982 18.000000
2.251162 -0.520182 -0.736351 16.000000
2.273168 -0.552090 -0.744861 21.000000
2.248630 -0.572858 -0.738124 10.000000
2.200874 -0.586997 -0.723681 9.000000
2.231109 -0.621812 -0.734977 16.000000
2.210483 -0.642885 -0.729777 11.000000
2.226143 -0.674559 -0.736661 20.000000
2.214150 -0.698145 -0.734334 11.000000
2.211027 -0.724449 -0.735023 14.000000
2.230146 -0.758382 -0.743156 15.000000
2.235271 -0.788090 -0.746683 10.000000
2.195340 -0.801588 -0.735194 9.000000
2.204291 -0.833082 -0.740291 16.000000
2.195170 -0.857656 -0.739236 10.000000
2.221068 -0.896669 -0.750212 12.000000
2.215591 -0.923477 -0.750708 12.000000
2.209768 -0.950229 -0.751124 10.000000
2.212400 -0.980874 -0.754512 16.000000
2.188619 -0.999756 -0.748894 10.000000
2.173301 -1.022256 -0.746257 9.000000
2.196483 -1.063310 -0.756878 18.000000
2.197692 -1.094258 -0.759988 12.000000
2.194275 -1.123160 -0.761607 15.000000
2.190213 -1.152569 -0.763373 17.000000
2.181849 -1.179265 -0.763422 12.000000
2.185737 -1.212933 -0.767789 20.000000
2.168097 -1.235305 -0.765047 11.000000
2.134156 -1.247376 -0.756141 9.000000
2.161282 -1.296190 -0.769399 16.000000
2.130593 -1.310612 -0.762123 10.000000
2.140829 -1.349541 -0.769091 13.000000
2.141971 -1.384225 -0.773442 10.000000
2.134661 -1.413747 -0.774793 10.000000
2.142834 -1.454036 -0.781832 14.000000
2.126819 -1.478224 -0.780181 10.000000
2.103248 -1.496116 -0.775322 9.000000
2.117772 -1.542444 -0.785077 18.000000
2.123872 -1.583496 -0.791832 10.000000
2.117918 -1.616180 -0.794261 14.000000
2.107741 -1.646005 -0.795160 15.000000
2.097265 -1.675659 -0.796045 12.000000
2.086404 -1.705312 -0.796916 15.000000
2.071389 -1.731885 -0.796272 13.000000
2.059091 -1.762090 -0.797290 9.000000
1.790825 -1.567256 -0.698030 10.000000
1.730882 -1.548909 -0.679296 20.000000
1.699878 -1.555371 -0.671777 32.000000
1.647969 -1.541614 -0.655917 36.000000
1.624318 -1.553406 -0.651198 35.000000
1.610255 -1.575547 -0.650872 36.000000
1.583032 -1.583387 -0.644789 32.000000
1.579408 -1.614836 -0.648315 16.000000
1.564586 -1.636598 -0.647898 37.000000
1.537196 -1.643456 -0.641700 34.000000
1.522733 -1.664143 -0.640996 34.000000
1.504055 -1.681747 -0.639136 34.000000
1.482924 -1.694872 -0.635630 30.000000
1.458525 -1.704054 -0.630781 37.000000
1.445647 -1.728292 -0.631489 28.000000
1.424173 -1.740633 -0.627930 10.000000
1.414676 -1.767663 -0.629741 30.000000
1.403786 -1.795402 -0.631740 23.000000
1.390587 -1.818649 -0.632019 28.000000
1.358753 -1.819289 -0.624613 29.000000
1.348024 -1.845993 -0.626276 23.000000
1.332939 -1.869471 -0.626740 30.000000
1.299461 -1.864423 -0.617713 22.000000
1.286691 -1.891414 -0.619478 10.000000
1.282837 -1.929785 -0.624829 29.000000
1.263858 -1.948705 -0.623856 20.000000
1.248551 -1.970810 -0.623870 27.000000
1.221436 -1.977108 -0.619012 25.000000
1.205731 -1.998890 -0.618932 23.000000
1.188300 -2.021228 -0.619127 22.000000
1.165729 -2.035067 -0.616685 17.000000
1.172731 -2.098614 -0.629213 9.000000
0.781891 1.411652 -0.409949 7.000000
0.755958 1.331244 -0.390709 10.000000
0.760957 1.305586 -0.387239 10.000000
0.776960 1.301269 -0.390104 12.000000
0.771156 1.259074 -0.381529 22.000000
0.785118 1.249999 -0.382925 16.000000
0.772025 1.200508 -0.371856 21.000000
0.774656 1.175305 -0.368146 21.000000
0.795069 1.178674 -0.373377 19.000000
0.780636 1.129569 -0.361934 21.000000
0.784138 1.109019 -0.359482 19.000000
0.802069 1.107628 -0.363293 28.000000
0.805060 1.087042 -0.360767 35.000000
0.852127 1.123827 -0.377476 33.000000
0.934943 1.205878 -0.409947 34.000000
1.017372 1.281906 -0.441182 24.000000
1.091692 1.345483 -0.468854 18.000000
1.641356 1.889865 -0.684229 30.000000
1.651710 1.860674 -0.682557 52.000000
1.684430 1.856451 -0.690070 29.000000
1.718096 1.850903 -0.697297 33.000000
1.744478 1.838624 -0.702125 47.000000
1.753921 1.808666 -0.700355 24.000000
1.774031 1.788236 -0.702191 35.000000
1.810246 1.785110 -0.710998 35.000000
1.829341 1.764727 -0.713093 33.000000
1.838493 1.733551 -0.710804 55.000000
1.871147 1.725853 -0.718238 32.000000
1.864707 1.682227 -0.710645 35.000000
1.915168 1.689759 -0.724842 44.000000
1.937689 1.670618 -0.727831 29.000000
1.948277 1.642583 -0.727035 33.000000
1.977035 1.629677 -0.733021 34.000000
1.994602 1.607312 -0.734811 32.000000
2.030799 1.599650 -0.743510 59.000000
2.055734 1.582526 -0.748004 32.000000
2.084306 1.567869 -0.753900 34.000000
2.109031 1.549943 -0.758423 37.000000
2.117945 1.520393 -0.757297 25.000000
2.150157 1.507388 -0.764545 35.000000
2.174437 1.488439 -0.768932 36.000000
2.198501 1.469059 -0.773246 34.000000
2.234571 1.457277 -0.781790 61.000000
2.241833 1.427267 -0.780838 29.000000
2.261462 1.404268 -0.783687 25.000000
2.272604 1.376124 -0.783712 21.000000
2.279308 1.345466 -0.782230 10.000000
2.264541 1.303290 -0.773891 20.000000
1.289285 0.667251 -0.433214 98.000000
1.288032 0.648241 -0.430997 80.000000
1.286317 0.629608 -0.428818 48.000000
1.293069 0.615145 -0.429548 71.000000
1.312679 0.606664 -0.434503 24.000000
1.314854 0.589957 -0.433753 34.000000
1.294811 0.563703 -0.425692 75.000000
1.287659 0.543535 -0.421942 35.000000
1.302355 0.532678 -0.425370 61.000000
1.303648 0.516246 -0.424460 74.000000
1.304723 0.499825 -0.423546 58.000000
1.301053 0.481932 -0.421220 72.000000
1.315283 0.470508 -0.424571 25.000000
1.306709 0.451077 -0.420738 65.000000
1.311516 0.436481 -0.421223 98.000000
1.307125 0.418746 -0.418702 82.000000
1.302452 0.401260 -0.416176 95.000000
1.306670 0.386735 -0.416698 95.000000
1.315401 0.373385 -0.418553 95.000000
1.314759 0.357337 -0.417437 98.000000
1.281531 0.333020 -0.406100 21.000000
1.303638 0.323251 -0.412350 103.000000
2.290844 0.460377 -0.719592 21.000000
2.314473 0.438341 -0.726004 23.000000
2.295542 0.408206 -0.719088 14.000000
2.332850 0.388003 -0.729781 19.000000
2.341650 0.362676 -0.731785 25.000000
2.326520 0.333776 -0.726259 20.000000
2.329973 0.307725 -0.726634 22.000000
2.337944 0.282172 -0.728336 21.000000
2.326633 0.254436 -0.724129 19.000000
2.334003 0.228808 -0.725831 24.000000
2.312534 0.200671 -0.718811 10.000000
2.338423 0.176588 -0.726281 20.000000
2.330689 0.149828 -0.723472 20.000000
2.332181 0.123712 -0.723621 24.000000
2.338147 0.097871 -0.725250 24.000000
2.339044 0.071703 -0.725325 33.000000
2.325392 0.045255 -0.720884 71.000000
2.325690 0.019172 -0.720959 73.000000
2.330540 -0.006851 -0.722439 82.000000
2.320840 -0.032778 -0.719330 85.000000
2.325095 -0.058854 -0.720810 95.000000
2.319579 -0.084688 -0.719181 71.000000
2.323312 -0.110871 -0.720438 95.000000
2.326742 -0.137086 -0.721769 81.000000
2.310810 -0.162145 -0.717110 32.000000
2.313646 -0.188361 -0.718514 79.000000
2.302057 -0.213286 -0.715188 58.000000
2.313874 -0.240542 -0.719249 81.000000
2.296814 -0.264761 -0.714597 50.000000
2.298599 -0.291062 -0.715778 29.000000
2.295269 -0.316742 -0.715408 26.000000
2.286991 -0.341716 -0.713489 24.000000
2.297377 -0.369471 -0.717466 12.000000
2.283798 -0.393559 -0.714075 23.000000
2.288831 -0.420819 -0.716500 22.000000
2.302911 -0.450048 -0.721860 22.000000
2.297891 -0.475821 -0.721411 24.000000
2.297241 -0.502540 -0.722355 20.000000
2.296268 -0.529289 -0.723221 22.000000
2.304338 -0.558318 -0.727017 24.000000
2.275041 -0.578163 -0.718939 10.000000
2.291775 -0.609707 -0.725503 20.000000
2.284963 -0.635364 -0.724897 18.000000
2.268740 -0.658280 -0.721296 19.000000
2.261579 -0.683456 -0.720316 18.000000
2.240352 -0.704479 -0.715193 16.000000
2.246126 -0.734110 -0.718884 18.000000
2.242591 -0.760748 -0.719433 15.000000
2.265879 -0.796784 -0.728611 10.000000
2.257070 -0.822292 -0.727845 18.000000
2.234673 -0.842276 -0.722429 13.000000
2.238686 -0.872617 -0.725853 18.000000
2.237915 -0.901241 -0.727822 16.000000
2.227994 -0.926389 -0.726822 15.000000
2.230967 -0.956969 -0.730066 20.000000
2.246802 -0.993577 -0.737610 17.000000
2.222768 -1.012747 -0.732129 9.000000
2.216054 -1.039606 -0.732395 18.000000
2.200356 -1.062241 -0.729716 10.000000
2.227386 -1.105932 -0.741327 21.000000
2.232183 -1.139833 -0.745923 20.000000
2.219733 -1.164732 -0.744566 17.000000
2.223683 -1.198890 -0.749055 25.000000
2.198072 -1.216611 -0.743271 11.000000
2.205485 -1.253324 -0.749072 9.000000
2.183637 -1.272951 -0.744712 13.000000
2.177799 -1.302482 -0.746166 14.000000
2.175618 -1.334627 -0.749018 14.000000
2.169049 -1.364252 -0.750367 14.000000
2.170520 -1.398606 -0.754182 10.000000
2.179121 -1.438940 -0.761099 16.000000
2.167243 -1.466201 -0.760834 13.000000
2.151110 -1.490567 -0.759254 9.000000
2.138644 -1.517546 -0.758981 15.000000
2.125952 -1.544447 -0.758619 12.000000
2.135997 -1.588388 -0.766551 18.000000
2.122407 -1.615306 -0.766072 13.000000
2.138839 -1.665683 -0.776602 13.000000
2.139480 -1.704673 -0.781576 20.000000
2.105991 -1.716484 -0.774099 10.000000
2.105754 -1.755505 -0.778949 9.000000
2.053673 -1.750899 -0.764595 9.000000
1.827323 -1.594303 -0.685294 9.000000
1.727419 -1.540997 -0.652186 16.000000
1.678677 -1.531105 -0.638182 29.000000
1.648026 -1.536696 -0.630989 30.000000
1.630745 -1.555691 -0.629346 36.000000
1.596720 -1.557016 -0.620786 32.000000
1.593555 -1.588424 -0.624225 22.000000
1.582489 -1.613690 -0.625252 35.000000
1.565170 -1.631223 -0.623248 31.000000
1.547637 -1.648613 -0.621245 36.000000
1.532434 -1.669986 -0.620776 34.000000
1.508132 -1.679804 -0.616064 32.000000
1.487023 -1.692818 -0.612681 37.000000
1.471212 -1.713653 -0.612136 30.000000
1.474663 -1.755737 -0.619190 26.000000
1.436642 -1.750377 -0.609437 31.000000
1.433225 -1.785022 -0.613692 26.000000
1.413263 -1.801512 -0.611739 30.000000
1.388286 -1.809468 -0.606925 24.000000
1.370947 -1.829324 -0.606118 27.000000
1.354534 -1.848308 -0.605157 30.000000
1.333920 -1.863858 -0.603060 23.000000
1.328111 -1.898356 -0.607009 27.000000
1.293273 -1.893729 -0.598575 23.000000
1.278683 -1.915955 -0.598704 22.000000
1.262613 -1.938812 -0.599032 29.000000
1.257856 -1.977254 -0.604040 20.000000
1.238328 -1.995918 -0.602994 24.000000
1.211111 -2.001912 -0.598222 21.000000
1.202501 -2.036039 -0.601884 21.000000
1.184625 -2.058365 -0.601958 22.000000
1.167839 -2.079829 -0.601787 6.000000
0.780781 1.405194 -0.393396 7.000000
0.767516 1.345392 -0.380594 10.000000
0.777457 1.327960 -0.379659 18.000000
0.778762 1.298540 -0.375242 20.000000
0.785513 1.277001 -0.373048 19.000000
0.783299 1.243652 -0.367284 29.000000
0.781293 1.210052 -0.361325 25.000000
0.789310 1.192811 -0.360152 27.000000
0.799061 1.180019 -0.360367 26.000000
0.781687 1.126930 -0.348093 10.000000
0.796323 1.122159 -0.350666 27.000000
0.797327 1.097211 -0.346881 28.000000
0.817486 1.100028 -0.351893 56.000000
0.885365 1.163697 -0.376763 57.000000
0.965935 1.241760 -0.406944 35.000000
1.039959 1.306226 -0.433356 34.000000
1.142271 1.403470 -0.471438 26.000000
1.595673 1.874421 -0.645803 48.000000
1.626016 1.866797 -0.651484 42.000000
1.648996 1.852283 -0.654949 36.000000
1.676013 1.840330 -0.659388 72.000000
1.715255 1.842770 -0.669217 37.000000
1.729023 1.815898 -0.668469 56.000000
1.741609 1.789652 -0.667944 39.000000
1.757215 1.766742 -0.668699 35.000000
1.790594 1.759888 -0.675629 69.000000
1.809320 1.739813 -0.677612 64.000000
1.838512 1.729421 -0.683517 37.000000
1.854113 1.704847 -0.683882 77.000000
1.875940 1.687205 -0.687028 67.000000
1.904920 1.675694 -0.692895 67.000000
1.937521 1.666844 -0.700024 55.000000
1.948660 1.638157 -0.698914 30.000000
1.962499 1.613182 -0.699359 50.000000
1.991139 1.600125 -0.705119 49.000000
2.019733 1.586654 -0.710818 40.000000
2.044455 1.569750 -0.715200 52.000000
2.072912 1.555321 -0.720934 52.000000
2.081973 1.526229 -0.719808 38.000000
2.125899 1.522299 -0.730866 37.000000
2.138359 1.495595 -0.731091 29.000000
2.158544 1.474077 -0.734014 57.000000
2.210493 1.473746 -0.747697 63.000000
2.222463 1.446106 -0.747855 52.000000
2.250287 1.428704 -0.753364 63.000000
2.269931 1.405792 -0.756164 63.000000
2.293409 1.385021 -0.760249 37.000000
2.300164 1.354218 -0.758874 22.000000
2.297795 1.319067 -0.755002 13.000000
2.265930 1.267273 -0.741165 31.000000
2.182672 1.188684 -0.710701 33.000000
1.316876 0.642847 -0.422018 95.000000
1.310697 0.621963 -0.418605 76.000000
1.317379 0.607309 -0.419250 49.000000
1.332644 0.596487 -0.422676 41.000000
1.334594 0.579637 -0.421886 68.000000
1.318710 0.555340 -0.415516 88.000000
1.320222 0.538748 -0.414665 95.000000
1.321512 0.522164 -0.413811 89.000000
1.322675 0.505591 -0.412908 71.000000
1.323574 0.489073 -0.412002 52.000000
1.328778 0.474314 -0.412540 68.000000
1.324818 0.456250 -0.410179 69.000000
1.320567 0.438434 -0.407857 73.000000
1.320732 0.422105 -0.406803 95.000000
1.329771 0.408786 -0.408653 89.000000
1.334152 0.393918 -0.409096 95.000000
1.329126 0.376348 -0.406626 95.000000
1.333081 0.361538 -0.407109 95.000000
1.346233 0.349004 -0.410246 95.000000
2.227037 0.498618 -0.675113 29.000000
2.307376 0.489628 -0.698256 26.000000
2.331433 0.467573 -0.704387 23.000000
2.340987 0.442428 -0.706338 23.000000
2.359848 0.418854 -0.711060 22.000000
2.340630 0.388531 -0.704327 10.000000
2.363656 0.365250 -0.710399 22.000000
2.372208 0.339584 -0.712204 26.000000
2.371042 0.312408 -0.711008 26.000000
2.364724 0.284841 -0.708537 22.000000
2.362917 0.257854 -0.707339 23.000000
2.360797 0.231049 -0.706215 22.000000
2.367988 0.205027 -0.707793 23.000000
2.346140 0.176813 -0.700808 10.000000
2.362284 0.151511 -0.705240 19.000000
2.368577 0.125381 -0.706744 30.000000
2.384148 0.099545 -0.711255 58.000000
2.351535 0.071924 -0.701332 84.000000
2.357000 0.045795 -0.702761 77.000000
2.352583 0.019404 -0.701407 71.000000
2.352658 -0.006818 -0.701332 63.000000
2.347643 -0.033047 -0.699829 46.000000
2.337614 -0.058975 -0.696898 14.000000
2.322429 -0.084588 -0.692540 10.000000
2.350111 -0.111857 -0.700883 40.000000
2.348763 -0.138079 -0.700733 88.000000
2.361531 -0.165305 -0.704788 62.000000
2.307029 -0.187345 -0.688947 21.000000
2.314436 -0.214023 -0.691578 25.000000
2.326295 -0.241260 -0.695558 44.000000
2.323466 -0.267247 -0.695334 53.000000
2.344262 -0.296164 -0.702007 75.000000
2.321884 -0.319727 -0.696013 31.000000
2.351489 -0.350566 -0.705522 25.000000
2.357020 -0.378272 -0.708063 21.000000
2.310244 -0.397253 -0.694819 10.000000
2.329419 -0.427396 -0.701396 21.000000
2.338788 -0.456079 -0.705125 24.000000
2.329011 -0.481196 -0.703176 24.000000
2.337692 -0.510223 -0.706896 26.000000
2.318037 -0.533115 -0.702117 21.000000
2.330780 -0.563431 -0.707092 22.000000
2.333899 -0.591728 -0.709231 19.000000
2.318039 -0.615311 -0.705795 11.000000
2.302004 -0.638534 -0.702136 19.000000
2.299545 -0.665552 -0.702861 16.000000
2.306016 -0.695290 -0.706320 16.000000
2.302935 -0.722387 -0.706883 22.000000
2.299438 -0.749740 -0.707673 16.000000
2.313940 -0.782963 -0.713762 21.000000
2.300712 -0.807315 -0.711584 16.000000
2.278418 -0.827976 -0.706380 10.000000
2.282729 -0.858475 -0.709724 19.000000
2.286697 -0.889275 -0.712980 19.000000
2.276872 -0.914772 -0.712044 20.000000
2.266814 -0.940191 -0.711030 21.000000
2.274107 -0.973090 -0.715496 18.000000
2.272288 -1.002271 -0.717249 20.000000
2.283192 -1.037532 -0.722991 18.000000
2.258746 -1.056832 -0.717648 10.000000
2.268913 -1.092360 -0.723282 23.000000
2.265373 -1.122213 -0.725000 22.000000
2.253173 -1.147334 -0.723715 17.000000
2.248930 -1.177236 -0.725339 20.000000
2.236201 -1.202131 -0.723889 17.000000
2.260716 -1.248187 -0.734999 26.000000
2.246950 -1.273671 -0.733688 20.000000
2.216550 -1.288745 -0.726678 10.000000
2.214713 -1.321107 -0.729459 19.000000
2.216574 -1.356015 -0.733502 16.000000
2.209815 -1.386014 -0.734730 17.000000
2.218808 -1.426442 -0.741442 22.000000
2.207108 -1.454009 -0.741204 19.000000
2.191108 -1.478805 -0.739696 15.000000
2.206633 -1.525257 -0.748775 16.000000
2.170232 -1.536075 -0.740453 10.000000
2.172891 -1.574552 -0.745460 19.000000
2.159508 -1.601730 -0.745010 19.000000
2.165001 -1.643394 -0.751214 17.000000
2.169942 -1.685316 -0.757379 23.000000
2.155365 -1.712582 -0.756791 20.000000
2.151688 -1.748795 -0.760162 18.000000
2.158611 -1.794328 -0.767374 18.000000
2.094360 -1.781598 -0.749812 10.000000
1.925713 -1.675081 -0.694022 9.000000
1.748889 -1.555440 -0.634520 14.000000
1.682092 -1.529442 -0.614407 27.000000
1.650775 -1.535550 -0.607693 35.000000
1.630673 -1.550536 -0.604614 36.000000
1.603573 -1.558570 -0.598885 42.000000
1.579271 -1.570127 -0.594750 34.000000
1.575945 -1.601347 -0.597995 30.000000
1.565479 -1.625764 -0.598714 53.000000
1.550621 -1.647241 -0.598282 64.000000
1.529707 -1.660752 -0.595009 35.000000
1.507944 -1.674687 -0.592028 36.000000
1.486828 -1.687697 -0.588771 37.000000
1.471111 -1.708392 -0.588188 50.000000
1.452979 -1.724604 -0.586197 35.000000
1.421403 -1.726296 -0.579333 27.000000
1.418259 -1.760799 -0.583465 27.000000
1.398663 -1.777046 -0.581541 31.000000
1.388715 -1.803880 -0.583125 28.000000
1.356986 -1.804314 -0.576243 30.000000
1.355156 -1.842598 -0.581429 30.000000
1.328975 -1.850281 -0.576958 30.000000
1.312254 -1.868807 -0.575957 26.000000
1.288742 -1.879828 -0.572655 22.000000
1.277120 -1.905973 -0.574000 30.000000
1.258484 -1.924757 -0.573116 27.000000
1.237075 -1.939222 -0.571019 27.000000
1.219318 -1.956867 -0.569832 26.000000
1.207659 -1.987452 -0.572438 25.000000
1.196813 -2.017315 -0.574786 29.000000
1.184060 -2.047918 -0.577242 24.000000
1.170785 -2.078524 -0.579661 8.000000
0.811425 1.453354 -0.391701 7.000000
0.793574 1.384751 -0.377118 12.000000
0.790696 1.346627 -0.370637 11.000000
0.798057 1.324871 -0.368580 21.000000
0.802440 1.299006 -0.365286 18.000000
0.808156 1.277816 -0.363267 22.000000
0.819606 1.264342 -0.363423 25.000000
0.827430 1.247161 -0.362535 19.000000
0.811158 1.193375 -0.350811 27.000000
0.796590 1.144085 -0.340182 10.000000
0.811318 1.139238 -0.342686 20.000000
0.809583 1.110219 -0.337859 22.000000
0.838654 1.124585 -0.346301 30.000000
0.918776 1.203611 -0.375099 32.000000
0.991805 1.269418 -0.400461 33.000000
1.077789 1.349449 -0.430931 32.000000
1.178613 1.442109 -0.466289 29.000000
1.603362 1.875897 -0.622115 32.000000
1.626279 1.861761 -0.625438 62.000000
1.653359 1.850234 -0.629766 59.000000
1.676158 1.835375 -0.633031 44.000000
1.699817 1.819580 -0.636069 51.000000
1.722377 1.804182 -0.639349 36.000000
1.738170 1.781541 -0.640069 36.000000
1.764774 1.768317 -0.644291 37.000000
1.786970 1.752022 -0.647433 51.000000
1.802882 1.728005 -0.647834 71.000000
1.824836 1.711158 -0.650983 65.000000
1.850268 1.697346 -0.655323 36.000000
1.879920 1.685652 -0.660704 95.000000
1.901557 1.667813 -0.663805 45.000000
1.934033 1.659098 -0.670651 62.000000
1.940773 1.628065 -0.668593 35.000000
1.970058 1.614870 -0.673868 37.000000
1.994889 1.598801 -0.678120 53.000000
2.012082 1.576442 -0.679815 35.000000
2.036705 1.559715 -0.684006 57.000000
2.065078 1.545468 -0.689500 66.000000
2.078371 1.518826 -0.689510 48.000000
2.106509 1.503901 -0.694945 35.000000
2.142586 1.493991 -0.702996 36.000000
2.154694 1.467169 -0.703180 36.000000
2.182572 1.450961 -0.708578 69.000000
2.202280 1.428980 -0.711294 58.000000
2.217803 1.404160 -0.712705 64.000000
2.265747 1.399457 -0.724534 66.000000
2.293304 1.381402 -0.729826 45.000000
2.295480 1.348751 -0.727482 37.000000
2.326791 1.332394 -0.734026 33.000000
2.307527 1.287385 -0.724719 24.000000
2.300309 1.249871 -0.719266 28.000000
2.232693 1.181431 -0.695458 32.000000
1.317518 0.605849 -0.402567 32.000000
1.337190 0.597043 -0.407229 56.000000
1.347964 0.584068 -0.409174 53.000000
1.354201 0.568990 -0.409779 69.000000
1.342457 0.546601 -0.404956 91.000000
1.334898 0.526284 -0.401420 64.000000
1.340536 0.511324 -0.401965 87.000000
1.341521 0.494653 -0.401070 81.000000
1.342289 0.477992 -0.400171 33.000000
1.347393 0.462952 -0.400577 66.000000
1.343178 0.444975 -0.398364 83.000000
1.343304 0.428529 -0.397501 86.000000
1.343353 0.412051 -0.396501 93.000000
1.352335 0.398440 -0.398261 95.000000
1.351952 0.382020 -0.397303 98.000000
2.337491 0.522271 -0.680555 26.000000
2.366562 0.501189 -0.687926 21.000000
2.390720 0.478562 -0.693783 26.000000
2.395826 0.451794 -0.694170 25.000000
2.391075 0.423428 -0.691971 19.000000
2.390801 0.396057 -0.690985 16.000000
2.394953 0.369371 -0.691293 19.000000
2.384597 0.340569 -0.687484 19.000000
2.388113 0.314042 -0.687866 21.000000
2.391400 0.287439 -0.688095 21.000000
2.408643 0.262321 -0.692600 27.000000
2.377919 0.232210 -0.683132 19.000000
2.380270 0.205744 -0.683284 16.000000
2.401568 0.180643 -0.689089 19.000000
2.403402 0.153887 -0.689165 34.000000
2.419332 0.127815 -0.693369 59.000000
