x y z intensity
1.052377 1.247467 0.160557 29.000000
1.072389 1.243391 0.162090 16.000000
1.088619 1.235795 0.163237 32.000000
1.111991 1.234866 0.165226 37.000000
1.118707 1.215263 0.164794 34.000000
1.135287 1.206525 0.165850 36.000000
1.169089 1.215488 0.169355 35.000000
1.185767 1.206155 0.170374 34.000000
1.205944 1.200047 0.171898 37.000000
1.211862 1.179800 0.171411 15.000000
1.210268 1.152693 0.169907 46.000000
1.229593 1.146557 0.171486 67.000000
1.249423 1.139645 0.173019 39.000000
1.295224 1.155647 0.178079 71.000000
1.311539 1.144592 0.179123 52.000000
1.323982 1.130119 0.179604 49.000000
1.347719 1.125047 0.181628 53.000000
1.371504 1.119616 0.183660 23.000000
1.364238 1.088948 0.181509 35.000000
1.379673 1.077334 0.182563 36.000000
1.415099 1.080184 0.186167 45.000000
1.438800 1.073481 0.188168 51.000000
1.454496 1.060492 0.189131 37.000000
1.474084 1.050243 0.190620 35.000000
1.497713 1.042491 0.192639 35.000000
1.512913 1.029104 0.193669 17.000000
1.528172 1.015178 0.194646 57.000000
1.551722 1.006459 0.196626 77.000000
1.566821 0.991976 0.197553 52.000000
1.590266 0.982571 0.199601 53.000000
1.609222 0.970494 0.201124 37.000000
1.636860 0.962869 0.203660 37.000000
1.642981 0.942384 0.203534 36.000000
1.657494 0.926730 0.204418 20.000000
1.698076 0.925133 0.208579 51.000000
1.721101 0.913726 0.210607 67.000000
1.770712 0.915307 0.215809 59.000000
1.793946 0.902552 0.217794 68.000000
1.825821 0.894063 0.220988 64.000000
1.835495 0.873968 0.221300 37.000000
1.849429 0.855897 0.222217 35.000000
1.881165 0.846008 0.225370 19.000000
1.913058 0.835309 0.228406 35.000000
1.949553 0.825986 0.231994 37.000000
1.976717 0.812352 0.234566 40.000000
2.008530 0.799828 0.237625 44.000000
2.026299 0.781567 0.239118 37.000000
2.067294 0.771526 0.243287 36.000000
2.098864 0.757468 0.246369 35.000000
2.102324 0.732813 0.246162 35.000000
2.133667 0.717835 0.249255 71.000000
2.164975 0.702137 0.252286 83.000000
2.191426 0.684442 0.254842 78.000000
2.222554 0.667764 0.257885 61.000000
2.267876 0.654415 0.262592 41.000000
2.289201 0.633677 0.264543 32.000000
2.329533 0.617647 0.268713 36.000000
2.393921 0.606841 0.275665 35.000000
2.419686 0.585428 0.278189 59.000000
2.450088 0.564556 0.281197 64.000000
2.490010 0.545282 0.285322 64.000000
2.529858 0.525110 0.289453 37.000000
2.564667 0.503318 0.293114 51.000000
2.574851 0.476211 0.293832 9.000000
2.633685 0.457500 0.300211 8.000000
2.736615 0.444622 0.311627 8.000000
2.760948 0.417795 0.314033 8.000000
2.809607 0.393817 0.319323 9.000000
2.853123 0.368236 0.323974 10.000000
2.916133 0.344035 0.330868 42.000000
2.988904 0.319689 0.338798 36.000000
3.056429 0.293177 0.346267 76.000000
3.079249 0.261476 0.348698 89.000000
3.071997 0.227145 0.347672 66.000000
3.049475 0.192094 0.344962 69.000000
3.021582 0.157231 0.341689 34.000000
2.993377 0.123018 0.338415 29.000000
2.969652 0.089605 0.335700 34.000000
2.945636 0.056734 0.332983 58.000000
2.941121 0.024570 0.332422 95.000000
2.931274 -0.007562 0.331299 47.000000
2.896230 -0.039053 0.327368 64.000000
2.890640 -0.070512 0.326807 69.000000
2.874856 -0.101512 0.325122 65.000000
2.868568 -0.132646 0.324561 82.000000
2.852100 -0.163105 0.322788 61.000000
2.790688 -0.190198 0.315966 9.000000
2.699303 -0.213556 0.305864 8.000000
2.736395 -0.246562 0.310269 9.000000
2.713837 -0.274349 0.307858 9.000000
2.681029 -0.300599 0.304410 9.000000
2.667770 -0.328632 0.303124 9.000000
2.654207 -0.356367 0.301921 9.000000
2.640343 -0.383887 0.300637 9.000000
2.640909 -0.413417 0.301032 9.000000
2.641129 -0.443053 0.301427 31.000000
2.650868 -0.474382 0.302940 67.000000
2.640693 -0.502400 0.302216 79.000000
2.635080 -0.531044 0.301968 87.000000
2.609697 -0.555633 0.299490 76.000000
2.593855 -0.581891 0.298129 85.000000
2.577652 -0.607855 0.296771 69.000000
2.580631 -0.638300 0.297639 28.000000
2.717838 -0.703750 0.314071 10.000000
3.413280 -1.003925 0.396807 5.000000
3.430756 -1.049685 0.399691 5.000000
3.371831 -1.071868 0.393721 4.000000
3.345832 -1.104026 0.391737 3.000000
3.371331 -1.153244 0.395610 3.000000
3.133692 -1.110338 0.368718 2.000000
3.336179 -1.223015 0.393525 2.000000
3.359828 -1.273546 0.397487 3.000000
3.336561 -1.306218 0.395837 2.000000
3.368226 -1.361256 0.400770 2.000000
3.275405 -1.365224 0.390905 2.000000
3.241997 -1.393111 0.388173 2.000000
3.190257 -1.412441 0.383264 2.000000
3.102576 -1.413954 0.373900 1.000000
3.073479 -1.441433 0.371744 1.000000
3.227646 -1.557165 0.391767 2.000000
3.215156 -1.594138 0.391649 5.000000
2.900805 -1.478088 0.354705 6.000000
2.880111 -1.507465 0.353565 6.000000
2.942563 -1.580845 0.362578 2.000000
3.016542 -1.663344 0.373274 1.000000
3.032860 -1.715918 0.376942 1.000000
2.867746 -1.664345 0.358048 1.000000
2.917778 -1.736368 0.366012 1.000000
2.907508 -1.772810 0.366248 2.000000
2.837370 -1.773074 0.359113 1.000000
2.821943 -1.806767 0.358926 1.000000
2.868507 -1.881244 0.366710 1.000000
3.008727 -2.020835 0.386658 1.000000
2.843625 -1.954417 0.367247 1.000000
2.822022 -1.985550 0.366506 1.000000
2.812312 -2.025188 0.367240 1.000000
2.781972 -2.050025 0.365337 1.000000
2.695859 -2.032669 0.356201 1.000000
2.645918 -2.040835 0.351709 1.000000
2.620070 -2.065954 0.350162 1.000000
2.821849 -2.275678 0.379539 1.000000
2.758456 -2.274961 0.373455 1.000000
2.626993 -2.215363 0.357963 1.000000
2.643961 -2.279872 0.362804 2.000000
2.622627 -2.312082 0.362356 4.000000
2.515926 -2.267472 0.350081 8.000000
2.428804 -2.237717 0.340430 8.000000
2.307298 -2.171317 0.325518 13.000000
2.211695 -2.127622 0.314450 10.000000
2.117411 -2.081975 0.303346 10.000000
2.045428 -2.055748 0.295432 19.000000
1.949969 -2.003223 0.283933 19.000000
1.869695 -1.963251 0.274512 25.000000
1.804072 -1.936309 0.267153 23.000000
1.742670 -1.911914 0.260333 24.000000
1.672057 -1.875179 0.252053 25.000000
1.613143 -1.847697 0.245161 18.000000
1.563827 -1.831174 0.239873 15.000000
1.515106 -1.813866 0.234688 29.000000
1.488951 -1.822612 0.232906 33.000000
1.469031 -1.838851 0.232112 40.000000
1.442840 -1.846959 0.230340 41.000000
1.413583 -1.850762 0.228087 33.000000
1.408333 -1.886053 0.229658 33.000000
1.390625 -1.905373 0.229348 29.000000
1.378464 -1.932645 0.229999 24.000000
1.365893 -1.959888 0.230566 30.000000
1.344580 -1.974682 0.229687 30.000000
1.325730 -1.993475 0.229285 28.000000
1.312138 -2.020384 0.229829 29.000000
1.291312 -2.033899 0.228869 27.000000
1.282192 -2.069087 0.230338 29.000000
1.267386 -2.095745 0.230850 24.000000
1.279901 -2.169509 0.236415 9.000000
0.834439 1.436685 0.168539 6.000000
0.816949 1.371901 0.162665 9.000000
0.854256 1.401553 0.168031 16.000000
0.845799 1.354121 0.164085 21.000000
0.873896 1.365662 0.167338 11.000000
0.891446 1.360172 0.168549 23.000000
0.900623 1.342033 0.168163 16.000000
0.934915 1.360756 0.172495 18.000000
0.932495 1.326017 0.170024 21.000000
0.973011 1.351992 0.175382 10.000000
0.952302 1.293212 0.169741 24.000000
0.963357 1.278694 0.169854 19.000000
0.989352 1.283834 0.172610 17.000000
1.000202 1.268986 0.172676 25.000000
1.028934 1.277783 0.176038 18.000000
1.042781 1.266403 0.176642 21.000000
1.062931 1.262477 0.178371 20.000000
1.092823 1.269561 0.181674 10.000000
1.080334 1.227625 0.177964 28.000000
1.113634 1.237848 0.181772 24.000000
1.133806 1.232845 0.183474 25.000000
1.126802 1.198572 0.180763 30.000000
1.160443 1.207597 0.184657 22.000000
1.183536 1.205896 0.186923 29.000000
1.203701 1.199787 0.188597 25.000000
1.213189 1.183010 0.188618 19.000000
1.211659 1.155866 0.186971 32.000000
1.246055 1.162785 0.190875 29.000000
1.266007 1.155668 0.192515 33.000000
1.286001 1.148283 0.194160 37.000000
1.305608 1.141003 0.195918 28.000000
1.329346 1.136255 0.198140 35.000000
1.334076 1.115166 0.197548 28.000000
1.361584 1.112948 0.200292 22.000000
1.365923 1.091675 0.199697 35.000000
1.393504 1.088816 0.202455 25.000000
1.408912 1.076840 0.203623 32.000000
1.436542 1.073096 0.206401 34.000000
1.452231 1.060160 0.207469 28.000000
1.467819 1.046970 0.208486 32.000000
1.487324 1.036420 0.210136 25.000000
1.502456 1.023120 0.211270 20.000000
1.521841 1.012034 0.212874 37.000000
1.549451 1.006062 0.215641 27.000000
1.560407 0.988920 0.216096 32.000000
1.583805 0.979500 0.218296 34.000000
1.598413 0.964957 0.219395 24.000000
1.617470 0.952325 0.220965 35.000000
1.640714 0.941919 0.223126 30.000000
1.681041 0.941108 0.227758 24.000000
1.695583 0.924955 0.228761 40.000000
1.740691 0.924896 0.233889 34.000000
1.755096 0.908035 0.234904 31.000000
1.791357 0.902367 0.238876 36.000000
1.810013 0.887010 0.240493 32.000000
1.828392 0.871582 0.242113 35.000000
1.851306 0.857734 0.244270 36.000000
1.856061 0.835315 0.244051 19.000000
1.896785 0.829088 0.248663 32.000000
1.942318 0.823723 0.253822 31.000000
1.964845 0.808247 0.256071 29.000000
2.001197 0.797658 0.259992 34.000000
2.037457 0.786597 0.263989 29.000000
2.064516 0.771187 0.266728 32.000000
2.091455 0.755439 0.269541 30.000000
2.099521 0.732471 0.269883 15.000000
2.135537 0.719073 0.273844 69.000000
2.157389 0.700395 0.276002 42.000000
2.179062 0.681268 0.278165 34.000000
2.214879 0.665907 0.282077 47.000000
2.264832 0.654125 0.287888 34.000000
2.267007 0.628085 0.287643 13.000000
2.312108 0.613532 0.292792 16.000000
2.337822 0.593113 0.295518 9.000000
2.406828 0.582786 0.303728 35.000000
2.437174 0.562170 0.307079 34.000000
2.481953 0.543984 0.312266 33.000000
2.511950 0.521844 0.315552 35.000000
2.541819 0.499252 0.318842 18.000000
2.561714 0.474243 0.320995 8.000000
2.615570 0.454704 0.327354 8.000000
2.752630 0.447638 0.344047 6.000000
2.742628 0.415395 0.342466 8.000000
2.801033 0.392953 0.349379 8.000000
2.859255 0.369331 0.356387 9.000000
2.902489 0.342780 0.361474 34.000000
2.980093 0.318976 0.370864 33.000000
3.032712 0.291185 0.377192 36.000000
3.075263 0.261381 0.382201 95.000000
3.043282 0.225220 0.378088 31.000000
3.000965 0.189190 0.372647 26.000000
2.992904 0.155848 0.371509 9.000000
2.949851 0.121386 0.366064 8.000000
2.950941 0.089156 0.366155 34.000000
2.931914 0.056543 0.363694 42.000000
2.912518 0.024363 0.361322 32.000000
2.917569 -0.007447 0.361937 74.000000
2.887532 -0.038986 0.358244 43.000000
2.867069 -0.070027 0.355782 38.000000
2.866187 -0.101337 0.355782 64.000000
2.850082 -0.131870 0.353848 36.000000
2.828600 -0.161883 0.351386 37.000000
2.772229 -0.189099 0.344531 9.000000
2.695811 -0.213473 0.335220 7.000000
2.708142 -0.244249 0.336981 9.000000
2.695508 -0.272767 0.335668 9.000000
2.662756 -0.298856 0.331815 9.000000
2.669228 -0.329074 0.332878 9.000000
2.635998 -0.354220 0.329030 9.000000
2.627080 -0.382294 0.328334 9.000000
2.603144 -0.407876 0.325717 9.000000
2.613207 -0.438699 0.327313 10.000000
2.647394 -0.474217 0.332051 70.000000
2.612853 -0.497511 0.328130 34.000000
2.607291 -0.525891 0.327884 61.000000
2.601403 -0.554353 0.327639 85.000000
2.580743 -0.579472 0.325561 52.000000
2.564658 -0.605251 0.324097 53.000000
2.557933 -0.633204 0.323773 37.000000
2.502845 -0.648627 0.317437 9.000000
2.826213 -0.765318 0.359117 13.000000
3.261213 -0.959936 0.416105 3.000000
3.402402 -1.042088 0.435106 2.000000
3.310516 -1.053482 0.424362 1.000000
3.327258 -1.098816 0.427461 2.000000
3.385628 -1.159017 0.435993 1.000000
3.054660 -1.083285 0.394474 2.000000
3.275789 -1.201845 0.424035 1.000000
3.304255 -1.253518 0.429030 1.000000
3.285836 -1.287559 0.427776 1.000000
3.207204 -1.297516 0.418821 1.000000
3.243452 -1.353212 0.424783 1.000000
3.132676 -1.347458 0.411659 1.000000
3.213310 -1.423649 0.423594 1.000000
3.265282 -1.489665 0.431907 1.000000
3.212896 -1.508530 0.426582 1.000000
3.267950 -1.577758 0.435347 1.000000
3.099361 -1.538513 0.414461 2.000000
2.923444 -1.490820 0.392247 6.000000
2.889412 -1.513578 0.389272 5.000000
2.890160 -1.554665 0.391037 2.000000
3.029487 -1.672732 0.411589 1.000000
3.134157 -1.820656 0.429405 1.000000
2.924519 -1.785013 0.404297 1.000000
2.879571 -1.801219 0.400051 1.000000
3.010144 -1.929309 0.420227 1.000000
2.901656 -1.905035 0.407224 1.000000
2.790713 -2.106758 0.404766 1.000000
2.846795 -2.197210 0.415049 1.000000
2.650958 -2.093042 0.388995 1.000000
2.790236 -2.253165 0.412030 1.000000
2.811412 -2.321750 0.417870 1.000000
2.626360 -2.217935 0.392903 1.000000
2.579408 -2.227281 0.388555 2.000000
2.641332 -2.330193 0.400392 4.000000
2.538218 -2.289309 0.387483 7.000000
2.450927 -2.259874 0.376885 6.000000
2.306734 -2.174239 0.357376 9.000000
2.218475 -2.137399 0.346347 9.000000
2.099334 -2.067574 0.330269 8.000000
2.045105 -2.058828 0.324365 15.000000
1.933281 -1.987773 0.308903 10.000000
1.897781 -1.994488 0.305758 16.000000
1.804780 -1.938810 0.293274 16.000000
1.740051 -1.910724 0.285248 10.000000
1.666132 -1.870389 0.275548 18.000000
1.606492 -1.843574 0.268162 10.000000
1.541159 -1.808181 0.259656 9.000000
1.515027 -1.817321 0.257770 23.000000
1.482562 -1.818470 0.254740 23.000000
1.466649 -1.837768 0.254341 28.000000
1.428235 -1.830204 0.250189 28.000000
1.411227 -1.849763 0.249868 24.000000
1.397034 -1.873086 0.250075 29.000000
1.373594 -1.884273 0.248612 23.000000
1.373250 -1.927576 0.251451 12.000000
1.360709 -1.954781 0.252086 27.000000
1.339367 -1.969545 0.251136 18.000000
1.323381 -1.992375 0.251230 25.000000
1.301583 -2.006833 0.250276 21.000000
1.295600 -2.046208 0.252432 22.000000
1.275847 -2.064558 0.251982 25.000000
1.272622 -2.107466 0.254464 17.000000
1.277354 -2.168428 0.259038 9.000000
0.814307 1.406326 0.179676 8.000000
0.814353 1.371607 0.177114 19.000000
0.831876 1.366790 0.178452 26.000000
0.851973 1.365985 0.180253 25.000000
0.858828 1.343933 0.179318 30.000000
0.870654 1.330273 0.179492 23.000000
0.893405 1.332986 0.181914 24.000000
0.910706 1.327176 0.183170 27.000000
0.927948 1.321156 0.184429 23.000000
0.933582 1.298741 0.183464 23.000000
0.944005 1.284911 0.183629 28.000000
0.966918 1.286340 0.186037 26.000000
0.986964 1.283535 0.187882 29.000000
1.003962 1.276495 0.189157 24.000000
1.014721 1.261499 0.189225 29.000000
1.028400 1.250257 0.189921 27.000000
1.051569 1.250266 0.192322 25.000000
1.052174 1.223560 0.190628 29.000000
1.074749 1.223544 0.193088 29.000000
1.098013 1.222714 0.195511 33.000000
1.107939 1.206885 0.195575 35.000000
1.131273 1.205458 0.197963 29.000000
1.144383 1.192908 0.198572 34.000000
1.185144 1.208558 0.203967 35.000000
1.194794 1.191940 0.203992 31.000000
1.190002 1.161326 0.201605 29.000000
1.209345 1.155455 0.203477 33.000000
1.229196 1.148811 0.205306 34.000000
1.256365 1.148602 0.208304 37.000000
1.291070 1.154476 0.212533 33.000000
1.296167 1.133617 0.211898 52.000000
1.330752 1.139052 0.216208 35.000000
1.335531 1.117923 0.215572 32.000000
1.336223 1.093660 0.214261 26.000000
1.363613 1.091245 0.217314 33.000000
1.383299 1.082267 0.219089 50.000000
1.395074 1.066926 0.219630 35.000000
1.434173 1.072655 0.224578 34.000000
1.449856 1.059663 0.225698 38.000000
1.477548 1.055120 0.228750 43.000000
1.493065 1.041595 0.229879 32.000000
1.516449 1.033850 0.232379 34.000000
1.527684 1.017026 0.232831 34.000000
1.542908 1.002791 0.233970 51.000000
1.570530 0.996380 0.237007 42.000000
1.589548 0.984551 0.238846 34.000000
1.612982 0.974701 0.241211 49.000000
1.636353 0.964396 0.243583 37.000000
1.655237 0.951573 0.245383 31.000000
1.656865 0.928455 0.244576 34.000000
1.688679 0.922045 0.248184 32.000000
1.716017 0.913008 0.251281 36.000000
1.743497 0.903170 0.254268 48.000000
1.779728 0.897593 0.258672 36.000000
1.793871 0.880148 0.259746 35.000000
1.821303 0.868887 0.262697 36.000000
1.835054 0.851162 0.263840 31.000000
1.871326 0.843148 0.268099 31.000000
1.898527 0.830693 0.271200 31.000000
1.921147 0.815585 0.273532 32.000000
1.948154 0.802193 0.276585 34.000000
1.970657 0.786238 0.278929 30.000000
1.997512 0.771899 0.281931 31.000000
2.024324 0.757092 0.285007 32.000000
2.060410 0.744917 0.289267 25.000000
2.077727 0.725660 0.290982 35.000000
2.104238 0.709297 0.294014 62.000000
2.140110 0.695520 0.298298 36.000000
2.180634 0.682468 0.303319 51.000000
2.216355 0.667194 0.307623 60.000000
2.228241 0.644200 0.308567 36.000000
2.239873 0.621316 0.309585 10.000000
2.251246 0.598042 0.310603 8.000000
2.315271 0.588011 0.318828 9.000000
2.398586 0.581390 0.329715 24.000000
2.433713 0.561863 0.334072 34.000000
2.478359 0.543750 0.339609 44.000000
2.513252 0.522695 0.343905 39.000000
2.552822 0.501961 0.348873 21.000000
2.538619 0.470391 0.346454 9.000000
2.563076 0.446045 0.349354 6.000000
2.650950 0.431542 0.360914 8.000000
2.699510 0.409198 0.367160 8.000000
2.767590 0.388645 0.376080 8.000000
2.796206 0.361529 0.379588 12.000000
2.868830 0.339111 0.389194 58.000000
2.941365 0.315189 0.398723 53.000000
2.998901 0.288247 0.406255 64.000000
3.006714 0.255825 0.407016 42.000000
3.009316 0.222930 0.407202 46.000000
2.971986 0.187537 0.401944 28.000000
2.919481 0.152235 0.394678 9.000000
2.891217 0.119053 0.390753 10.000000
2.912186 0.088017 0.393519 32.000000
2.922812 0.056447 0.394948 78.000000
2.883624 0.024155 0.389681 91.000000
2.878758 -0.007358 0.389012 59.000000
2.893356 -0.039031 0.391020 95.000000
2.868054 -0.070060 0.387673 95.000000
2.857178 -0.101074 0.386246 95.000000
2.846046 -0.131870 0.384907 98.000000
2.829539 -0.162079 0.382811 66.000000
2.783128 -0.189940 0.376702 10.000000
2.711743 -0.214872 0.367251 10.000000
2.684639 -0.242300 0.363823 9.000000
2.676887 -0.271102 0.363072 10.000000
2.668814 -0.299797 0.362238 9.000000
2.650670 -0.327088 0.360068 9.000000
2.646969 -0.356038 0.359904 10.000000
2.608615 -0.379907 0.355067 9.000000
2.614103 -0.409936 0.356239 9.000000
2.643748 -0.444284 0.360661 70.000000
2.629040 -0.471345 0.359163 78.000000
2.618826 -0.499121 0.358251 84.000000
2.608468 -0.526708 0.357257 82.000000
2.592876 -0.553074 0.355682 95.000000
2.606093 -0.585748 0.358094 98.000000
2.575481 -0.608426 0.354446 76.000000
2.563908 -0.635345 0.353457 81.000000
2.528050 -0.655855 0.349237 15.000000
2.726408 -0.739201 0.377385 10.000000
2.904310 -0.821373 0.402648 4.000000
3.193725 -0.979180 0.444801 1.000000
3.381269 -1.077125 0.471973 1.000000
3.322410 -1.098385 0.464842 1.000000
3.357124 -1.150543 0.470880 1.000000
3.026920 -1.074298 0.425665 1.000000
3.312729 -1.216905 0.467163 1.000000
3.276197 -1.244068 0.463235 1.000000
3.364128 -1.319488 0.476982 1.000000
3.308093 -1.339563 0.470544 1.000000
3.096787 -1.293341 0.441719 1.000000
3.282874 -1.413594 0.469878 1.000000
3.303615 -1.465208 0.474313 1.000000
3.152092 -1.439682 0.454154 1.000000
3.131926 -1.471705 0.452652 1.000000
3.004039 -1.452060 0.435823 1.000000
3.041297 -1.511503 0.442967 1.000000
2.949817 -1.506099 0.431158 6.000000
2.858456 -1.499259 0.419490 6.000000
2.837799 -1.527802 0.418053 3.000000
2.912076 -1.609311 0.430842 1.000000
2.963274 -1.680391 0.440382 1.000000
2.970861 -1.727319 0.443276 1.000000
3.015612 -1.798088 0.452115 1.000000
2.864564 -1.750969 0.431492 1.000000
2.854067 -1.787120 0.431731 2.000000
2.825930 -1.813053 0.429633 1.000000
2.785166 -1.830527 0.425640 1.000000
2.863715 -1.927657 0.439991 1.000000
2.847090 -1.961163 0.439560 1.000000
2.764589 -1.949553 0.429164 1.000000
2.859688 -2.064131 0.446436 1.000000
2.616525 -1.976464 0.413024 1.000000
2.653519 -2.050714 0.421468 1.000000
2.689307 -2.125951 0.429766 1.000000
2.731379 -2.208611 0.439367 1.000000
2.615306 -2.162757 0.423430 1.000000
2.674755 -2.261945 0.435971 1.000000
2.624343 -2.267676 0.430369 1.000000
2.532448 -2.237337 0.418143 2.000000
2.537176 -2.291795 0.422004 6.000000
2.439029 -2.252322 0.408631 8.000000
2.291527 -2.163240 0.386798 8.000000
2.257942 -2.177225 0.383717 10.000000
2.131423 -2.100876 0.365098 10.000000
2.038401 -2.053790 0.352010 10.000000
1.960483 -2.019142 0.341311 18.000000
1.887056 -1.986698 0.331271 18.000000
1.804417 -1.941877 0.319491 16.000000
1.743000 -1.917515 0.311355 20.000000
1.675789 -1.884691 0.302075 16.000000
1.629944 -1.872330 0.296249 17.000000
1.557919 -1.829623 0.285883 10.000000
1.506130 -1.808528 0.279036 18.000000
1.483177 -1.821096 0.277509 29.000000
1.447789 -1.817913 0.273647 26.000000
1.437019 -1.845450 0.274467 28.000000
1.410807 -1.853214 0.272372 30.000000
1.387590 -1.864616 0.270791 27.000000
1.377008 -1.891086 0.271449 20.000000
1.353430 -1.902060 0.269868 17.000000
1.352480 -1.945382 0.272869 22.000000
1.334018 -1.964267 0.272493 21.000000
1.320812 -1.991200 0.273102 20.000000
1.309891 -2.022264 0.274337 23.000000
1.282453 -2.028223 0.272174 21.000000
1.270706 -2.059139 0.273313 18.000000
1.266131 -2.102756 0.276187 19.000000
1.255723 -2.137973 0.277840 8.000000
0.822500 1.422569 0.196622 7.000000
0.812639 1.370725 0.191515 28.000000
0.830107 1.365906 0.192897 30.000000
0.842370 1.352407 0.193082 32.000000
0.859734 1.347235 0.194470 29.000000
0.876254 1.342350 0.195911 31.000000
0.885326 1.324341 0.195482 33.000000
0.905333 1.322685 0.197489 31.000000
0.922571 1.316646 0.198842 33.000000
0.928185 1.294315 0.197735 24.000000
0.945177 1.287980 0.199088 31.000000
0.965138 1.285450 0.201066 35.000000
0.982101 1.278656 0.202431 32.000000
0.989907 1.259944 0.201924 34.000000
1.018444 1.268788 0.205851 32.000000
1.032257 1.257477 0.206602 32.000000
1.049109 1.249814 0.207934 31.000000
1.049793 1.223114 0.206100 17.000000
1.076168 1.226370 0.209340 43.000000
1.092833 1.218063 0.210631 37.000000
1.116131 1.216942 0.213257 35.000000
1.128834 1.205001 0.214019 61.000000
1.145373 1.196031 0.215324 36.000000
1.165356 1.190376 0.217280 57.000000
1.181835 1.180909 0.218595 38.000000
1.198235 1.171262 0.219915 21.000000
1.207391 1.154529 0.219881 48.000000
1.226764 1.148346 0.221910 62.000000
1.250250 1.144731 0.224500 43.000000
1.273798 1.140717 0.227101 71.000000
1.289950 1.129875 0.228393 36.000000
1.332415 1.141306 0.234322 53.000000
1.344461 1.126938 0.235024 64.000000
1.352890 1.108835 0.234953 21.000000
1.357276 1.087609 0.234211 35.000000
1.373013 1.075562 0.235469 56.000000
1.388332 1.063751 0.236784 34.000000
1.403879 1.051262 0.237995 57.000000
1.447315 1.059055 0.243926 35.000000
1.466920 1.048799 0.245884 34.000000
1.494326 1.044209 0.249204 41.000000
1.493394 1.019266 0.247729 21.000000
1.529209 1.019152 0.252311 59.000000
1.540078 1.002565 0.252934 42.000000
1.563488 0.993438 0.255493 37.000000
1.582693 0.981309 0.257375 38.000000
1.605846 0.971789 0.260065 35.000000
1.629224 0.961587 0.262590 35.000000
1.656827 0.953397 0.265870 53.000000
1.662639 0.932951 0.265710 23.000000
1.681492 0.919314 0.267562 36.000000
1.708775 0.910261 0.270925 49.000000
1.749388 0.907306 0.276200 34.000000
1.772486 0.894687 0.278771 54.000000
1.804252 0.886266 0.282805 41.000000
1.818322 0.868452 0.283936 33.000000
1.836556 0.852811 0.285831 33.000000
1.854756 0.836600 0.287667 14.000000
1.886396 0.826274 0.291675 31.000000
1.913443 0.813391 0.294928 35.000000
1.935953 0.797966 0.297486 29.000000
1.962860 0.784141 0.300756 33.000000
1.998899 0.773422 0.305444 35.000000
2.025766 0.758295 0.308599 32.000000
2.038489 0.737842 0.309773 31.000000
2.069735 0.723687 0.313715 24.000000
2.091510 0.705790 0.316248 34.000000
2.141421 0.696705 0.323046 59.000000
2.163018 0.677677 0.325595 35.000000
2.198647 0.662554 0.330215 37.000000
2.224742 0.643986 0.333490 54.000000
2.212524 0.614268 0.330923 9.000000
2.262080 0.601571 0.337775 9.000000
2.311667 0.587790 0.344496 7.000000
2.346772 0.569418 0.349156 8.000000
2.401017 0.554870 0.356615 10.000000
2.455199 0.539269 0.364164 27.000000
2.504456 0.521449 0.370931 35.000000
2.529397 0.497898 0.374119 15.000000
2.544374 0.471958 0.375795 8.000000
2.588398 0.450900 0.381786 8.000000
2.651699 0.432173 0.390745 8.000000
2.685606 0.407545 0.395314 8.000000
2.743774 0.385718 0.403406 9.000000
2.811579 0.363983 0.413033 19.000000
2.879211 0.340766 0.422672 47.000000
2.931891 0.314479 0.430067 53.000000
2.979488 0.286640 0.436745 68.000000
2.997231 0.255313 0.439097 91.000000
2.994895 0.222105 0.438560 35.000000
2.947742 0.186198 0.431426 24.000000
2.900157 0.151372 0.424378 9.000000
2.876875 0.118645 0.420852 9.000000
2.902755 0.087867 0.424468 35.000000
2.898615 0.055975 0.423834 68.000000
2.859484 0.023989 0.418136 70.000000
2.879362 -0.007371 0.421030 80.000000
2.874149 -0.038830 0.420307 95.000000
2.848799 -0.069697 0.416689 81.000000
2.847832 -0.100811 0.416602 95.000000
2.831775 -0.131324 0.414432 95.000000
2.810445 -0.161143 0.411452 91.000000
2.759175 -0.188506 0.404135 10.000000
2.697774 -0.214006 0.395376 7.000000
2.665706 -0.240798 0.390874 9.000000
2.662899 -0.270021 0.390792 9.000000
2.640179 -0.296868 0.387739 9.000000
2.651550 -0.327530 0.389740 10.000000
2.603712 -0.350592 0.383082 9.000000
2.619325 -0.381886 0.385723 10.000000
2.600335 -0.408238 0.383398 9.000000
2.595789 -0.436650 0.383154 20.000000
2.624927 -0.471099 0.387949 84.000000
2.605083 -0.497020 0.385544 80.000000
2.589822 -0.523521 0.383861 72.000000
2.603393 -0.555929 0.386490 98.000000
2.577844 -0.579988 0.383291 95.000000
2.542595 -0.601267 0.378582 95.000000
2.555038 -0.633828 0.381206 55.000000
2.481003 -0.644338 0.370858 9.000000
2.626717 -0.712761 0.393349 10.000000
2.756912 -0.780558 0.413647 5.000000
3.047286 -0.898894 0.458264 2.000000
3.359109 -1.030830 0.506261 1.000000
3.394775 -1.082593 0.512842 1.000000
3.115096 -1.030980 0.471635 1.000000
3.159943 -1.084145 0.479553 1.000000
3.008084 -1.068832 0.457748 1.000000
3.154217 -1.159675 0.481255 1.000000
3.229272 -1.227805 0.494083 1.000000
3.289568 -1.291902 0.504755 1.000000
3.211182 -1.301605 0.494110 1.000000
3.119126 -1.304387 0.481485 1.000000
3.113940 -1.342176 0.482163 1.000000
3.293751 -1.462421 0.511653 1.000000
3.117854 -1.466744 0.487676 1.000000
3.034760 -1.468593 0.476438 1.000000
2.974430 -1.479485 0.468623 1.000000
2.878696 -1.471581 0.455354 5.000000
2.849304 -1.496361 0.452568 6.000000
2.846114 -1.534255 0.453760 4.000000
2.889729 -1.599106 0.462674 1.000000
2.846588 -1.615686 0.457604 1.000000
2.773103 -1.614661 0.447814 1.000000
2.831740 -1.690812 0.459440 1.000000
2.851467 -1.744663 0.464619 1.000000
2.743994 -1.720821 0.449366 1.000000
2.816701 -1.809963 0.463553 1.000000
2.809516 -1.848456 0.464575 1.000000
2.875259 -1.937561 0.477982 1.000000
2.800896 -1.932607 0.468161 1.000000
2.889294 -2.039829 0.485362 1.000000
2.784118 -2.059051 0.473032 1.000000
2.717944 -2.056882 0.464539 1.000000
2.676202 -2.070802 0.460016 1.000000
2.602875 -2.060319 0.450136 1.000000
2.633989 -2.132595 0.458498 1.000000
2.568421 -2.126847 0.449995 1.000000
2.610031 -2.208787 0.460098 1.000000
2.559374 -2.214727 0.454284 2.000000
2.557256 -2.262568 0.457013 3.000000
2.510288 -2.270796 0.451887 6.000000
2.441508 -2.258031 0.442719 8.000000
2.313065 -2.185323 0.422312 8.000000
2.231921 -2.155600 0.410641 11.000000
2.116516 -2.089600 0.392487 10.000000
2.051666 -2.070597 0.383470 16.000000
1.963317 -2.025482 0.370038 19.000000
1.879601 -1.982258 0.357239 24.000000
1.808068 -1.947596 0.346368 20.000000
1.740053 -1.916002 0.336286 22.000000
1.692680 -1.905461 0.330034 26.000000
1.626205 -1.871643 0.320053 18.000000
1.551089 -1.825179 0.308213 10.000000
1.521533 -1.830762 0.305273 24.000000
1.476512 -1.816598 0.299177 26.000000
1.448235 -1.820438 0.296131 30.000000
1.416158 -1.820593 0.292612 31.000000
1.390215 -1.828234 0.290364 33.000000
1.381988 -1.859349 0.291804 29.000000
1.370427 -1.886497 0.292674 23.000000
1.346901 -1.897441 0.290978 21.000000
1.331802 -1.920337 0.291141 24.000000
1.324732 -1.955394 0.293142 27.000000
1.316996 -1.990613 0.295120 24.000000
1.307227 -2.020932 0.296317 26.000000
1.287749 -2.039411 0.295741 26.000000
1.268031 -2.057727 0.295235 26.000000
1.253188 -2.084384 0.295857 22.000000
1.255493 -2.140884 0.300674 9.000000
0.805756 1.395790 0.207489 8.000000
0.807422 1.365967 0.205225 20.000000
0.830024 1.369655 0.208036 29.000000
0.839725 1.351917 0.207580 26.000000
0.857081 1.346744 0.209062 32.000000
0.866309 1.328857 0.208594 26.000000
0.883514 1.323312 0.210078 34.000000
0.906306 1.325742 0.212882 33.000000
0.923584 1.319668 0.214333 30.000000
0.922754 1.289795 0.211914 24.000000
0.942622 1.287489 0.214074 30.000000
0.962567 1.284906 0.216194 29.000000
0.976558 1.274178 0.216985 34.000000
0.987344 1.259402 0.217055 30.000000
1.007244 1.256142 0.219193 32.000000
1.024023 1.248765 0.220613 33.000000
1.049730 1.253059 0.224176 26.000000
1.050486 1.226330 0.222205 23.000000
1.070394 1.222042 0.224319 35.000000
1.090265 1.217509 0.226442 33.000000
1.106902 1.209027 0.227835 39.000000
1.116650 1.193088 0.227902 34.000000
1.135981 1.188312 0.230043 32.000000
1.166254 1.193353 0.234228 61.000000
1.179263 1.180343 0.234948 34.000000
1.206269 1.181085 0.238465 25.000000
1.201296 1.150488 0.235635 35.000000
1.220619 1.144340 0.237811 38.000000
1.240396 1.137414 0.239893 62.000000
1.260165 1.130224 0.241982 44.000000
1.287416 1.129241 0.245446 52.000000
1.303050 1.118526 0.246897 61.000000
1.334233 1.119927 0.251099 34.000000
1.338829 1.098770 0.250313 25.000000
1.362370 1.093160 0.253105 34.000000
1.373951 1.078402 0.253805 46.000000
1.385693 1.063051 0.254451 44.000000
1.401286 1.050613 0.255766 32.000000
1.424383 1.044155 0.258587 48.000000
1.451855 1.039825 0.262091 41.000000
1.487521 1.040699 0.267063 47.000000
1.494805 1.021333 0.266894 29.000000
1.517981 1.013320 0.269757 35.000000
1.537304 1.001829 0.271785 42.000000
1.556291 0.990440 0.273876 58.000000
1.579709 0.980964 0.276653 35.000000
1.607300 0.973657 0.280118 49.000000
1.621936 0.958662 0.281494 44.000000
1.640911 0.945578 0.283498 35.000000
1.663954 0.934961 0.286308 31.000000
1.678421 0.918842 0.287581 44.000000
1.705673 0.909843 0.291090 36.000000
1.728740 0.897766 0.293865 59.000000
1.747123 0.883290 0.295900 35.000000
1.787722 0.879226 0.301623 46.000000
1.814968 0.868204 0.305175 49.000000
1.833310 0.852250 0.307112 33.000000
1.864946 0.842390 0.311435 30.000000
1.887559 0.827942 0.314201 35.000000
1.896467 0.807072 0.314646 32.000000
1.932532 0.797643 0.319690 36.000000
1.963996 0.785651 0.323926 35.000000
1.990788 0.771240 0.327480 33.000000
2.026926 0.759630 0.332363 35.000000
2.039659 0.739124 0.333591 30.000000
2.047564 0.716751 0.334060 30.000000
2.083289 0.703800 0.339033 50.000000
2.133113 0.694689 0.346305 50.000000
2.164099 0.678737 0.350539 76.000000
2.199625 0.663698 0.355618 79.000000
2.211466 0.640878 0.356810 32.000000
2.213532 0.615308 0.356399 9.000000
2.248706 0.598740 0.361429 8.000000
2.312557 0.588642 0.370932 8.000000
2.338025 0.567954 0.374375 8.000000
2.382474 0.551301 0.380903 9.000000
2.417316 0.531533 0.385902 9.000000
2.456749 0.512139 0.391604 14.000000
2.505796 0.493760 0.398857 10.000000
2.554715 0.474424 0.406042 9.000000
2.549958 0.444716 0.404817 7.000000
2.652183 0.432720 0.420601 8.000000
2.676199 0.406635 0.423944 9.000000
2.739160 0.385547 0.433484 8.000000
2.787263 0.361268 0.440711 20.000000
2.864662 0.339425 0.452596 48.000000
2.912338 0.312715 0.459752 37.000000
2.969679 0.286074 0.468465 77.000000
2.987300 0.254707 0.470977 89.000000
3.004671 0.223109 0.473491 37.000000
2.947752 0.186419 0.464359 25.000000
2.890478 0.151024 0.455130 9.000000
2.857363 0.117945 0.449782 10.000000
2.893071 0.087718 0.455309 53.000000
2.869095 0.055497 0.451424 50.000000
2.844844 0.023906 0.447627 81.000000
2.869627 -0.007358 0.451513 95.000000
2.844668 -0.038496 0.447627 77.000000
2.834265 -0.069368 0.446073 83.000000
2.823429 -0.100110 0.444518 86.000000
2.807406 -0.130321 0.442100 94.000000
2.776170 -0.159357 0.437352 71.000000
2.725003 -0.186398 0.429500 10.000000
2.653877 -0.210794 0.418544 8.000000
2.656412 -0.240271 0.419238 9.000000
2.629040 -0.266863 0.415193 9.000000
2.611213 -0.293941 0.412703 9.000000
2.637297 -0.326153 0.417193 10.000000
2.614022 -0.352409 0.413847 10.000000
2.595366 -0.378869 0.411360 10.000000
2.596033 -0.407994 0.411891 10.000000
2.606019 -0.438867 0.413969 31.000000
2.615706 -0.469978 0.416044 95.000000
2.600748 -0.496693 0.414252 95.000000
2.585503 -0.523195 0.412380 80.000000
2.550732 -0.545273 0.407424 95.000000
2.534971 -0.570978 0.405560 93.000000
2.523823 -0.597530 0.404469 86.000000
2.526843 -0.627469 0.405607 85.000000
2.495940 -0.648916 0.401440 10.000000
2.607965 -0.708539 0.420249 10.000000
2.714202 -0.769425 0.438252 8.000000
2.942586 -0.869112 0.476154 3.000000
3.225845 -0.991004 0.523068 1.000000
3.219609 -1.027732 0.523312 1.000000
3.198852 -1.059901 0.521157 1.000000
3.117097 -1.070685 0.509084 1.000000
3.016835 -1.073309 0.493989 1.000000
3.181291 -1.171002 0.522225 1.000000
3.163589 -1.204311 0.520941 1.000000
3.237803 -1.273164 0.534639 1.000000
3.145989 -1.276908 0.520995 1.000000
3.109148 -1.301644 0.516474 1.000000
3.185436 -1.375057 0.530977 1.000000
3.147858 -1.399615 0.526345 1.000000
3.006703 -1.376260 0.504384 1.000000
2.911004 -1.371514 0.490117 1.000000
2.953835 -1.431122 0.498993 1.000000
2.920230 -1.454828 0.495282 1.000000
2.900018 -1.484298 0.493627 4.000000
2.844147 -1.495567 0.486092 7.000000
2.827881 -1.526413 0.485199 5.000000
2.793623 -1.548070 0.481425 2.000000
2.751074 -1.563672 0.475977 1.000000
2.849019 -1.661190 0.495243 1.000000
2.814027 -1.681982 0.491261 1.000000
2.997795 -1.836952 0.525851 1.000000
2.818270 -1.770096 0.496822 1.000000
2.795010 -1.797920 0.494956 1.000000
2.783376 -1.834227 0.495401 1.000000
2.689724 -1.814470 0.481069 1.000000
2.942262 -2.032445 0.529100 1.000000
2.653223 -1.876484 0.479798 1.000000
2.588396 -1.873850 0.470779 1.000000
2.740401 -2.076431 0.504049 1.000000
2.557082 -1.982477 0.473216 1.000000
2.582355 -2.046800 0.480679 1.000000
2.617344 -2.121994 0.490258 1.000000
2.628245 -2.179307 0.495580 1.000000
2.604135 -2.208366 0.494316 1.000000
2.569227 -2.226439 0.490804 2.000000
2.559513 -2.267976 0.492397 3.000000
2.530856 -2.292805 0.490315 5.000000
2.443753 -2.263529 0.477003 8.000000
2.333433 -2.207963 0.458606 8.000000
2.252146 -2.178545 0.446044 12.000000
2.133058 -2.109386 0.425816 9.000000
2.064588 -2.087118 0.415415 16.000000
1.962419 -2.027998 0.398172 20.000000
1.893264 -1.998464 0.387120 19.000000
1.824172 -1.968488 0.376214 25.000000
1.762677 -1.944476 0.366753 21.000000
1.692044 -1.908304 0.355273 22.000000
1.625636 -1.874469 0.344468 20.000000
1.528109 -1.801706 0.326948 10.000000
1.506094 -1.813980 0.325027 19.000000
1.473704 -1.815085 0.321216 28.000000
1.441505 -1.815771 0.317422 27.000000
1.409431 -1.815898 0.313647 31.000000
1.377557 -1.815616 0.309891 31.000000
1.360575 -1.834687 0.309439 29.000000
1.357974 -1.873672 0.312397 26.000000
1.341387 -1.891895 0.311781 21.000000
1.329143 -1.918828 0.312630 26.000000
1.310863 -1.937450 0.312141 25.000000
1.311548 -1.984936 0.316187 23.000000
1.300543 -2.015953 0.317640 26.000000
1.275820 -2.026012 0.315731 23.000000
1.258827 -2.048462 0.315854 24.000000
1.249075 -2.083562 0.317839 26.000000
1.250241 -2.135004 0.322230 8.000000
0.810391 1.408024 0.224019 7.000000
0.813119 1.377639 0.221540 19.000000
0.823023 1.360047 0.221099 18.000000
0.843035 1.359206 0.223364 18.000000
0.851677 1.341925 0.222960 28.000000
0.874418 1.344875 0.225934 16.000000
0.889052 1.335037 0.226824 30.000000
0.903636 1.325099 0.227714 26.000000
0.918023 1.315014 0.228554 19.000000
0.935188 1.308807 0.230152 20.000000
0.940706 1.286359 0.228863 15.000000
0.956935 1.280300 0.230510 24.000000
0.979950 1.281397 0.233497 28.000000
0.993878 1.270453 0.234342 21.000000
1.004616 1.255497 0.234417 30.000000
1.021386 1.248118 0.235984 23.000000
1.044541 1.248108 0.238959 24.000000
1.047900 1.225634 0.237675 21.000000
1.070997 1.225115 0.240666 16.000000
1.081055 1.209480 0.240685 31.000000
1.107562 1.212021 0.244431 30.000000
1.124160 1.203273 0.245929 25.000000
1.129984 1.184026 0.245311 32.000000
1.153221 1.182016 0.248298 31.000000
1.180081 1.183124 0.251994 25.000000
1.178907 1.156126 0.249776 28.000000
1.205301 1.157079 0.253593 24.000000
1.210781 1.136851 0.252810 35.000000
1.234110 1.133345 0.255791 29.000000
1.250149 1.122888 0.257220 25.000000
1.280537 1.125661 0.261793 34.000000
1.319087 1.133892 0.267803 28.000000
1.323929 1.112816 0.266975 32.000000
1.332235 1.094885 0.266905 23.000000
1.347694 1.083496 0.268417 20.000000
1.371204 1.077594 0.271418 34.000000
1.386864 1.065306 0.272835 28.000000
1.417956 1.065069 0.277401 27.000000
1.421605 1.043393 0.276509 37.000000
1.453060 1.041932 0.280990 27.000000
1.468207 1.028913 0.282486 26.000000
1.495753 1.023675 0.286215 26.000000
1.518933 1.015614 0.289288 26.000000
1.525864 0.995978 0.289070 35.000000
1.549224 0.986933 0.291987 34.000000
1.572304 0.977840 0.295029 32.000000
1.595668 0.968014 0.297966 34.000000
1.610241 0.953110 0.299448 29.000000
1.637697 0.945052 0.303134 31.000000
1.647807 0.927111 0.303777 29.000000
1.657859 0.908818 0.304303 26.000000
1.698038 0.906921 0.310460 34.000000
1.742950 0.906273 0.317375 33.000000
1.761414 0.891663 0.319580 29.000000
1.775362 0.874556 0.320991 29.000000
1.798261 0.861249 0.323824 29.000000
1.816394 0.845689 0.326046 26.000000
1.852416 0.837944 0.331431 29.000000
1.875023 0.823338 0.334287 28.000000
1.901982 0.810559 0.338021 29.000000
1.915237 0.791537 0.339404 27.000000
1.942018 0.777855 0.343154 26.000000
1.982497 0.768995 0.349280 30.000000
2.013812 0.755895 0.353864 28.000000
2.049753 0.743906 0.359206 26.000000
2.057712 0.721379 0.359678 32.000000
2.107456 0.712946 0.367483 34.000000
2.124474 0.692882 0.369528 35.000000
2.155401 0.676909 0.374026 36.000000
2.176765 0.657637 0.376968 32.000000
2.193273 0.636399 0.379028 26.000000
2.219062 0.617527 0.382658 8.000000
2.225618 0.593227 0.383086 7.000000
2.303577 0.587129 0.395832 8.000000
2.319413 0.564233 0.397844 7.000000
2.359027 0.546546 0.403972 8.000000
2.388877 0.525925 0.408464 8.000000
2.433021 0.507799 0.415360 8.000000
2.530329 0.499171 0.431338 22.000000
2.545292 0.473282 0.433308 10.000000
2.550259 0.445324 0.433708 6.000000
2.623118 0.428496 0.445520 8.000000
2.715307 0.413058 0.460654 8.000000
2.739172 0.385979 0.464304 8.000000
2.796983 0.362911 0.473670 22.000000
2.844804 0.337504 0.481389 27.000000
2.902278 0.312007 0.490684 31.000000
2.964334 0.285890 0.500814 71.000000
2.962370 0.252937 0.500261 33.000000
2.974780 0.221188 0.502105 34.000000
2.903186 0.183835 0.489746 11.000000
2.880368 0.150677 0.485685 8.000000
2.852328 0.117857 0.480792 9.000000
2.863244 0.086880 0.482630 29.000000
2.849253 0.055211 0.480138 35.000000
2.820113 0.023653 0.475241 47.000000
2.844852 -0.007308 0.479395 41.000000
2.839658 -0.038408 0.478564 87.000000
2.819327 -0.069126 0.475241 52.000000
2.813527 -0.099848 0.474323 81.000000
2.777745 -0.129089 0.468508 95.000000
2.766351 -0.158989 0.466761 33.000000
2.715275 -0.185977 0.458372 9.000000
2.644275 -0.210238 0.446582 9.000000
2.646722 -0.239662 0.447248 8.000000
2.639103 -0.268113 0.446254 9.000000
2.616385 -0.294883 0.442854 9.000000
2.598364 -0.321747 0.440204 9.000000
2.604491 -0.351505 0.441618 10.000000
2.566353 -0.375061 0.435578 9.000000
2.552437 -0.401619 0.433682 9.000000
2.606228 -0.439442 0.443368 42.000000
2.591614 -0.466240 0.441469 37.000000
2.557339 -0.488957 0.436186 88.000000
2.580859 -0.522870 0.440817 90.000000
2.536495 -0.542887 0.433892 70.000000
2.525585 -0.569572 0.432747 95.000000
2.509660 -0.594935 0.430779 62.000000
2.522260 -0.627147 0.433672 35.000000
2.491400 -0.648517 0.429159 19.000000
2.579412 -0.701566 0.445106 9.000000
2.723469 -0.772942 0.470947 9.000000
2.894617 -0.855956 0.501658 3.000000
3.083288 -0.948428 0.535486 1.000000
3.157280 -1.009292 0.549609 1.000000
3.143948 -1.081510 0.550011 1.000000
2.876438 -1.024803 0.504562 1.000000
3.240128 -1.194580 0.569839 1.000000
3.111637 -1.186008 0.548767 1.000000
3.236377 -1.274220 0.572404 1.000000
3.162973 -1.285463 0.561004 1.000000
3.085119 -1.293286 0.548827 1.000000
3.261182 -1.409216 0.581946 1.000000
3.240964 -1.443134 0.580479 1.000000
2.973970 -1.363411 0.534358 1.000000
3.003731 -1.416837 0.541493 1.000000
2.894782 -1.404761 0.523900 1.000000
2.927940 -1.460530 0.531828 1.000000
2.784682 -1.427119 0.507599 2.000000
2.843059 -1.496974 0.520415 6.000000
2.826768 -1.527867 0.519421 4.000000
2.870207 -1.592688 0.529780 1.000000
2.810055 -1.599421 0.520714 1.000000
2.890314 -1.687758 0.538171 1.000000
2.799991 -1.676000 0.523567 1.000000
2.768514 -1.783728 0.525165 1.000000
2.864160 -1.890528 0.546150 1.000000
2.583210 -2.005213 0.512036 1.000000
2.634490 -2.092171 0.525485 1.000000
2.615880 -2.123653 0.524799 1.000000
2.611367 -2.168365 0.527389 1.000000
2.662685 -2.261157 0.541340 1.000000
2.492157 -2.164252 0.510255 1.000000
2.554030 -2.266395 0.526242 2.000000
2.543681 -2.307935 0.527910 4.000000
2.489138 -2.309149 0.520470 7.000000
2.352495 -2.231277 0.495584 6.000000
2.254223 -2.184072 0.478265 9.000000
2.152833 -2.132442 0.460386 10.000000
2.049461 -2.075299 0.441852 9.000000
1.968201 -2.037535 0.427809 12.000000
1.885455 -1.993769 0.413015 12.000000
1.813156 -1.960071 0.400616 10.000000
1.755073 -1.939758 0.391245 16.000000
1.664937 -1.881281 0.374551 10.000000
1.647477 -1.903391 0.374123 9.000000
1.547580 -1.826447 0.354492 10.000000
1.508556 -1.820581 0.348931 10.000000
1.466772 -1.810306 0.342671 18.000000
1.434577 -1.810965 0.338621 23.000000
1.417797 -1.830624 0.338203 22.000000
1.370781 -1.810688 0.330509 30.000000
1.372558 -1.852950 0.334269 20.000000
1.360927 -1.880051 0.335204 18.000000
1.328886 -1.878845 0.331139 18.000000
1.325191 -1.917893 0.334190 18.000000
1.295826 -1.920174 0.330848 21.000000
1.291175 -1.959185 0.333788 17.000000
1.285693 -1.998413 0.336768 18.000000
1.265039 -2.011743 0.335303 19.000000
1.253351 -2.042540 0.336768 13.000000
1.238604 -2.069096 0.337517 15.000000
1.253391 -2.146844 0.346534 6.000000
0.802564 1.398742 0.237178 7.000000
0.805292 1.368374 0.234520 16.000000
0.832957 1.380486 0.239118 18.000000
0.837624 1.354310 0.237166 19.000000
0.857659 1.353230 0.239579 22.000000
0.875134 1.347736 0.241310 23.000000
0.883548 1.330177 0.240811 21.000000
0.906379 1.332533 0.243993 23.000000
0.932204 1.338611 0.247943 23.000000
0.926723 1.300014 0.243620 15.000000
0.949606 1.301592 0.246778 26.000000
0.960827 1.286987 0.246914 25.000000
0.977164 1.280650 0.248669 21.000000
0.994183 1.273602 0.250329 30.000000
1.011136 1.266335 0.251946 22.000000
1.031200 1.262677 0.254388 26.000000
1.044946 1.251096 0.255244 26.000000
1.048370 1.228645 0.253872 12.000000
1.058545 1.213198 0.253941 27.000000
1.084927 1.216100 0.257863 30.000000
1.098170 1.203914 0.258669 27.000000
1.114175 1.195693 0.260412 33.000000
1.127206 1.183218 0.261220 30.000000
1.147025 1.177664 0.263561 31.000000
1.170330 1.175354 0.266755 31.000000
1.193297 1.173072 0.270016 13.000000
1.202567 1.156253 0.269994 36.000000
1.229584 1.156317 0.273972 37.000000
1.238581 1.139199 0.273899 34.000000
1.265270 1.138980 0.278007 45.000000
1.274043 1.121559 0.277936 34.000000
1.293752 1.113719 0.280291 42.000000
1.324444 1.115567 0.285145 34.000000
1.348080 1.110139 0.288338 21.000000
1.348653 1.085735 0.286591 36.000000
1.364097 1.074111 0.288213 33.000000
1.379714 1.061812 0.289732 34.000000
1.387407 1.043442 0.289556 35.000000
1.422309 1.045824 0.295256 33.000000
1.453806 1.044256 0.300044 62.000000
1.477046 1.036914 0.303306 39.000000
1.488327 1.020384 0.303920 22.000000
1.507690 1.009226 0.306255 41.000000
1.518472 0.992717 0.306985 37.000000
1.537620 0.981062 0.309218 36.000000
1.560617 0.972056 0.312465 52.000000
1.588053 0.964877 0.316391 33.000000
1.615308 0.957558 0.320446 36.000000
1.634307 0.944409 0.322712 43.000000
1.640124 0.924107 0.322569 21.000000
1.689027 0.927145 0.330706 70.000000
1.703276 0.910974 0.332209 78.000000
1.721766 0.896804 0.334566 42.000000
1.740355 0.882081 0.336808 61.000000
1.785131 0.880421 0.344229 39.000000
1.807826 0.867210 0.347406 35.000000
1.826071 0.851501 0.349737 35.000000
1.844282 0.835220 0.351886 22.000000
1.889323 0.830827 0.359311 34.000000
1.925392 0.821648 0.365040 54.000000
1.947800 0.806157 0.368204 34.000000
1.965562 0.788338 0.370450 34.000000
1.992389 0.773884 0.374426 36.000000
2.000667 0.751964 0.374955 35.000000
2.031889 0.738321 0.379811 64.000000
2.067672 0.725732 0.385477 26.000000
2.103327 0.712601 0.391225 56.000000
2.129688 0.695525 0.395181 70.000000
2.155905 0.677966 0.399076 59.000000
2.186682 0.661492 0.403918 75.000000
2.222130 0.645590 0.409572 26.000000
2.200488 0.613276 0.404768 9.000000
2.245054 0.599291 0.412251 9.000000
2.299090 0.586834 0.421426 7.000000
2.310125 0.562699 0.422669 9.000000
2.373637 0.550621 0.433548 9.000000
2.403488 0.529861 0.438309 9.000000
2.433225 0.508421 0.443000 9.000000
2.511053 0.496069 0.456555 37.000000
2.550083 0.474763 0.463103 46.000000
2.603634 0.455257 0.472218 32.000000
2.632673 0.430550 0.476863 9.000000
2.676064 0.407616 0.484322 9.000000
2.743697 0.387183 0.496027 9.000000
2.811182 0.365273 0.507744 36.000000
2.859034 0.339560 0.515945 69.000000
2.926127 0.314987 0.527685 77.000000
2.968508 0.286652 0.534929 95.000000
2.971467 0.254010 0.535114 98.000000
2.929888 0.218081 0.527349 35.000000
2.912428 0.184679 0.523996 20.000000
2.874923 0.150588 0.517106 10.000000
2.856772 0.118175 0.513570 10.000000
2.887349 0.087778 0.518963 95.000000
2.863554 0.055504 0.514632 81.000000
2.824631 0.023736 0.507645 95.000000
2.805034 -0.007219 0.504108 80.000000
2.799852 -0.037941 0.503223 68.000000
2.784486 -0.068315 0.500570 81.000000
2.768868 -0.098363 0.497831 89.000000
2.743001 -0.127631 0.493410 59.000000
2.746381 -0.157969 0.494123 65.000000
2.690498 -0.184462 0.484400 10.000000
2.619644 -0.208512 0.471862 8.000000
2.627002 -0.238164 0.473466 10.000000
2.614511 -0.266039 0.471536 10.000000
2.601634 -0.293535 0.469608 10.000000
2.583653 -0.320293 0.466798 10.000000
2.575144 -0.348047 0.465674 10.000000
2.566327 -0.375533 0.464551 10.000000
2.552422 -0.402145 0.462547 11.000000
2.557561 -0.431742 0.463988 14.000000
2.538205 -0.457189 0.461107 42.000000
2.547590 -0.487790 0.463425 33.000000
2.508435 -0.508844 0.456873 34.000000
2.526787 -0.541534 0.460945 95.000000
2.491970 -0.562746 0.455360 52.000000
2.490503 -0.591205 0.455920 81.000000
2.493471 -0.620879 0.457276 81.000000
2.438984 -0.635781 0.448047 10.000000
2.574450 -0.701236 0.473803 10.000000
2.689801 -0.764342 0.496012 10.000000
2.832367 -0.838715 0.523499 4.000000
2.912519 -0.897104 0.539415 1.000000
3.080790 -0.986162 0.572028 1.000000
3.107243 -1.032365 0.578384 1.000000
3.016835 -1.038999 0.562808 1.000000
3.023917 -1.078641 0.565585 1.000000
3.007359 -1.110165 0.564022 2.000000
3.091758 -1.179917 0.581499 1.000000
3.023758 -1.192181 0.570309 1.000000
3.083652 -1.254916 0.583310 1.000000
2.965383 -1.244901 0.562666 1.000000
2.951732 -1.277284 0.561869 1.000000
2.928785 -1.305556 0.559254 1.000000
3.061906 -1.405761 0.586873 1.000000
2.855040 -1.348784 0.549099 1.000000
2.915598 -1.416584 0.562657 1.000000
2.882506 -1.439606 0.558339 1.000000
2.787546 -1.431039 0.542098 3.000000
2.815506 -1.484392 0.549636 7.000000
2.808007 -1.519739 0.550349 7.000000
2.860015 -1.589178 0.563026 2.000000
3.069591 -1.749613 0.606763 1.000000
2.871552 -1.679157 0.570190 2.000000
2.853218 -1.710468 0.569057 2.000000
2.968632 -1.824676 0.594956 2.000000
3.123957 -1.967245 0.628929 1.000000
2.745942 -1.772020 0.555704 1.000000
2.702045 -1.785457 0.549371 1.000000
2.723122 -1.843064 0.556614 1.000000
2.685443 -2.041166 0.564434 1.000000
2.647223 -2.058801 0.559888 1.000000
2.582555 -2.053672 0.549299 1.000000
2.601880 -2.116595 0.557086 1.000000
2.544304 -2.117045 0.548382 1.000000
2.499026 -2.125207 0.541956 2.000000
2.531323 -2.201471 0.552728 2.000000
2.484820 -2.209917 0.546514 2.000000
2.450313 -2.226599 0.542444 3.000000
2.425638 -2.253731 0.541010 7.000000
2.354246 -2.236373 0.529023 8.000000
2.248119 -2.183394 0.509174 9.000000
2.196834 -2.179613 0.501133 9.000000
2.075789 -2.105585 0.477383 20.000000
1.983951 -2.057457 0.460118 18.000000
1.917297 -2.032681 0.448492 21.000000
1.828803 -1.980516 0.431145 21.000000
1.770571 -1.960453 0.421153 20.000000
1.690095 -1.913427 0.405721 21.000000
1.620608 -1.875989 0.392724 15.000000
1.556274 -1.840350 0.380356 10.000000
1.510840 -1.827099 0.372949 19.000000
1.465925 -1.813069 0.365509 19.000000
1.442912 -1.825326 0.363513 29.000000
1.404735 -1.817825 0.357605 31.000000
1.394731 -1.844407 0.358555 32.000000
1.368576 -1.851812 0.355743 33.000000
1.348240 -1.866958 0.354463 29.000000
