x y z intensity
2.117085 -2.360392 0.858643 30.000000
2.082370 -2.372965 0.851829 18.000000
2.052582 -2.393250 0.848035 15.000000
1.968093 -2.345672 0.820555 10.000000
1.886744 -2.301070 0.794720 8.000000
1.777566 -2.216394 0.755905 10.000000
1.693184 -2.160768 0.727854 10.000000
1.629049 -2.125684 0.707293 13.000000
1.556035 -2.078646 0.683377 13.000000
1.488367 -2.033328 0.660472 10.000000
1.417884 -1.983593 0.636768 15.000000
1.360859 -1.947637 0.617946 10.000000
1.306404 -1.915386 0.600723 10.000000
1.270119 -1.905540 0.590817 20.000000
1.232987 -1.895834 0.581256 24.000000
1.218229 -1.917550 0.581312 24.000000
1.207039 -1.948123 0.584105 29.000000
1.172785 -1.941312 0.575788 22.000000
1.162355 -1.970868 0.578188 26.000000
1.152396 -2.005357 0.582057 18.000000
1.143220 -2.039174 0.585658 9.000000
0.778786 1.416911 0.417806 8.000000
0.793566 1.408145 0.419640 21.000000
0.801944 1.386153 0.417538 22.000000
0.819817 1.380817 0.420471 23.000000
0.836717 1.375729 0.423516 28.000000
0.846895 1.357617 0.422589 24.000000
0.868891 1.360290 0.428203 27.000000
0.878734 1.341962 0.427209 27.000000
0.900885 1.344120 0.432807 23.000000
0.899409 1.309604 0.426561 21.000000
0.924266 1.315263 0.433475 28.000000
0.941668 1.308306 0.436306 30.000000
0.946847 1.286100 0.434003 29.000000
0.964044 1.278790 0.436834 24.000000
0.980464 1.271768 0.439776 27.000000
0.997576 1.264018 0.442523 29.000000
1.016982 1.260308 0.446814 26.000000
1.027246 1.245158 0.447069 27.000000
1.037991 1.229413 0.447110 29.000000
1.051038 1.217691 0.448690 32.000000
1.073488 1.216699 0.454263 34.000000
1.087064 1.204100 0.455600 29.000000
1.103131 1.195347 0.458448 32.000000
1.115870 1.182917 0.459943 31.000000
1.135702 1.176739 0.463962 30.000000
1.141554 1.157079 0.462677 31.000000
1.164174 1.154288 0.468188 32.000000
1.180478 1.144001 0.470814 36.000000
1.192742 1.130641 0.472223 35.000000
1.211895 1.123658 0.476349 35.000000
1.224020 1.109906 0.477714 43.000000
1.250306 1.108793 0.484596 42.000000
1.262254 1.094562 0.485923 35.000000
1.278129 1.082903 0.488438 29.000000
1.300933 1.077549 0.493926 29.000000
1.319992 1.068817 0.497975 32.000000
1.339074 1.059754 0.502092 39.000000
1.358123 1.050358 0.506114 34.000000
1.365660 1.032008 0.505899 40.000000
1.380684 1.019330 0.508518 35.000000
1.391773 1.003597 0.509665 33.000000
1.414067 0.996364 0.515258 31.000000
1.436760 0.988370 0.520651 33.000000
1.459410 0.979996 0.526062 37.000000
1.466100 0.960739 0.525689 35.000000
1.484612 0.949143 0.529629 33.000000
1.502786 0.937590 0.533749 48.000000
1.517094 0.922915 0.536154 35.000000
1.531287 0.908033 0.538564 34.000000
1.565791 0.905202 0.548462 34.000000
1.579822 0.889669 0.550838 31.000000
1.606138 0.881117 0.557704 33.000000
1.636579 0.874326 0.566110 42.000000
1.646170 0.855618 0.566938 32.000000
1.672412 0.845717 0.573860 40.000000
1.690023 0.831094 0.577750 42.000000
1.703233 0.814097 0.580180 32.000000
1.724974 0.800907 0.585558 28.000000
1.751021 0.789266 0.592364 33.000000
1.768301 0.773281 0.596174 31.000000
1.798611 0.762631 0.604426 34.000000
1.815622 0.745916 0.608197 32.000000
1.841461 0.732405 0.614876 35.000000
1.858099 0.715192 0.618793 32.000000
1.888234 0.702453 0.626921 27.000000
1.886719 0.678039 0.624847 30.000000
1.943498 0.674029 0.642002 34.000000
1.964311 0.656735 0.647265 33.000000
1.989433 0.640465 0.654033 37.000000
2.005432 0.620831 0.657690 35.000000
2.025798 0.602284 0.662851 34.000000
2.055156 0.585977 0.670947 42.000000
2.075181 0.566709 0.676197 30.000000
2.113470 0.551884 0.687391 29.000000
2.156359 0.537348 0.700038 35.000000
2.185246 0.518534 0.708196 35.000000
2.218688 0.500247 0.717800 37.000000
2.228663 0.476279 0.719742 36.000000
2.280426 0.460702 0.735470 36.000000
2.313364 0.440436 0.745040 36.000000
2.332038 0.416947 0.750096 27.000000
2.374122 0.396997 0.762555 35.000000
2.406462 0.374735 0.772161 37.000000
2.433946 0.351160 0.780189 34.000000
2.456543 0.326270 0.786554 36.000000
2.497800 0.303252 0.798977 37.000000
2.552963 0.280948 0.816034 37.000000
2.584376 0.255053 0.825450 37.000000
2.591701 0.226445 0.827215 20.000000
2.674714 0.203514 0.853314 33.000000
2.710057 0.175690 0.864185 35.000000
2.745099 0.147032 0.874973 35.000000
2.813148 0.119037 0.896384 36.000000
2.857178 0.088715 0.910217 37.000000
2.896016 0.057427 0.922354 44.000000
2.925063 0.025202 0.931643 35.000000
2.958506 -0.007770 0.942264 32.000000
2.967749 -0.041067 0.945204 36.000000
2.962415 -0.074314 0.943687 33.000000
2.942327 -0.106841 0.937524 32.000000
2.950525 -0.140298 0.940369 35.000000
2.939310 -0.172851 0.937241 32.000000
2.941988 -0.206189 0.938474 32.000000
2.887388 -0.234902 0.921519 26.000000
2.875116 -0.266401 0.918210 27.000000
2.876803 -0.299165 0.919447 30.000000
2.878110 -0.331943 0.920498 28.000000
2.874307 -0.364229 0.920220 29.000000
2.870224 -0.396514 0.919849 32.000000
2.875105 -0.430116 0.922316 33.000000
2.884475 -0.464595 0.926291 34.000000
2.879237 -0.496959 0.925823 28.000000
2.892376 -0.532682 0.931299 33.000000
2.933226 -0.574227 0.945724 35.000000
2.954824 -0.612948 0.954001 34.000000
2.961938 -0.649140 0.957940 42.000000
3.001116 -0.693157 0.972312 48.000000
2.998061 -0.727993 0.973027 35.000000
3.022315 -0.769799 0.982657 35.000000
3.018441 -0.804858 0.983160 27.000000
3.027925 -0.843760 0.988158 30.000000
3.032315 -0.881744 0.991747 34.000000
3.027082 -0.917270 0.992335 30.000000
2.998663 -0.945422 0.985343 31.000000
2.983671 -0.977622 0.982743 33.000000
2.959373 -1.006447 0.977063 31.000000
2.952781 -1.041116 0.977354 32.000000
2.905499 -1.061049 0.964149 28.000000
2.907030 -1.098841 0.967520 29.000000
2.877321 -1.124372 0.960193 34.000000
2.873639 -1.160329 0.961973 29.000000
2.838824 -1.183523 0.953284 34.000000
2.808105 -1.207910 0.946094 30.000000
2.807925 -1.245263 0.949253 34.000000
2.789844 -1.274870 0.946307 30.000000
2.762864 -1.300016 0.940423 25.000000
2.752832 -1.333105 0.940332 29.000000
2.751117 -1.370358 0.943170 36.000000
2.714829 -1.390271 0.934278 32.000000
2.682330 -1.412221 0.926970 34.000000
2.671155 -1.444389 0.926785 35.000000
2.647094 -1.469588 0.922030 32.000000
2.639083 -1.504366 0.923393 33.000000
2.606187 -1.524063 0.915747 25.000000
2.597448 -1.558643 0.917008 29.000000
2.584235 -1.590514 0.916812 32.000000
2.550915 -1.609030 0.909009 25.000000
2.553139 -1.650965 0.914479 16.000000
2.522947 -1.671903 0.908326 21.000000
2.508394 -1.703139 0.907928 30.000000
2.513157 -1.747948 0.914584 30.000000
2.463303 -1.753409 0.900823 27.000000
2.447823 -1.784057 0.900322 27.000000
2.424405 -1.808868 0.896779 30.000000
2.385421 -1.821662 0.887667 28.000000
2.380572 -1.860411 0.891225 31.000000
2.360193 -1.887231 0.889014 34.000000
2.343238 -1.916801 0.888210 28.000000
2.344427 -1.961660 0.894420 29.000000
2.322169 -1.988778 0.892379 23.000000
2.300494 -2.014925 0.890047 26.000000
2.296412 -2.056700 0.894584 31.000000
2.263450 -2.072830 0.887868 28.000000
2.240927 -2.098181 0.885431 27.000000
2.242508 -2.146499 0.892469 33.000000
2.207958 -2.162335 0.886068 24.000000
2.204992 -2.207467 0.891662 26.000000
2.150879 -2.201172 0.876660 21.000000
2.146006 -2.246944 0.882415 25.000000
2.138279 -2.288374 0.886463 33.000000
2.107151 -2.305110 0.880868 24.000000
2.084511 -2.333160 0.879745 26.000000
2.069022 -2.367244 0.880817 26.000000
2.040584 -2.386502 0.876483 13.000000
2.004457 -2.399090 0.869776 22.000000
1.927071 -2.357849 0.844100 10.000000
1.778519 -2.224907 0.786545 10.000000
1.694285 -2.169479 0.757488 11.000000
1.618598 -2.119231 0.730909 13.000000
1.551544 -2.079972 0.708703 16.000000
1.492584 -2.046535 0.689014 12.000000
1.416485 -1.989070 0.661840 13.000000
1.373421 -1.973048 0.648868 10.000000
1.297039 -1.909126 0.620621 9.000000
1.268822 -1.911350 0.614262 16.000000
1.247513 -1.926064 0.612015 21.000000
1.222051 -1.931667 0.606984 25.000000
1.202937 -1.949999 0.606025 25.000000
1.182469 -1.963235 0.603494 25.000000
1.163002 -1.981148 0.602448 18.000000
1.145700 -2.003100 0.602655 16.000000
1.134096 -2.032668 0.605067 9.000000
0.778630 1.423755 0.434714 8.000000
0.782650 1.393376 0.429963 23.000000
0.802064 1.392852 0.434441 27.000000
0.815106 1.379146 0.434808 33.000000
0.826995 1.365799 0.435367 25.000000
0.847286 1.364143 0.439623 33.000000
0.859028 1.350523 0.440127 34.000000
0.876655 1.344327 0.443079 28.000000
0.890832 1.334419 0.444857 34.000000
0.894790 1.307948 0.441120 24.000000
0.919541 1.313637 0.448211 29.000000
0.927806 1.295393 0.447236 32.000000
0.947944 1.292143 0.451513 31.000000
0.973112 1.296866 0.458634 35.000000
0.981650 1.277719 0.457446 32.000000
0.992225 1.262846 0.457762 30.000000
1.009304 1.254870 0.460615 37.000000
1.025647 1.247183 0.463630 23.000000
1.035783 1.231867 0.463835 35.000000
1.043216 1.212369 0.462489 40.000000
1.068809 1.215002 0.469638 35.000000
1.088135 1.210005 0.473977 51.000000
1.098387 1.193645 0.473972 49.000000
1.114413 1.184710 0.476926 36.000000
1.130411 1.175494 0.479837 40.000000
1.149741 1.169467 0.484173 20.000000
1.152019 1.146277 0.481374 42.000000
1.171719 1.139407 0.485463 61.000000
1.187419 1.129389 0.488348 36.000000
1.210101 1.125609 0.494053 85.000000
1.229294 1.118315 0.498294 58.000000
1.241366 1.104283 0.499670 62.000000
1.264114 1.099518 0.505379 62.000000
1.275970 1.085098 0.506714 22.000000
1.295078 1.076636 0.510952 44.000000
1.317870 1.070915 0.516607 42.000000
1.333207 1.058776 0.519366 53.000000
1.352278 1.049429 0.523540 72.000000
1.363640 1.033970 0.524742 36.000000
1.374893 1.018347 0.525998 32.000000
1.389799 1.005415 0.528618 40.000000
1.400755 0.989474 0.529768 18.000000
1.435138 0.989693 0.539792 35.000000
1.453530 0.978988 0.544094 35.000000
1.460180 0.959678 0.543672 32.000000
1.482734 0.950652 0.549198 58.000000
1.496858 0.936517 0.551929 36.000000
1.511150 0.921839 0.554439 34.000000
1.537342 0.914612 0.561676 44.000000
1.555608 0.901714 0.565592 20.000000
1.586032 0.895895 0.574259 36.000000
1.604180 0.882305 0.578203 41.000000
1.622018 0.868700 0.582334 35.000000
1.648228 0.859195 0.589439 42.000000
1.665952 0.844879 0.593479 36.000000
1.679317 0.828085 0.596012 35.000000
1.701079 0.815251 0.601589 46.000000
1.709841 0.795976 0.602496 16.000000
1.740118 0.786385 0.611021 30.000000
1.766066 0.774330 0.618043 36.000000
1.774409 0.754246 0.618908 30.000000
1.813376 0.746788 0.630422 36.000000
1.830138 0.729945 0.634430 32.000000
1.851354 0.714301 0.639791 31.000000
1.885673 0.703408 0.649900 32.000000
1.888684 0.680560 0.649265 16.000000
1.931903 0.671744 0.662427 31.000000
1.957092 0.655940 0.669383 38.000000
1.968638 0.635282 0.671656 32.000000
1.998181 0.620093 0.680115 33.000000
2.023054 0.602899 0.686907 35.000000
2.052276 0.586736 0.695465 36.000000
2.072264 0.567414 0.700870 35.000000
2.101254 0.550051 0.709321 17.000000
2.148609 0.536708 0.723930 30.000000
2.177412 0.517959 0.732344 35.000000
2.201485 0.497570 0.739071 32.000000
2.248514 0.481740 0.753813 32.000000
2.276891 0.461124 0.762197 35.000000
2.286407 0.436421 0.764279 28.000000
2.328448 0.417330 0.777213 28.000000
2.346909 0.393394 0.782354 26.000000
2.388578 0.372880 0.795390 32.000000
2.420664 0.350008 0.805159 35.000000
2.443108 0.325246 0.811809 35.000000
2.488938 0.302930 0.826370 34.000000
2.539279 0.280099 0.842267 35.000000
2.570503 0.254336 0.852158 34.000000
2.582536 0.226195 0.855458 30.000000
2.665264 0.203342 0.882436 29.000000
2.691014 0.174813 0.890533 29.000000
2.725933 0.146347 0.901684 32.000000
2.788998 0.118253 0.922249 32.000000
2.842362 0.088475 0.939685 34.000000
2.881157 0.057240 0.952235 33.000000
2.947988 0.025395 0.974387 34.000000
2.995555 -0.007895 0.990078 36.000000
3.061723 -0.042517 1.011946 37.000000
3.084862 -0.077560 1.019791 36.000000
3.112236 -0.113311 1.029104 33.000000
3.120319 -0.148697 1.032041 35.000000
3.142209 -0.185235 1.039782 32.000000
3.158927 -0.221872 1.045750 30.000000
3.232098 -0.263566 1.070522 26.000000
3.167512 -0.294229 1.049942 35.000000
3.168964 -0.330299 1.050895 36.000000
3.169790 -0.366577 1.052256 48.000000
3.170399 -0.402757 1.053206 36.000000
3.170482 -0.439042 1.054359 36.000000
3.184332 -0.477546 1.060099 34.000000
3.216462 -0.519294 1.071875 34.000000
3.191880 -0.552273 1.065209 26.000000
3.166952 -0.584725 1.058340 30.000000
3.155773 -0.619399 1.056056 33.000000
3.134898 -0.652032 1.050554 35.000000
3.118418 -0.685166 1.046514 33.000000
3.106098 -0.719163 1.044240 33.000000
3.093495 -0.752953 1.041968 35.000000
3.066693 -0.783111 1.034832 27.000000
3.030505 -0.810196 1.024503 19.000000
3.035276 -0.847971 1.028148 31.000000
3.025969 -0.881963 1.026934 32.000000
3.011607 -0.914674 1.024476 34.000000
2.978735 -0.941450 1.015735 31.000000
2.977345 -0.978002 1.017721 35.000000
2.943978 -1.003813 1.008902 31.000000
2.923932 -1.033673 1.004523 27.000000
2.890254 -1.058325 0.995536 16.000000
2.896501 -1.097450 1.000301 31.000000
2.839977 -1.112869 0.983859 30.000000
2.836672 -1.148228 0.985457 35.000000
2.815134 -1.176543 0.981120 29.000000
2.793285 -1.204560 0.976792 31.000000
2.780024 -1.236151 0.975427 34.000000
2.757715 -1.263483 0.970916 26.000000
2.743719 -1.294587 0.969458 19.000000
2.750953 -1.335900 0.975500 31.000000
2.723472 -1.360469 0.969381 31.000000
2.687360 -1.380200 0.960152 36.000000
2.676484 -1.412608 0.959922 31.000000
2.656887 -1.440373 0.956669 32.000000
2.644897 -1.472972 0.956725 36.000000
2.616489 -1.495426 0.950276 28.000000
2.595692 -1.522907 0.947232 22.000000
2.591394 -1.559267 0.949704 32.000000
2.574077 -1.588773 0.948059 30.000000
2.552824 -1.614954 0.944439 32.000000
2.522942 -1.636139 0.938232 18.000000
2.512724 -1.670167 0.939282 19.000000
2.498735 -1.700724 0.938547 33.000000
2.468147 -1.720926 0.932176 26.000000
2.441338 -1.743348 0.927205 25.000000
2.441362 -1.785239 0.932558 33.000000
2.410181 -1.804367 0.926120 31.000000
2.390378 -1.831668 0.923909 34.000000
2.366428 -1.855730 0.920331 31.000000
2.349811 -1.885597 0.919583 31.000000
2.332743 -1.915164 0.918732 32.000000
2.315417 -1.944623 0.917874 26.000000
2.308722 -1.983327 0.921257 25.000000
2.272600 -1.996698 0.913052 30.000000
2.268710 -2.038349 0.917748 30.000000
2.267611 -2.083353 0.923842 33.000000
2.227490 -2.092464 0.914127 27.000000
2.225542 -2.137495 0.920070 31.000000
2.211623 -2.173417 0.921987 34.000000
2.174501 -2.184705 0.913540 25.000000
2.144263 -2.202264 0.907959 23.000000
2.130420 -2.236744 0.909359 30.000000
2.116058 -2.271154 0.910732 31.000000
2.113106 -2.320574 0.917991 35.000000
2.088158 -2.344225 0.914997 29.000000
2.069319 -2.374717 0.914792 33.000000
2.027024 -2.380556 0.905039 20.000000
1.976997 -2.373574 0.890875 21.000000
1.903024 -2.336038 0.865741 11.000000
1.766057 -2.219072 0.812042 10.000000
1.683316 -2.162810 0.781732 14.000000
1.615391 -2.124948 0.758704 19.000000
1.538334 -2.069541 0.730032 15.000000
1.481106 -2.040798 0.711289 20.000000
1.423308 -2.006230 0.690991 21.000000
1.369098 -1.974498 0.672176 14.000000
1.290329 -1.906719 0.641627 10.000000
1.264811 -1.912977 0.636473 19.000000
1.240772 -1.923744 0.632816 26.000000
1.207631 -1.917120 0.623645 27.000000
1.196283 -1.947612 0.626566 28.000000
1.173334 -1.956783 0.622646 29.000000
1.148959 -1.966331 0.619025 24.000000
1.140241 -2.000043 0.622889 21.000000
1.136497 -2.047204 0.630894 9.000000
0.759892 1.396619 0.441000 8.000000
0.781587 1.400525 0.446940 12.000000
0.802025 1.399428 0.451414 31.000000
0.810344 1.377372 0.449094 24.000000
0.822247 1.364032 0.449660 28.000000
0.834013 1.350595 0.450165 29.000000
0.856839 1.352813 0.455934 28.000000
0.878914 1.355156 0.461938 34.000000
0.888716 1.336642 0.460871 26.000000
0.902783 1.326551 0.462654 23.000000
0.912068 1.307919 0.461505 31.000000
0.925898 1.297534 0.463278 31.000000
0.943168 1.290365 0.466300 35.000000
0.959659 1.283537 0.469433 30.000000
0.979094 1.280251 0.473987 27.000000
0.990442 1.264838 0.474110 35.000000
0.997841 1.246057 0.473007 28.000000
1.004980 1.227310 0.471833 24.000000
1.024822 1.222734 0.476157 32.000000
1.037830 1.211048 0.477783 32.000000
1.053892 1.202861 0.480849 37.000000
1.082704 1.208660 0.489651 31.000000
1.092971 1.192304 0.489599 41.000000
1.112305 1.186856 0.494104 37.000000
1.124963 1.174145 0.495660 30.000000
1.137570 1.161279 0.497165 23.000000
1.147208 1.144466 0.497048 46.000000
1.159467 1.131328 0.498496 35.000000
1.175131 1.121384 0.501419 61.000000
1.201134 1.120981 0.508788 47.000000
1.220313 1.113666 0.513171 55.000000
1.239474 1.106032 0.517571 70.000000
1.251422 1.091854 0.518952 36.000000
1.274100 1.086806 0.524818 29.000000
1.293209 1.078294 0.529155 31.000000
1.308594 1.066440 0.532005 34.000000
1.331342 1.060334 0.537821 67.000000
1.342890 1.045027 0.539128 34.000000
1.354221 1.029611 0.540381 35.000000
1.376532 1.022937 0.546405 60.000000
1.387683 1.007117 0.547614 31.000000
1.402555 0.993885 0.550291 29.000000
1.421237 0.983162 0.554503 30.000000
1.443482 0.975203 0.560482 36.000000
1.470041 0.969037 0.567737 70.000000
1.476653 0.949526 0.567272 35.000000
1.486732 0.932860 0.568567 47.000000
1.513150 0.925670 0.575755 40.000000
1.527136 0.911031 0.578497 34.000000
1.549165 0.900909 0.584345 23.000000
1.579737 0.894730 0.593086 49.000000
1.593515 0.879130 0.595749 31.000000
1.628035 0.874561 0.606210 49.000000
1.650041 0.862704 0.612021 44.000000
1.667778 0.848228 0.616226 77.000000
1.681173 0.831395 0.618815 50.000000
1.685814 0.810232 0.618210 31.000000
1.707495 0.797017 0.623887 26.000000
1.742033 0.789385 0.634238 36.000000
1.750580 0.769522 0.635160 32.000000
1.771790 0.755365 0.640942 37.000000
1.801888 0.744223 0.649650 32.000000
1.827403 0.730949 0.656986 30.000000
1.844227 0.713537 0.660916 35.000000
1.851799 0.692667 0.661807 27.000000
1.872620 0.676566 0.667465 26.000000
1.911127 0.666275 0.679437 41.000000
1.945249 0.653636 0.689777 34.000000
1.974796 0.638928 0.698477 40.000000
1.986070 0.618081 0.700942 35.000000
2.019937 0.603645 0.711201 37.000000
2.035427 0.583441 0.715216 46.000000
2.050768 0.562963 0.719170 29.000000
2.107117 0.553030 0.737491 29.000000
2.131387 0.533767 0.744541 35.000000
2.164757 0.516214 0.754742 30.000000
2.197839 0.498109 0.765104 31.000000
2.244871 0.482143 0.780088 35.000000
2.263895 0.459585 0.785509 33.000000
2.291981 0.438491 0.794084 37.000000
2.319785 0.416874 0.802821 28.000000
2.361606 0.396857 0.816104 30.000000
2.379724 0.372414 0.821486 35.000000
2.411784 0.349615 0.831563 34.000000
2.434159 0.324850 0.838418 32.000000
2.479834 0.302527 0.853440 36.000000
2.525218 0.279250 0.868397 35.000000
2.551707 0.253070 0.876813 34.000000
2.558901 0.224703 0.878845 24.000000
2.665076 0.203719 0.914539 31.000000
2.685941 0.174947 0.921274 33.000000
2.720742 0.146426 0.932871 34.000000
2.778860 0.118163 0.952575 30.000000
2.817759 0.087941 0.965717 33.000000
2.865869 0.057145 0.981920 36.000000
2.937185 0.025395 1.006320 35.000000
3.008229 -0.007958 1.030724 41.000000
3.055331 -0.042484 1.046832 38.000000
3.097198 -0.078057 1.061417 36.000000
3.162275 -0.115352 1.084001 34.000000
3.236546 -0.154694 1.109717 32.000000
3.281885 -0.193963 1.125494 34.000000
3.345615 -0.235518 1.147949 31.000000
3.356947 -0.274540 1.152698 20.000000
3.306693 -0.307961 1.136080 34.000000
3.289042 -0.343762 1.130798 34.000000
3.270996 -0.379138 1.125520 35.000000
3.262054 -0.415392 1.123267 36.000000
3.247909 -0.450890 1.119611 35.000000
3.233474 -0.486070 1.115853 36.000000
3.213977 -0.520283 1.110378 33.000000
3.180120 -0.551648 1.100175 23.000000
3.160019 -0.584863 1.094506 34.000000
3.148847 -0.619590 1.092170 33.000000
3.123379 -0.651107 1.084904 33.000000
3.111352 -0.685467 1.082678 37.000000
3.094631 -0.718241 1.078539 36.000000
3.068143 -0.748767 1.071295 33.000000
3.064385 -0.784545 1.071984 33.000000
3.037423 -0.814194 1.064653 20.000000
3.023845 -0.847061 1.061937 33.000000
3.009991 -0.879724 1.059224 34.000000
2.986496 -0.909624 1.053519 32.000000
2.972024 -0.941779 1.050615 33.000000
2.957081 -0.973831 1.047916 32.000000
2.928416 -1.001082 1.040340 32.000000
2.908421 -1.030896 1.035962 31.000000
2.861397 -1.050605 1.021955 22.000000
2.849918 -1.082786 1.020582 32.000000
2.850991 -1.120367 1.024259 34.000000
2.834374 -1.150619 1.021099 33.000000
2.817205 -1.180968 1.018337 40.000000
2.799978 -1.210629 1.015088 36.000000
2.760534 -1.230727 1.004255 33.000000
2.764175 -1.269950 1.009094 35.000000
2.737317 -1.295159 1.002911 26.000000
2.710203 -1.319881 0.996645 35.000000
2.721140 -1.363260 1.004399 40.000000
2.676622 -1.378749 0.991786 33.000000
2.636247 -1.395598 0.980675 35.000000
2.637705 -1.434382 0.985089 35.000000
2.617934 -1.461768 0.981701 32.000000
2.617960 -1.501168 0.986374 35.000000
2.577099 -1.516161 0.975134 23.000000
2.564662 -1.547507 0.974666 33.000000
2.551498 -1.579329 0.974480 32.000000
2.530344 -1.605377 0.970821 27.000000
2.520439 -1.639501 0.972070 21.000000
2.498254 -1.665599 0.968607 13.000000
2.488207 -1.698889 0.969455 29.000000
2.473273 -1.730014 0.968955 35.000000
2.430893 -1.741527 0.957773 21.000000
2.426993 -1.780586 0.961752 32.000000
2.400375 -1.801772 0.956209 33.000000
2.361584 -1.814556 0.946522 29.000000
2.360289 -1.856181 0.951787 34.000000
2.336195 -1.880013 0.948069 30.000000
2.326508 -1.915692 0.950179 31.000000
2.320076 -1.954407 0.953864 33.000000
2.284172 -1.968249 0.945358 18.000000
2.262667 -1.994191 0.942947 31.000000
2.240873 -2.019842 0.940343 32.000000
2.222300 -2.048441 0.939320 30.000000
2.224316 -2.096484 0.946973 36.000000
2.208442 -2.128310 0.947287 27.000000
2.195535 -2.163254 0.948859 30.000000
2.171029 -2.188941 0.946497 31.000000
2.130664 -2.196289 0.936230 20.000000
2.129978 -2.244597 0.943607 33.000000
2.108947 -2.272094 0.942100 31.000000
2.089668 -2.303802 0.942329 29.000000
2.074403 -2.338050 0.943590 33.000000
2.043017 -2.354133 0.937620 29.000000
2.030184 -2.391685 0.940183 20.000000
1.954266 -2.356371 0.914487 18.000000
1.883730 -2.322480 0.889973 9.000000
1.763643 -2.223342 0.841353 11.000000
1.676947 -2.164426 0.808893 12.000000
1.619101 -2.137278 0.788994 15.000000
1.544924 -2.085957 0.760781 21.000000
1.493356 -2.065144 0.744288 19.000000
1.413208 -1.999580 0.712129 18.000000
1.360722 -1.972594 0.694409 16.000000
1.291528 -1.916117 0.666718 10.000000
1.264669 -1.923207 0.661607 21.000000
1.236557 -1.925252 0.654849 28.000000
1.207256 -1.927553 0.648340 25.000000
1.189412 -1.945153 0.647034 32.000000
1.159079 -1.941862 0.638921 27.000000
1.146956 -1.972131 0.641899 24.000000
1.131871 -1.998224 0.643487 22.000000
1.124735 -2.036182 0.648854 8.000000
0.771023 1.424341 0.464599 8.000000
0.779041 1.402845 0.462502 13.000000
0.787650 1.380850 0.460115 19.000000
0.811788 1.388438 0.467669 20.000000
0.822388 1.370393 0.466655 31.000000
0.836768 1.360993 0.468637 17.000000
0.852012 1.350932 0.470365 27.000000
0.866188 1.341177 0.472295 23.000000
0.889116 1.342749 0.478242 22.000000
0.897941 1.324666 0.477281 18.000000
0.906445 1.306500 0.476247 14.000000
0.926583 1.303464 0.480798 29.000000
0.934763 1.285122 0.479742 24.000000
0.948340 1.274433 0.481515 19.000000
0.965525 1.266890 0.484541 27.000000
0.978939 1.255864 0.486319 25.000000
1.010182 1.267112 0.496841 22.000000
1.009247 1.236548 0.491093 23.000000
1.022396 1.224979 0.492774 23.000000
1.041643 1.220574 0.497417 33.000000
1.051527 1.205031 0.497623 29.000000
1.065073 1.192507 0.499055 27.000000
1.084235 1.187337 0.503680 34.000000
1.106753 1.185403 0.509772 25.000000
1.126049 1.179591 0.514388 27.000000
1.122031 1.149593 0.508410 23.000000
1.141156 1.143432 0.512980 29.000000
1.160792 1.136545 0.517307 40.000000
1.173072 1.123225 0.518816 33.000000
1.195622 1.119512 0.524902 32.000000
1.204185 1.102545 0.524842 48.000000
1.226754 1.098197 0.530858 27.000000
1.245793 1.090367 0.535360 32.000000
1.261248 1.079069 0.538283 21.000000
1.280259 1.070631 0.542760 27.000000
1.295078 1.059341 0.545918 35.000000
1.317762 1.053256 0.551871 30.000000
1.332990 1.040959 0.554729 30.000000
1.351896 1.031348 0.559156 34.000000
1.363149 1.015724 0.560413 27.000000
1.377693 1.003169 0.563457 29.000000
1.400253 0.995478 0.569381 21.000000
1.415033 0.981999 0.572117 27.000000
1.445081 0.979297 0.581401 35.000000
1.455862 0.962563 0.582524 30.000000
1.470065 0.948682 0.585459 29.000000
1.488506 0.936727 0.589707 35.000000
1.494487 0.917322 0.589360 27.000000
1.516735 0.907343 0.595220 32.000000
1.546930 0.902030 0.604410 24.000000
1.560680 0.886778 0.607166 30.000000
1.590937 0.880488 0.616348 34.000000
1.604539 0.864629 0.619128 30.000000
1.630647 0.855092 0.626629 31.000000
1.652494 0.842965 0.632538 32.000000
1.665824 0.826166 0.635171 32.000000
1.683282 0.811264 0.639428 30.000000
1.709156 0.800058 0.646877 25.000000
1.722168 0.782471 0.649414 25.000000
1.743386 0.768723 0.655453 31.000000
1.764789 0.754373 0.661200 29.000000
1.790309 0.741598 0.668715 26.000000
1.815925 0.728177 0.676060 30.000000
1.858871 0.721256 0.690090 26.000000
1.866598 0.700135 0.690991 24.000000
1.874067 0.678950 0.691893 27.000000
1.912616 0.668545 0.704221 26.000000
1.942126 0.654351 0.713223 29.000000
1.962486 0.636736 0.719087 31.000000
1.987380 0.620022 0.726409 30.000000
2.003017 0.600256 0.730515 31.000000
2.022979 0.581523 0.736278 28.000000
2.047371 0.563599 0.743637 21.000000
2.085285 0.548726 0.755902 24.000000
2.123174 0.533130 0.768118 24.000000
2.138085 0.511181 0.771997 26.000000
2.175687 0.494320 0.784316 26.000000
2.217770 0.477653 0.798242 24.000000
2.250562 0.458123 0.808793 27.000000
2.273917 0.436188 0.815961 24.000000
2.269206 0.408818 0.813309 10.000000
2.338624 0.394043 0.836977 26.000000
2.361399 0.370487 0.844175 21.000000
2.393259 0.347787 0.854556 26.000000
2.438910 0.326409 0.870106 31.000000
2.475006 0.302777 0.882259 23.000000
2.506261 0.277884 0.892673 24.000000
2.546638 0.253288 0.906353 24.000000
2.530510 0.222801 0.899841 9.000000
2.640806 0.202466 0.938582 27.000000
2.671080 0.174380 0.948776 25.000000
2.715077 0.146504 0.964161 20.000000
2.768362 0.117984 0.982542 26.000000
2.811828 0.087998 0.997763 25.000000
2.864380 0.057241 1.016426 24.000000
2.916675 0.025313 1.034909 27.000000
2.978026 -0.007908 1.056644 29.000000
3.024853 -0.042221 1.073265 35.000000
3.085504 -0.077957 1.094798 27.000000
3.126887 -0.114388 1.109740 28.000000
3.214798 -0.154034 1.141495 31.000000
3.245956 -0.192252 1.152878 25.000000
3.318855 -0.234306 1.179396 23.000000
3.320751 -0.272180 1.180635 23.000000
3.289467 -0.307094 1.170401 23.000000
3.281143 -0.343826 1.168411 32.000000
3.249101 -0.377625 1.157973 30.000000
3.235514 -0.413177 1.154108 28.000000
3.226199 -0.449061 1.151702 29.000000
3.202492 -0.482628 1.144511 28.000000
3.201694 -0.519653 1.145547 28.000000
3.172590 -0.551832 1.136701 25.000000
3.147897 -0.584137 1.129215 24.000000
3.136743 -0.618865 1.126827 32.000000
3.115963 -0.651455 1.121120 26.000000
3.090229 -0.682508 1.113555 28.000000
3.082754 -0.717422 1.112634 31.000000
3.051755 -0.746730 1.103530 27.000000
3.038852 -0.780109 1.100960 27.000000
3.025569 -0.813181 1.098392 27.000000
2.984750 -0.838493 1.085710 22.000000
2.993643 -0.877487 1.091211 30.000000
2.956975 -0.902904 1.080106 26.000000
2.933383 -0.932196 1.074164 25.000000
2.927619 -0.966706 1.074417 29.000000
2.903557 -0.995193 1.068291 28.000000
2.892448 -1.028122 1.067101 21.000000
2.881142 -1.060753 1.065811 26.000000
2.869438 -1.093384 1.064423 25.000000
2.822269 -1.111862 1.049853 27.000000
2.805451 -1.142212 1.047044 29.000000
2.779957 -1.168408 1.040586 26.000000
2.775586 -1.203809 1.042578 30.000000
2.736601 -1.223383 1.031063 25.000000
2.748828 -1.266406 1.039355 19.000000
2.721946 -1.291476 1.032928 28.000000
2.699157 -1.318233 1.028135 25.000000
2.688851 -1.351073 1.028201 33.000000
2.661389 -1.375029 1.021613 30.000000
2.646225 -1.405164 1.019874 28.000000
2.622459 -1.430572 1.014822 29.000000
2.598598 -1.455599 1.009686 26.000000
2.594984 -1.492051 1.012670 21.000000
2.566446 -1.514050 1.005847 24.000000
2.561714 -1.550876 1.008909 25.000000
2.540811 -1.577307 1.005194 29.000000
2.511099 -1.598843 0.998690 24.000000
2.497822 -1.629607 0.997977 10.000000
2.487566 -1.663577 0.999321 10.000000
2.461734 -1.686138 0.993754 23.000000
2.462438 -1.727983 0.999622 18.000000
2.424015 -1.742285 0.989723 25.000000
2.405299 -1.769446 0.987227 23.000000
2.374341 -1.788326 0.980322 27.000000
2.350807 -1.812649 0.976562 25.000000
2.323322 -1.833656 0.971156 22.000000
2.328950 -1.881079 0.979761 29.000000
2.309052 -1.906938 0.976973 25.000000
2.291727 -1.936347 0.976117 14.000000
2.263252 -1.956219 0.970527 25.000000
2.252445 -1.991490 0.972552 19.000000
2.241239 -2.026717 0.974553 28.000000
2.222545 -2.055432 0.973467 24.000000
2.210505 -2.090478 0.975329 24.000000
2.194635 -2.122256 0.975643 26.000000
2.160318 -2.137927 0.968643 23.000000
2.163848 -2.189575 0.977832 14.000000
2.113589 -2.186700 0.962899 20.000000
2.099760 -2.221043 0.964395 18.000000
2.101605 -2.272827 0.973361 29.000000
2.067445 -2.285978 0.965806 24.000000
2.047940 -2.317379 0.966028 21.000000
2.032289 -2.351352 0.967321 27.000000
2.013224 -2.381593 0.967105 11.000000
1.987617 -2.404310 0.963817 10.000000
1.849335 -2.290073 0.906385 10.000000
1.762593 -2.232158 0.872399 9.000000
1.677436 -2.172557 0.838631 11.000000
1.601079 -2.123517 0.809702 10.000000
1.535844 -2.083728 0.784968 10.000000
1.466074 -2.035041 0.757504 10.000000
1.404570 -1.997401 0.734775 10.000000
1.361626 -1.981619 0.720491 9.000000
1.284482 -1.913402 0.687709 9.000000
1.249849 -1.908547 0.678163 10.000000
1.214085 -1.898331 0.666962 21.000000
1.197789 -1.920813 0.667351 20.000000
1.187458 -1.950673 0.670247 24.000000
1.155801 -1.948181 0.662093 24.000000
1.135203 -1.961145 0.659357 16.000000
1.127241 -1.999714 0.665186 16.000000
1.122288 -2.041950 0.672041 6.000000
0.752346 1.397012 0.470317 8.000000
0.780999 1.413440 0.480900 13.000000
0.792159 1.395595 0.479937 16.000000
0.806830 1.386445 0.481931 18.000000
0.818997 1.373031 0.482531 18.000000
0.846828 1.383498 0.491616 27.000000
0.853791 1.361616 0.489265 19.000000
0.871605 1.355281 0.492521 21.000000
0.893838 1.357230 0.498877 22.000000
0.892182 1.323137 0.492010 13.000000
0.912393 1.320242 0.496648 25.000000
0.923632 1.305884 0.497112 23.000000
0.940283 1.299119 0.500442 22.000000
0.957686 1.291621 0.503628 28.000000
0.968533 1.276816 0.503980 22.000000
0.984991 1.269458 0.507279 24.000000
1.005165 1.265094 0.511945 27.000000
1.000636 1.231322 0.504612 16.000000
1.028967 1.238154 0.513994 32.000000
1.036055 1.219036 0.512695 28.000000
1.055992 1.213811 0.517243 28.000000
1.068989 1.201639 0.518945 32.000000
1.085032 1.192883 0.522187 28.000000
1.104337 1.187329 0.526933 31.000000
1.117085 1.174581 0.528546 29.000000
1.142981 1.175304 0.536378 13.000000
1.148916 1.155406 0.534891 40.000000
1.164758 1.145442 0.538025 33.000000
1.183990 1.138533 0.542737 35.000000
1.199802 1.128110 0.545841 36.000000
1.211980 1.114238 0.547323 34.000000
1.238215 1.112889 0.555132 36.000000
1.250266 1.098535 0.556632 37.000000
1.262210 1.084074 0.558078 20.000000
1.277622 1.072500 0.561064 35.000000
1.300320 1.066690 0.567255 33.000000
1.319357 1.057556 0.571812 36.000000
1.337924 1.048526 0.576604 36.000000
1.345614 1.030091 0.576309 32.000000
1.368237 1.022969 0.582461 40.000000
1.375214 1.004700 0.582330 32.000000
1.386255 0.988715 0.583594 24.000000
1.420361 0.988830 0.594493 59.000000
1.423041 0.967375 0.592689 35.000000
1.453399 0.963940 0.601956 35.000000
1.463647 0.947387 0.603307 54.000000
1.473781 0.930720 0.604659 36.000000
1.492072 0.918499 0.609012 38.000000
1.514068 0.908806 0.615192 56.000000
1.540124 0.901049 0.622983 22.000000
1.553856 0.885795 0.625845 50.000000
1.584023 0.879434 0.635273 61.000000
1.597665 0.863571 0.638103 47.000000
1.636164 0.860670 0.650841 63.000000
1.662286 0.850479 0.658570 60.000000
1.667250 0.829346 0.657932 37.000000
1.680474 0.812230 0.660624 36.000000
1.693562 0.794957 0.663262 24.000000
1.731992 0.789432 0.676190 51.000000
1.753486 0.775297 0.682080 34.000000
1.770403 0.759074 0.686555 34.000000
1.800385 0.747760 0.695770 43.000000
1.817143 0.730806 0.700146 36.000000
1.846886 0.718647 0.709525 38.000000
1.863340 0.700891 0.713864 49.000000
1.893006 0.687689 0.723151 22.000000
1.931467 0.676966 0.735841 59.000000
1.934179 0.653622 0.735209 44.000000
1.959090 0.637324 0.742721 56.000000
1.979305 0.619349 0.748683 48.000000
2.008415 0.603641 0.758056 62.000000
2.023848 0.583379 0.762275 37.000000
2.057257 0.567846 0.773246 52.000000
2.095167 0.552826 0.785802 24.000000
2.119306 0.533569 0.793259 36.000000
2.143190 0.513899 0.800870 44.000000
2.162373 0.492699 0.806713 35.000000
2.195258 0.474018 0.817405 38.000000
2.250776 0.459482 0.837036 49.000000
2.269464 0.436551 0.842697 38.000000
2.301776 0.415811 0.853658 34.000000
2.347938 0.396635 0.869395 31.000000
2.375234 0.373672 0.878516 61.000000
2.411668 0.351459 0.891160 52.000000
2.438660 0.327180 0.900065 44.000000
2.502602 0.306946 0.922887 71.000000
2.529129 0.281189 0.931893 50.000000
2.564725 0.255668 0.944180 52.000000
2.576675 0.227425 0.948040 32.000000
2.658513 0.204368 0.977637 32.000000
2.684014 0.175740 0.986505 37.000000
2.732546 0.147849 1.004077 54.000000
2.780954 0.118806 1.021300 45.000000
2.814972 0.088257 1.033447 39.000000
2.862540 0.057336 1.050951 37.000000
2.895859 0.025137 1.063105 39.000000
2.956970 -0.007883 1.085600 31.000000
3.008306 -0.042058 1.104360 33.000000
3.054642 -0.077382 1.121390 32.000000
3.124009 -0.114631 1.147126 32.000000
3.174057 -0.152474 1.166176 30.000000
3.242589 -0.192598 1.191592 31.000000
3.291773 -0.232989 1.210319 29.000000
3.331090 -0.273779 1.225488 27.000000
3.290547 -0.307979 1.211182 32.000000
3.272995 -0.343890 1.205699 36.000000
3.250384 -0.378832 1.198394 34.000000
3.222843 -0.412649 1.189269 33.000000
3.218091 -0.449183 1.188847 35.000000
3.199199 -0.483507 1.182852 34.000000
3.189096 -0.518918 1.180505 33.000000
3.155353 -0.550399 1.169794 25.000000
3.107655 -0.578359 1.153535 29.000000
3.110401 -0.615406 1.156242 33.000000
3.094408 -0.648600 1.151790 35.000000
3.073355 -0.680775 1.146042 32.000000
3.052063 -0.712331 1.139994 34.000000
3.025969 -0.742354 1.132045 32.000000
3.017572 -0.776751 1.131236 29.000000
2.977205 -0.802383 1.118291 22.000000
2.968296 -0.836216 1.117290 33.000000
2.977029 -0.875153 1.122995 34.000000
2.953873 -0.904658 1.116587 35.000000
2.917063 -0.929475 1.105099 32.000000
2.906732 -0.962653 1.104105 31.000000
2.887305 -0.992375 1.099228 32.000000
2.863017 -1.020415 1.092865 28.000000
2.860510 -1.056204 1.094963 21.000000
2.818068 -1.076875 1.081766 33.000000
2.819367 -1.114048 1.085453 35.000000
2.785387 -1.136990 1.075465 33.000000
2.768275 -1.167045 1.072517 33.000000
2.746884 -1.194538 1.067505 31.000000
2.733589 -1.225981 1.066146 33.000000
2.711739 -1.252792 1.060955 30.000000
2.689298 -1.279700 1.056162 15.000000
2.696286 -1.320733 1.062865 35.000000
2.669076 -1.345083 1.056215 33.000000
2.658365 -1.377629 1.056234 35.000000
2.643152 -1.407860 1.054393 36.000000
2.619374 -1.433465 1.049237 34.000000
2.599516 -1.460902 1.045651 33.000000
2.583605 -1.490411 1.043722 29.000000
2.538872 -1.502800 1.030159 13.000000
2.542648 -1.543854 1.036285 35.000000
2.517232 -1.568179 1.031271 30.000000
2.512215 -1.604267 1.033983 32.000000
2.494788 -1.632670 1.031672 21.000000
2.468645 -1.656097 1.026482 17.000000
2.458585 -1.689284 1.027339 31.000000
2.428114 -1.709426 1.020442 27.000000
2.401469 -1.731873 1.015091 14.000000
2.390455 -1.764429 1.015747 36.000000
2.363356 -1.786224 1.010315 28.000000
2.365950 -1.830829 1.017781 34.000000
2.335331 -1.848436 1.010166 31.000000
2.322249 -1.881176 1.011067 28.000000
2.312393 -1.916917 1.013359 36.000000
2.280462 -1.934228 1.006061 27.000000
2.241282 -1.944788 0.995605 10.000000
2.251801 -1.998812 1.007303 33.000000
2.240340 -2.034151 1.009336 28.000000
2.211094 -2.053297 1.003455 31.000000
2.205883 -2.094967 1.008507 32.000000
2.176184 -2.113587 1.002533 26.000000
2.159815 -2.145046 1.002834 31.000000
2.139771 -2.173078 1.001460 27.000000
2.112866 -2.194048 0.996868 10.000000
2.108555 -2.238871 1.003138 33.000000
2.081146 -2.259364 0.998434 27.000000
2.072619 -2.300691 1.002983 32.000000
2.041395 -2.317093 0.996732 30.000000
2.036887 -2.366509 1.004580 28.000000
2.014428 -2.393274 1.002703 25.000000
1.961521 -2.382935 0.985605 16.000000
1.906037 -2.368065 0.967086 15.000000
1.776079 -2.259502 0.911180 15.000000
1.687964 -2.196481 0.874833 13.000000
1.612903 -2.146901 0.844723 16.000000
1.546351 -2.108265 0.819542 14.000000
1.473723 -2.055998 0.789711 16.000000
1.405239 -2.006176 0.761484 14.000000
1.352970 -1.979398 0.742628 14.000000
1.281495 -1.919220 0.711720 9.000000
1.248025 -1.913721 0.701654 21.000000
1.216100 -1.912389 0.693251 21.000000
1.193326 -1.922068 0.689046 29.000000
1.166720 -1.928099 0.683545 30.000000
1.151176 -1.949494 0.683633 32.000000
1.123364 -1.950110 0.676500 29.000000
1.108377 -1.976054 0.678220 20.000000
1.117334 -2.043267 0.693894 10.000000
0.757559 1.416577 0.491675 8.000000
0.775908 1.411383 0.495092 15.000000
0.786127 1.394010 0.494250 26.000000
0.801820 1.384349 0.496141 23.000000
0.821263 1.383255 0.501211 27.000000
0.833335 1.369666 0.501775 24.000000
0.851242 1.363560 0.505119 26.000000
0.865691 1.353687 0.507176 29.000000
0.875684 1.335175 0.505956 23.000000
0.892449 1.329009 0.509465 20.000000
0.909246 1.322577 0.512987 29.000000
0.921365 1.307681 0.513208 24.000000
0.935259 1.297017 0.515105 32.000000
0.949050 1.286199 0.517053 24.000000
0.971335 1.286613 0.523584 30.000000
0.985767 1.274871 0.525239 31.000000
0.993475 1.255985 0.523991 21.000000
1.003909 1.240825 0.524282 29.000000
1.017136 1.229187 0.526077 30.000000
1.036445 1.224641 0.531013 33.000000
1.050216 1.212160 0.532560 51.000000
1.060067 1.196490 0.532733 31.000000
1.082474 1.194742 0.539188 33.000000
1.098562 1.185664 0.542491 37.000000
1.114568 1.176355 0.545751 34.000000
1.123953 1.160012 0.545821 23.000000
1.136493 1.147004 0.547434 33.000000
1.162353 1.147087 0.555487 37.000000
1.181588 1.140182 0.560296 56.000000
1.190484 1.123170 0.560265 36.000000
1.213107 1.118956 0.566667 59.000000
1.232324 1.111175 0.571468 53.000000
1.247920 1.100000 0.574600 34.000000
1.252258 1.079704 0.573044 29.000000
1.271284 1.071211 0.577769 35.000000
1.290229 1.062389 0.582456 39.000000
1.316552 1.059207 0.590457 57.000000
1.335168 1.050128 0.595349 37.000000
1.346649 1.034528 0.596722 37.000000
1.365565 1.024477 0.601363 39.000000
1.376391 1.008956 0.602910 33.000000
1.391326 0.995624 0.605794 32.000000
1.405768 0.982482 0.608962 36.000000
1.428274 0.974004 0.615213 36.000000
1.446474 0.962927 0.619974 58.000000
1.452829 0.943809 0.619641 34.000000
1.467194 0.929369 0.622451 36.000000
1.481163 0.915007 0.625436 50.000000
1.495016 0.900440 0.628372 37.000000
1.541199 0.904715 0.644891 32.000000
1.555079 0.889364 0.647809 39.000000
1.576934 0.878379 0.654141 43.000000
1.594688 0.864695 0.658726 46.000000
1.624831 0.857341 0.668392 42.000000
1.642497 0.842897 0.672890 40.000000
1.664220 0.830297 0.679114 40.000000
1.668998 0.809034 0.678424 32.000000
1.703100 0.802110 0.689953 34.000000
1.720326 0.786371 0.694317 35.000000
1.741558 0.772463 0.700662 32.000000
1.771346 0.761908 0.710357 37.000000
1.788347 0.745008 0.714696 35.000000
1.809336 0.729854 0.720903 34.000000
1.825943 0.712570 0.725326 36.000000
1.864304 0.703297 0.738445 27.000000
1.867292 0.680551 0.737808 34.000000
1.909973 0.671572 0.752585 40.000000
1.939414 0.657207 0.762029 61.000000
1.955257 0.638042 0.766522 48.000000
1.975498 0.620011 0.772704 59.000000
1.995492 0.601540 0.778764 37.000000
2.019938 0.583927 0.786586 42.000000
2.039711 0.564655 0.792600 34.000000
2.086515 0.552122 0.809015 32.000000
2.105898 0.531855 0.815129 35.000000
2.134388 0.513183 0.824486 31.000000
2.162639 0.494063 0.833999 34.000000
2.190715 0.474425 0.843454 38.000000
2.237014 0.457872 0.859897 36.000000
2.260155 0.436025 0.867621 36.000000
2.283147 0.413611 0.875356 28.000000
2.333579 0.395467 0.893622 32.000000
2.365469 0.373203 0.904687 49.000000
2.397220 0.350308 0.915684 35.000000
2.433300 0.327404 0.928619 36.000000
2.483077 0.305476 0.946797 47.000000
2.504850 0.279221 0.954205 33.000000
2.549602 0.254952 0.970472 40.000000
2.580137 0.228410 0.981521 25.000000
2.638356 0.203389 1.003040 35.000000
2.668420 0.175172 1.013935 36.000000
2.712178 0.147076 1.030243 49.000000
2.779076 0.119025 1.054977 35.000000
2.803528 0.088165 1.064026 39.000000
2.846324 0.057150 1.080265 40.000000
2.898114 0.025259 1.099872 35.000000
2.912232 -0.007795 1.105194 29.000000
2.977481 -0.041795 1.129932 27.000000
3.032978 -0.077045 1.151020 30.000000
3.101963 -0.114084 1.177522 30.000000
3.156475 -0.152042 1.198906 29.000000
3.229390 -0.192386 1.226860 29.000000
3.287691 -0.233437 1.249692 28.000000
3.261703 -0.268845 1.240509 21.000000
3.263261 -0.306345 1.241853 31.000000
3.241024 -0.341502 1.234448 31.000000
3.223156 -0.376778 1.228711 32.000000
3.200367 -0.410930 1.220998 32.000000
3.195735 -0.447253 1.220366 32.000000
3.162832 -0.479476 1.209232 30.000000
3.171358 -0.517640 1.213907 32.000000
3.100980 -0.542417 1.188450 25.000000
3.122513 -0.582790 1.198217 32.000000
3.083965 -0.611748 1.184941 32.000000
3.049621 -0.641041 1.173549 29.000000
3.060780 -0.679753 1.179779 35.000000
3.016759 -0.705981 1.164682 28.000000
3.013324 -0.741545 1.165733 33.000000
3.005129 -0.775739 1.164620 33.000000
2.955754 -0.798939 1.147813 22.000000
2.937860 -0.830023 1.143308 30.000000
2.951167 -0.870072 1.150973 32.000000
2.923634 -0.898054 1.142770 27.000000
2.913769 -0.931234 1.141475 33.000000
2.885721 -0.958408 1.133096 30.000000
2.870596 -0.989758 1.130164 32.000000
2.859620 -1.022586 1.128977 29.000000
2.813281 -1.041797 1.113379 25.000000
2.814891 -1.078862 1.117224 31.000000
2.798660 -1.109119 1.114017 34.000000
2.764811 -1.132071 1.103786 32.000000
2.756301 -1.165682 1.104351 32.000000
2.730647 -1.191303 1.097510 32.000000
2.721943 -1.224137 1.097492 31.000000
2.704002 -1.253412 1.094313 31.000000
2.677726 -1.277867 1.087214 26.000000
2.680408 -1.316816 1.092543 34.000000
2.657371 -1.343342 1.087366 35.000000
2.625897 -1.365051 1.078775 29.000000
2.627381 -1.403901 1.083883 41.000000
2.595424 -1.424844 1.075218 32.000000
2.575660 -1.452144 1.071496 29.000000
2.567770 -1.486320 1.072977 33.000000
2.523193 -1.498682 1.059075 27.000000
2.530920 -1.542123 1.067047 33.000000
2.498135 -1.560893 1.058171 32.000000
2.496409 -1.599994 1.063106 32.000000
2.479010 -1.628352 1.060799 26.000000
2.457415 -1.653793 1.056715 22.000000
2.446743 -1.687648 1.058053 26.000000
2.439994 -1.723436 1.060568 32.000000
2.386379 -1.726818 1.043415 26.000000
2.379244 -1.762129 1.045740 36.000000
2.352085 -1.783932 1.040213 35.000000
2.335942 -1.814048 1.039579 31.000000
2.327701 -1.849068 1.041765 36.000000
2.314549 -1.881843 1.042565 36.000000
2.293719 -1.908556 1.040057 31.000000
2.276196 -1.938138 1.039192 31.000000
2.237806 -1.948030 1.028013 25.000000
2.234083 -1.989426 1.033493 34.000000
2.215653 -2.018398 1.032417 35.000000
2.196959 -2.047065 1.031235 31.000000
2.177904 -2.075521 1.030045 35.000000
2.165361 -2.110467 1.031979 32.000000
2.148958 -2.142014 1.032274 31.000000
2.142162 -2.183562 1.037271 32.000000
2.092172 -2.180761 1.021407 23.000000
2.094453 -2.232355 1.031061 35.000000
2.082924 -2.270279 1.034172 44.000000
2.048827 -2.283494 1.026240 30.000000
2.033531 -2.317589 1.027626 39.000000
2.013324 -2.348895 1.027903 32.000000
2.003200 -2.390066 1.032277 32.000000
1.950348 -2.379869 1.014774 24.000000
1.909887 -2.383582 1.003412 10.000000
1.761201 -2.248248 0.934661 17.000000
1.680834 -2.197419 0.902270 17.000000
1.617434 -2.163281 0.877446 18.000000
1.532542 -2.097155 0.840378 24.000000
1.468563 -2.056556 0.814293 18.000000
1.407203 -2.019373 0.790142 21.000000
1.356107 -1.992082 0.770396 24.000000
1.279549 -1.924133 0.735611 10.000000
1.236971 -1.907461 0.720930 24.000000
1.203911 -1.901367 0.710564 30.000000
1.187459 -1.923889 0.710971 32.000000
1.157214 -1.921065 0.702103 35.000000
1.139266 -1.938304 0.700722 34.000000
1.119646 -1.956175 0.699545 31.000000
1.105888 -1.981510 0.701019 30.000000
1.099312 -2.024244 0.708629 10.000000
0.765118 1.401320 0.506313 15.000000
0.788010 1.404276 0.512859 19.000000
0.802863 1.395044 0.515025 26.000000
0.811277 1.372848 0.512396 24.000000
0.830724 1.371531 0.517564 24.000000
0.842717 1.357822 0.518130 28.000000
0.852888 1.339445 0.516931 18.000000
0.885280 1.357371 0.529847 26.000000
0.881225 1.319416 0.521009 15.000000
0.904155 1.320366 0.527488 21.000000
0.918193 1.309824 0.529494 29.000000
0.932077 1.299180 0.531499 28.000000
0.948768 1.292101 0.535036 28.000000
0.965386 1.284854 0.538585 29.000000
0.974089 1.265601 0.537104 24.000000
0.993474 1.261732 0.542206 28.000000
0.995094 1.235394 0.537648 16.000000
1.017363 1.234750 0.544319 30.000000
1.030566 1.222939 0.546176 34.000000
1.040629 1.207340 0.546360 27.000000
1.059841 1.202297 0.551413 35.000000
1.079778 1.196487 0.556175 35.000000
1.092682 1.183895 0.557944 32.000000
1.105430 1.171199 0.559661 32.000000
1.131189 1.171882 0.567963 12.000000
1.137245 1.151952 0.566346 35.000000
1.156405 1.145350 0.571280 43.000000
1.171689 1.135576 0.574836 37.000000
1.184043 1.121850 0.576420 36.000000
1.206610 1.117624 0.583016 42.000000
1.215260 1.100350 0.582885 35.000000
1.237841 1.095482 0.589463 61.000000
1.242716 1.074862 0.587596 18.000000
1.264731 1.069868 0.594365 35.000000
1.287319 1.064036 0.600839 43.000000
1.302679 1.051877 0.603998 32.000000
1.328522 1.048700 0.612433 56.000000
1.343780 1.036024 0.615511 36.000000
1.358494 1.023483 0.618818 33.000000
1.365979 1.004736 0.618376 50.000000
1.365225 0.980873 0.614766 18.000000
1.395259 0.978343 0.624626 44.000000
1.425090 0.975591 0.634690 59.000000
1.435871 0.958857 0.635869 36.000000
1.454007 0.947470 0.640736 53.000000
1.468126 0.933274 0.643827 46.000000
1.478146 0.916404 0.645185 37.000000
1.492007 0.901789 0.648173 65.000000
1.525935 0.898800 0.659897 22.000000
1.523438 0.874214 0.655918 49.000000
1.561551 0.872638 0.669386 71.000000
1.587444 0.863517 0.677573 45.000000
1.609219 0.851768 0.683967 60.000000
1.626800 0.837414 0.688558 40.000000
1.656546 0.829391 0.698692 34.000000
1.674022 0.814268 0.703253 59.000000
1.691345 0.798889 0.707764 16.000000
1.708328 0.783439 0.712529 35.000000
1.738022 0.773434 0.722571 36.000000
1.754863 0.757202 0.727183 36.000000
1.789029 0.747666 0.738738 52.000000
1.801401 0.728901 0.741533 37.000000
1.830954 0.716720 0.751409 34.000000
1.838535 0.695907 0.752566 34.000000
1.872360 0.684388 0.764203 25.000000
1.906136 0.672136 0.775800 37.000000
1.922108 0.653403 0.780379 57.000000
1.946750 0.637239 0.788560 41.000000
1.971382 0.620603 0.796624 52.000000
1.991402 0.602076 0.802903 62.000000
2.011237 0.583174 0.809058 36.000000
2.035445 0.565075 0.817026 34.000000
2.073074 0.550153 0.830283 26.000000
2.096977 0.531077 0.838352 35.000000
2.129759 0.513704 0.849982 41.000000
2.157925 0.494526 0.859749 37.000000
2.181359 0.473767 0.867647 37.000000
2.227557 0.457277 0.884545 38.000000
2.250621 0.435425 0.892471 35.000000
2.278043 0.413914 0.902223 32.000000
2.319181 0.394146 0.917285 29.000000
2.360148 0.373462 0.932286 44.000000
2.382495 0.349158 0.939950 44.000000
2.423046 0.326923 0.955055 36.000000
2.454222 0.302706 0.966456 38.000000
2.503660 0.279845 0.984987 52.000000
2.534265 0.254153 0.996495 38.000000
2.564595 0.227660 1.007848 34.000000
2.627302 0.203130 1.031800 33.000000
2.661893 0.175215 1.044823 36.000000
2.724074 0.148163 1.068527 35.000000
2.753411 0.118245 1.079739 37.000000
2.796462 0.088221 1.096245 36.000000
2.825121 0.056869 1.107467 33.000000
2.886004 0.025165 1.131375 42.000000
2.918684 -0.007845 1.144149 29.000000
2.951076 -0.041502 1.156826 30.000000
3.034263 -0.077302 1.189371 32.000000
3.079690 -0.113640 1.207613 28.000000
3.143375 -0.151836 1.232842 31.000000
3.201932 -0.191342 1.256550 27.000000
3.278457 -0.233445 1.287338 28.000000
3.280404 -0.271209 1.288838 20.000000
3.244827 -0.305588 1.275650 34.000000
3.213626 -0.339503 1.264081 33.000000
3.209708 -0.376143 1.263657 32.000000
3.191510 -0.410998 1.257667 33.000000
