x y z intensity
1.441585 -1.640911 -1.164008 10.000000
1.438370 -1.675568 -1.172104 18.000000
1.431727 -1.706891 -1.177712 17.000000
1.423556 -1.739041 -1.183649 16.000000
1.424391 -1.780921 -1.195951 22.000000
1.405453 -1.798602 -1.191943 12.000000
1.406616 -1.844897 -1.206708 16.000000
1.384412 -1.858812 -1.200179 10.000000
1.377891 -1.893987 -1.207413 9.000000
1.366797 -1.926269 -1.212608 13.000000
1.351612 -1.950522 -1.212702 10.000000
1.342209 -1.986551 -1.219973 10.000000
1.328891 -2.014304 -1.222153 14.000000
1.308769 -2.035312 -1.220195 10.000000
1.319160 -2.105446 -1.247301 10.000000
1.292520 -2.114272 -1.237911 10.000000
1.280302 -2.150413 -1.244563 9.000000
0.627128 1.086523 -0.610057 16.000000
0.659839 1.112959 -0.632065 31.000000
0.662852 1.088921 -0.625497 22.000000
0.648800 1.038330 -0.603394 31.000000
0.652258 1.018886 -0.599071 28.000000
0.663547 1.010316 -0.601172 24.000000
0.669019 0.994613 -0.598927 32.000000
0.677522 0.982183 -0.598688 30.000000
0.667142 0.944534 -0.582884 31.000000
0.675077 0.932227 -0.582484 36.000000
0.663567 0.895157 -0.566444 10.000000
0.673561 0.886536 -0.568199 35.000000
0.680137 0.874593 -0.567826 34.000000
0.684398 0.858824 -0.564961 29.000000
0.696251 0.853749 -0.569103 62.000000
0.702451 0.841638 -0.568655 34.000000
0.703265 0.822443 -0.563312 36.000000
0.688633 0.787015 -0.546571 44.000000
0.691117 0.771847 -0.543582 33.000000
0.693387 0.756683 -0.540564 70.000000
0.698435 0.744821 -0.539820 54.000000
0.703378 0.732928 -0.539027 72.000000
0.701963 0.714709 -0.533521 85.000000
0.706560 0.702836 -0.532619 83.000000
0.726787 0.706291 -0.543520 103.000000
1.482693 1.342797 -1.083485 30.000000
1.503924 1.330081 -1.090898 42.000000
1.535112 1.325599 -1.105442 49.000000
1.555635 1.312646 -1.113271 48.000000
1.610684 1.326620 -1.144605 41.000000
1.627969 1.309756 -1.149921 33.000000
1.649340 1.294782 -1.157155 35.000000
1.663008 1.274610 -1.160005 27.000000
1.680688 1.256396 -1.164697 35.000000
1.711739 1.248762 -1.179494 33.000000
1.714389 1.220151 -1.174772 20.000000
1.730991 1.201678 -1.179789 21.000000
1.736667 1.175491 -1.177326 25.000000
1.738381 1.147007 -1.172317 20.000000
1.750853 1.125637 -1.174578 24.000000
1.733527 1.085641 -1.157071 10.000000
1.741646 1.062006 -1.156613 17.000000
1.749501 1.038318 -1.156146 24.000000
1.753331 1.012407 -1.153054 18.000000
1.760211 0.989090 -1.152779 23.000000
1.767329 0.965298 -1.151999 22.000000
1.766032 0.937743 -1.146591 16.000000
1.764463 0.910325 -1.141086 22.000000
1.778051 0.890811 -1.145399 10.000000
1.779787 0.865313 -1.142221 17.000000
1.789131 0.843626 -1.143895 20.000000
1.786461 0.816405 -1.137910 16.000000
1.783465 0.789333 -1.131835 13.000000
1.803988 0.772623 -1.140819 19.000000
1.792136 0.742601 -1.129899 18.000000
1.780241 0.712652 -1.118536 18.000000
1.779776 0.687995 -1.114982 10.000000
1.787060 0.666413 -1.116331 18.000000
1.794209 0.644763 -1.117612 26.000000
1.784855 0.617341 -1.108701 19.000000
1.795629 0.597047 -1.112304 23.000000
1.798022 0.573899 -1.110773 26.000000
1.799851 0.550918 -1.109504 18.000000
1.793588 0.525414 -1.102682 25.000000
1.712032 0.479384 -1.050334 10.000000
1.646455 0.439772 -1.008007 30.000000
1.077199 0.246584 -0.655755 68.000000
1.075547 0.232695 -0.653750 81.000000
1.073914 0.218790 -0.651469 95.000000
1.076248 0.205833 -0.651858 71.000000
1.074198 0.192081 -0.649650 65.000000
1.084609 0.180586 -0.655312 83.000000
1.082318 0.166846 -0.652947 95.000000
1.088281 0.154414 -0.655898 98.000000
1.085587 0.140737 -0.653648 98.000000
1.091328 0.128125 -0.656445 95.000000
1.092695 0.115000 -0.656641 100.000000
1.085399 0.101002 -0.651627 98.000000
1.086368 0.087940 -0.651859 71.000000
1.082979 0.074584 -0.649486 57.000000
1.083712 0.061536 -0.649602 98.000000
1.084330 0.048449 -0.649641 98.000000
1.080582 0.035261 -0.647073 95.000000
1.076562 0.022175 -0.644620 93.000000
1.081005 0.009229 -0.647265 99.000000
1.076754 -0.003753 -0.644696 96.000000
1.080967 -0.016765 -0.647150 105.000000
1.076486 -0.029682 -0.644467 98.000000
1.076064 -0.042627 -0.644467 100.000000
1.075490 -0.055573 -0.644390 103.000000
1.074839 -0.068518 -0.644237 98.000000
1.061235 -0.080490 -0.636348 95.000000
1.068878 -0.093994 -0.641174 100.000000
1.067772 -0.106888 -0.641060 100.000000
1.049449 -0.117827 -0.630615 98.000000
1.056619 -0.131538 -0.635477 98.000000
1.055143 -0.144253 -0.635175 98.000000
1.053591 -0.156930 -0.634796 103.000000
1.047496 -0.168961 -0.631973 95.000000
1.045725 -0.181511 -0.631445 85.000000
1.052140 -0.195671 -0.636216 100.000000
1.049937 -0.208361 -0.635798 100.000000
1.047505 -0.221051 -0.635494 98.000000
1.045112 -0.233665 -0.634962 98.000000
1.046638 -0.247269 -0.637093 100.000000
1.044006 -0.259819 -0.636406 98.000000
1.032778 -0.270228 -0.630823 74.000000
1.067160 -0.292937 -0.653127 74.000000
1.063945 -0.305799 -0.652461 95.000000
1.064581 -0.319941 -0.654527 100.000000
1.061156 -0.332736 -0.653740 98.000000
1.057416 -0.345569 -0.653149 95.000000
1.057641 -0.359753 -0.655009 98.000000
1.049582 -0.371119 -0.651732 95.000000
1.049540 -0.385283 -0.653507 71.000000
1.053383 -0.401002 -0.657717 95.000000
1.049042 -0.413707 -0.656801 100.000000
1.060388 -0.433027 -0.666139 95.000000
1.051714 -0.444082 -0.662618 95.000000
1.034864 -0.451660 -0.654252 95.000000
1.041683 -0.469581 -0.660926 95.000000
1.036487 -0.482230 -0.659960 98.000000
1.031169 -0.494799 -0.658993 60.000000
1.010229 -0.499600 -0.647977 95.000000
1.004755 -0.511819 -0.646905 98.000000
1.018456 -0.534035 -0.658214 95.000000
0.989745 -0.533958 -0.642125 103.000000
1.010326 -0.560850 -0.658506 95.000000
1.015646 -0.579448 -0.664619 98.000000
1.005450 -0.589685 -0.661044 98.000000
1.006320 -0.606486 -0.664824 71.000000
0.999646 -0.618764 -0.663629 66.000000
0.992807 -0.631000 -0.662352 95.000000
0.993189 -0.647876 -0.665972 95.000000
0.993342 -0.664806 -0.669489 100.000000
1.043648 -0.716460 -0.707079 95.000000
1.060909 -0.746715 -0.722605 100.000000
1.088291 -0.785207 -0.745249 98.000000
1.086847 -0.803572 -0.748359 64.000000
1.102210 -0.835614 -0.763770 36.000000
1.096750 -0.851609 -0.764300 58.000000
1.114609 -0.887035 -0.781902 98.000000
1.482236 -1.296914 -1.067090 24.000000
1.507199 -1.350464 -1.093005 24.000000
1.518272 -1.392874 -1.109158 10.000000
1.525471 -1.432770 -1.122849 10.000000
1.528887 -1.469951 -1.134023 17.000000
1.515958 -1.491908 -1.133218 11.000000
1.530818 -1.541929 -1.153500 15.000000
1.514077 -1.560848 -1.150197 14.000000
1.500229 -1.582676 -1.149225 10.000000
1.498195 -1.617421 -1.157385 17.000000
1.477820 -1.632601 -1.151572 9.000000
1.466178 -1.657445 -1.152628 10.000000
1.462950 -1.692202 -1.160486 16.000000
1.449453 -1.717679 -1.161771 10.000000
1.450953 -1.759524 -1.174007 17.000000
1.440621 -1.787765 -1.176936 13.000000
1.431476 -1.820111 -1.182410 16.000000
1.414911 -1.841260 -1.180629 17.000000
1.404865 -1.873661 -1.186008 9.000000
1.403627 -1.916177 -1.197519 10.000000
1.387230 -1.941388 -1.198110 10.000000
1.369501 -1.962167 -1.195946 10.000000
1.370210 -2.013022 -1.211914 12.000000
1.344331 -2.022410 -1.202910 10.000000
1.336385 -2.062275 -1.211962 10.000000
1.338975 -2.116681 -1.229225 10.000000
1.322462 -2.145438 -1.231467 9.000000
1.303037 -2.170268 -1.231305 9.000000
1.292440 -2.210588 -1.239912 9.000000
0.670250 1.151173 -0.633384 10.000000
0.699149 1.169503 -0.650810 18.000000
0.655465 1.068121 -0.601253 19.000000
0.660099 1.048161 -0.596863 16.000000
0.668444 1.036155 -0.596992 20.000000
0.677376 1.023750 -0.596896 21.000000
0.680356 1.004178 -0.592561 18.000000
0.694082 0.999048 -0.596741 21.000000
0.694756 0.975502 -0.589888 17.000000
0.694340 0.952380 -0.583138 20.000000
0.678131 0.907559 -0.562741 18.000000
0.684871 0.895627 -0.562478 15.000000
0.686597 0.876265 -0.557454 28.000000
0.695791 0.867754 -0.559353 19.000000
0.705480 0.858825 -0.560987 23.000000
0.708783 0.843296 -0.558290 31.000000
0.714772 0.831136 -0.557832 15.000000
0.727063 0.825318 -0.561645 29.000000
0.706017 0.783262 -0.540569 10.000000
0.705328 0.764742 -0.535334 26.000000
0.704322 0.746337 -0.530021 33.000000
0.709204 0.734402 -0.529271 27.000000
0.720218 0.728784 -0.533088 35.000000
0.718588 0.710517 -0.527626 44.000000
1.490865 1.342755 -1.061638 29.000000
1.508798 1.327106 -1.066615 28.000000
1.536700 1.319933 -1.078583 32.000000
1.571404 1.317888 -1.095165 29.000000
1.598734 1.310045 -1.107520 29.000000
1.626948 1.301154 -1.119420 32.000000
1.640589 1.281451 -1.122235 16.000000
1.654735 1.261098 -1.124544 30.000000
1.682194 1.251455 -1.136747 30.000000
1.699651 1.233146 -1.141318 27.000000
1.730622 1.225114 -1.155836 28.000000
1.776233 1.226472 -1.179926 19.000000
1.752928 1.180362 -1.158371 15.000000
1.766240 1.158518 -1.160283 15.000000
1.756601 1.122815 -1.148019 9.000000
1.753867 1.092134 -1.140532 10.000000
1.750215 1.062026 -1.133366 10.000000
1.757948 1.038380 -1.132868 13.000000
1.776927 1.021214 -1.139581 17.000000
1.784279 0.997328 -1.139008 11.000000
1.783271 0.969507 -1.133835 12.000000
1.782411 0.941539 -1.128071 18.000000
1.776833 0.912072 -1.120261 9.000000
1.778745 0.886659 -1.117178 10.000000
1.788208 0.865159 -1.118987 10.000000
1.793590 0.841600 -1.118199 12.000000
1.814501 0.825275 -1.127109 18.000000
1.791595 0.789230 -1.108932 10.000000
1.808179 0.770875 -1.115172 14.000000
1.824632 0.752187 -1.121422 17.000000
1.804274 0.718968 -1.105768 10.000000
1.804146 0.693887 -1.101907 12.000000
1.791126 0.664606 -1.090869 14.000000
1.794088 0.641593 -1.089730 11.000000
1.809193 0.622713 -1.095838 18.000000
1.815922 0.600911 -1.096982 18.000000
1.814184 0.576281 -1.093012 19.000000
1.832584 0.558368 -1.101763 23.000000
1.817922 0.530113 -1.090099 12.000000
1.752585 0.488470 -1.048718 18.000000
1.707491 0.454032 -1.019689 26.000000
1.082695 0.233125 -0.641719 80.000000
1.089356 0.221016 -0.644696 71.000000
1.083174 0.206300 -0.640107 86.000000
1.081136 0.192508 -0.637946 49.000000
1.095983 0.181644 -0.645794 71.000000
1.102216 0.169124 -0.648543 98.000000
1.091112 0.154083 -0.641391 95.000000
1.101238 0.142115 -0.646735 95.000000
1.094147 0.127897 -0.641936 100.000000
1.099805 0.115234 -0.644648 95.000000
1.105316 0.102430 -0.647284 100.000000
1.106336 0.089175 -0.647520 85.000000
1.094274 0.075034 -0.640155 63.000000
1.095011 0.061895 -0.640271 98.000000
1.091356 0.048565 -0.637827 95.000000
1.096173 0.035618 -0.640310 98.000000
1.096445 0.022518 -0.640465 98.000000
1.087965 0.009267 -0.635460 103.000000
1.092321 -0.003783 -0.637982 100.000000
1.092244 -0.016870 -0.637905 103.000000
1.092051 -0.029957 -0.637750 103.000000
1.091626 -0.043044 -0.637750 103.000000
1.082461 -0.055688 -0.632632 103.000000
1.086081 -0.068906 -0.634999 90.000000
1.093925 -0.082592 -0.639845 98.000000
1.088731 -0.095276 -0.637017 103.000000
1.087573 -0.108363 -0.636901 100.000000
1.086337 -0.121373 -0.636708 100.000000
1.076371 -0.133359 -0.631407 98.000000
1.074877 -0.146228 -0.631062 100.000000
1.073269 -0.159096 -0.630679 98.000000
1.071430 -0.171965 -0.630411 77.000000
1.065216 -0.184097 -0.627594 95.000000
1.067409 -0.197664 -0.629760 95.000000
1.065226 -0.210456 -0.629300 98.000000
1.058693 -0.222321 -0.626297 98.000000
1.060362 -0.236002 -0.628457 95.000000
1.053619 -0.247650 -0.625343 98.000000
1.059241 -0.262397 -0.629885 95.000000
1.056319 -0.275125 -0.629346 81.000000
1.078359 -0.294628 -0.643740 92.000000
1.075171 -0.307540 -0.643071 74.000000
1.075821 -0.321774 -0.645050 95.000000
1.072343 -0.334618 -0.644299 79.000000
1.064502 -0.346199 -0.641181 76.000000
1.068866 -0.361777 -0.645477 93.000000
1.068955 -0.376072 -0.647243 75.000000
1.064853 -0.388895 -0.646447 47.000000
1.068718 -0.404757 -0.650557 70.000000
1.068190 -0.419308 -0.652346 95.000000
1.071736 -0.435351 -0.656314 100.000000
1.062855 -0.446654 -0.653078 78.000000
1.057881 -0.459472 -0.652229 94.000000
1.048813 -0.470468 -0.648882 62.000000
1.047570 -0.484987 -0.650410 62.000000
1.050098 -0.501358 -0.654341 71.000000
1.044639 -0.513988 -0.653281 82.000000
1.046841 -0.530521 -0.657067 76.000000
1.033354 -0.539044 -0.651041 95.000000
1.031131 -0.553699 -0.652498 85.000000
1.025201 -0.566049 -0.651271 82.000000
1.022706 -0.580680 -0.652634 81.000000
1.023776 -0.597527 -0.656370 81.000000
1.032173 -0.618977 -0.664883 66.000000
1.074155 -0.661113 -0.694775 32.000000
1.107654 -0.699869 -0.719943 77.000000
1.103668 -0.715714 -0.720932 69.000000
1.110081 -0.739080 -0.729292 53.000000
1.112931 -0.759911 -0.734943 75.000000
1.104733 -0.773356 -0.733303 36.000000
1.124966 -0.807159 -0.750730 43.000000
1.130002 -0.831475 -0.758754 32.000000
1.452518 -1.177361 -0.999184 32.000000
1.484250 -1.231396 -1.027086 21.000000
1.524493 -1.295421 -1.062133 15.000000
1.540188 -1.340262 -1.080627 14.000000
1.528686 -1.362097 -1.080281 10.000000
1.559552 -1.422644 -1.110108 9.000000
1.553686 -1.450781 -1.114160 9.000000
1.560219 -1.491333 -1.127362 10.000000
1.556701 -1.522837 -1.133475 10.000000
1.537007 -1.538727 -1.128026 10.000000
1.514128 -1.551211 -1.120145 9.000000
1.518929 -1.592193 -1.132890 10.000000
1.513919 -1.623791 -1.138618 9.000000
1.526472 -1.675205 -1.157863 9.000000
1.493712 -1.677206 -1.142952 9.000000
1.492273 -1.716238 -1.153290 10.000000
1.479766 -1.741250 -1.154063 10.000000
1.472745 -1.773041 -1.159221 10.000000
1.461192 -1.802119 -1.162555 10.000000
1.450442 -1.830457 -1.165292 10.000000
1.427153 -1.845314 -1.159403 9.000000
1.440180 -1.905628 -1.181959 9.000000
1.432100 -1.941893 -1.189189 9.000000
1.409117 -1.955737 -1.182718 9.000000
1.395071 -1.984708 -1.185287 10.000000
1.388161 -2.024672 -1.194458 9.000000
1.369587 -2.045324 -1.192055 9.000000
1.359280 -2.081624 -1.198740 9.000000
1.347411 -2.113421 -1.202676 9.000000
1.354865 -2.180460 -1.226368 9.000000
1.332980 -2.201688 -1.224087 8.000000
1.313132 -2.226607 -1.223757 9.000000
0.621649 1.087264 -0.579450 11.000000
0.688705 1.173019 -0.632172 36.000000
0.825620 1.369696 -0.746602 95.000000
0.735912 1.189633 -0.655899 21.000000
0.673027 1.062140 -0.592430 28.000000
0.672377 1.034497 -0.583816 28.000000
0.691263 1.037148 -0.592295 21.000000
0.684896 1.002183 -0.579243 31.000000
0.695240 0.993768 -0.581419 19.000000
0.690487 0.962894 -0.570296 27.000000
0.692450 0.943539 -0.565854 24.000000
0.711034 0.945477 -0.574189 20.000000
0.702305 0.911445 -0.560664 29.000000
0.697933 0.885218 -0.551629 25.000000
0.716235 0.886806 -0.559888 34.000000
0.714111 0.864182 -0.552902 30.000000
0.726083 0.858829 -0.556952 32.000000
0.721003 0.832675 -0.547397 41.000000
0.726820 0.820505 -0.546891 29.000000
0.738533 0.814883 -0.550812 31.000000
0.705105 0.759657 -0.520846 23.000000
0.716250 0.754256 -0.524655 32.000000
0.714995 0.735841 -0.519409 69.000000
0.722821 0.727068 -0.520918 73.000000
1.428430 1.309743 -0.998191 23.000000
1.492231 1.336635 -1.035147 30.000000
1.513433 1.324107 -1.042295 29.000000
1.534556 1.311208 -1.049466 29.000000
1.562474 1.303614 -1.061143 35.000000
1.587067 1.292748 -1.070546 30.000000
1.617854 1.287499 -1.084911 30.000000
1.645941 1.278404 -1.096576 33.000000
1.652979 1.252723 -1.094138 15.000000
1.680429 1.243271 -1.106140 35.000000
1.708469 1.232895 -1.117678 35.000000
1.736007 1.222390 -1.129546 32.000000
1.763542 1.211390 -1.141455 35.000000
1.787407 1.197438 -1.150973 23.000000
1.778743 1.160798 -1.138660 18.000000
1.809753 1.151067 -1.152776 24.000000
1.810938 1.122189 -1.147816 10.000000
1.792917 1.081996 -1.130950 18.000000
1.808475 1.062434 -1.135291 19.000000
1.804207 1.032089 -1.128081 17.000000
1.807862 1.005877 -1.125108 20.000000
1.818858 0.983813 -1.126832 18.000000
1.809789 0.951824 -1.116932 17.000000
1.824219 0.931705 -1.120897 20.000000
1.802634 0.894173 -1.103516 9.000000
1.820055 0.876333 -1.110083 15.000000
1.841387 0.859946 -1.119006 22.000000
1.830649 0.828688 -1.108559 16.000000
1.835606 0.804868 -1.107611 19.000000
1.848369 0.784354 -1.111430 23.000000
1.832571 0.752051 -1.098215 14.000000
1.836733 0.728320 -1.097032 18.000000
1.819905 0.696943 -1.083967 10.000000
1.819129 0.672138 -1.080461 18.000000
1.843037 0.655908 -1.091152 20.000000
1.829362 0.626754 -1.080191 19.000000
1.836122 0.604718 -1.081272 25.000000
1.838182 0.581568 -1.080248 26.000000
1.840281 0.558181 -1.078746 23.000000
1.846405 0.535975 -1.079554 25.000000
1.826859 0.506911 -1.065928 10.000000
1.844805 0.488419 -1.074282 24.000000
1.837347 0.463103 -1.067786 25.000000
1.787267 0.427950 -1.036648 26.000000
1.075045 0.217101 -0.620233 95.000000
1.073039 0.203447 -0.618231 91.000000
1.075184 0.190617 -0.618576 95.000000
1.098672 0.181289 -0.631172 42.000000
1.100508 0.168164 -0.631641 98.000000
1.106650 0.155605 -0.634304 103.000000
1.103945 0.141836 -0.632148 100.000000
1.101073 0.128169 -0.629913 103.000000
1.106758 0.115430 -0.632578 100.000000
1.108008 0.102227 -0.632695 100.000000
1.108984 0.089023 -0.632930 100.000000
1.101173 0.075189 -0.628179 54.000000
1.101948 0.062050 -0.628334 100.000000
1.102568 0.048873 -0.628372 98.000000
1.098729 0.035594 -0.625899 98.000000
1.094656 0.022379 -0.623540 95.000000
1.103499 0.009379 -0.628528 98.000000
1.099193 -0.003745 -0.626053 98.000000
1.103460 -0.016937 -0.628450 100.000000
1.103266 -0.030114 -0.628295 98.000000
1.102840 -0.043253 -0.628295 98.000000
1.106637 -0.056653 -0.630691 95.000000
1.097301 -0.069296 -0.625590 95.000000
1.100824 -0.082708 -0.627869 81.000000
1.104263 -0.096185 -0.630029 95.000000
1.098770 -0.108947 -0.627442 98.000000
1.093209 -0.121605 -0.624779 98.000000
1.100450 -0.135679 -0.629446 95.000000
1.094662 -0.148208 -0.626628 92.000000
1.097221 -0.161943 -0.628901 100.000000
1.091174 -0.174330 -0.625970 98.000000
1.080621 -0.185878 -0.620733 58.000000
1.087104 -0.200337 -0.625272 95.000000
1.080624 -0.212480 -0.622347 98.000000
1.069630 -0.223631 -0.617159 103.000000
1.067217 -0.236347 -0.616585 98.000000
1.060333 -0.248146 -0.613708 98.000000
1.061779 -0.261854 -0.615704 95.000000
1.063087 -0.275625 -0.617618 95.000000
1.068501 -0.290602 -0.621939 34.000000
1.082099 -0.308091 -0.631024 98.000000
1.082776 -0.322367 -0.632996 98.000000
1.083346 -0.336624 -0.634885 98.000000
1.079736 -0.349478 -0.634012 95.000000
1.080026 -0.363805 -0.635773 90.000000
1.071881 -0.375265 -0.632623 95.000000
1.075809 -0.391185 -0.636930 95.000000
1.055211 -0.397850 -0.626379 44.000000
1.050920 -0.410447 -0.625474 98.000000
1.054425 -0.426364 -0.629608 98.000000
1.049664 -0.439059 -0.628815 98.000000
1.048803 -0.453413 -0.630437 98.000000
1.047784 -0.467783 -0.631973 94.000000
1.038687 -0.478542 -0.628645 98.000000
1.041349 -0.494730 -0.632458 82.000000
1.035972 -0.507211 -0.631455 68.000000
1.003047 -0.505742 -0.613594 100.000000
1.005175 -0.521976 -0.617482 98.000000
1.034413 -0.552570 -0.637841 98.000000
1.059071 -0.582050 -0.655945 95.000000
1.090842 -0.616479 -0.678667 98.000000
1.160458 -0.673610 -0.724757 95.000000
1.164352 -0.694382 -0.730569 54.000000
1.164250 -0.713034 -0.733942 42.000000
1.141477 -0.717654 -0.723071 64.000000
1.137384 -0.733819 -0.723981 67.000000
1.121644 -0.742907 -0.718055 83.000000
1.113593 -0.756357 -0.716519 64.000000
1.625615 -1.248778 -1.075760 10.000000
1.649988 -1.298842 -1.098859 22.000000
1.629342 -1.312952 -1.091341 12.000000
1.631900 -1.346949 -1.100355 12.000000
1.620442 -1.369757 -1.100036 18.000000
1.601985 -1.386616 -1.095042 10.000000
1.606733 -1.423809 -1.106089 15.000000
1.594476 -1.446402 -1.105499 10.000000
1.568887 -1.456739 -1.095711 9.000000
1.588550 -1.509573 -1.117766 18.000000
1.568988 -1.525759 -1.112422 10.000000
1.561916 -1.554303 -1.116053 11.000000
1.548310 -1.576408 -1.115064 16.000000
1.537503 -1.601660 -1.116233 10.000000
1.532600 -1.633357 -1.121853 13.000000
1.529211 -1.669037 -1.129961 10.000000
1.511375 -1.687567 -1.126409 9.000000
1.514045 -1.729465 -1.138313 19.000000
1.503294 -1.758711 -1.141741 12.000000
1.499020 -1.794117 -1.148989 16.000000
1.480099 -1.812243 -1.145093 10.000000
1.473837 -1.848416 -1.152551 10.000000
1.473688 -1.891070 -1.163823 18.000000
1.447092 -1.902447 -1.155810 9.000000
1.441975 -1.942299 -1.165019 9.000000
1.432326 -1.974349 -1.169404 16.000000
1.423319 -2.010842 -1.176296 10.000000
1.417819 -2.050291 -1.184758 10.000000
1.392550 -2.064484 -1.178492 9.000000
1.392053 -2.116064 -1.193555 10.000000
1.380860 -2.152718 -1.199901 10.000000
1.370728 -2.188554 -1.205736 8.000000
1.348911 -2.209907 -1.203408 9.000000
1.338345 -2.250473 -1.211563 10.000000
1.329274 -2.295062 -1.221627 9.000000
0.646428 1.120902 -0.584849 26.000000
0.956758 1.574554 -0.840269 32.000000
0.691140 1.055565 -0.583225 36.000000
0.690081 1.027916 -0.574735 27.000000
0.700662 1.019501 -0.576901 31.000000
0.693655 0.984674 -0.564016 29.000000
0.696547 0.964860 -0.559501 28.000000
0.701167 0.949120 -0.557277 30.000000
0.700734 0.925790 -0.550501 16.000000
0.710970 0.916927 -0.552227 29.000000
0.714892 0.901231 -0.549836 36.000000
0.724892 0.892165 -0.551470 32.000000
0.725592 0.872979 -0.546828 50.000000
0.732364 0.860361 -0.546228 34.000000
0.738449 0.848045 -0.545845 37.000000
0.744918 0.835383 -0.545181 42.000000
0.735570 0.806428 -0.533676 23.000000
0.716539 0.767920 -0.515481 35.000000
0.718947 0.752400 -0.512421 43.000000
0.730045 0.746861 -0.516158 93.000000
0.750678 0.750606 -0.526502 118.000000
1.359478 1.268770 -0.931836 89.000000
1.468848 1.339427 -0.999444 31.000000
1.489977 1.327440 -1.006459 29.000000
1.517831 1.320945 -1.018012 35.000000
1.545734 1.313915 -1.029540 36.000000
1.566823 1.300654 -1.036506 32.000000
1.581049 1.281477 -1.038877 42.000000
1.608956 1.273138 -1.050362 32.000000
1.643365 1.270255 -1.066740 37.000000
1.653782 1.247412 -1.066660 32.000000
1.688976 1.242875 -1.082627 32.000000
1.691265 1.214866 -1.078251 45.000000
1.730163 1.211935 -1.096450 36.000000
1.761254 1.203674 -1.110390 37.000000
1.792540 1.194755 -1.124305 51.000000
1.809604 1.175143 -1.128551 23.000000
1.818421 1.150928 -1.128458 23.000000
1.815664 1.119758 -1.121377 14.000000
1.831517 1.100119 -1.125767 21.000000
1.839640 1.075704 -1.125422 26.000000
1.847420 1.051307 -1.124995 28.000000
1.835682 1.016087 -1.112774 25.000000
1.842449 0.992177 -1.112601 27.000000
1.841569 0.963690 -1.107140 24.000000
1.816319 0.923704 -1.087959 19.000000
1.834448 0.905542 -1.094084 13.000000
1.859974 0.891282 -1.105301 19.000000
1.849499 0.859718 -1.095188 20.000000
1.858683 0.837534 -1.096813 20.000000
1.855554 0.809927 -1.091180 19.000000
1.860275 0.785895 -1.090279 23.000000
1.860677 0.760225 -1.086784 19.000000
1.856637 0.732998 -1.080896 18.000000
1.856113 0.707767 -1.077652 13.000000
1.847412 0.679355 -1.069141 22.000000
1.854590 0.657275 -1.070508 26.000000
1.861631 0.635127 -1.071670 27.000000
1.851716 0.607438 -1.063253 25.000000
1.866591 0.587920 -1.069063 27.000000
1.864589 0.562994 -1.065218 24.000000
1.861990 0.538404 -1.061634 19.000000
1.851021 0.511410 -1.052761 12.000000
1.869082 0.492707 -1.060981 21.000000
1.861580 0.467233 -1.054633 25.000000
1.845218 0.439964 -1.043386 26.000000
1.088229 0.205493 -0.611306 95.000000
1.086081 0.191761 -0.609274 79.000000
1.114026 0.183099 -0.624096 98.000000
1.115995 0.169793 -0.624332 100.000000
1.117727 0.156565 -0.624686 103.000000
1.115120 0.142664 -0.622422 103.000000
1.120916 0.129913 -0.625080 103.000000
1.113594 0.115664 -0.620430 105.000000
1.127750 0.103662 -0.628016 103.000000
1.124538 0.089876 -0.625670 100.000000
1.116680 0.075937 -0.621016 98.000000
1.108692 0.062167 -0.616280 98.000000
1.109312 0.048989 -0.616319 103.000000
1.114224 0.035953 -0.618745 100.000000
1.114497 0.022723 -0.618862 100.000000
1.119023 0.009492 -0.621367 100.000000
1.110320 -0.003759 -0.616513 100.000000
1.101500 -0.016804 -0.611581 95.000000
1.105678 -0.030034 -0.613854 95.000000
1.109622 -0.043331 -0.616241 98.000000
1.109080 -0.056508 -0.616164 100.000000
1.112746 -0.069960 -0.618473 95.000000
1.111967 -0.083150 -0.618240 98.000000
1.106599 -0.096002 -0.615738 98.000000
1.109905 -0.109570 -0.617812 98.000000
1.104312 -0.122279 -0.615195 98.000000
1.107259 -0.135912 -0.617345 98.000000
1.110000 -0.149687 -0.619609 98.000000
1.099700 -0.161579 -0.614381 95.000000
1.102162 -0.175367 -0.616528 95.000000
1.104492 -0.189180 -0.618633 98.000000
1.098077 -0.201514 -0.615827 98.000000
1.091561 -0.213708 -0.612947 95.000000
1.089236 -0.226653 -0.612443 103.000000
1.082400 -0.238693 -0.609646 98.000000
1.083965 -0.252581 -0.611629 95.000000
1.068405 -0.262352 -0.603946 98.000000
1.073984 -0.277221 -0.608218 74.000000
1.096371 -0.296837 -0.622009 98.000000
1.092972 -0.309957 -0.621575 95.000000
1.089653 -0.322920 -0.620824 95.000000
1.094403 -0.338516 -0.625060 98.000000
1.090659 -0.351539 -0.624423 95.000000
1.095084 -0.367356 -0.628526 100.000000
1.086923 -0.378912 -0.625416 95.000000
1.086938 -0.393320 -0.627001 71.000000
1.074251 -0.403272 -0.621595 98.000000
1.065811 -0.414423 -0.618341 98.000000
1.073414 -0.432126 -0.624713 98.000000
1.064535 -0.443276 -0.621578 100.000000
1.059658 -0.455989 -0.620739 95.000000
1.070721 -0.475818 -0.629323 95.000000
1.061520 -0.486726 -0.626027 98.000000
1.060209 -0.501266 -0.627415 64.000000
1.074597 -0.523549 -0.638134 95.000000
1.096288 -0.550392 -0.653726 95.000000
1.137459 -0.587691 -0.680705 98.000000
1.177660 -0.626294 -0.707812 95.000000
1.190365 -0.650810 -0.718079 95.000000
1.183151 -0.665145 -0.716908 95.000000
1.187334 -0.685977 -0.722636 85.000000
1.175960 -0.697956 -0.718985 62.000000
1.160759 -0.707445 -0.713020 67.000000
1.149274 -0.719008 -0.709297 68.000000
1.156398 -0.742361 -0.717102 90.000000
1.181307 -0.778419 -0.736656 98.000000
1.638959 -1.192811 -1.043840 26.000000
1.643494 -1.226009 -1.053105 10.000000
1.672273 -1.278419 -1.078208 19.000000
1.662211 -1.301012 -1.077667 20.000000
1.644342 -1.318404 -1.072940 16.000000
1.647063 -1.352471 -1.081802 21.000000
1.632184 -1.372456 -1.079176 15.000000
1.634002 -1.406785 -1.087738 19.000000
1.621949 -1.429564 -1.087257 18.000000
1.626280 -1.467174 -1.097894 10.000000
1.613641 -1.489797 -1.097138 14.000000
1.607143 -1.518574 -1.100902 18.000000
1.597227 -1.544172 -1.102256 17.000000
1.593323 -1.576080 -1.107941 19.000000
1.557394 -1.576087 -1.091480 12.000000
1.565456 -1.620684 -1.105862 21.000000
1.544067 -1.636873 -1.100677 15.000000
1.557031 -1.688570 -1.119216 10.000000
1.551067 -1.720648 -1.124441 12.000000
1.546606 -1.756793 -1.132104 16.000000
1.533917 -1.782188 -1.132715 19.000000
1.516824 -1.804755 -1.131533 21.000000
1.515015 -1.843864 -1.140640 16.000000
1.491526 -1.859231 -1.135019 21.000000
1.477605 -1.884227 -1.135356 18.000000
1.486891 -1.942155 -1.155205 10.000000
1.465263 -1.960729 -1.151408 10.000000
1.455473 -1.992939 -1.155680 10.000000
1.441243 -2.022138 -1.158195 14.000000
1.434368 -2.062537 -1.166818 14.000000
1.415531 -2.083536 -1.164521 10.000000
1.410145 -2.127738 -1.175007 13.000000
1.399072 -2.164404 -1.181221 10.000000
1.394596 -2.212841 -1.193501 9.000000
1.374258 -2.233389 -1.190742 9.000000
1.359021 -2.266333 -1.194498 10.000000
1.350075 -2.311062 -1.204346 15.000000
0.631683 1.115240 -0.563196 14.000000
0.691231 1.190616 -0.607962 25.000000
0.981656 1.605289 -0.838384 28.000000
0.965242 1.538715 -0.812871 22.000000
0.711676 1.052508 -0.575914 35.000000
0.712090 1.028984 -0.569839 24.000000
0.720789 1.016253 -0.569649 29.000000
0.705238 0.970422 -0.550712 29.000000
0.721296 0.968845 -0.556710 21.000000
0.709327 0.931282 -0.541896 18.000000
0.719602 0.922345 -0.543589 30.000000
0.731994 0.917226 -0.547593 34.000000
0.733516 0.897500 -0.542930 33.000000
0.734764 0.877910 -0.538150 29.000000
0.743913 0.869031 -0.539926 51.000000
0.750586 0.856329 -0.539330 33.000000
0.756570 0.843893 -0.538913 32.000000
0.762405 0.831413 -0.538445 29.000000
0.725375 0.772564 -0.507500 27.000000
0.733514 0.763815 -0.509042 79.000000
0.751086 0.764559 -0.517066 100.000000
1.297132 1.231908 -0.871718 98.000000
1.395908 1.295627 -0.931188 52.000000
1.423118 1.290740 -0.942454 33.000000
1.494039 1.324081 -0.982400 36.000000
1.518535 1.314687 -0.991553 33.000000
1.543018 1.304911 -1.000601 36.000000
1.570936 1.297530 -1.011906 35.000000
1.588513 1.281247 -1.016495 32.000000
1.606013 1.264672 -1.021026 38.000000
1.623365 1.247871 -1.025496 29.000000
1.662012 1.246864 -1.043369 27.000000
1.678669 1.229706 -1.048173 49.000000
1.717599 1.227392 -1.066011 42.000000
1.719614 1.199240 -1.061688 59.000000
1.758617 1.195775 -1.079466 40.000000
1.786209 1.184665 -1.090940 35.000000
1.813792 1.172907 -1.102306 54.000000
1.815517 1.143661 -1.097253 19.000000
1.835309 1.126547 -1.103948 11.000000
1.866506 1.115949 -1.117441 29.000000
1.840104 1.071128 -1.096563 21.000000
1.863322 1.055552 -1.105343 29.000000
1.863054 1.026763 -1.100291 24.000000
1.854672 0.993841 -1.090541 22.000000
1.865088 0.971853 -1.092639 26.000000
1.851976 0.937343 -1.080308 11.000000
1.857853 0.913392 -1.079852 9.000000
1.887971 0.900485 -1.092854 21.000000
1.889510 0.874294 -1.089873 19.000000
1.874592 0.840901 -1.077588 18.000000
1.883584 0.818528 -1.079145 19.000000
1.880128 0.790867 -1.073575 20.000000
1.884613 0.766690 -1.072580 20.000000
1.880550 0.739306 -1.066770 14.000000
1.859711 0.705803 -1.051598 10.000000
1.871276 0.685281 -1.055311 22.000000
1.878777 0.662847 -1.056343 20.000000
1.881615 0.639061 -1.055237 23.000000
1.880020 0.613936 -1.051641 19.000000
1.890862 0.592902 -1.055084 24.000000
1.901459 0.571632 -1.058327 29.000000
1.894648 0.545518 -1.052567 17.000000
1.875071 0.515855 -1.039179 10.000000
1.901843 0.499246 -1.051982 26.000000
1.881427 0.470306 -1.038702 18.000000
1.882175 0.446931 -1.037145 26.000000
1.831054 0.411985 -1.007148 27.000000
1.177134 0.221299 -0.644182 52.000000
1.097031 0.192869 -0.599570 70.000000
1.129486 0.184836 -0.616476 95.000000
1.122766 0.170108 -0.612010 103.000000
1.128857 0.157449 -0.614738 100.000000
1.126191 0.143495 -0.612522 100.000000
1.127687 0.130150 -0.612758 100.000000
1.129026 0.116804 -0.612955 100.000000
1.125787 0.103057 -0.610932 100.000000
1.131269 0.090073 -0.613348 98.000000
1.118971 0.075797 -0.606411 90.000000
1.119711 0.062528 -0.606528 98.000000
1.120372 0.049299 -0.606606 98.000000
1.120878 0.036031 -0.606606 100.000000
1.116754 0.022673 -0.604343 100.000000
1.121306 0.009494 -0.606761 98.000000
1.125742 -0.003789 -0.609141 100.000000
1.116870 -0.016976 -0.604304 98.000000
1.116676 -0.030192 -0.604149 95.000000
1.120644 -0.043540 -0.606528 95.000000
1.124492 -0.057031 -0.608828 100.000000
1.119399 -0.070077 -0.606294 95.000000
1.127395 -0.083959 -0.610853 95.000000
1.121992 -0.096914 -0.608398 98.000000
1.125316 -0.110587 -0.610422 100.000000
1.119687 -0.123437 -0.607812 83.000000
1.118320 -0.136680 -0.607539 100.000000
1.116680 -0.149922 -0.607383 98.000000
1.115039 -0.163125 -0.606992 95.000000
1.117552 -0.177017 -0.609089 84.000000
1.119892 -0.190973 -0.611104 95.000000
1.113434 -0.203409 -0.608344 95.000000
1.111199 -0.216585 -0.607873 98.000000
1.130299 -0.234231 -0.619380 95.000000
1.106140 -0.242898 -0.607167 103.000000
1.111982 -0.258028 -0.611458 100.000000
1.126266 -0.275376 -0.620419 98.000000
1.118985 -0.287602 -0.617501 95.000000
1.107309 -0.298538 -0.612152 79.000000
1.103937 -0.311710 -0.611676 95.000000
1.104837 -0.325971 -0.613312 98.000000
1.105392 -0.340373 -0.615062 91.000000
1.097430 -0.352137 -0.612117 98.000000
1.101946 -0.367917 -0.616085 95.000000
1.097933 -0.380960 -0.615363 84.000000
1.101916 -0.397079 -0.619436 95.000000
1.089345 -0.407005 -0.613918 83.000000
1.088935 -0.421564 -0.615568 95.000000
1.088329 -0.436181 -0.617171 100.000000
1.083517 -0.449161 -0.616363 95.000000
1.086684 -0.465506 -0.620159 95.000000
1.113998 -0.492756 -0.637817 98.000000
1.165066 -0.531732 -0.669274 98.000000
1.191381 -0.560636 -0.686713 76.000000
1.208976 -0.586572 -0.699661 35.000000
1.214596 -0.606808 -0.705328 95.000000
1.211726 -0.623406 -0.706602 81.000000
1.216897 -0.643878 -0.712135 95.000000
1.217560 -0.662695 -0.715587 95.000000
1.198591 -0.670751 -0.707481 79.000000
1.198899 -0.689471 -0.710826 98.000000
1.191354 -0.703803 -0.709497 95.000000
1.195084 -0.724918 -0.714952 31.000000
1.638609 -1.129972 -1.005501 33.000000
1.659317 -1.172561 -1.023431 26.000000
1.671592 -1.210974 -1.037061 19.000000
1.691075 -1.254615 -1.054604 15.000000
1.694936 -1.288634 -1.063548 16.000000
1.687762 -1.314544 -1.065610 19.000000
1.676749 -1.337759 -1.065427 20.000000
1.655118 -1.352262 -1.058431 16.000000
1.657463 -1.386588 -1.066952 18.000000
1.659275 -1.421110 -1.075344 21.000000
1.664070 -1.458854 -1.085810 15.000000
1.661571 -1.490863 -1.091738 13.000000
1.635410 -1.501689 -1.082283 16.000000
1.638870 -1.539764 -1.092377 21.000000
1.628727 -1.565686 -1.093682 24.000000
1.611875 -1.585142 -1.090542 19.000000
1.600302 -1.611453 -1.092041 19.000000
1.576793 -1.624131 -1.084490 16.000000
1.581149 -1.665884 -1.096273 12.000000
1.583919 -1.708636 -1.108279 14.000000
1.562775 -1.724184 -1.102595 10.000000
1.574455 -1.776649 -1.120399 16.000000
1.557549 -1.799537 -1.119243 22.000000
1.535683 -1.814621 -1.113430 16.000000
1.529848 -1.851070 -1.120637 19.000000
1.517768 -1.880578 -1.123484 13.000000
1.517761 -1.923569 -1.134201 16.000000
1.507505 -1.956743 -1.138950 18.000000
1.484351 -1.971043 -1.132714 9.000000
1.478721 -2.011336 -1.141460 13.000000
1.459091 -2.033379 -1.139679 14.000000
1.449660 -2.070156 -1.146144 10.000000
1.446334 -2.113674 -1.156055 13.000000
1.433223 -2.146855 -1.160224 10.000000
1.427079 -2.191417 -1.170289 10.000000
1.412829 -2.224588 -1.174144 10.000000
1.398067 -2.257740 -1.177940 9.000000
1.382698 -2.290869 -1.181586 10.000000
1.376000 -2.339751 -1.193221 10.000000
1.361232 -2.372022 -1.196168 10.000000
0.660129 1.157504 -0.571761 10.000000
0.765532 1.307593 -0.653091 27.000000
0.964032 1.604707 -0.810509 20.000000
1.003177 1.627697 -0.831506 19.000000
0.981696 1.553128 -0.802538 20.000000
0.993604 1.533145 -0.801397 23.000000
0.749731 1.075856 -0.582750 30.000000
0.729630 1.021893 -0.560314 14.000000
0.740833 1.012787 -0.562160 23.000000
0.743044 0.992939 -0.558062 13.000000
0.737328 0.961985 -0.547537 10.000000
0.728200 0.927738 -0.534828 24.000000
0.734955 0.915456 -0.534613 15.000000
0.742146 0.902810 -0.534188 24.000000
0.746253 0.886601 -0.531626 27.000000
0.761439 0.884535 -0.537560 21.000000
0.765202 0.868275 -0.534895 33.000000
0.768234 0.852354 -0.532436 17.000000
0.765397 0.829493 -0.525462 18.000000
0.730610 0.774177 -0.497460 27.000000
0.748653 0.774873 -0.505118 29.000000
1.375611 1.299209 -0.899236 45.000000
1.419330 1.310201 -0.921033 37.000000
1.473493 1.329346 -0.949408 13.000000
1.494556 1.317583 -0.956219 32.000000
1.522372 1.311268 -0.967322 33.000000
1.543418 1.298691 -0.974053 26.000000
1.567861 1.288601 -0.982915 32.000000
1.581831 1.269676 -0.985255 26.000000
1.609746 1.261636 -0.996284 25.000000
1.634197 1.250317 -1.005020 30.000000
1.665814 1.243973 -1.018182 16.000000
1.668497 1.215839 -1.013690 26.000000
1.695891 1.206516 -1.024983 36.000000
1.731232 1.201248 -1.040245 30.000000
1.751346 1.185762 -1.046976 32.000000
1.790622 1.181786 -1.064477 33.000000
1.814413 1.167711 -1.073424 30.000000
1.842523 1.155229 -1.084112 32.000000
1.866357 1.140274 -1.092968 10.000000
1.870836 1.113391 -1.090578 13.000000
1.882800 1.091098 -1.092510 24.000000
1.875090 1.057611 -1.083205 17.000000
1.882649 1.033031 -1.082793 22.000000
1.881994 1.004197 -1.077790 20.000000
1.881054 0.975498 -1.072693 17.000000
1.891273 0.953247 -1.074650 20.000000
1.865678 0.912929 -1.055710 9.000000
1.907905 0.905819 -1.075280 12.000000
1.909433 0.879526 -1.072400 19.000000
1.906529 0.851465 -1.067230 10.000000
1.903364 0.823478 -1.061896 15.000000
1.908149 0.799148 -1.061108 18.000000
1.896124 0.768094 -1.051031 14.000000
1.908547 0.747184 -1.054583 18.000000
1.879218 0.710319 -1.035098 9.000000
1.911991 0.697035 -1.049956 18.000000
1.927710 0.677408 -1.055875 24.000000
1.926457 0.651750 -1.052542 19.000000
1.904170 0.619148 -1.037212 19.000000
1.910708 0.596576 -1.038313 21.000000
1.912857 0.572662 -1.036972 18.000000
1.918831 0.550140 -1.038208 16.000000
1.907695 0.522656 -1.029728 9.000000
1.908850 0.499077 -1.028438 19.000000
1.918652 0.477468 -1.031361 26.000000
1.915062 0.452699 -1.027550 22.000000
1.898252 0.425228 -1.016715 24.000000
1.854932 0.392825 -0.992153 32.000000
1.151415 0.201658 -0.613151 27.000000
1.149180 0.187370 -0.611149 88.000000
1.151147 0.173766 -0.611430 100.000000
1.139880 0.158334 -0.604654 98.000000
1.141467 0.144925 -0.604971 100.000000
1.147371 0.131942 -0.607577 100.000000
1.139922 0.117533 -0.603119 103.000000
1.141148 0.104057 -0.603237 105.000000
1.142294 0.090580 -0.603316 98.000000
1.138749 0.076846 -0.601184 91.000000
1.135081 0.063176 -0.598971 95.000000
1.131289 0.049609 -0.596719 98.000000
1.136218 0.036392 -0.599050 100.000000
1.136532 0.023019 -0.599167 98.000000
1.141111 0.009645 -0.601538 103.000000
1.132305 -0.003750 -0.596875 103.000000
1.136649 -0.017176 -0.599128 98.000000
1.127570 -0.030311 -0.594349 98.000000
1.127181 -0.043618 -0.594310 98.000000
1.131016 -0.057109 -0.596563 95.000000
1.125936 -0.070155 -0.594077 83.000000
1.147220 -0.085059 -0.605527 35.000000
1.132963 -0.097449 -0.598422 98.000000
1.127422 -0.110391 -0.595937 98.000000
1.134931 -0.124638 -0.600357 100.000000
1.133553 -0.137984 -0.600081 95.000000
1.127630 -0.150743 -0.597403 98.000000
1.130285 -0.164675 -0.599530 98.000000
1.124022 -0.177331 -0.596932 81.000000
1.143891 -0.194293 -0.608186 36.000000
1.146090 -0.208559 -0.610106 98.000000
1.152501 -0.223731 -0.614260 98.000000
1.141275 -0.235567 -0.609303 95.000000
1.156066 -0.252716 -0.617959 100.000000
1.148935 -0.265367 -0.615198 98.000000
1.141664 -0.277875 -0.612360 95.000000
1.138510 -0.291380 -0.611955 95.000000
1.131031 -0.303614 -0.609042 35.000000
1.119105 -0.314627 -0.603948 95.000000
1.111448 -0.326489 -0.600926 74.000000
1.116313 -0.342234 -0.604929 95.000000
1.116771 -0.356748 -0.606584 93.000000
1.108488 -0.368640 -0.603805 69.000000
1.104475 -0.381682 -0.603043 95.000000
1.117077 -0.400687 -0.611400 73.000000
1.095927 -0.407727 -0.601598 28.000000
1.112141 -0.428728 -0.612340 95.000000
1.152808 -0.460033 -0.636707 98.000000
1.225903 -0.505958 -0.679158 100.000000
1.249022 -0.532689 -0.694134 105.000000
1.222824 -0.538467 -0.681747 95.000000
1.229134 -0.558416 -0.687501 71.000000
1.227114 -0.574778 -0.688657 46.000000
1.220667 -0.589436 -0.687729 40.000000
1.238042 -0.615923 -0.700310 66.000000
1.235439 -0.632478 -0.701240 68.000000
1.224466 -0.645108 -0.697897 60.000000
1.225177 -0.663933 -0.701210 54.000000
1.221749 -0.680676 -0.702263 68.000000
1.210419 -0.692974 -0.698782 71.000000
1.609785 -1.024113 -0.946956 30.000000
1.647590 -1.074926 -0.973710 20.000000
1.695142 -1.134653 -1.007323 21.000000
1.705185 -1.169875 -1.018286 20.000000
1.695772 -1.192927 -1.018450 14.000000
1.704941 -1.228629 -1.029177 14.000000
1.709443 -1.262397 -1.038007 10.000000
1.709779 -1.293816 -1.044456 9.000000
1.716840 -1.330874 -1.055236 10.000000
1.698723 -1.348638 -1.050624 10.000000
1.694347 -1.377531 -1.054647 10.000000
1.686249 -1.403573 -1.056395 10.000000
1.670941 -1.423711 -1.053720 10.000000
1.675806 -1.461487 -1.063994 10.000000
1.670034 -1.490513 -1.067593 10.000000
1.643985 -1.501282 -1.058277 9.000000
1.647547 -1.539350 -1.068187 11.000000
1.627679 -1.555870 -1.063007 10.000000
1.635991 -1.601093 -1.077381 10.000000
1.628449 -1.630157 -1.080584 10.000000
1.598391 -1.636534 -1.068856 9.000000
1.605082 -1.682420 -1.082892 10.000000
1.599532 -1.714708 -1.087944 10.000000
1.595646 -1.751125 -1.095359 8.000000
1.586231 -1.780174 -1.098049 12.000000
1.563381 -1.796213 -1.092759 10.000000
1.576852 -1.852777 -1.111944 10.000000
1.550463 -1.865126 -1.104371 10.000000
1.535545 -1.891227 -1.105086 9.000000
1.527040 -1.923625 -1.109401 10.000000
1.525378 -1.967603 -1.120227 9.000000
1.517402 -2.004538 -1.126786 8.000000
1.507416 -2.037128 -1.130731 10.000000
1.498352 -2.074194 -1.137073 9.000000
1.475537 -2.092566 -1.133142 9.000000
1.468028 -2.133382 -1.141310 9.000000
1.462489 -2.178128 -1.151316 9.000000
1.440194 -2.195264 -1.146769 9.000000
1.433539 -2.240048 -1.156442 9.000000
1.430798 -2.292782 -1.170073 7.000000
1.415270 -2.326179 -1.173586 9.000000
1.392187 -2.347685 -1.171033 9.000000
1.384850 -2.396848 -1.182211 9.000000
0.612681 1.095579 -0.523323 14.000000
0.672814 1.171848 -0.565917 10.000000
0.957952 1.584359 -0.782396 34.000000
0.999321 1.611512 -0.804813 23.000000
1.001990 1.575778 -0.796066 18.000000
1.016579 1.559475 -0.797010 22.000000
1.028408 1.539168 -0.795903 22.000000
1.019200 1.488502 -0.778852 35.000000
0.724578 0.985483 -0.534807 29.000000
0.721563 0.958233 -0.526511 26.000000
0.712518 0.923916 -0.514117 20.000000
0.742472 0.940203 -0.529909 17.000000
0.749276 0.927853 -0.529758 39.000000
0.739102 0.893938 -0.517100 26.000000
0.751895 0.888313 -0.520731 30.000000
0.761117 0.879364 -0.522482 56.000000
0.758753 0.856340 -0.515742 32.000000
0.768213 0.846956 -0.517236 52.000000
0.767772 0.827789 -0.512681 25.000000
0.742469 0.782032 -0.491279 31.000000
1.327483 1.305899 -0.857211 35.000000
1.390446 1.337204 -0.891102 48.000000
1.435122 1.348038 -0.912158 40.000000
1.456105 1.337020 -0.918889 31.000000
1.460291 1.310509 -0.915011 28.000000
1.501537 1.316890 -0.934339 25.000000
1.522542 1.304814 -0.941010 29.000000
1.543471 1.292371 -0.947635 32.000000
1.564391 1.279559 -0.954213 28.000000
1.585298 1.266375 -0.960743 36.000000
1.606123 1.252885 -0.967225 32.000000
1.626932 1.239017 -0.973657 25.000000
1.651274 1.227532 -0.982262 29.000000
1.679236 1.218225 -0.992914 31.000000
1.703540 1.205823 -1.001438 32.000000
1.727306 1.193442 -1.010345 42.000000
1.740460 1.172608 -1.012193 29.000000
1.779668 1.168931 -1.029347 35.000000
1.818603 1.164844 -1.046777 35.000000
1.838537 1.148148 -1.053345 27.000000
1.862783 1.132870 -1.061604 32.000000
1.886517 1.117688 -1.070255 26.000000
1.886761 1.088541 -1.065600 19.000000
1.902368 1.068316 -1.069725 26.000000
1.913862 1.045698 -1.071579 23.000000
1.909363 1.014512 -1.064451 24.000000
1.916338 0.989729 -1.063931 26.000000
1.903088 0.954769 -1.052254 13.000000
1.937622 0.943857 -1.067013 15.000000
1.919260 0.907700 -1.053293 13.000000
1.921029 0.880967 -1.050145 14.000000
1.922212 0.854715 -1.047345 18.000000
1.918993 0.826742 -1.042156 13.000000
1.931957 0.805732 -1.045887 17.000000
1.932304 0.779535 -1.042769 18.000000
1.911543 0.745273 -1.028366 10.000000
1.948872 0.733671 -1.045186 20.000000
1.940039 0.704463 -1.037343 18.000000
1.943226 0.680147 -1.036434 18.000000
1.942219 0.654223 -1.032848 24.000000
1.927851 0.624513 -1.022775 16.000000
1.934502 0.601791 -1.023814 21.000000
1.928118 0.575105 -1.018081 21.000000
1.930023 0.551102 -1.016716 16.000000
1.953206 0.533001 -1.026515 10.000000
1.928547 0.502207 -1.011711 14.000000
1.929745 0.478285 -1.010060 17.000000
1.947795 0.458688 -1.017745 22.000000
1.935264 0.431854 -1.009425 20.000000
1.935522 0.408120 -1.007767 16.000000
1.948460 0.387160 -1.013191 25.000000
1.930721 0.360143 -1.002236 18.000000
1.190959 0.193400 -0.616631 46.000000
1.157768 0.174087 -0.598709 95.000000
1.155205 0.159832 -0.596632 95.000000
1.161260 0.146838 -0.599270 95.000000
1.158363 0.132687 -0.597232 94.000000
1.155296 0.118640 -0.595151 95.000000
1.165393 0.105865 -0.599872 95.000000
1.157646 0.091479 -0.595390 70.000000
1.167400 0.078495 -0.600153 95.000000
1.168202 0.064771 -0.600274 95.000000
1.164400 0.050852 -0.598071 98.000000
1.169366 0.037321 -0.600354 95.000000
1.169647 0.023597 -0.600474 95.000000
1.174255 0.009910 -0.602838 98.000000
1.152055 -0.003794 -0.591381 96.000000
1.138633 -0.017109 -0.584453 100.000000
1.133990 -0.030350 -0.582053 98.000000
1.138008 -0.043828 -0.584297 98.000000
1.137461 -0.057187 -0.584219 98.000000
1.136797 -0.070547 -0.584063 84.000000
1.149289 -0.084850 -0.590709 95.000000
1.139394 -0.097606 -0.586030 98.000000
1.147115 -0.111842 -0.590433 100.000000
1.145851 -0.125319 -0.590196 98.000000
1.144467 -0.138756 -0.589919 95.000000
1.138513 -0.151566 -0.587287 98.000000
1.136781 -0.164951 -0.587051 103.000000
1.134891 -0.178296 -0.586775 71.000000
1.159270 -0.196058 -0.600059 98.000000
1.157095 -0.209634 -0.599656 95.000000
1.150304 -0.222444 -0.597103 98.000000
1.152261 -0.236785 -0.598810 98.000000
1.149602 -0.250320 -0.598407 98.000000
1.146822 -0.263815 -0.597964 98.000000
1.152588 -0.279370 -0.601966 98.000000
1.140780 -0.290764 -0.597078 83.000000
1.111783 -0.297226 -0.582878 76.000000
1.112733 -0.311499 -0.584663 91.000000
1.113538 -0.325873 -0.586365 95.000000
1.097121 -0.335054 -0.579011 81.000000
1.097689 -0.349309 -0.580634 95.000000
1.102350 -0.364990 -0.584460 91.000000
1.110896 -0.382364 -0.590642 98.000000
1.694723 -0.650606 -0.908507 27.000000
1.808075 -0.718517 -0.972205 20.000000
1.258899 -0.551922 -0.683180 100.000000
1.232543 -0.557448 -0.670993 51.000000
1.230336 -0.573997 -0.672337 49.000000
1.232221 -0.592259 -0.675611 45.000000
1.229678 -0.608909 -0.676846 72.000000
1.222907 -0.623477 -0.675818 76.000000
1.223945 -0.642121 -0.679108 77.000000
1.228748 -0.662991 -0.684583 95.000000
1.757802 -1.056365 -0.996317 9.000000
1.780362 -1.098713 -1.014278 17.000000
1.760906 -1.114828 -1.007797 11.000000
1.760228 -1.142886 -1.012122 13.000000
1.770000 -1.178920 -1.023209 16.000000
1.771708 -1.210264 -1.029919 13.000000
1.784718 -1.249067 -1.042560 21.000000
1.756197 -1.259845 -1.031806 12.000000
1.731325 -1.272800 -1.023165 8.000000
1.728130 -1.301653 -1.027274 14.000000
1.728116 -1.333306 -1.033494 10.000000
1.727715 -1.365080 -1.039675 15.000000
1.716295 -1.388510 -1.039279 14.000000
1.715048 -1.420461 -1.045245 10.000000
1.703038 -1.443734 -1.044661 15.000000
1.690813 -1.466939 -1.044066 10.000000
1.678374 -1.490000 -1.043385 9.000000
1.685793 -1.531216 -1.055306 15.000000
1.665999 -1.548119 -1.050222 10.000000
1.658364 -1.577769 -1.053896 11.000000
1.638265 -1.594210 -1.048812 10.000000
1.633190 -1.627001 -1.054367 10.000000
1.650919 -1.681982 -1.074003 17.000000
1.626751 -1.694857 -1.066549 10.000000
1.635818 -1.744606 -1.082108 9.000000
1.608231 -1.753753 -1.072499 14.000000
1.594723 -1.780141 -1.073490 10.000000
1.598938 -1.827045 -1.086713 14.000000
1.582832 -1.849267 -1.085015 11.000000
1.571048 -1.879059 -1.087768 11.000000
1.558951 -1.908821 -1.090485 16.000000
1.556180 -1.948531 -1.098715 10.000000
1.568517 -2.010813 -1.119252 9.000000
1.515797 -1.989847 -1.093566 10.000000
1.526718 -2.052482 -1.113854 10.000000
1.516309 -2.085204 -1.117551 10.000000
1.496070 -2.107470 -1.115674 9.000000
1.483426 -2.140785 -1.119707 10.000000
1.465130 -2.166569 -1.119663 10.000000
1.471826 -2.230524 -1.139110 10.000000
1.467467 -2.279481 -1.150570 9.000000
1.442572 -2.297456 -1.146256 9.000000
1.427214 -2.330884 -1.149607 9.000000
1.411152 -2.364279 -1.152989 9.000000
1.396975 -2.401625 -1.158144 9.000000
1.391196 -2.454964 -1.170797 9.000000
0.641703 1.137664 -0.531031 19.000000
0.700393 1.209779 -0.570904 30.000000
0.967030 1.586997 -0.765773 31.000000
0.998833 1.598544 -0.780066 32.000000
1.001136 1.562890 -0.771477 20.000000
1.015472 1.546643 -0.772373 32.000000
1.034811 1.537925 -0.777059 29.000000
1.051496 1.525166 -0.779820 30.000000
1.035164 1.467677 -0.759457 40.000000
0.986484 1.365352 -0.715179 73.000000
0.741241 0.978231 -0.525232 35.000000
0.726570 0.936439 -0.509181 26.000000
0.753900 0.949112 -0.522675 30.000000
0.752118 0.925964 -0.516580 29.000000
0.762274 0.916721 -0.518167 64.000000
0.772311 0.907397 -0.519754 35.000000
0.772733 0.887908 -0.515482 44.000000
0.773325 0.868203 -0.510938 49.000000
0.779816 0.855327 -0.510393 39.000000
0.782498 0.839411 -0.507967 47.000000
0.775995 0.813306 -0.499200 98.000000
1.365701 1.337186 -0.857679 75.000000
1.390418 1.329954 -0.865945 44.000000
1.417833 1.325920 -0.876623 49.000000
1.442023 1.318238 -0.885284 35.000000
1.473730 1.315721 -0.897655 22.000000
1.487703 1.298238 -0.900039 39.000000
1.508530 1.286392 -0.906515 33.000000
1.525792 1.271338 -0.910861 36.000000
1.567644 1.276075 -0.929845 49.000000
1.588536 1.262985 -0.936206 34.000000
1.623683 1.260722 -0.950985 37.000000
1.644529 1.246779 -0.957336 33.000000
1.658067 1.227131 -0.959418 23.000000
