x y z intensity
2.394319 -1.987207 -0.490938 9.000000
2.391133 -2.029624 -0.493575 18.000000
2.383574 -2.069125 -0.495416 16.000000
2.383713 -2.114241 -0.498493 18.000000
2.305398 -2.090836 -0.485651 21.000000
2.213495 -2.052485 -0.469699 17.000000
2.140641 -2.029323 -0.457661 25.000000
2.048149 -1.983438 -0.440920 16.000000
1.980575 -1.960867 -0.429781 10.000000
1.934660 -1.958118 -0.423172 30.000000
1.865071 -1.929698 -0.411293 33.000000
1.841209 -1.945910 -0.409130 63.000000
1.806359 -1.951744 -0.404879 52.000000
1.784933 -1.971610 -0.403648 36.000000
1.776370 -2.006118 -0.405326 54.000000
1.760762 -2.033110 -0.405493 31.000000
1.749021 -2.063019 -0.406227 22.000000
1.735870 -2.093719 -0.407112 35.000000
1.709761 -2.108929 -0.405032 29.000000
1.702001 -2.147156 -0.407283 33.000000
1.690620 -2.181475 -0.408862 28.000000
1.678642 -2.215894 -0.410335 32.000000
1.664326 -2.245396 -0.410887 33.000000
1.642657 -2.267679 -0.410060 25.000000
1.609295 -2.273614 -0.406426 18.000000
1.606896 -2.323870 -0.410633 29.000000
1.584137 -2.345657 -0.409868 27.000000
1.553027 -2.354851 -0.406870 26.000000
1.556668 -2.417671 -0.413126 26.000000
1.542213 -2.450651 -0.414185 27.000000
1.520614 -2.476048 -0.413899 30.000000
1.513829 -2.526771 -0.417905 22.000000
1.511115 -2.586131 -0.423175 9.000000
0.783780 1.355787 -0.209410 7.000000
0.802715 1.356071 -0.211657 14.000000
0.822607 1.355518 -0.213818 23.000000
0.845253 1.358960 -0.216611 25.000000
0.854664 1.341190 -0.216103 27.000000
0.871969 1.335787 -0.217611 25.000000
0.889265 1.330177 -0.219076 25.000000
0.906504 1.324358 -0.220545 28.000000
0.918048 1.310167 -0.220653 26.000000
0.917132 1.280326 -0.218111 19.000000
0.936914 1.278125 -0.220215 24.000000
0.953801 1.271637 -0.221687 30.000000
0.976657 1.272794 -0.224500 35.000000
0.993557 1.265812 -0.225937 29.000000
1.004194 1.250892 -0.225983 31.000000
1.027214 1.251198 -0.228824 31.000000
1.037056 1.236478 -0.228970 25.000000
1.044091 1.217422 -0.228257 22.000000
1.063867 1.213248 -0.230363 32.000000
1.086961 1.212465 -0.233236 36.000000
1.093476 1.193069 -0.232467 34.000000
1.119984 1.195339 -0.236017 32.000000
1.139352 1.190469 -0.238256 35.000000
1.152309 1.177766 -0.238917 31.000000
1.165165 1.164961 -0.239577 32.000000
1.174330 1.148545 -0.239517 18.000000
1.197568 1.145684 -0.242345 43.000000
1.216853 1.139566 -0.244512 58.000000
1.236541 1.132673 -0.246636 60.000000
1.252588 1.122214 -0.247986 36.000000
1.279712 1.121296 -0.251533 50.000000
1.295329 1.110711 -0.253001 37.000000
1.318806 1.105820 -0.255786 36.000000
1.330860 1.091111 -0.256423 25.000000
1.338896 1.073203 -0.256268 32.000000
1.361954 1.067848 -0.259178 42.000000
1.389294 1.064712 -0.262680 34.000000
1.408823 1.055191 -0.264762 41.000000
1.439957 1.054532 -0.269142 55.000000
1.451469 1.038503 -0.269692 37.000000
1.474918 1.030859 -0.272489 33.000000
1.482054 1.011632 -0.272294 28.000000
1.501080 1.000999 -0.274407 35.000000
1.516083 0.987043 -0.275717 54.000000
1.530753 0.973164 -0.277087 45.000000
1.566536 0.971828 -0.282129 39.000000
1.610948 0.974882 -0.288645 47.000000
1.642632 0.969889 -0.293081 37.000000
1.661741 0.956620 -0.295073 36.000000
1.676233 0.940922 -0.296427 29.000000
1.695113 0.927026 -0.298429 35.000000
1.709377 0.910854 -0.299730 57.000000
1.732404 0.898719 -0.302506 56.000000
1.750808 0.884309 -0.304583 42.000000
1.778116 0.873639 -0.308080 48.000000
1.827595 0.873352 -0.315495 63.000000
1.850484 0.859387 -0.318245 35.000000
1.868690 0.843222 -0.320293 31.000000
1.909354 0.836646 -0.326210 33.000000
1.941099 0.825188 -0.330466 36.000000
1.972727 0.813362 -0.334797 38.000000
1.995188 0.797305 -0.337653 35.000000
2.022109 0.782531 -0.341160 31.000000
2.049118 0.767152 -0.344674 42.000000
2.099094 0.759839 -0.352090 32.000000
2.107163 0.736804 -0.352504 36.000000
2.171177 0.732646 -0.362288 52.000000
2.188428 0.711913 -0.364276 36.000000
2.229024 0.698284 -0.370109 46.000000
2.269482 0.683936 -0.376025 48.000000
2.319497 0.671390 -0.383449 36.000000
2.364724 0.656514 -0.390101 53.000000
2.390789 0.635729 -0.393623 33.000000
2.454942 0.624107 -0.403364 40.000000
2.495184 0.605408 -0.409265 67.000000
2.530396 0.584783 -0.414308 70.000000
2.570414 0.564426 -0.420147 32.000000
2.644022 0.550372 -0.431517 62.000000
2.678931 0.527129 -0.436503 98.000000
2.699064 0.500464 -0.439126 95.000000
2.684868 0.467552 -0.436304 37.000000
2.645899 0.431013 -0.429439 9.000000
2.635813 0.399792 -0.427313 9.000000
2.625348 0.368811 -0.425103 9.000000
2.648701 0.342665 -0.428435 28.000000
2.657236 0.314187 -0.429475 73.000000
2.670278 0.286128 -0.431143 78.000000
2.668352 0.256437 -0.430516 88.000000
2.661083 0.226352 -0.429095 32.000000
2.668318 0.197577 -0.429888 85.000000
2.670303 0.168383 -0.430054 95.000000
2.662180 0.138593 -0.428467 79.000000
2.653633 0.109019 -0.426962 89.000000
2.654618 0.079958 -0.427044 81.000000
2.655357 0.050897 -0.426962 95.000000
2.655768 0.021837 -0.427044 40.000000
2.581802 -0.007023 -0.415138 9.000000
2.576626 -0.035285 -0.414264 8.000000
2.561343 -0.063117 -0.411804 9.000000
2.575272 -0.091678 -0.414105 9.000000
2.584020 -0.120334 -0.415612 9.000000
2.587429 -0.148922 -0.416325 9.000000
2.575896 -0.176525 -0.414579 9.000000
2.603349 -0.207044 -0.419174 10.000000
2.581261 -0.233757 -0.415924 23.000000
2.608006 -0.265030 -0.420434 32.000000
2.609914 -0.294103 -0.421064 41.000000
2.582088 -0.319645 -0.416865 9.000000
2.558898 -0.345150 -0.413462 9.000000
2.569643 -0.375302 -0.415593 8.000000
2.584979 -0.406461 -0.418510 8.000000
2.590107 -0.436406 -0.419846 8.000000
2.570658 -0.462036 -0.417075 8.000000
2.570341 -0.491133 -0.417621 8.000000
2.560084 -0.518216 -0.416510 8.000000
2.573586 -0.550356 -0.419334 8.000000
2.567486 -0.578414 -0.418927 9.000000
2.565866 -0.607611 -0.419306 9.000000
2.611902 -0.648651 -0.427528 34.000000
2.585550 -0.672288 -0.424060 37.000000
2.587651 -0.703027 -0.425130 48.000000
2.594116 -0.735404 -0.427062 56.000000
2.586035 -0.763813 -0.426562 65.000000
2.568179 -0.788989 -0.424419 30.000000
2.578283 -0.823054 -0.427038 21.000000
2.564563 -0.849680 -0.425758 15.000000
2.569229 -0.882454 -0.427589 11.000000
2.550187 -0.907173 -0.425449 13.000000
2.554142 -0.940137 -0.427190 17.000000
2.552950 -0.971733 -0.428234 19.000000
2.533039 -0.995963 -0.426097 16.000000
2.549659 -1.034686 -0.430057 21.000000
2.551941 -1.068201 -0.431775 21.000000
2.544685 -1.098271 -0.431947 18.000000
2.528100 -1.123914 -0.430493 13.000000
2.529359 -1.157596 -0.432026 17.000000
2.520943 -1.187536 -0.432191 18.000000
2.530268 -1.225673 -0.435241 21.000000
2.512301 -1.251340 -0.433783 18.000000
2.525001 -1.292148 -0.437489 19.000000
2.515099 -1.322212 -0.437550 19.000000
2.526804 -1.363580 -0.441229 17.000000
2.529025 -1.401086 -0.443552 16.000000
2.505167 -1.423607 -0.441146 13.000000
2.489421 -1.451184 -0.440346 12.000000
2.507710 -1.498422 -0.445396 18.000000
2.495332 -1.528599 -0.445337 14.000000
2.499282 -1.569293 -0.448187 15.000000
2.511444 -1.615066 -0.452429 16.000000
2.501821 -1.648154 -0.453002 13.000000
2.500464 -1.686212 -0.454875 10.000000
2.469550 -1.705428 -0.451712 12.000000
2.474972 -1.749785 -0.455148 19.000000
2.471634 -1.788694 -0.457082 19.000000
2.464258 -1.824069 -0.458170 19.000000
2.471702 -1.872217 -0.462290 18.000000
2.466673 -1.911602 -0.464084 19.000000
2.450041 -1.941151 -0.463566 18.000000
2.444004 -1.980610 -0.465335 13.000000
2.437304 -2.020215 -0.467090 13.000000
2.430133 -2.059963 -0.468830 19.000000
2.434296 -2.108578 -0.472535 22.000000
2.429470 -2.151799 -0.474863 21.000000
2.325066 -2.105562 -0.457777 25.000000
2.225605 -2.060606 -0.441398 25.000000
2.146197 -2.029869 -0.428511 21.000000
2.056197 -1.988198 -0.413726 16.000000
1.981530 -1.958679 -0.401787 20.000000
1.942561 -1.962826 -0.397027 31.000000
1.896921 -1.959389 -0.390869 36.000000
1.835294 -1.936373 -0.381123 51.000000
1.807344 -1.949263 -0.378479 72.000000
1.779224 -1.961759 -0.375927 60.000000
1.761040 -1.985055 -0.375403 48.000000
1.748937 -2.015657 -0.376270 36.000000
1.742832 -2.053696 -0.378516 29.000000
1.743482 -2.098703 -0.381957 36.000000
1.711079 -2.106258 -0.378623 35.000000
1.694160 -2.132828 -0.378662 36.000000
1.686019 -2.170933 -0.380834 36.000000
1.662222 -2.189479 -0.379479 35.000000
1.650063 -2.223598 -0.380849 34.000000
1.634393 -2.253711 -0.381436 30.000000
1.596734 -2.250574 -0.376512 21.000000
1.583377 -2.284370 -0.377846 31.000000
1.580604 -2.334570 -0.381759 33.000000
1.560544 -2.360115 -0.381619 32.000000
1.553481 -2.406422 -0.384798 32.000000
1.535125 -2.436023 -0.385288 31.000000
1.516229 -2.465532 -0.385763 32.000000
1.504439 -2.507698 -0.388196 30.000000
1.511272 -2.578870 -0.395001 10.000000
0.790487 1.365436 -0.196663 7.000000
0.805335 1.356653 -0.197391 12.000000
0.814929 1.339200 -0.196921 21.000000
0.839990 1.346924 -0.200195 21.000000
0.857309 1.341778 -0.201556 25.000000
0.873787 1.336917 -0.203019 28.000000
0.888330 1.327189 -0.203756 24.000000
0.902726 1.317264 -0.204493 28.000000
0.919921 1.311300 -0.205867 21.000000
0.916812 1.276929 -0.202769 17.000000
0.930646 1.266723 -0.203446 26.000000
0.959279 1.276237 -0.207392 29.000000
0.973134 1.265576 -0.208080 29.000000
0.983827 1.250870 -0.208119 22.000000
1.009228 1.255894 -0.211506 25.000000
1.019718 1.240856 -0.211547 30.000000
1.042781 1.240919 -0.214205 29.000000
1.040103 1.210546 -0.211568 21.000000
1.053271 1.199000 -0.212207 32.000000
1.076225 1.198368 -0.214878 29.000000
1.089268 1.186417 -0.215523 32.000000
1.118614 1.192836 -0.219543 33.000000
1.138464 1.187603 -0.221533 33.000000
1.154850 1.178477 -0.222810 33.000000
1.167705 1.165622 -0.223470 31.000000
1.176813 1.149203 -0.223407 24.000000
1.200072 1.146400 -0.226039 46.000000
1.215754 1.136902 -0.227380 53.000000
1.231817 1.126710 -0.228674 65.000000
1.251490 1.119637 -0.230600 35.000000
1.271101 1.112246 -0.232533 48.000000
1.283225 1.098145 -0.233105 39.000000
1.325205 1.109743 -0.239267 39.000000
1.333462 1.091854 -0.239112 24.000000
1.341491 1.073944 -0.239007 35.000000
1.364891 1.068222 -0.241608 45.000000
1.388009 1.062458 -0.244325 50.000000
1.415449 1.058918 -0.247638 36.000000
1.438989 1.051941 -0.250269 40.000000
1.458473 1.041766 -0.252156 59.000000
1.473580 1.028803 -0.253462 34.000000
1.472497 1.004040 -0.251862 24.000000
1.504032 1.001444 -0.255861 40.000000
1.522969 0.990524 -0.257879 42.000000
1.537956 0.976265 -0.259031 51.000000
1.561137 0.967070 -0.261652 42.000000
1.613797 0.975696 -0.269228 60.000000
1.632963 0.962877 -0.271109 37.000000
1.651947 0.949693 -0.272994 35.000000
1.657793 0.929297 -0.272871 30.000000
1.689588 0.922818 -0.276840 74.000000
1.708119 0.909068 -0.278800 48.000000
1.735538 0.899322 -0.282074 45.000000
1.754140 0.884551 -0.283926 57.000000
1.763590 0.865469 -0.284411 44.000000
1.822042 0.869403 -0.292727 55.000000
1.840295 0.853708 -0.294662 37.000000
1.894665 0.853702 -0.302234 27.000000
1.894700 0.829099 -0.301241 48.000000
1.926271 0.818104 -0.305296 36.000000
1.962562 0.808106 -0.310020 42.000000
1.984988 0.792202 -0.312649 35.000000
2.011883 0.777650 -0.315943 34.000000
2.048067 0.765892 -0.320628 40.000000
2.074836 0.750229 -0.323938 35.000000
2.124898 0.742180 -0.330891 30.000000
2.160938 0.728472 -0.335677 56.000000
2.196901 0.714011 -0.340402 37.000000
2.237570 0.700267 -0.345866 40.000000
2.254492 0.678599 -0.347689 37.000000
2.295017 0.663521 -0.353170 37.000000
2.349754 0.651606 -0.360783 55.000000
2.390060 0.634918 -0.366287 36.000000
2.454375 0.623281 -0.375391 34.000000
2.475436 0.599901 -0.377905 51.000000
2.525172 0.582880 -0.384828 72.000000
2.569975 0.563773 -0.391028 19.000000
2.600111 0.540638 -0.395031 13.000000
2.664077 0.523651 -0.404110 47.000000
2.708508 0.501705 -0.410254 93.000000
2.733265 0.475432 -0.413371 85.000000
2.718707 0.442380 -0.410679 28.000000
2.669598 0.404485 -0.402735 9.000000
2.678744 0.375929 -0.403723 9.000000
2.648337 0.342197 -0.398721 9.000000
2.700989 0.319077 -0.406273 27.000000
2.699429 0.289009 -0.405702 70.000000
2.702361 0.259438 -0.405786 75.000000
2.700114 0.229448 -0.405214 44.000000
2.727113 0.201755 -0.408995 51.000000
2.704462 0.170330 -0.405381 94.000000
2.711073 0.140986 -0.406204 95.000000
2.697591 0.110723 -0.403985 58.000000
2.703617 0.081379 -0.404808 95.000000
2.689536 0.051548 -0.402588 79.000000
2.689951 0.022080 -0.402588 85.000000
2.690034 -0.007305 -0.402588 23.000000
2.610674 -0.035691 -0.390666 9.000000
2.615053 -0.064333 -0.391326 9.000000
2.634013 -0.093610 -0.394203 13.000000
2.647612 -0.123090 -0.396340 20.000000
2.680698 -0.154028 -0.401434 34.000000
2.678875 -0.183359 -0.401268 32.000000
2.622496 -0.208300 -0.393058 25.000000
2.689010 -0.243191 -0.403235 52.000000
2.656741 -0.269605 -0.398639 53.000000
2.643782 -0.297585 -0.396998 36.000000
2.655140 -0.328302 -0.398964 26.000000
2.617118 -0.352572 -0.393558 9.000000
2.608313 -0.380459 -0.392577 8.000000
2.608888 -0.409773 -0.393150 8.000000
2.614079 -0.439851 -0.394296 7.000000
2.613958 -0.469351 -0.394785 8.000000
2.603856 -0.496938 -0.393723 8.000000
2.622615 -0.530302 -0.397148 8.000000
2.616671 -0.558864 -0.396736 9.000000
2.605655 -0.586340 -0.395673 8.000000
2.603959 -0.615823 -0.395993 9.000000
2.635595 -0.653831 -0.401513 27.000000
2.604370 -0.676431 -0.397524 29.000000
2.625542 -0.712509 -0.401405 68.000000
2.622412 -0.742559 -0.401715 56.000000
2.647469 -0.780941 -0.406393 49.000000
2.619868 -0.804000 -0.403057 46.000000
2.625131 -0.837166 -0.404729 24.000000
2.606559 -0.862614 -0.402768 16.000000
2.615792 -0.897406 -0.405159 16.000000
2.568604 -0.912644 -0.398856 10.000000
2.605034 -0.957713 -0.405496 21.000000
2.585170 -0.982788 -0.403538 18.000000
2.583634 -1.014553 -0.404383 18.000000
2.581676 -1.046347 -0.405223 22.000000
2.579209 -1.078514 -0.406145 21.000000
2.599206 -1.120242 -0.410479 21.000000
2.591510 -1.150442 -0.410497 16.000000
2.551829 -1.166600 -0.405593 10.000000
2.570458 -1.209029 -0.409900 21.000000
2.579331 -1.248009 -0.412852 21.000000
2.570157 -1.278131 -0.412769 20.000000
2.591341 -1.324382 -0.417834 24.000000
2.567863 -1.348311 -0.415697 17.000000
2.575074 -1.387862 -0.418433 16.000000
2.559653 -1.416178 -0.417711 18.000000
2.540018 -1.441330 -0.416104 10.000000
2.558308 -1.489251 -0.421016 17.000000
2.541883 -1.517356 -0.420195 19.000000
2.563467 -1.568071 -0.425593 16.000000
2.562926 -1.606840 -0.427558 18.000000
2.545118 -1.634995 -0.426719 16.000000
2.539908 -1.670568 -0.427784 13.000000
2.533771 -1.706880 -0.428932 15.000000
2.494468 -1.720690 -0.424616 10.000000
2.524526 -1.781755 -0.431799 16.000000
2.528902 -1.826958 -0.434990 19.000000
2.500750 -1.848947 -0.432651 13.000000
2.507986 -1.897365 -0.436407 19.000000
2.495474 -1.930362 -0.436616 16.000000
2.478071 -1.960845 -0.436230 14.000000
2.491112 -2.016149 -0.441298 13.000000
2.480247 -2.053070 -0.442253 10.000000
2.499931 -2.114744 -0.448426 23.000000
2.480379 -2.145520 -0.447892 21.000000
2.456742 -2.172794 -0.446781 24.000000
2.344603 -2.120111 -0.429416 24.000000
2.241196 -2.071913 -0.413480 22.000000
2.165071 -2.044662 -0.402128 21.000000
2.078432 -2.006464 -0.388928 19.000000
1.975244 -1.949268 -0.372559 18.000000
1.953796 -1.970972 -0.371448 29.000000
1.901041 -1.960398 -0.364385 34.000000
1.838584 -1.938183 -0.355380 52.000000
1.804694 -1.942983 -0.351437 75.000000
1.773387 -1.951814 -0.348411 51.000000
1.755250 -1.974921 -0.347927 61.000000
1.736787 -1.997937 -0.347439 44.000000
1.734219 -2.039584 -0.350189 25.000000
1.727657 -2.077679 -0.352267 35.000000
1.701826 -2.092710 -0.350459 34.000000
1.686172 -2.118316 -0.350414 33.000000
1.675110 -2.152382 -0.351723 37.000000
1.651611 -2.170761 -0.350464 32.000000
1.630821 -2.192784 -0.349840 31.000000
1.630189 -2.242704 -0.353640 33.000000
1.591262 -2.240312 -0.349209 20.000000
1.589372 -2.290328 -0.352879 36.000000
1.567115 -2.311843 -0.352219 28.000000
1.544597 -2.333075 -0.351467 29.000000
1.531284 -2.365742 -0.352400 33.000000
1.523922 -2.411831 -0.355427 28.000000
1.510623 -2.449618 -0.357013 32.000000
1.491482 -2.478924 -0.357436 26.000000
1.497003 -2.550843 -0.363951 9.000000
0.794677 1.370703 -0.183069 6.000000
0.794344 1.336277 -0.180342 10.000000
0.824369 1.352888 -0.184480 13.000000
0.839069 1.343737 -0.185210 16.000000
0.856348 1.338574 -0.186475 13.000000
0.868177 1.324899 -0.186573 17.000000
0.885303 1.319434 -0.187842 13.000000
0.910855 1.325989 -0.190882 19.000000
0.913818 1.299609 -0.189209 21.000000
0.916331 1.273383 -0.187519 9.000000
0.938270 1.275737 -0.190029 23.000000
0.949109 1.261354 -0.190064 18.000000
0.962841 1.250825 -0.190695 15.000000
0.991731 1.259649 -0.194334 24.000000
1.002319 1.244792 -0.194371 16.000000
1.022141 1.241400 -0.196221 25.000000
1.035588 1.230079 -0.196864 19.000000
1.055461 1.226131 -0.198676 10.000000
1.058365 1.203709 -0.197538 30.000000
1.068158 1.188289 -0.197565 22.000000
1.091103 1.187408 -0.200001 23.000000
1.107443 1.178925 -0.201213 29.000000
1.130536 1.177424 -0.203617 19.000000
1.153813 1.175496 -0.206082 28.000000
1.166580 1.162679 -0.206639 26.000000
1.200556 1.170539 -0.210992 12.000000
1.184125 1.130296 -0.206602 33.000000
1.207288 1.127310 -0.209040 25.000000
1.234234 1.127327 -0.212116 28.000000
1.250171 1.116902 -0.213261 35.000000
1.266077 1.106343 -0.214461 24.000000
1.281485 1.095963 -0.215717 33.000000
1.301078 1.088111 -0.217507 26.000000
1.320602 1.079934 -0.219304 16.000000
1.332360 1.065289 -0.219777 32.000000
1.359587 1.062755 -0.222863 27.000000
1.382930 1.056706 -0.225266 28.000000
1.398096 1.044731 -0.226499 32.000000
1.425499 1.040959 -0.229562 26.000000
1.452942 1.036670 -0.232635 33.000000
1.472337 1.026245 -0.234370 28.000000
1.499608 1.021500 -0.237574 21.000000
1.502466 0.999423 -0.236720 39.000000
1.517510 0.985460 -0.237816 30.000000
1.561698 0.989928 -0.243484 31.000000
1.551152 0.959924 -0.240725 33.000000
1.599730 0.965855 -0.247073 31.000000
1.631555 0.960771 -0.250816 32.000000
1.646112 0.945520 -0.251940 30.000000
1.673638 0.937029 -0.255043 21.000000
1.688146 0.920920 -0.256117 35.000000
1.697914 0.902566 -0.256591 35.000000
1.725288 0.892970 -0.259595 29.000000
1.743710 0.878648 -0.261400 33.000000
1.771008 0.868135 -0.264479 33.000000
1.807200 0.861434 -0.268836 29.000000
1.843361 0.854271 -0.273267 34.000000
1.852557 0.833939 -0.273642 17.000000
1.902302 0.831594 -0.280096 32.000000
1.925001 0.816492 -0.282424 32.000000
1.952023 0.803040 -0.285556 29.000000
1.979079 0.788863 -0.288565 33.000000
2.010587 0.776264 -0.292319 30.000000
2.032808 0.759496 -0.294736 25.000000
2.092218 0.755687 -0.302480 32.000000
2.086201 0.727908 -0.300800 10.000000
2.154994 0.725732 -0.309917 32.000000
2.186328 0.709849 -0.313718 34.000000
2.222273 0.694788 -0.318062 33.000000
2.248636 0.676254 -0.321130 32.000000
2.308220 0.666638 -0.328805 31.000000
2.339119 0.648164 -0.332643 29.000000
2.384376 0.632683 -0.338378 33.000000
2.405467 0.610273 -0.340646 11.000000
2.488993 0.602625 -0.351840 43.000000
2.505037 0.577714 -0.353518 33.000000
2.520811 0.552354 -0.355119 9.000000
2.604289 0.540966 -0.366270 9.000000
2.653685 0.521123 -0.372659 22.000000
2.717628 0.502946 -0.381105 54.000000
2.752271 0.478319 -0.385461 75.000000
2.752374 0.447404 -0.384949 25.000000
2.742407 0.415112 -0.383069 26.000000
2.727145 0.382369 -0.380587 9.000000
2.691836 0.347517 -0.375278 8.000000
2.715106 0.320405 -0.378186 9.000000
2.733165 0.292337 -0.380326 22.000000
2.731284 0.261970 -0.379810 33.000000
2.748794 0.233387 -0.381952 76.000000
2.716599 0.200745 -0.377235 16.000000
2.758156 0.173609 -0.382808 50.000000
2.764805 0.143640 -0.383494 58.000000
2.746376 0.112633 -0.380834 35.000000
2.752427 0.082803 -0.381520 52.000000
2.753191 0.052685 -0.381520 36.000000
2.728768 0.022448 -0.378089 27.000000
2.704090 -0.007332 -0.374659 14.000000
2.679162 -0.036570 -0.371145 17.000000
2.698389 -0.066279 -0.373889 29.000000
2.717272 -0.096504 -0.376550 35.000000
2.696310 -0.125240 -0.373723 29.000000
2.709647 -0.155530 -0.375696 33.000000
2.717690 -0.185806 -0.376900 30.000000
2.646385 -0.210029 -0.367224 10.000000
2.688326 -0.242912 -0.373224 40.000000
2.690510 -0.272767 -0.373742 29.000000
2.692266 -0.302730 -0.374260 32.000000
2.703590 -0.333847 -0.376060 35.000000
2.636000 -0.354799 -0.367008 8.000000
2.631985 -0.383560 -0.366762 8.000000
2.661978 -0.417695 -0.371377 7.000000
2.657246 -0.446748 -0.371128 5.000000
2.671767 -0.479216 -0.373606 8.000000
2.666416 -0.508315 -0.373271 8.000000
2.646164 -0.534472 -0.370895 8.000000
2.659637 -0.567379 -0.373282 8.000000
2.638772 -0.593188 -0.370993 7.000000
2.656379 -0.627627 -0.373970 8.000000
2.634976 -0.652974 -0.371599 9.000000
2.651676 -0.687959 -0.374652 10.000000
2.672770 -0.724680 -0.378376 37.000000
2.655303 -0.750984 -0.376512 27.000000
2.665897 -0.785653 -0.378874 32.000000
2.676198 -0.820481 -0.381144 35.000000
2.629380 -0.837591 -0.375237 14.000000
2.667243 -0.881785 -0.381541 16.000000
2.652866 -0.909162 -0.380350 10.000000
2.591485 -0.919778 -0.372450 8.000000
2.632484 -0.966940 -0.379400 16.000000
2.612596 -0.992009 -0.377457 10.000000
2.624818 -1.029368 -0.380283 13.000000
2.627223 -1.063772 -0.381764 14.000000
2.611042 -1.090316 -0.380487 10.000000
2.621689 -1.128691 -0.383291 14.000000
2.604855 -1.155159 -0.381924 10.000000
2.569592 -1.173381 -0.378081 8.000000
2.633063 -1.237039 -0.388640 17.000000
2.605972 -1.259410 -0.386119 10.000000
2.618701 -1.301248 -0.389456 16.000000
2.608981 -1.331770 -0.389305 13.000000
2.589893 -1.358145 -0.388016 10.000000
2.596951 -1.397800 -0.390487 11.000000
2.594533 -1.433499 -0.391817 10.000000
2.552783 -1.447300 -0.387163 8.000000
2.597156 -1.509729 -0.395487 13.000000
2.576253 -1.535671 -0.394096 9.000000
2.597339 -1.587278 -0.399209 14.000000
2.575992 -1.612567 -0.397623 10.000000
2.570740 -1.648845 -0.398723 9.000000
2.593941 -1.704364 -0.404336 11.000000
2.558670 -1.721756 -0.400993 9.000000
2.548330 -1.754905 -0.401235 8.000000
2.545117 -1.794231 -0.402945 10.000000
2.541462 -1.833818 -0.404547 9.000000
2.541157 -1.876514 -0.406873 11.000000
2.560614 -1.933615 -0.412174 10.000000
2.539289 -1.961752 -0.411187 9.000000
2.533234 -2.001893 -0.412736 11.000000
2.518797 -2.036041 -0.412908 9.000000
2.534607 -2.095244 -0.418219 9.000000
2.526592 -2.135976 -0.419623 17.000000
2.522666 -2.179058 -0.421538 12.000000
2.480081 -2.190324 -0.417282 20.000000
2.363907 -2.134384 -0.400564 12.000000
2.260196 -2.086313 -0.385797 10.000000
2.183081 -2.060117 -0.375356 15.000000
2.086274 -2.010886 -0.361168 10.000000
1.968742 -1.939675 -0.343450 9.000000
1.957898 -1.971826 -0.344275 21.000000
1.884331 -1.939966 -0.334055 17.000000
1.842532 -1.939005 -0.329391 29.000000
1.804336 -1.940981 -0.325357 42.000000
1.776391 -1.953356 -0.323083 32.000000
1.751662 -1.969130 -0.321423 41.000000
1.727740 -1.983780 -0.319685 30.000000
1.728518 -2.029073 -0.322842 12.000000
1.712667 -2.055628 -0.322976 32.000000
1.683943 -2.066601 -0.320630 22.000000
1.682983 -2.112134 -0.323730 30.000000
1.656773 -2.126645 -0.321975 27.000000
1.639590 -2.152607 -0.321997 25.000000
1.624952 -2.182434 -0.322599 29.000000
1.625682 -2.231432 -0.326036 22.000000
1.598453 -2.245118 -0.324264 10.000000
1.579566 -2.270717 -0.324157 29.000000
1.571496 -2.312616 -0.326447 24.000000
1.546240 -2.329711 -0.325158 27.000000
1.531616 -2.363221 -0.326170 22.000000
1.521769 -2.405191 -0.328398 25.000000
1.500671 -2.430256 -0.328228 24.000000
1.481778 -2.459428 -0.328618 18.000000
1.492725 -2.539813 -0.335698 9.000000
0.797208 1.371092 -0.168758 7.000000
0.799374 1.340882 -0.166784 16.000000
0.810487 1.328301 -0.166969 24.000000
0.830182 1.327753 -0.168661 19.000000
0.839239 1.310153 -0.168211 26.000000
0.864378 1.317464 -0.170989 21.000000
0.886963 1.320312 -0.173242 27.000000
0.875921 1.273640 -0.168987 29.000000
0.915478 1.300488 -0.174512 24.000000
0.917970 1.274251 -0.172909 20.000000
0.931808 1.264125 -0.173536 20.000000
0.948494 1.257774 -0.174665 24.000000
0.968156 1.255147 -0.176351 28.000000
0.984863 1.248389 -0.177490 25.000000
0.994685 1.234120 -0.177617 34.000000
1.014391 1.230787 -0.179269 26.000000
1.030915 1.223370 -0.180417 24.000000
1.050716 1.219499 -0.182131 27.000000
1.060632 1.204153 -0.182111 22.000000
1.073742 1.192423 -0.182654 32.000000
1.093433 1.187855 -0.184330 33.000000
1.119943 1.190225 -0.187151 31.000000
1.136288 1.181456 -0.188274 38.000000
1.152106 1.172864 -0.189450 35.000000
1.164884 1.160136 -0.190006 29.000000
1.170396 1.140275 -0.189360 27.000000
1.204366 1.147882 -0.193324 28.000000
1.220471 1.137978 -0.194414 35.000000
1.236496 1.127790 -0.195507 59.000000
1.245080 1.110806 -0.195439 32.000000
1.260510 1.100742 -0.196587 59.000000
1.280044 1.093205 -0.198271 34.000000
1.295752 1.082214 -0.199323 35.000000
1.319066 1.077318 -0.201552 30.000000
1.346309 1.075109 -0.204379 26.000000
1.357957 1.060231 -0.204856 35.000000
1.377074 1.051644 -0.206569 34.000000
1.408416 1.051208 -0.209961 30.000000
1.431846 1.044428 -0.212230 40.000000
1.451316 1.034338 -0.213857 33.000000
1.470694 1.023961 -0.215489 32.000000
1.481545 1.008096 -0.215985 32.000000
1.496642 0.994484 -0.217025 29.000000
1.524069 0.988774 -0.219814 35.000000
1.551566 0.982530 -0.222668 36.000000
1.579125 0.975861 -0.225475 33.000000
1.585204 0.956234 -0.225328 35.000000
1.621287 0.953804 -0.229357 36.000000
1.640191 0.940873 -0.230974 31.000000
1.663184 0.930352 -0.233262 32.000000
1.686334 0.919196 -0.235497 29.000000
1.705080 0.905249 -0.237071 38.000000
1.732448 0.895608 -0.239868 39.000000
1.750848 0.881240 -0.241511 36.000000
1.769284 0.866317 -0.243097 35.000000
1.796411 0.855649 -0.245975 35.000000
1.814656 0.840055 -0.247570 29.000000
1.859961 0.836412 -0.252799 29.000000
1.900696 0.830056 -0.257551 32.000000
1.941605 0.822750 -0.262188 30.000000
1.973305 0.811040 -0.265666 35.000000
1.991250 0.793059 -0.267231 32.000000
2.018203 0.778514 -0.270038 33.000000
2.059123 0.768504 -0.274712 37.000000
2.076635 0.749430 -0.276292 26.000000
2.112824 0.736412 -0.280292 36.000000
2.134775 0.718173 -0.282503 33.000000
2.189585 0.710203 -0.289080 32.000000
2.230308 0.696697 -0.293800 36.000000
2.256786 0.677898 -0.296513 36.000000
2.287793 0.660132 -0.299927 34.000000
2.323509 0.643096 -0.303972 35.000000
2.359102 0.625360 -0.308026 26.000000
2.404251 0.609360 -0.313339 36.000000
2.434766 0.588946 -0.316704 35.000000
2.489345 0.573576 -0.323289 34.000000
2.514857 0.550630 -0.326038 29.000000
2.515781 0.522063 -0.325568 9.000000
2.628397 0.515643 -0.339642 26.000000
2.653345 0.490576 -0.342407 42.000000
2.687813 0.466698 -0.346436 20.000000
2.795579 0.454022 -0.359837 71.000000
2.819901 0.426495 -0.362534 82.000000
2.809639 0.393634 -0.360817 40.000000
2.754712 0.355298 -0.353418 10.000000
2.763397 0.325800 -0.354135 9.000000
2.756872 0.294615 -0.353043 9.000000
2.745131 0.263085 -0.351233 29.000000
2.787297 0.236492 -0.356373 23.000000
2.794653 0.206392 -0.357091 48.000000
2.781958 0.174939 -0.355280 36.000000
2.773767 0.144067 -0.354016 33.000000
2.745401 0.112514 -0.350308 23.000000
2.736584 0.082291 -0.349043 10.000000
2.732383 0.052295 -0.348411 9.000000
2.742639 0.022530 -0.349675 9.000000
2.712965 -0.007345 -0.345881 8.000000
2.717757 -0.037043 -0.346430 9.000000
2.761797 -0.067738 -0.352120 46.000000
2.755906 -0.097734 -0.351403 64.000000
2.774536 -0.128772 -0.353845 95.000000
2.768046 -0.158737 -0.353128 67.000000
2.766170 -0.188932 -0.353043 60.000000
2.768896 -0.219519 -0.353503 75.000000
2.761393 -0.249237 -0.352787 57.000000
2.768362 -0.280346 -0.353878 95.000000
2.760266 -0.310010 -0.353076 79.000000
2.751840 -0.339481 -0.352190 53.000000
2.757833 -0.370827 -0.353279 50.000000
2.758547 -0.401588 -0.353737 9.000000
2.724600 -0.427079 -0.349706 8.000000
2.719849 -0.456772 -0.349451 8.000000
2.724439 -0.488216 -0.350453 8.000000
2.728821 -0.519702 -0.351453 9.000000
2.713285 -0.547391 -0.349857 9.000000
2.750819 -0.586328 -0.355240 9.000000
2.700769 -0.606566 -0.349346 10.000000
2.708527 -0.639274 -0.350882 10.000000
2.720683 -0.673576 -0.353039 18.000000
2.665246 -0.690701 -0.346452 16.000000
2.667117 -0.722342 -0.347275 9.000000
2.673535 -0.755371 -0.348804 9.000000
2.665161 -0.784509 -0.348376 13.000000
2.699138 -0.826724 -0.353628 36.000000
2.704205 -0.860496 -0.355056 32.000000
2.680645 -0.885242 -0.352760 10.000000
2.680309 -0.917542 -0.353477 10.000000
2.670115 -0.946904 -0.353129 13.000000
2.655089 -0.974121 -0.351988 11.000000
2.667500 -1.011971 -0.354637 23.000000
2.665684 -1.044457 -0.355254 12.000000
2.686350 -1.086623 -0.359119 18.000000
2.683657 -1.119584 -0.359723 20.000000
2.648525 -1.139110 -0.356210 11.000000
2.667784 -1.181814 -0.359874 11.000000
2.654775 -1.210973 -0.359335 17.000000
2.645898 -1.242152 -0.359407 17.000000
2.677110 -1.292307 -0.364778 24.000000
2.649515 -1.315027 -0.362405 13.000000
2.648502 -1.350346 -0.363498 16.000000
2.655587 -1.390833 -0.365887 20.000000
2.648938 -1.424659 -0.366452 15.000000
2.646254 -1.460797 -0.367615 10.000000
2.630457 -1.489325 -0.366872 11.000000
2.614009 -1.518132 -0.366221 10.000000
2.631401 -1.567072 -0.370279 20.000000
2.610217 -1.592825 -0.368833 10.000000
2.609476 -1.631927 -0.370471 11.000000
2.616580 -1.676567 -0.373292 14.000000
2.614650 -1.716215 -0.374908 10.000000
2.620433 -1.761480 -0.377703 10.000000
2.597419 -1.786713 -0.376140 12.000000
2.585869 -1.820916 -0.376547 10.000000
2.589916 -1.866717 -0.379211 16.000000
2.593287 -1.912855 -0.381858 11.000000
2.599936 -1.962214 -0.385076 12.000000
2.606435 -2.011175 -0.388173 18.000000
2.592075 -2.045959 -0.388329 12.000000
2.577277 -2.080609 -0.388581 12.000000
2.596503 -2.143579 -0.393955 19.000000
2.588095 -2.184947 -0.395239 21.000000
2.571575 -2.219743 -0.395354 24.000000
2.495733 -2.201096 -0.386137 20.000000
2.390350 -2.155221 -0.372469 18.000000
2.293576 -2.114095 -0.359919 23.000000
2.201696 -2.074481 -0.348101 17.000000
2.157462 -2.077873 -0.343659 16.000000
2.028355 -1.996967 -0.325600 17.000000
1.953885 -1.966316 -0.316140 19.000000
1.912408 -1.965557 -0.311646 26.000000
1.846315 -1.939663 -0.303401 29.000000
1.808084 -1.941633 -0.299609 33.000000
1.773433 -1.946660 -0.296475 36.000000
1.748777 -1.962359 -0.294947 37.000000
1.730571 -1.985155 -0.294534 32.000000
1.702368 -1.996516 -0.292456 25.000000
1.696449 -2.034128 -0.294250 28.000000
1.680528 -2.060292 -0.294292 29.000000
1.668279 -2.089495 -0.294876 25.000000
1.657692 -2.123307 -0.295993 28.000000
1.643582 -2.153189 -0.296550 29.000000
1.626076 -2.179036 -0.296553 27.000000
1.616851 -2.216895 -0.298169 26.000000
1.575365 -2.210210 -0.293845 16.000000
1.576774 -2.264003 -0.297588 26.000000
1.566028 -2.301746 -0.299158 28.000000
1.543743 -2.322891 -0.298493 25.000000
1.523732 -2.348095 -0.298441 24.000000
1.506115 -2.377276 -0.298822 23.000000
1.506269 -2.435977 -0.302871 23.000000
1.491507 -2.468469 -0.303647 23.000000
1.462077 -2.480381 -0.301886 7.000000
0.791302 1.358970 -0.153091 7.000000
0.788154 1.320285 -0.150266 23.000000
0.799890 1.307317 -0.150344 25.000000
0.816679 1.302698 -0.151398 30.000000
0.827336 1.289976 -0.151566 29.000000
0.857731 1.305762 -0.155045 28.000000
0.860806 1.279762 -0.153638 34.000000
0.874666 1.270302 -0.154205 34.000000
0.894163 1.268738 -0.155771 35.000000
0.902101 1.250813 -0.155293 23.000000
0.912676 1.236830 -0.155311 29.000000
0.929063 1.230757 -0.156381 32.000000
0.960643 1.244115 -0.159938 29.000000
0.967978 1.225748 -0.159453 34.000000
0.981250 1.215063 -0.159980 30.000000
1.000760 1.211905 -0.161530 31.000000
1.026709 1.216064 -0.164062 32.000000
1.043142 1.208501 -0.165114 15.000000
1.045815 1.186289 -0.164153 45.000000
1.055393 1.171046 -0.164121 33.000000
1.095070 1.188648 -0.168758 35.000000
1.114782 1.183788 -0.170296 35.000000
1.131104 1.175096 -0.171317 34.000000
1.143816 1.162584 -0.171818 36.000000
1.163530 1.156984 -0.173318 36.000000
1.168990 1.137159 -0.172769 22.000000
1.181302 1.124247 -0.173219 50.000000
1.218577 1.135409 -0.177478 44.000000
1.238245 1.128613 -0.179000 63.000000
1.243113 1.108317 -0.178347 61.000000
1.255177 1.094567 -0.178807 38.000000
1.289781 1.100070 -0.182478 47.000000
1.301696 1.085814 -0.182894 49.000000
1.313508 1.071453 -0.183362 29.000000
1.340707 1.069334 -0.185934 34.000000
1.355892 1.057967 -0.186949 35.000000
1.395065 1.064128 -0.191162 36.000000
1.410631 1.051694 -0.192135 44.000000
1.426045 1.039010 -0.193057 35.000000
1.453507 1.034831 -0.195671 36.000000
1.464737 1.018781 -0.196054 44.000000
1.479694 1.005798 -0.197095 26.000000
1.502991 0.997729 -0.199125 36.000000
1.526303 0.989277 -0.201161 46.000000
1.545425 0.977725 -0.202654 41.000000
1.568723 0.968542 -0.204646 48.000000
1.587538 0.956746 -0.206204 49.000000
1.593613 0.936755 -0.205992 46.000000
1.625272 0.931570 -0.209163 42.000000
1.657086 0.925797 -0.212287 25.000000
1.680145 0.914680 -0.214307 36.000000
1.703065 0.903455 -0.216391 35.000000
1.726077 0.891587 -0.218362 36.000000
1.749000 0.879310 -0.220399 47.000000
1.767244 0.864739 -0.221880 41.000000
1.803528 0.858090 -0.225610 37.000000
1.826319 0.844595 -0.227602 35.000000
1.857938 0.834940 -0.230788 21.000000
1.880607 0.820505 -0.232791 32.000000
1.912304 0.809582 -0.235929 32.000000
1.966869 0.807659 -0.241899 32.000000
1.994018 0.793455 -0.244490 33.000000
2.020997 0.778914 -0.247086 42.000000
2.043344 0.761967 -0.249054 33.000000
2.074814 0.748152 -0.252230 32.000000
2.082808 0.725457 -0.252501 19.000000
2.123490 0.713840 -0.256757 32.000000
2.169002 0.702830 -0.261591 35.000000
2.214359 0.691065 -0.266436 34.000000
2.255001 0.676905 -0.270719 36.000000
2.286170 0.659122 -0.273794 52.000000
2.307475 0.638170 -0.275803 36.000000
2.376734 0.629551 -0.283543 39.000000
2.378566 0.602424 -0.283197 25.000000
2.428424 0.586997 -0.288586 39.000000
2.463682 0.567126 -0.292262 36.000000
2.518183 0.550867 -0.298241 34.000000
2.548359 0.528430 -0.301274 27.000000
2.612444 0.512151 -0.308419 32.000000
2.642262 0.488118 -0.311461 35.000000
2.706102 0.469496 -0.318623 31.000000
2.794423 0.453488 -0.328592 36.000000
2.828584 0.427500 -0.332227 62.000000
2.857659 0.400094 -0.335199 90.000000
2.851974 0.367618 -0.334222 38.000000
2.811470 0.331201 -0.329114 10.000000
2.814862 0.300586 -0.329288 9.000000
2.793274 0.267516 -0.326485 10.000000
2.835535 0.240353 -0.331196 32.000000
2.788455 0.205747 -0.325502 9.000000
2.780689 0.174713 -0.324345 9.000000
2.767522 0.143638 -0.322696 9.000000
2.768884 0.113412 -0.322696 8.000000
2.769991 0.083186 -0.322696 8.000000
2.770757 0.053045 -0.322781 8.000000
2.776064 0.022859 -0.323360 8.000000
2.791048 -0.007546 -0.325009 8.000000
2.785911 -0.037922 -0.324431 8.000000
2.755522 -0.067495 -0.320876 10.000000
2.799260 -0.099141 -0.325994 57.000000
2.783171 -0.129002 -0.324260 49.000000
2.796506 -0.160243 -0.325908 54.000000
2.804522 -0.191384 -0.326891 36.000000
2.777522 -0.219997 -0.323917 12.000000
2.799686 -0.252531 -0.326718 79.000000
2.791808 -0.282517 -0.325968 62.000000
2.788619 -0.312950 -0.325796 71.000000
2.785084 -0.343297 -0.325623 54.000000
2.791049 -0.374966 -0.326603 44.000000
2.781895 -0.404705 -0.325854 18.000000
2.792038 -0.437238 -0.327321 9.000000
2.772481 -0.465247 -0.325336 7.000000
2.762324 -0.494513 -0.324589 10.000000
2.776323 -0.528315 -0.326626 17.000000
2.780244 -0.560405 -0.327426 26.000000
2.788545 -0.593829 -0.328883 37.000000
2.781889 -0.624221 -0.328621 36.000000
2.794307 -0.658999 -0.330646 60.000000
2.787075 -0.689427 -0.330293 44.000000
2.764977 -0.715942 -0.328228 10.000000
2.709131 -0.733062 -0.322175 9.000000
2.715369 -0.766509 -0.323539 10.000000
2.735469 -0.804560 -0.326606 25.000000
2.726623 -0.834251 -0.326256 36.000000
2.712692 -0.862350 -0.325250 29.000000
2.736185 -0.902887 -0.328870 23.000000
2.740374 -0.937358 -0.330126 15.000000
2.683140 -0.950657 -0.324026 9.000000
2.733373 -1.001912 -0.330930 17.000000
2.722285 -1.031777 -0.330483 15.000000
2.720271 -1.064907 -0.331073 19.000000
2.713124 -1.096466 -0.331187 19.000000
2.719515 -1.133410 -0.332893 18.000000
2.716158 -1.167012 -0.333562 21.000000
2.721439 -1.204745 -0.335347 17.000000
2.672107 -1.217603 -0.330237 9.000000
2.712653 -1.272137 -0.336390 23.000000
2.689717 -1.297447 -0.334724 16.000000
2.688950 -1.333047 -0.335750 18.000000
2.674296 -1.362447 -0.335197 16.000000
2.690093 -1.407791 -0.338522 16.000000
2.696692 -1.448450 -0.340635 21.000000
2.706824 -1.492360 -0.343288 13.000000
2.664452 -1.507290 -0.339319 9.000000
2.669307 -1.548899 -0.341505 17.000000
2.656522 -1.580626 -0.341390 15.000000
2.660655 -1.622033 -0.343273 16.000000
2.651290 -1.656385 -0.343696 14.000000
2.666446 -1.706903 -0.347387 12.000000
2.668469 -1.749689 -0.349428 16.000000
2.661550 -1.787194 -0.350274 10.000000
2.625972 -1.804377 -0.347221 9.000000
2.642609 -1.858871 -0.351303 17.000000
2.642348 -1.902354 -0.353206 15.000000
2.645372 -1.948929 -0.355634 16.000000
2.643838 -1.992837 -0.357512 18.000000
2.649342 -2.043050 -0.360345 21.000000
2.647093 -2.086679 -0.361988 22.000000
2.655089 -2.140610 -0.365421 22.000000
2.654553 -2.188581 -0.367667 21.000000
2.634280 -2.220823 -0.367247 34.000000
2.609747 -2.249691 -0.366189 32.000000
2.547702 -2.245367 -0.359967 29.000000
2.445428 -2.203300 -0.347990 30.000000
2.337163 -2.152588 -0.334925 26.000000
2.245532 -2.112518 -0.323926 29.000000
2.132652 -2.050941 -0.309956 22.000000
2.042754 -2.007949 -0.299180 16.000000
1.985698 -1.995026 -0.293122 30.000000
1.929066 -1.981072 -0.287095 29.000000
1.852460 -1.944498 -0.278009 31.000000
1.814246 -1.946494 -0.274537 36.000000
1.769399 -1.940603 -0.270059 52.000000
1.728344 -1.937587 -0.266193 65.000000
1.727666 -1.978147 -0.268206 37.000000
1.696301 -1.985573 -0.265800 26.000000
1.681051 -2.011632 -0.265929 27.000000
1.674758 -2.049226 -0.267559 31.000000
1.658565 -2.075182 -0.267587 33.000000
1.651230 -2.112788 -0.269187 32.000000
1.628202 -2.130800 -0.268201 29.000000
1.625770 -2.176385 -0.270684 31.000000
1.602026 -2.194047 -0.269684 28.000000
1.575141 -2.207410 -0.268192 21.000000
1.571030 -2.253113 -0.270626 27.000000
1.549237 -2.274239 -0.270104 27.000000
1.535456 -2.307603 -0.271038 27.000000
1.513010 -2.328519 -0.270417 25.000000
1.505010 -2.369306 -0.272120 27.000000
1.492305 -2.406720 -0.273491 28.000000
1.465998 -2.422956 -0.272362 26.000000
1.434544 -2.430272 -0.270280 9.000000
0.785270 1.346689 -0.137597 7.000000
0.779394 1.303799 -0.134592 17.000000
0.793542 1.295235 -0.135150 22.000000
0.815493 1.299093 -0.136949 30.000000
0.821512 1.277550 -0.136127 27.000000
0.843550 1.280952 -0.137983 30.000000
0.859491 1.276294 -0.138997 30.000000
0.876132 1.270917 -0.139920 31.000000
0.895638 1.269404 -0.141346 31.000000
0.900606 1.247438 -0.140459 21.000000
0.920054 1.245499 -0.141890 25.000000
0.927528 1.227447 -0.141449 30.000000
0.949958 1.229033 -0.143298 28.000000
0.969463 1.226371 -0.144696 29.000000
0.979605 1.211862 -0.144713 36.000000
1.005426 1.216418 -0.147046 32.000000
1.028271 1.216748 -0.148877 35.000000
1.044661 1.209187 -0.149832 19.000000
1.047902 1.186483 -0.148868 29.000000
1.054089 1.167545 -0.148366 36.000000
1.080273 1.170557 -0.150732 35.000000
1.116329 1.184487 -0.154529 35.000000
1.132655 1.175747 -0.155452 36.000000
1.145417 1.163285 -0.155902 33.000000
1.165091 1.157639 -0.157256 35.000000
1.170542 1.137860 -0.156753 17.000000
1.197330 1.138666 -0.159070 36.000000
1.206047 1.122105 -0.159045 68.000000
1.236621 1.125520 -0.161858 37.000000
1.245158 1.108573 -0.161785 43.000000
1.264675 1.101410 -0.163162 50.000000
1.284233 1.093877 -0.164545 36.000000
1.303413 1.086542 -0.165932 46.000000
1.303602 1.062748 -0.164884 23.000000
1.311264 1.045257 -0.164756 43.000000
1.342252 1.046049 -0.167618 71.000000
1.389250 1.058420 -0.172404 35.000000
1.412683 1.052018 -0.174256 36.000000
1.428104 1.039389 -0.175127 38.000000
1.447480 1.029393 -0.176495 36.000000
1.466545 1.019548 -0.177868 42.000000
1.477610 1.003388 -0.178251 23.000000
1.500950 0.995367 -0.180072 37.000000
1.528425 0.989668 -0.182453 46.000000
1.543353 0.975516 -0.183287 36.000000
1.570817 0.968939 -0.185625 55.000000
1.589644 0.957144 -0.187024 68.000000
1.604292 0.942191 -0.187867 56.000000
1.623141 0.929501 -0.189159 39.000000
1.663586 0.928630 -0.193031 29.000000
1.677949 0.912773 -0.193828 46.000000
1.705256 0.903928 -0.196262 71.000000
1.719445 0.887501 -0.197064 37.000000
1.742335 0.875325 -0.198883 36.000000
1.765192 0.862736 -0.200706 36.000000
1.801428 0.856200 -0.204061 45.000000
1.824091 0.842941 -0.205896 35.000000
1.864915 0.837227 -0.209777 28.000000
1.883065 0.820820 -0.211050 32.000000
1.914664 0.810092 -0.213988 34.000000
1.941808 0.796659 -0.216293 37.000000
1.991968 0.791947 -0.221169 34.000000
2.009668 0.773884 -0.222526 34.000000
2.045889 0.762302 -0.225877 36.000000
2.068031 0.745187 -0.227690 30.000000
2.076056 0.722526 -0.227960 28.000000
2.126243 0.714047 -0.232808 35.000000
2.157470 0.698584 -0.235668 35.000000
2.207643 0.688319 -0.240532 37.000000
2.243531 0.672908 -0.243923 36.000000
2.269833 0.653980 -0.246284 34.000000
2.305550 0.637140 -0.249542 36.000000
2.341146 0.619674 -0.252952 32.000000
2.371864 0.600286 -0.255775 29.000000
2.416916 0.583801 -0.260086 37.000000
2.452173 0.564015 -0.263439 35.000000
2.521271 0.551105 -0.270365 44.000000
2.556347 0.529678 -0.273731 37.000000
2.566834 0.502837 -0.274413 10.000000
2.630811 0.485658 -0.280838 32.000000
2.689795 0.466268 -0.286747 28.000000
2.792907 0.452953 -0.297367 40.000000
2.841845 0.429161 -0.302247 81.000000
2.880814 0.403027 -0.306086 95.000000
2.894873 0.372876 -0.307222 76.000000
2.888937 0.340096 -0.306264 46.000000
2.877586 0.307092 -0.304783 37.000000
2.875833 0.275181 -0.304348 55.000000
2.868761 0.243046 -0.303388 29.000000
2.841480 0.209577 -0.300332 10.000000
2.853504 0.179161 -0.301468 8.000000
2.845328 0.147587 -0.300419 8.000000
2.831909 0.115938 -0.298846 8.000000
2.813072 0.084465 -0.296836 8.000000
2.808878 0.053710 -0.296311 8.000000
2.809309 0.023105 -0.296311 8.000000
2.809396 -0.007500 -0.296225 8.000000
2.814109 -0.038173 -0.296749 8.000000
2.828417 -0.069284 -0.298235 8.000000
2.812641 -0.099579 -0.296663 17.000000
2.870950 -0.132911 -0.302864 67.000000
2.859433 -0.163652 -0.301729 57.000000
2.872383 -0.195868 -0.303212 35.000000
2.855215 -0.225967 -0.301465 25.000000
2.857531 -0.257526 -0.301900 36.000000
2.869467 -0.290106 -0.303293 61.000000
2.856221 -0.320239 -0.302159 51.000000
2.857540 -0.351980 -0.302505 35.000000
2.833851 -0.380432 -0.300240 29.000000
2.814789 -0.409083 -0.298499 16.000000
2.854379 -0.446637 -0.302929 30.000000
2.824893 -0.473555 -0.300146 22.000000
2.844006 -0.508694 -0.302575 50.000000
2.833447 -0.538705 -0.301788 41.000000
2.832393 -0.570486 -0.302043 56.000000
2.830873 -0.602283 -0.302296 45.000000
2.833918 -0.635275 -0.303068 52.000000
2.836470 -0.668478 -0.303837 47.000000
2.843532 -0.702817 -0.305123 36.000000
2.787657 -0.721276 -0.299589 21.000000
2.774904 -0.750193 -0.298719 33.000000
2.780885 -0.784495 -0.300004 41.000000
2.777057 -0.816040 -0.300165 38.000000
2.801381 -0.856322 -0.303416 36.000000
2.796594 -0.888385 -0.303571 35.000000
2.782148 -0.917077 -0.302607 22.000000
2.781404 -0.950581 -0.303273 14.000000
2.752100 -0.974333 -0.300863 9.000000
2.755452 -1.009201 -0.301950 15.000000
2.767636 -1.048077 -0.304146 18.000000
2.756196 -1.077947 -0.303692 18.000000
2.767365 -1.117310 -0.305786 21.000000
2.764188 -1.151255 -0.306346 18.000000
2.760745 -1.185033 -0.306903 20.000000
2.761398 -1.221113 -0.307964 12.000000
2.734294 -1.245031 -0.305889 10.000000
2.738765 -1.282964 -0.307358 14.000000
2.742589 -1.321474 -0.308914 16.000000
2.736936 -1.355773 -0.309361 22.000000
2.757505 -1.403714 -0.312917 20.000000
2.737627 -1.431495 -0.311846 16.000000
2.739620 -1.470280 -0.313187 18.000000
2.736480 -1.507426 -0.314115 13.000000
2.706909 -1.529884 -0.312042 10.000000
2.707341 -1.569429 -0.313463 14.000000
2.720002 -1.616785 -0.316370 16.000000
2.723780 -1.658936 -0.318074 15.000000
2.709711 -1.691304 -0.317983 14.000000
2.707865 -1.731610 -0.319274 16.000000
2.709652 -1.774813 -0.321050 18.000000
2.710745 -1.818274 -0.322815 10.000000
2.707132 -1.859171 -0.324078 10.000000
2.703376 -1.899517 -0.325232 18.000000
2.706744 -1.946431 -0.327353 23.000000
2.661329 -1.958382 -0.323712 22.000000
2.699381 -2.032358 -0.330196 26.000000
2.700658 -2.080002 -0.332382 31.000000
2.701222 -2.128060 -0.334450 36.000000
2.708817 -2.182562 -0.337469 36.000000
2.677137 -2.205777 -0.335652 54.000000
2.657440 -2.237379 -0.335069 94.000000
2.636609 -2.269702 -0.334696 80.000000
2.559343 -2.252464 -0.327156 32.000000
2.464269 -2.217121 -0.317167 31.000000
2.370372 -2.179933 -0.307230 30.000000
2.248465 -2.113748 -0.293652 26.000000
2.171449 -2.086611 -0.285717 22.000000
2.063323 -2.026532 -0.273585 20.000000
1.988376 -1.996148 -0.265658 26.000000
1.942204 -1.992870 -0.261605 29.000000
1.868838 -1.959980 -0.253755 31.000000
1.814195 -1.943181 -0.248275 32.000000
1.776141 -1.944521 -0.245144 55.000000
1.735007 -1.941539 -0.241565 65.000000
1.707226 -1.952955 -0.239846 37.000000
1.692392 -1.979046 -0.239969 26.000000
1.680349 -2.008858 -0.240543 31.000000
1.670969 -2.042573 -0.241563 30.000000
1.654869 -2.068465 -0.241582 35.000000
1.653780 -2.113858 -0.243938 31.000000
1.627726 -2.127832 -0.242583 33.000000
1.616423 -2.161516 -0.243559 31.000000
1.592853 -2.179049 -0.242650 27.000000
1.569034 -2.196334 -0.241740 19.000000
1.556537 -2.229622 -0.242607 27.000000
1.554659 -2.279451 -0.245232 25.000000
1.528395 -2.291284 -0.243693 28.000000
1.511574 -2.320343 -0.244081 26.000000
1.499658 -2.357730 -0.245335 28.000000
1.479232 -2.382458 -0.245179 26.000000
1.463614 -2.415564 -0.245969 25.000000
1.475248 -2.495719 -0.251410 9.000000
0.801735 1.373039 -0.125972 7.000000
0.793590 1.325693 -0.122844 13.000000
0.792285 1.291499 -0.120930 15.000000
0.822208 1.308096 -0.123790 15.000000
0.830955 1.290634 -0.123461 24.000000
0.864116 1.310641 -0.126700 16.000000
0.866430 1.285077 -0.125613 26.000000
0.880335 1.275538 -0.126040 23.000000
0.917144 1.298420 -0.129769 17.000000
0.902020 1.247957 -0.126125 22.000000
0.927356 1.254082 -0.128188 16.000000
0.931949 1.231940 -0.127385 21.000000
0.951339 1.229604 -0.128635 27.000000
0.980129 1.238668 -0.131132 16.000000
0.987259 1.220135 -0.130737 29.000000
1.013181 1.224628 -0.132836 23.000000
1.029687 1.217285 -0.133643 23.000000
1.029835 1.190883 -0.132406 24.000000
1.052608 1.190798 -0.134052 21.000000
1.075528 1.190303 -0.135755 31.000000
1.088450 1.178462 -0.136148 26.000000
1.114905 1.180964 -0.138238 25.000000
1.127689 1.168727 -0.138636 35.000000
1.147369 1.163385 -0.139886 25.000000
1.166602 1.158243 -0.141193 27.000000
1.175567 1.141932 -0.141116 27.000000
1.195188 1.135843 -0.142378 26.000000
1.214859 1.129444 -0.143594 35.000000
1.227104 1.116080 -0.144001 32.000000
1.242919 1.105875 -0.144790 26.000000
1.254946 1.092166 -0.145146 37.000000
1.281941 1.091269 -0.147246 31.000000
1.305287 1.086698 -0.148917 34.000000
1.313235 1.069192 -0.148843 24.000000
1.332598 1.060974 -0.150032 20.000000
1.359851 1.058548 -0.152156 30.000000
1.378916 1.049958 -0.153408 29.000000
1.398323 1.040718 -0.154610 25.000000
1.421674 1.034126 -0.156312 37.000000
1.436937 1.021391 -0.157079 26.000000
1.456191 1.011245 -0.158292 25.000000
1.475406 1.000866 -0.159509 32.000000
1.490428 0.987392 -0.160229 26.000000
1.509473 0.976423 -0.161452 27.000000
1.545257 0.975796 -0.164415 32.000000
1.568333 0.967004 -0.166154 30.000000
1.591579 0.957486 -0.167786 36.000000
1.597643 0.937436 -0.167620 30.000000
1.620770 0.927372 -0.169258 30.000000
1.652527 0.921704 -0.171805 26.000000
1.679941 0.913125 -0.173906 31.000000
1.689668 0.894961 -0.174258 31.000000
1.721463 0.887857 -0.176824 32.000000
1.731019 0.868982 -0.177061 26.000000
1.758234 0.858788 -0.179182 32.000000
1.781021 0.845947 -0.180791 32.000000
1.826125 0.843372 -0.184752 25.000000
1.844334 0.827475 -0.185914 29.000000
1.880580 0.819210 -0.188913 27.000000
1.916896 0.810283 -0.191919 26.000000
1.948539 0.798934 -0.194538 28.000000
1.975631 0.784988 -0.196573 27.000000
2.002687 0.770573 -0.198677 29.000000
2.029571 0.755621 -0.200720 31.000000
