x y z intensity
2.792989 0.087408 0.991078 25.000000
2.826691 0.056488 1.003052 24.000000
2.883691 0.025027 1.023206 26.000000
2.912057 -0.007733 1.033238 25.000000
2.987160 -0.041695 1.059891 32.000000
3.033687 -0.076648 1.076412 26.000000
3.089214 -0.113010 1.096370 28.000000
3.153609 -0.151102 1.119768 33.000000
3.184801 -0.188629 1.131157 23.000000
3.262444 -0.230324 1.159349 26.000000
3.301963 -0.270640 1.173955 26.000000
3.261312 -0.304465 1.160384 22.000000
3.248332 -0.340388 1.156727 30.000000
3.225692 -0.374904 1.149630 28.000000
3.221487 -0.411386 1.149104 28.000000
3.193517 -0.444512 1.140035 29.000000
3.174522 -0.478412 1.134515 27.000000
3.164465 -0.513611 1.132226 28.000000
3.144720 -0.546984 1.126715 24.000000
3.120080 -0.578975 1.119236 23.000000
3.095105 -0.610650 1.111870 30.000000
3.069800 -0.641804 1.104511 26.000000
3.053385 -0.674371 1.100279 28.000000
3.041406 -0.707799 1.097710 31.000000
3.019679 -0.738881 1.091931 26.000000
2.997725 -0.769551 1.086060 26.000000
2.980003 -0.800934 1.081850 26.000000
2.957492 -0.830836 1.075795 23.000000
2.957412 -0.866867 1.078004 30.000000
2.934402 -0.896011 1.071861 28.000000
2.915387 -0.926477 1.067575 26.000000
2.896236 -0.956343 1.062899 30.000000
2.858886 -0.979883 1.051855 27.000000
2.843499 -1.010723 1.049042 20.000000
2.814654 -1.036274 1.041216 26.000000
2.798806 -1.066470 1.038221 24.000000
2.787100 -1.098007 1.036770 30.000000
2.766061 -1.126174 1.032342 30.000000
2.727669 -1.146431 1.021013 25.000000
2.723544 -1.181237 1.023030 31.000000
2.693437 -1.204087 1.014800 26.000000
2.684402 -1.236725 1.014996 17.000000
2.662123 -1.263092 1.010227 29.000000
2.639648 -1.289170 1.005467 26.000000
2.629662 -1.321332 1.005568 32.000000
2.615141 -1.351134 1.003860 31.000000
2.591879 -1.376306 0.998929 29.000000
2.555962 -1.394298 0.989090 29.000000
2.532497 -1.418573 0.984003 25.000000
2.533394 -1.456638 0.988635 18.000000
2.509323 -1.480350 0.983459 27.000000
2.517127 -1.523883 0.991349 27.000000
2.472358 -1.534813 0.978113 30.000000
2.467115 -1.570838 0.981197 26.000000
2.450169 -1.598517 0.978938 20.000000
2.428432 -1.624031 0.975565 13.000000
2.403028 -1.645928 0.970056 10.000000
2.400295 -1.684374 0.974395 12.000000
2.377770 -1.709046 0.970841 26.000000
2.351763 -1.730063 0.965254 23.000000
2.321241 -1.748331 0.958398 28.000000
2.294388 -1.769145 0.953125 26.000000
2.286029 -1.804223 0.955568 25.000000
2.277196 -1.839277 0.957988 30.000000
2.250409 -1.858508 0.952161 24.000000
2.226353 -1.881110 0.948272 16.000000
2.212878 -1.912679 0.948926 25.000000
2.181165 -1.928469 0.941776 19.000000
2.177708 -1.969267 0.946928 28.000000
2.149159 -1.987564 0.941325 21.000000
2.137860 -2.021777 0.943276 23.000000
2.122736 -2.052728 0.943680 26.000000
2.089210 -2.067556 0.936760 21.000000
2.103554 -2.128565 0.950586 14.000000
2.040707 -2.111296 0.929696 22.000000
2.044072 -2.162139 0.938818 19.000000
2.033602 -2.199284 0.941866 28.000000
2.013038 -2.225821 0.940390 23.000000
1.994213 -2.256584 0.940684 21.000000
1.979218 -2.289949 0.942061 28.000000
1.948480 -2.305002 0.936003 17.000000
1.951091 -2.360127 0.946105 12.000000
1.885361 -2.334685 0.924042 9.000000
1.804066 -2.284679 0.892926 9.000000
1.712505 -2.217976 0.856163 10.000000
1.626996 -2.157890 0.822809 10.000000
1.561394 -2.118393 0.798027 10.000000
1.480063 -2.054460 0.764732 10.000000
1.426602 -2.028733 0.746301 10.000000
1.358914 -1.977672 0.719056 9.000000
1.279141 -1.905446 0.684850 9.000000
1.228843 -1.876470 0.666766 9.000000
1.185670 -1.853902 0.651352 13.000000
1.152111 -1.847562 0.641901 17.000000
1.132575 -1.860516 0.639269 19.000000
1.104377 -1.861503 0.632636 25.000000
1.089506 -1.882200 0.632815 21.000000
1.073002 -1.903493 0.633179 17.000000
1.071380 -1.949325 0.641556 6.000000
0.790986 1.468762 0.494473 8.000000
0.825032 1.493129 0.508013 13.000000
0.841817 1.483080 0.510023 17.000000
0.859816 1.477495 0.513580 21.000000
0.872943 1.463470 0.514314 19.000000
0.896788 1.465121 0.520620 24.000000
0.904612 1.442665 0.518388 21.000000
0.923332 1.435714 0.521751 21.000000
0.943788 1.433075 0.526755 21.000000
0.942935 1.398405 0.519998 17.000000
0.944978 1.367393 0.514385 26.000000
0.973260 1.376051 0.523823 27.000000
0.990655 1.368714 0.527251 25.000000
1.005996 1.356777 0.529034 30.000000
1.023301 1.349017 0.532478 24.000000
1.031756 1.329729 0.531364 25.000000
1.052606 1.324804 0.536108 26.000000
1.048715 1.290484 0.528857 16.000000
1.065498 1.282112 0.532242 33.000000
1.091558 1.284341 0.540161 31.000000
1.105980 1.271269 0.541728 27.000000
1.122755 1.262076 0.545045 34.000000
1.142644 1.256222 0.549914 31.000000
1.159392 1.246521 0.553202 31.000000
1.172776 1.233138 0.554896 27.000000
1.186050 1.219590 0.556589 15.000000
1.192461 1.199197 0.555164 56.000000
1.202003 1.182069 0.555229 36.000000
1.218209 1.171439 0.558423 34.000000
1.251666 1.176876 0.569436 36.000000
1.267863 1.165615 0.572560 34.000000
1.294658 1.163619 0.580437 45.000000
1.303696 1.145481 0.580420 39.000000
1.312554 1.127314 0.580338 18.000000
1.306659 1.096875 0.573816 35.000000
1.329623 1.090728 0.580038 34.000000
1.352618 1.084217 0.586228 42.000000
1.375192 1.077733 0.592666 48.000000
1.386959 1.061742 0.594017 35.000000
1.398558 1.045639 0.595368 41.000000
1.428694 1.043771 0.604976 34.000000
1.451717 1.035404 0.611152 24.000000
1.439765 1.002339 0.602615 69.000000
1.481683 1.007239 0.617113 42.000000
1.504603 0.997900 0.623163 44.000000
1.515211 0.980764 0.624562 62.000000
1.529697 0.966032 0.627600 35.000000
1.548377 0.953159 0.631993 42.000000
1.570744 0.942825 0.638220 42.000000
1.576793 0.922503 0.637815 21.000000
1.603055 0.913841 0.645661 47.000000
1.629399 0.904626 0.653471 59.000000
1.635013 0.883758 0.653019 45.000000
1.661208 0.873844 0.660803 53.000000
1.679077 0.859070 0.665222 46.000000
1.701017 0.846143 0.671257 47.000000
1.718667 0.830690 0.675639 48.000000
1.749019 0.820988 0.684981 25.000000
1.766289 0.805065 0.689579 37.000000
1.775027 0.784822 0.690460 35.000000
1.800703 0.772065 0.698306 35.000000
1.830826 0.760403 0.707534 38.000000
1.865193 0.750130 0.718660 46.000000
1.890755 0.735717 0.726379 41.000000
1.916201 0.720774 0.734116 36.000000
1.919544 0.697330 0.733289 22.000000
1.949228 0.683191 0.742608 61.000000
1.969833 0.665671 0.748762 63.000000
1.990400 0.647510 0.754591 59.000000
2.010723 0.629180 0.760566 52.000000
2.026428 0.609055 0.764854 62.000000
2.073540 0.597703 0.780992 35.000000
2.098039 0.579103 0.788575 40.000000
2.104256 0.555224 0.789211 21.000000
2.142094 0.539307 0.801788 44.000000
2.166039 0.519378 0.809408 52.000000
2.208186 0.503137 0.823804 41.000000
2.231999 0.481951 0.831085 44.000000
2.264584 0.462301 0.842172 39.000000
2.287915 0.440100 0.849548 47.000000
2.311020 0.417480 0.857086 34.000000
2.352570 0.397418 0.871110 30.000000
2.393791 0.376591 0.885379 83.000000
2.425608 0.353491 0.896311 52.000000
2.457275 0.329678 0.906936 65.000000
2.502602 0.306946 0.922887 70.000000
2.524463 0.280670 0.930174 54.000000
2.555382 0.254737 0.940740 42.000000
2.586028 0.228251 0.951481 36.000000
2.653833 0.204008 0.975916 32.000000
2.674646 0.175127 0.983062 43.000000
2.713797 0.146835 0.997188 47.000000
2.771575 0.118406 1.017855 39.000000
2.800897 0.087816 1.028280 40.000000
2.848461 0.057054 1.045782 46.000000
2.886472 0.025056 1.059659 44.000000
2.928808 -0.007808 1.075261 32.000000
2.970761 -0.041533 1.090577 35.000000
3.031181 -0.076787 1.112777 33.000000
3.072411 -0.112738 1.128180 33.000000
3.131861 -0.150447 1.150673 31.000000
3.181673 -0.188979 1.169207 32.000000
3.254313 -0.230338 1.196546 32.000000
3.274948 -0.269165 1.204834 25.000000
3.276525 -0.306666 1.206020 32.000000
3.254319 -0.341927 1.198820 35.000000
3.227067 -0.376115 1.189797 36.000000
3.213528 -0.411456 1.185832 34.000000
3.166937 -0.442043 1.169949 33.000000
3.162053 -0.477893 1.169118 35.000000
3.138108 -0.510622 1.161631 31.000000
3.095207 -0.539908 1.147496 24.000000
3.084567 -0.574062 1.144965 30.000000
3.073537 -0.608112 1.142539 32.000000
3.062222 -0.641854 1.139809 35.000000
3.027484 -0.670615 1.128937 34.000000
3.020032 -0.704855 1.128030 35.000000
2.998585 -0.735636 1.121800 34.000000
2.976610 -0.766207 1.115880 29.000000
2.959051 -0.797490 1.111472 24.000000
2.945672 -0.829842 1.108774 31.000000
2.931923 -0.861893 1.105980 33.000000
2.908913 -0.890889 1.099592 35.000000
2.858811 -0.910914 1.083031 32.000000
2.853152 -0.944908 1.083753 31.000000
2.825021 -0.970968 1.075516 32.000000
2.823130 -1.006199 1.077640 28.000000
2.803123 -1.035014 1.072996 20.000000
2.778501 -1.061755 1.066577 34.000000
2.762454 -1.091560 1.063542 34.000000
2.746156 -1.120976 1.060318 33.000000
2.737902 -1.154240 1.060749 33.000000
2.708013 -1.177634 1.052399 31.000000
2.699204 -1.210560 1.052736 33.000000
2.673244 -1.235008 1.045895 30.000000
2.621215 -1.247302 1.029424 13.000000
2.645493 -1.295853 1.042843 34.000000
2.618558 -1.319624 1.036224 32.000000
2.603942 -1.349426 1.034610 43.000000
2.580716 -1.374603 1.029486 36.000000
2.557303 -1.399496 1.024373 33.000000
2.537819 -1.426229 1.020833 34.000000
2.518197 -1.452679 1.017299 28.000000
2.494188 -1.476351 1.012028 14.000000
2.474037 -1.502194 1.008322 33.000000
2.457107 -1.530723 1.006638 32.000000
2.452495 -1.566130 1.009403 35.000000
2.451297 -1.604208 1.013687 32.000000
2.425473 -1.627135 1.008531 21.000000
2.404037 -1.651804 1.004546 22.000000
2.389450 -1.682205 1.004193 26.000000
2.332417 -1.682075 0.985903 12.000000
2.325745 -1.716666 0.988251 35.000000
2.310502 -1.746277 0.987720 29.000000
2.313539 -1.790272 0.995235 34.000000
2.283353 -1.807294 0.987682 30.000000
2.270725 -1.839439 0.988635 29.000000
2.261331 -1.874588 0.990982 36.000000
2.226251 -1.888248 0.982145 27.000000
2.180416 -1.891974 0.968568 10.000000
2.198608 -1.951596 0.983508 36.000000
2.177133 -1.976761 0.980859 30.000000
2.162422 -2.008099 0.981366 32.000000
2.140498 -2.032870 0.978614 34.000000
2.101261 -2.040819 0.968017 26.000000
2.102534 -2.088157 0.976238 34.000000
2.076445 -2.108766 0.971821 26.000000
2.043646 -2.122168 0.964209 10.000000
2.036858 -2.162743 0.969028 33.000000
2.013493 -2.185917 0.965977 25.000000
1.999393 -2.219407 0.967547 31.000000
1.975340 -2.242118 0.964481 31.000000
1.968577 -2.287144 0.970890 27.000000
1.950040 -2.316777 0.970653 31.000000
1.919142 -2.331451 0.964311 21.000000
1.914999 -2.379200 0.971633 10.000000
1.799642 -2.289479 0.923269 12.000000
1.719922 -2.238066 0.891397 11.000000
1.632957 -2.173594 0.855226 13.000000
1.557638 -2.123654 0.825524 12.000000
1.479284 -2.063757 0.792691 13.000000
1.418936 -2.025730 0.768906 14.000000
1.342190 -1.963626 0.736711 10.000000
1.262922 -1.891406 0.701406 9.000000
1.216694 -1.865678 0.684039 10.000000
1.177616 -1.851870 0.671313 12.000000
1.158006 -1.865178 0.668651 25.000000
1.114700 -1.842133 0.653069 26.000000
1.095200 -1.854698 0.650391 27.000000
1.068391 -1.854679 0.643395 30.000000
1.056825 -1.884144 0.646675 22.000000
1.057559 -1.933957 0.656772 9.000000
0.795887 1.488249 0.516551 9.000000
0.819654 1.490956 0.523005 13.000000
0.842447 1.493880 0.529659 27.000000
0.852084 1.471129 0.527242 22.000000
0.874876 1.473557 0.533931 29.000000
0.887899 1.459346 0.534629 26.000000
0.901761 1.444484 0.535097 24.000000
0.922205 1.442059 0.540286 29.000000
0.933192 1.422858 0.539182 21.000000
0.937602 1.396250 0.535242 22.000000
0.941623 1.369672 0.531254 32.000000
0.967981 1.373843 0.539174 25.000000
0.968661 1.343339 0.533502 35.000000
0.999892 1.355102 0.544752 29.000000
1.017180 1.347338 0.548296 31.000000
1.035201 1.338802 0.551578 36.000000
1.049487 1.326797 0.553534 23.000000
1.054702 1.303605 0.550808 31.000000
1.074653 1.298695 0.555825 33.000000
1.088574 1.286236 0.557721 35.000000
1.081287 1.248023 0.548317 43.000000
1.107251 1.249746 0.556445 31.000000
1.136597 1.254479 0.566147 34.000000
1.146885 1.237819 0.566354 35.000000
1.166712 1.231390 0.571284 33.000000
1.173394 1.211039 0.569830 34.000000
1.186486 1.197459 0.571514 41.000000
1.206152 1.190311 0.576418 43.000000
1.222449 1.179612 0.579672 60.000000
1.228331 1.158877 0.578077 40.000000
1.244391 1.147811 0.581280 63.000000
1.284987 1.158661 0.595889 66.000000
1.297553 1.143750 0.597453 32.000000
1.291615 1.113638 0.591054 29.000000
1.300177 1.095557 0.590900 33.000000
1.326676 1.092400 0.598909 35.000000
1.349650 1.085835 0.605301 62.000000
1.368548 1.076381 0.610233 53.000000
1.376575 1.057517 0.609983 44.000000
1.395743 1.047118 0.614653 42.000000
1.429622 1.047976 0.626227 34.000000
1.421989 1.017567 0.619145 32.000000
1.452112 1.014872 0.629038 37.000000
1.478867 1.008505 0.637006 41.000000
1.481754 0.986413 0.635095 71.000000
1.508100 0.979714 0.643214 35.000000
1.522860 0.964630 0.646067 55.000000
1.541210 0.952102 0.650792 47.000000
1.559491 0.939273 0.655472 36.000000
1.581757 0.928523 0.661862 34.000000
1.595895 0.912707 0.664812 36.000000
1.613893 0.898966 0.669472 36.000000
1.636001 0.887097 0.675791 61.000000
1.658076 0.874883 0.682067 46.000000
1.680112 0.862200 0.688300 51.000000
1.702043 0.849168 0.694549 65.000000
1.711251 0.829516 0.695599 33.000000
1.728582 0.814112 0.700276 31.000000
1.754476 0.801982 0.708100 37.000000
1.767295 0.783879 0.711017 34.000000
1.792895 0.771177 0.718999 36.000000
1.818658 0.757635 0.726810 35.000000
1.861528 0.750907 0.741699 37.000000
1.882731 0.734731 0.747884 40.000000
1.899396 0.716535 0.752345 29.000000
1.915736 0.698206 0.756949 33.000000
1.932079 0.679345 0.761296 43.000000
1.961604 0.664727 0.770748 39.000000
1.977526 0.645309 0.775252 49.000000
2.011253 0.631233 0.786690 59.000000
2.022398 0.609651 0.789264 39.000000
2.051430 0.593031 0.798849 44.000000
2.080324 0.575898 0.808382 33.000000
2.118197 0.560506 0.821299 36.000000
2.137668 0.539879 0.827427 49.000000
2.166245 0.520843 0.836791 35.000000
2.199140 0.502402 0.848075 34.000000
2.204435 0.477396 0.848737 50.000000
2.246182 0.459749 0.863422 37.000000
2.278530 0.439570 0.874675 41.000000
2.292353 0.415279 0.878886 27.000000
2.347414 0.397812 0.898921 32.000000
2.374709 0.374661 0.908221 51.000000
2.401848 0.350984 0.917452 36.000000
2.437935 0.328028 0.930388 36.000000
2.487718 0.306047 0.948567 54.000000
2.509497 0.279739 0.955975 34.000000
2.540296 0.254021 0.966931 37.000000
2.552194 0.225936 0.970891 25.000000
2.638356 0.203389 1.003040 34.000000
2.663755 0.174865 1.012162 36.000000
2.702842 0.146570 1.026697 55.000000
2.769734 0.118625 1.051431 35.000000
2.794183 0.087871 1.060479 50.000000
2.836977 0.056962 1.076717 53.000000
2.888765 0.025178 1.096324 35.000000
2.893534 -0.007745 1.098098 29.000000
2.954110 -0.041467 1.121063 30.000000
3.023631 -0.076808 1.147473 32.000000
3.064590 -0.112710 1.163335 35.000000
3.109782 -0.149793 1.181170 28.000000
3.159388 -0.188216 1.200266 29.000000
3.241057 -0.230125 1.231966 29.000000
3.257044 -0.268461 1.238737 24.000000
3.253951 -0.305471 1.238310 31.000000
3.222425 -0.339542 1.227364 31.000000
3.195290 -0.373520 1.218088 30.000000
3.186453 -0.409143 1.215689 32.000000
3.158683 -0.442068 1.206217 31.000000
3.125840 -0.473868 1.195089 32.000000
3.129812 -0.510859 1.198004 32.000000
3.096372 -0.541611 1.186684 24.000000
3.071927 -0.573349 1.178805 32.000000
3.047251 -0.604465 1.170835 32.000000
3.031305 -0.637191 1.166500 31.000000
3.019665 -0.670622 1.163931 35.000000
2.984859 -0.698516 1.152367 29.000000
2.976964 -0.732597 1.151667 31.000000
2.977933 -0.768719 1.154081 34.000000
2.915078 -0.787944 1.132017 22.000000
2.919837 -0.824930 1.136294 29.000000
2.906248 -0.856829 1.133454 31.000000
2.887816 -0.887052 1.128770 29.000000
2.855762 -0.912695 1.118750 33.000000
2.823471 -0.937733 1.108653 31.000000
2.804147 -0.966847 1.104002 32.000000
2.789012 -0.997336 1.101101 28.000000
2.773720 -1.027147 1.097722 25.000000
2.771114 -1.062083 1.099849 30.000000
2.755067 -1.091843 1.096665 35.000000
2.738769 -1.121408 1.093389 32.000000
2.717419 -1.149238 1.088772 34.000000
2.687645 -1.172543 1.080227 31.000000
2.679145 -1.204890 1.080236 31.000000
2.669935 -1.237621 1.080526 33.000000
2.635357 -1.257648 1.070012 25.000000
2.617191 -1.285759 1.066775 34.000000
2.598691 -1.313678 1.063354 36.000000
2.584216 -1.343384 1.061652 31.000000
2.565219 -1.370686 1.058239 44.000000
2.545987 -1.397704 1.054738 32.000000
2.518332 -1.419823 1.047647 29.000000
2.510799 -1.453343 1.049171 34.000000
2.482758 -1.474664 1.042102 26.000000
2.466643 -1.502958 1.039948 34.000000
2.446257 -1.528478 1.036196 35.000000
2.421121 -1.551740 1.031044 31.000000
2.419986 -1.589582 1.035542 34.000000
2.414440 -1.624871 1.038235 24.000000
2.388579 -1.647529 1.032902 20.000000
2.397660 -1.693534 1.042168 31.000000
2.325288 -1.682611 1.016704 26.000000
2.307260 -1.708817 1.014102 35.000000
2.303240 -1.746885 1.018611 41.000000
2.291235 -1.779330 1.019682 32.000000
2.287058 -1.816782 1.023575 46.000000
2.263278 -1.840157 1.019470 35.000000
2.239280 -1.863258 1.015373 32.000000
2.225854 -1.895272 1.016208 32.000000
2.184355 -1.901501 1.003458 24.000000
2.184673 -1.945426 1.010635 34.000000
2.156243 -1.964277 1.004734 42.000000
2.145062 -1.998709 1.006876 31.000000
2.129963 -2.029833 1.007371 36.000000
2.100976 -2.047714 1.001294 34.000000
2.085260 -2.078522 1.001677 33.000000
2.065893 -2.105819 1.000340 30.000000
2.029866 -2.115817 0.990989 21.000000
2.032851 -2.166698 1.000736 35.000000
2.015630 -2.196931 1.000760 42.000000
1.985494 -2.212907 0.994517 32.000000
1.964704 -2.239147 0.992845 36.000000
1.954654 -2.280446 0.997949 33.000000
1.945269 -2.320947 1.002424 34.000000
1.914230 -2.335798 0.995982 32.000000
1.877214 -2.342805 0.986246 10.000000
1.802227 -2.300620 0.956433 16.000000
1.709714 -2.235176 0.917773 16.000000
1.637367 -2.189941 0.888260 16.000000
1.560611 -2.135564 0.855770 22.000000
1.468563 -2.056556 0.814293 16.000000
1.423534 -2.042809 0.799312 20.000000
1.340027 -1.968460 0.761261 18.000000
1.268996 -1.908264 0.729544 10.000000
1.216226 -1.875470 0.708839 16.000000
1.170753 -1.848999 0.690993 23.000000
1.137355 -1.842712 0.680972 28.000000
1.107971 -1.839317 0.672226 31.000000
1.086052 -1.847768 0.667992 30.000000
1.069831 -1.869142 0.668421 34.000000
1.050012 -1.881392 0.665599 31.000000
1.040013 -1.915052 0.670404 9.000000
0.815365 1.493347 0.539564 17.000000
0.832306 1.483215 0.541688 19.000000
0.855121 1.485846 0.548547 26.000000
0.859711 1.454809 0.542987 23.000000
0.880025 1.452927 0.548280 22.000000
0.897895 1.446727 0.552055 27.000000
0.909067 1.427672 0.550981 21.000000
0.939799 1.440963 0.562476 24.000000
0.928716 1.390522 0.549087 20.000000
0.947082 1.383054 0.552532 25.000000
0.967236 1.379785 0.557775 32.000000
0.979096 1.364717 0.558311 25.000000
0.999294 1.360911 0.563529 31.000000
1.002407 1.334126 0.559238 32.000000
1.026118 1.333200 0.565792 28.000000
1.019850 1.295230 0.556600 30.000000
1.045591 1.298086 0.564932 19.000000
1.071542 1.300506 0.573307 33.000000
1.070203 1.269976 0.567183 36.000000
1.096212 1.271827 0.575542 31.000000
1.112989 1.262590 0.579065 35.000000
1.133608 1.256136 0.583902 35.000000
1.147156 1.242916 0.585760 32.000000
1.160539 1.229587 0.587562 35.000000
1.167256 1.209246 0.586072 13.000000
1.173716 1.188895 0.584508 38.000000
1.196628 1.185188 0.591151 61.000000
1.225871 1.188089 0.601418 36.000000
1.238796 1.173727 0.603076 42.000000
1.241184 1.149648 0.599721 59.000000
1.271134 1.150941 0.609684 36.000000
1.269580 1.123572 0.604578 62.000000
1.292567 1.117980 0.611167 18.000000
1.304254 1.103302 0.612939 36.000000
1.319955 1.091011 0.616072 53.000000
1.339271 1.081424 0.620965 33.000000
1.354354 1.069091 0.624341 44.000000
1.373559 1.058983 0.629151 40.000000
1.388516 1.046101 0.632494 35.000000
1.396250 1.027002 0.632079 47.000000
1.426240 1.024711 0.642242 18.000000
1.426009 0.999904 0.638392 46.000000
1.456071 0.996799 0.648488 71.000000
1.494399 0.997941 0.661788 42.000000
1.505094 0.980760 0.663249 60.000000
1.515613 0.963461 0.664651 53.000000
1.545878 0.958396 0.674749 37.000000
1.560191 0.943000 0.677794 57.000000
1.562267 0.920200 0.675608 19.000000
1.588437 0.911514 0.683904 47.000000
1.602429 0.895482 0.686909 69.000000
1.624457 0.883651 0.693372 50.000000
1.642314 0.869286 0.698033 63.000000
1.664246 0.856689 0.704407 52.000000
1.685828 0.844052 0.711043 35.000000
1.699258 0.826543 0.713855 55.000000
1.720944 0.812870 0.720149 15.000000
1.746574 0.800978 0.728481 35.000000
1.767914 0.786736 0.734999 40.000000
1.780607 0.768310 0.737851 37.000000
1.801962 0.753071 0.744078 50.000000
1.853365 0.749927 0.762924 43.000000
1.874445 0.733744 0.769258 32.000000
1.895306 0.717395 0.775804 35.000000
1.894284 0.692402 0.773152 27.000000
1.928146 0.679897 0.784759 52.000000
1.953039 0.663917 0.792937 64.000000
1.977791 0.647400 0.801134 47.000000
1.998083 0.629008 0.807413 62.000000
2.018192 0.610175 0.813705 57.000000
2.060510 0.597461 0.828879 35.000000
2.075884 0.576302 0.833258 34.000000
2.104621 0.558524 0.842917 29.000000
2.119574 0.536799 0.847386 34.000000
2.152416 0.519169 0.859024 48.000000
2.203355 0.504937 0.877849 46.000000
2.213237 0.480690 0.880326 36.000000
2.245816 0.461025 0.891795 52.000000
2.264344 0.438080 0.897913 35.000000
2.296377 0.417245 0.909484 33.000000
2.342143 0.398048 0.926367 32.000000
2.364748 0.374190 0.934103 37.000000
2.391711 0.350509 0.943586 39.000000
2.427661 0.327546 0.956874 42.000000
2.481953 0.306127 0.977377 48.000000
2.503660 0.279845 0.984987 45.000000
2.538898 0.254617 0.998317 52.000000
2.564595 0.227660 1.007848 33.000000
2.641227 0.204207 1.037269 35.000000
2.657248 0.174910 1.042999 36.000000
2.696182 0.146646 1.057587 37.000000
2.758062 0.118444 1.081563 52.000000
2.796462 0.088221 1.096245 46.000000
2.811158 0.056588 1.101994 35.000000
2.862731 0.024962 1.122251 40.000000
2.909374 -0.007820 1.140499 27.000000
2.941766 -0.041371 1.153176 33.000000
3.001687 -0.076472 1.176601 32.000000
3.042473 -0.112267 1.193019 31.000000
3.087576 -0.149141 1.210957 34.000000
3.141518 -0.187732 1.232842 29.000000
3.232020 -0.230138 1.269104 29.000000
3.224725 -0.266606 1.266962 20.000000
3.230921 -0.304278 1.270183 32.000000
3.199734 -0.338035 1.258616 31.000000
3.191208 -0.373975 1.256374 32.000000
3.177654 -0.409214 1.252207 32.000000
3.145467 -0.441443 1.240558 36.000000
3.103530 -0.471747 1.225595 30.000000
3.116569 -0.510238 1.232248 29.000000
3.055718 -0.536064 1.209727 16.000000
3.045244 -0.569962 1.207098 31.000000
3.034282 -0.603756 1.204371 33.000000
3.013815 -0.635523 1.198123 34.000000
3.002206 -0.668802 1.195505 32.000000
2.990216 -0.701977 1.192788 36.000000
2.955220 -0.729364 1.180832 29.000000
2.956275 -0.765279 1.183350 29.000000
2.902677 -0.786861 1.164397 20.000000
2.884846 -0.817486 1.159806 29.000000
2.866875 -0.847807 1.155025 32.000000
2.853027 -0.879102 1.152051 35.000000
2.829934 -0.907348 1.145387 29.000000
2.815593 -0.938046 1.142230 34.000000
2.796484 -0.967020 1.137187 34.000000
2.816406 -1.010072 1.148569 27.000000
2.765771 -1.027617 1.131189 26.000000
2.741605 -1.053932 1.124092 29.000000
2.738672 -1.088671 1.126222 34.000000
2.722316 -1.118188 1.122899 41.000000
2.696820 -1.144149 1.116404 32.000000
2.688472 -1.176733 1.116459 35.000000
2.671371 -1.205379 1.112959 36.000000
2.637065 -1.225948 1.102281 26.000000
2.627521 -1.258339 1.102532 28.000000
2.605156 -1.284432 1.097476 37.000000
2.582882 -1.309670 1.091864 33.000000
2.572485 -1.341492 1.091925 41.000000
2.553507 -1.368797 1.088464 35.000000
2.530193 -1.393654 1.083064 35.000000
2.518829 -1.424957 1.082933 36.000000
2.507226 -1.456165 1.082702 30.000000
2.446992 -1.458491 1.061421 24.000000
2.450933 -1.498733 1.068092 35.000000
2.430593 -1.524210 1.064202 34.000000
2.413971 -1.551945 1.061960 35.000000
2.404902 -1.584655 1.063182 32.000000
2.406540 -1.625706 1.069857 25.000000
2.388878 -1.653097 1.067401 24.000000
2.374100 -1.683676 1.067044 22.000000
2.329336 -1.691231 1.052471 29.000000
2.299135 -1.709947 1.045180 34.000000
2.299494 -1.750239 1.051119 33.000000
2.261438 -1.762444 1.040247 35.000000
2.264601 -1.805627 1.047659 33.000000
2.251868 -1.837799 1.048703 37.000000
2.231405 -1.863920 1.046157 36.000000
2.193708 -1.873721 1.034793 25.000000
2.180127 -1.905359 1.035542 26.000000
2.173055 -1.943159 1.039632 33.000000
2.155185 -1.971463 1.038568 33.000000
2.143749 -2.006004 1.040837 39.000000
2.121695 -2.030815 1.037985 32.000000
2.090286 -2.044592 1.029675 35.000000
2.074630 -2.075295 1.030055 32.000000
2.051947 -2.099212 1.027112 24.000000
2.032241 -2.126257 1.025722 27.000000
2.018720 -2.159994 1.027509 31.000000
1.995222 -2.183205 1.024357 33.000000
1.970291 -2.207085 1.021587 35.000000
1.949425 -2.233286 1.019870 31.000000
1.943740 -2.277258 1.026345 35.000000
1.922141 -2.303203 1.024581 31.000000
1.906160 -2.336263 1.025930 26.000000
1.866221 -2.339623 1.014405 10.000000
1.779877 -2.282579 0.977343 10.000000
1.710808 -2.247277 0.950348 18.000000
1.613040 -2.168028 0.905672 16.000000
1.542402 -2.121256 0.875454 17.000000
1.467489 -2.065404 0.842279 18.000000
1.407434 -2.027679 0.817102 16.000000
1.341826 -1.981670 0.789269 11.000000
1.262955 -1.909878 0.751948 10.000000
1.211719 -1.876385 0.730359 13.000000
1.165091 -1.850711 0.712292 21.000000
1.130428 -1.839734 0.700231 27.000000
1.105999 -1.844526 0.694318 29.000000
1.077899 -1.845575 0.687106 29.000000
1.053522 -1.849632 0.681249 37.000000
1.043995 -1.883287 0.686249 24.000000
0.803058 1.478367 0.549776 9.000000
0.834912 1.497905 0.563016 19.000000
0.840079 1.466892 0.557336 18.000000
0.865283 1.473376 0.565961 17.000000
0.880884 1.463214 0.568268 25.000000
0.889885 1.440235 0.565602 19.000000
0.907673 1.433781 0.569481 18.000000
0.922969 1.423129 0.571721 21.000000
0.938100 1.412258 0.573960 10.000000
0.948721 1.392906 0.572709 21.000000
0.958138 1.374008 0.571653 22.000000
0.978272 1.370472 0.577001 17.000000
0.990150 1.355193 0.577493 30.000000
1.002647 1.339275 0.577756 17.000000
1.028452 1.342555 0.586360 27.000000
1.036993 1.323049 0.585149 24.000000
1.065935 1.329348 0.595405 10.000000
1.044295 1.273070 0.577584 34.000000
1.073138 1.278885 0.587857 24.000000
1.096123 1.277031 0.594746 27.000000
1.103633 1.257093 0.593364 30.000000
1.123524 1.251210 0.598613 21.000000
1.143403 1.244964 0.603830 27.000000
1.160101 1.234973 0.607379 31.000000
1.173450 1.221350 0.609192 19.000000
1.186688 1.207562 0.611005 36.000000
1.203150 1.196980 0.614465 28.000000
1.226256 1.192653 0.621293 33.000000
1.232444 1.171794 0.619591 34.000000
1.251528 1.164160 0.624958 27.000000
1.264247 1.149441 0.626625 33.000000
1.280363 1.137673 0.629961 34.000000
1.303408 1.131863 0.636768 25.000000
1.297441 1.101806 0.629944 34.000000
1.313124 1.089512 0.633179 29.000000
1.328761 1.076966 0.636422 30.000000
1.365824 1.082124 0.650330 34.000000
1.385151 1.071735 0.655310 28.000000
1.400299 1.058636 0.658722 32.000000
1.411972 1.042156 0.660095 26.000000
1.434457 1.034113 0.666991 25.000000
1.445474 1.017559 0.668606 32.000000
1.452925 0.997897 0.668103 32.000000
1.479154 0.991509 0.676703 35.000000
1.497613 0.979532 0.681716 35.000000
1.512070 0.964746 0.684961 30.000000
1.530371 0.952160 0.689883 31.000000
1.552652 0.941753 0.696669 35.000000
1.566820 0.926143 0.699770 28.000000
1.589007 0.914917 0.706412 33.000000
1.598901 0.896507 0.707671 32.000000
1.608616 0.877917 0.708930 33.000000
1.634681 0.868013 0.717297 33.000000
1.660390 0.857852 0.725931 31.000000
1.673916 0.840669 0.728846 34.000000
1.695431 0.827600 0.735583 31.000000
1.738122 0.823845 0.751121 28.000000
1.746944 0.803868 0.752381 32.000000
1.755515 0.783765 0.753579 32.000000
1.772438 0.767297 0.758368 32.000000
1.814996 0.761240 0.774084 32.000000
1.836124 0.745578 0.780614 30.000000
1.865830 0.732889 0.790763 32.000000
1.886763 0.716336 0.797260 29.000000
1.894379 0.694747 0.798386 21.000000
1.928156 0.682196 0.810297 37.000000
1.944204 0.663108 0.814991 32.000000
1.964529 0.645133 0.821542 33.000000
1.989108 0.628186 0.829817 33.000000
2.000267 0.606651 0.832558 28.000000
2.051385 0.596619 0.851831 31.000000
2.084613 0.580509 0.863724 34.000000
2.054836 0.547062 0.849805 10.000000
2.110128 0.536155 0.871074 31.000000
2.161040 0.522737 0.890158 29.000000
2.180017 0.501152 0.896689 27.000000
2.208056 0.481085 0.906660 30.000000
2.231362 0.459488 0.914631 29.000000
2.245341 0.435708 0.919109 27.000000
2.281799 0.415802 0.932770 26.000000
2.295369 0.391192 0.937037 9.000000
2.354474 0.373641 0.959907 31.000000
2.385846 0.350708 0.971826 29.000000
2.426257 0.328389 0.987261 26.000000
2.461852 0.304578 1.000839 31.000000
2.492681 0.279514 1.012394 29.000000
2.518635 0.253355 1.022250 28.000000
2.572096 0.228967 1.043015 29.000000
2.615988 0.202784 1.060214 13.000000
2.645727 0.174735 1.071889 28.000000
2.712360 0.147984 1.098213 29.000000
2.732225 0.117755 1.105890 25.000000
2.761193 0.087305 1.117227 28.000000
2.817529 0.056870 1.140000 30.000000
2.850343 0.024962 1.153313 21.000000
2.873611 -0.007758 1.162689 27.000000
2.915133 -0.041174 1.179471 27.000000
2.979428 -0.076136 1.205527 29.000000
3.043196 -0.112581 1.231674 28.000000
3.078831 -0.149162 1.246469 22.000000
3.127903 -0.187526 1.266984 27.000000
3.195095 -0.228168 1.294571 24.000000
3.229312 -0.267714 1.309238 20.000000
3.198421 -0.302109 1.297895 27.000000
3.167374 -0.335659 1.286133 24.000000
3.158891 -0.371388 1.283842 26.000000
3.154599 -0.407501 1.283319 29.000000
3.149993 -0.443509 1.282586 29.000000
3.108397 -0.473925 1.266905 30.000000
3.070980 -0.504253 1.253210 25.000000
3.056110 -0.537764 1.248761 14.000000
3.031850 -0.569252 1.240482 29.000000
3.011910 -0.601129 1.233977 23.000000
2.991524 -0.632795 1.227681 28.000000
2.984384 -0.666984 1.226877 31.000000
2.959074 -0.696717 1.218130 29.000000
2.960089 -0.732930 1.221148 29.000000
2.947576 -0.765547 1.218189 26.000000
2.876441 -0.782124 1.190917 10.000000
2.894425 -0.822755 1.201058 29.000000
2.836252 -0.841350 1.179601 25.000000
2.840234 -0.877930 1.183984 28.000000
2.821721 -0.907604 1.179019 29.000000
2.807287 -0.938354 1.175810 25.000000
2.810156 -0.975000 1.179883 31.000000
2.786097 -1.002602 1.173186 27.000000
2.740358 -1.021300 1.156820 10.000000
2.737613 -1.056128 1.159150 32.000000
2.708683 -1.080622 1.150367 26.000000
2.696724 -1.111716 1.148932 28.000000
2.688663 -1.144440 1.149136 30.000000
2.659065 -1.167715 1.140198 26.000000
2.646306 -1.198088 1.138389 28.000000
2.628947 -1.226398 1.134758 27.000000
2.573186 -1.236644 1.115047 10.000000
2.601569 -1.286573 1.131241 29.000000
2.566356 -1.306046 1.120559 29.000000
2.556435 -1.337345 1.120200 30.000000
2.529194 -1.360283 1.113079 31.000000
2.505992 -1.384910 1.107591 26.000000
2.510910 -1.425279 1.114627 30.000000
2.483137 -1.447134 1.107251 29.000000
2.431112 -1.454147 1.089036 10.000000
2.431097 -1.491886 1.094161 31.000000
2.414688 -1.519762 1.091924 29.000000
2.390243 -1.542386 1.086119 27.000000
2.385022 -1.577532 1.089135 29.000000
2.387184 -1.617912 1.095680 17.000000
2.376693 -1.651208 1.097153 16.000000
2.354937 -1.675604 1.092835 19.000000
2.295237 -1.672177 1.070882 10.000000
2.302687 -1.718630 1.080983 34.000000
2.265629 -1.730654 1.069486 27.000000
2.253678 -1.762815 1.070667 29.000000
2.256697 -1.806017 1.078357 31.000000
2.222050 -1.820405 1.068934 24.000000
2.216214 -1.858362 1.073367 29.000000
2.174991 -1.865090 1.059945 22.000000
2.161438 -1.896637 1.060796 10.000000
2.161343 -1.940609 1.068440 29.000000
2.136445 -1.962557 1.063979 25.000000
2.119123 -1.989818 1.062395 26.000000
2.083752 -2.001359 1.052715 27.000000
2.071756 -2.035451 1.054926 23.000000
2.056039 -2.066162 1.055313 28.000000
2.033334 -2.090002 1.052286 21.000000
2.013777 -2.116968 1.050856 10.000000
1.993767 -2.143725 1.049416 30.000000
1.992595 -2.191173 1.057963 26.000000
1.968696 -2.214207 1.054604 27.000000
1.941514 -2.233398 1.049669 29.000000
1.929482 -2.270286 1.052883 24.000000
1.904891 -2.292562 1.049412 29.000000
1.888935 -2.325536 1.050905 17.000000
1.881451 -2.369517 1.057216 9.000000
1.780550 -2.294238 1.010861 10.000000
1.695913 -2.235657 0.972900 9.000000
1.611388 -2.176291 0.935532 10.000000
1.526987 -2.110642 0.896417 10.000000
1.476985 -2.089672 0.876929 10.000000
1.408826 -2.040478 0.846175 13.000000
1.327463 -1.971125 0.807891 9.000000
1.251675 -1.903347 0.771159 9.000000
1.208232 -1.881849 0.753777 10.000000
1.163036 -1.855656 0.734917 10.000000
1.134543 -1.857543 0.727553 24.000000
1.095294 -1.838037 0.711982 26.000000
1.068525 -1.838389 0.704375 26.000000
1.049946 -1.855578 0.703275 31.000000
1.039323 -1.884343 0.706568 16.000000
0.796360 1.476422 0.564576 19.000000
0.817807 1.474660 0.569993 23.000000
0.831165 1.460767 0.570776 21.000000
0.846711 1.450909 0.573105 28.000000
0.860693 1.436288 0.573651 21.000000
0.875925 1.426133 0.575974 29.000000
0.888533 1.411763 0.576609 22.000000
0.908734 1.409145 0.582151 18.000000
0.916846 1.386064 0.579272 24.000000
0.931670 1.375269 0.581475 23.000000
0.949021 1.368134 0.585335 24.000000
0.966402 1.360774 0.589154 28.000000
0.980933 1.349377 0.591314 25.000000
0.998221 1.341596 0.595151 31.000000
1.013442 1.329300 0.597047 28.000000
1.027689 1.317329 0.599106 22.000000
1.030088 1.290542 0.594391 31.000000
1.055856 1.292953 0.603223 27.000000
1.060791 1.269673 0.600112 32.000000
1.074487 1.257158 0.602100 35.000000
1.100386 1.258624 0.610897 29.000000
1.114021 1.245641 0.612853 33.000000
1.136994 1.242882 0.619934 30.000000
1.150470 1.229516 0.621797 29.000000
1.157297 1.209157 0.620185 35.000000
1.159996 1.185924 0.617026 37.000000
1.179532 1.178826 0.622305 44.000000
1.202455 1.174737 0.629302 36.000000
1.222044 1.166959 0.634570 34.000000
1.227982 1.146142 0.632698 54.000000
1.243433 1.135217 0.636438 58.000000
1.280266 1.142283 0.650437 34.000000
1.282242 1.117949 0.646731 32.000000
1.297572 1.106261 0.650401 32.000000
1.309714 1.090890 0.651905 36.000000
1.328538 1.081691 0.657269 35.000000
1.355076 1.077573 0.665961 40.000000
1.366511 1.061949 0.667660 37.000000
1.378230 1.045758 0.669131 31.000000
1.400674 1.038122 0.676197 33.000000
1.408369 1.018784 0.675755 32.000000
1.423044 1.005193 0.679108 33.000000
1.437664 0.991287 0.682468 40.000000
1.467618 0.987631 0.693134 51.000000
1.474396 0.968030 0.692755 34.000000
1.492641 0.955930 0.697864 55.000000
1.530604 0.955791 0.712107 68.000000
1.544876 0.940388 0.715367 35.000000
1.563081 0.927145 0.720357 34.000000
1.581211 0.913598 0.725361 34.000000
1.599263 0.899683 0.730318 51.000000
1.625321 0.889981 0.738993 66.000000
1.634758 0.871351 0.740454 37.000000
1.656618 0.858642 0.747125 45.000000
1.674045 0.843804 0.752260 59.000000
1.691625 0.828281 0.757037 35.000000
1.708799 0.812750 0.762012 27.000000
1.734353 0.800853 0.770740 36.000000
1.751427 0.784589 0.775681 34.000000
1.785333 0.775452 0.788077 35.000000
1.797935 0.756549 0.791045 34.000000
1.831834 0.746221 0.803362 35.000000
1.835604 0.723347 0.802520 36.000000
1.873563 0.713826 0.816896 32.000000
1.881293 0.692089 0.817821 29.000000
1.914797 0.679708 0.830226 37.000000
1.943923 0.665228 0.840765 45.000000
1.959825 0.645698 0.845505 50.000000
1.979927 0.627295 0.852083 37.000000
2.004409 0.609797 0.860573 55.000000
2.024224 0.590596 0.867037 35.000000
2.034939 0.568600 0.869915 29.000000
2.076805 0.554572 0.885782 33.000000
2.100610 0.535297 0.894260 35.000000
2.124227 0.515467 0.902681 34.000000
2.165733 0.499305 0.918682 33.000000
2.179971 0.476470 0.923387 35.000000
2.230371 0.460683 0.943031 35.000000
2.257854 0.439519 0.953355 37.000000
2.262490 0.413531 0.953963 27.000000
2.316891 0.396103 0.975578 32.000000
2.352927 0.374623 0.989703 37.000000
2.375214 0.350232 0.997772 35.000000
2.401737 0.326042 1.007927 36.000000
2.432589 0.301896 1.019851 37.000000
2.476950 0.278586 1.037796 36.000000
2.511980 0.253401 1.051416 37.000000
2.514567 0.224522 1.051833 26.000000
2.604329 0.202525 1.088628 35.000000
2.629252 0.174168 1.098767 36.000000
2.658729 0.145447 1.110313 35.000000
2.701630 0.116778 1.127900 35.000000
2.758049 0.087506 1.151088 41.000000
2.791072 0.056497 1.164839 37.000000
2.828353 0.024787 1.180429 35.000000
2.865359 -0.007770 1.195834 35.000000
2.906694 -0.041144 1.213069 35.000000
2.975310 -0.076275 1.241656 33.000000
3.011217 -0.111796 1.257057 35.000000
3.092788 -0.150303 1.291503 38.000000
3.123087 -0.187770 1.304873 32.000000
3.194565 -0.228841 1.335137 33.000000
3.214914 -0.267394 1.344543 29.000000
3.161277 -0.299509 1.322859 32.000000
3.180656 -0.338167 1.332261 35.000000
3.135591 -0.369783 1.314228 35.000000
3.108526 -0.402721 1.304103 36.000000
3.094825 -0.437071 1.299642 34.000000
3.094327 -0.473305 1.301148 36.000000
3.084494 -0.508039 1.298196 35.000000
3.051527 -0.538553 1.286077 29.000000
3.045486 -0.573569 1.285257 34.000000
3.025448 -0.605762 1.278594 35.000000
3.009581 -0.638602 1.274054 34.000000
2.984535 -0.669010 1.265291 35.000000
2.977061 -0.703254 1.264281 35.000000
2.964696 -0.736282 1.261363 35.000000
2.934163 -0.764446 1.250720 35.000000
2.880957 -0.786110 1.230767 28.000000
2.863489 -0.816497 1.225581 30.000000
2.858782 -0.850735 1.226401 35.000000
2.827148 -0.876758 1.215820 32.000000
2.795469 -0.902077 1.205062 33.000000
2.781102 -0.932677 1.201810 33.000000
2.757736 -0.960037 1.194583 32.000000
2.773267 -1.001047 1.204484 30.000000
2.753417 -1.029782 1.199442 31.000000
2.742177 -1.061175 1.197698 33.000000
2.717554 -1.087696 1.190593 33.000000
2.683999 -1.110089 1.179643 32.000000
2.667492 -1.139172 1.176138 33.000000
2.650642 -1.167965 1.172638 32.000000
2.599878 -1.181224 1.153966 29.000000
2.612104 -1.222816 1.163403 30.000000
2.582010 -1.244657 1.154035 27.000000
2.572209 -1.276706 1.154297 32.000000
2.558324 -1.306081 1.152219 35.000000
2.535560 -1.331517 1.146801 32.000000
2.521155 -1.360420 1.144636 33.000000
2.510059 -1.391858 1.144605 40.000000
2.478448 -1.411705 1.135229 30.000000
2.466907 -1.442720 1.135107 32.000000
2.450954 -1.471248 1.133043 27.000000
2.426801 -1.494711 1.127207 32.000000
2.406407 -1.520195 1.123127 36.000000
2.385880 -1.545493 1.119054 31.000000
2.384420 -1.583201 1.123940 32.000000
2.382549 -1.621173 1.128795 25.000000
2.357246 -1.643237 1.122700 17.000000
2.335566 -1.667550 1.118342 22.000000
2.282919 -1.670232 1.099780 25.000000
2.279783 -1.707529 1.104417 29.000000
2.249478 -1.725864 1.096675 34.000000
2.223584 -1.745801 1.090293 29.000000
2.218622 -1.783572 1.095070 30.000000
2.221081 -1.826682 1.102833 35.000000
2.182915 -1.837587 1.091364 27.000000
2.202189 -1.896010 1.107880 28.000000
2.149559 -1.893924 1.089231 24.000000
2.135458 -1.925347 1.089970 25.000000
2.132291 -1.965408 1.095615 31.000000
2.100319 -1.980753 1.087395 26.000000
2.091952 -2.018231 1.091507 29.000000
2.063019 -2.036100 1.084969 31.000000
2.040633 -2.060185 1.081947 27.000000
2.041836 -2.106694 1.090648 26.000000
2.005916 -2.116865 1.080452 19.000000
1.985851 -2.143654 1.078957 24.000000
1.968765 -2.173710 1.079178 29.000000
1.951243 -2.203627 1.079283 27.000000
1.927229 -2.226302 1.075838 26.000000
1.909094 -2.255862 1.075815 26.000000
1.881528 -2.274507 1.070559 24.000000
1.892285 -2.340234 1.087402 23.000000
1.884495 -2.384254 1.093851 10.000000
1.775231 -2.298216 1.041169 10.000000
1.689437 -2.240729 1.002640 10.000000
1.603777 -2.176936 0.962214 10.000000
1.533501 -2.130481 0.930316 10.000000
1.456314 -2.071190 0.893716 10.000000
1.385959 -2.018078 0.860512 10.000000
1.327459 -1.979283 0.834141 10.000000
1.242867 -1.900631 0.791783 9.000000
1.202131 -1.883166 0.775655 10.000000
1.162003 -1.865080 0.759556 12.000000
1.122487 -1.846242 0.743490 18.000000
1.094197 -1.847700 0.735907 18.000000
1.074384 -1.860447 0.732928 22.000000
1.052180 -1.868860 0.728342 21.000000
1.030752 -1.881855 0.725577 17.000000
0.811071 1.472541 0.584877 23.000000
0.824502 1.458655 0.585618 29.000000
0.841077 1.448254 0.587839 28.000000
0.856515 1.438233 0.590222 27.000000
0.874247 1.432018 0.594275 34.000000
0.887012 1.417649 0.594989 28.000000
0.908188 1.414469 0.600466 32.000000
0.912933 1.387955 0.596054 26.000000
0.912029 1.353669 0.588146 30.000000
0.929207 1.346684 0.592018 34.000000
0.962578 1.362505 0.606202 32.000000
0.963440 1.332047 0.599854 34.000000
0.991721 1.339429 0.610590 33.000000
1.003295 1.323935 0.611030 29.000000
1.014681 1.308291 0.611405 36.000000
1.032464 1.299412 0.615027 24.000000
1.040596 1.279878 0.613594 35.000000
1.054399 1.267578 0.615635 45.000000
1.070376 1.259114 0.619646 34.000000
1.084003 1.246402 0.621639 43.000000
1.106851 1.244012 0.628878 34.000000
1.129818 1.241238 0.636149 33.000000
1.133740 1.217612 0.632734 41.000000
1.159882 1.217670 0.641766 24.000000
1.153622 1.183817 0.632907 55.000000
1.183008 1.186624 0.643654 42.000000
1.198663 1.176306 0.647534 40.000000
1.211572 1.162079 0.649292 53.000000
1.227662 1.150875 0.652803 57.000000
1.246649 1.143016 0.658414 49.000000
1.255754 1.125063 0.658257 59.000000
1.275133 1.116227 0.663560 22.000000
1.283372 1.098483 0.663620 35.000000
1.302585 1.089163 0.668836 37.000000
1.324971 1.082898 0.676130 34.000000
1.336931 1.067119 0.677646 43.000000
1.359265 1.060194 0.684926 35.000000
1.370587 1.044400 0.686681 37.000000
1.389644 1.033638 0.691805 40.000000
1.419461 1.031114 0.702751 19.000000
1.426751 1.011876 0.702503 35.000000
1.445250 1.000531 0.707791 59.000000
1.467590 0.991489 0.714968 37.000000
1.478256 0.974352 0.716483 44.000000
1.492704 0.959545 0.719820 43.000000
1.522729 0.954429 0.730638 36.000000
1.525188 0.931781 0.728285 51.000000
1.559124 0.928141 0.740981 21.000000
1.573235 0.912159 0.744191 37.000000
1.591247 0.898297 0.749244 41.000000
1.608875 0.884430 0.754552 36.000000
1.626721 0.869890 0.759571 46.000000
1.648215 0.857538 0.766693 51.000000
1.665908 0.842324 0.771617 34.000000
1.687346 0.829203 0.778713 37.000000
1.704499 0.813619 0.783850 16.000000
1.721614 0.797780 0.788937 31.000000
1.747045 0.785344 0.797819 36.000000
1.768221 0.770611 0.804734 29.000000
1.789263 0.755392 0.811602 32.000000
1.805960 0.738068 0.816490 33.000000
1.843785 0.729221 0.831314 31.000000
1.860337 0.710991 0.836103 30.000000
1.867851 0.689568 0.837224 14.000000
1.909894 0.680383 0.853870 34.000000
1.930284 0.662783 0.860705 42.000000
1.959248 0.647637 0.871445 41.000000
1.970541 0.626405 0.874281 35.000000
1.999343 0.610243 0.884848 57.000000
2.010342 0.588398 0.887561 34.000000
2.029817 0.568936 0.894391 35.000000
2.058053 0.551480 0.905074 20.000000
2.099578 0.536861 0.921575 33.000000
2.118737 0.515906 0.928240 34.000000
2.146641 0.496571 0.938690 32.000000
2.160815 0.473837 0.943490 30.000000
2.188394 0.453474 0.953816 37.000000
2.242855 0.437954 0.976163 33.000000
2.261047 0.414581 0.982666 28.000000
2.306095 0.395559 1.001208 27.000000
2.342062 0.373993 1.015371 34.000000
2.359559 0.349083 1.021908 33.000000
2.395075 0.326262 1.036253 35.000000
2.412206 0.300355 1.042567 31.000000
2.470145 0.278689 1.066547 46.000000
2.495807 0.252605 1.076904 33.000000
2.516693 0.225502 1.085213 29.000000
2.601398 0.202894 1.120989 32.000000
2.617141 0.173907 1.127345 35.000000
2.651078 0.145523 1.141254 35.000000
2.689201 0.116599 1.157318 34.000000
2.745365 0.087324 1.181108 35.000000
2.773648 0.056312 1.193236 33.000000
2.801573 0.024666 1.205182 32.000000
2.843002 -0.007745 1.223058 30.000000
2.888739 -0.041078 1.242624 33.000000
2.961630 -0.076176 1.274036 34.000000
3.001858 -0.111768 1.291714 34.000000
3.055515 -0.149082 1.315212 32.000000
3.104122 -0.187287 1.336934 31.000000
3.166099 -0.227536 1.364054 29.000000
3.186248 -0.265928 1.373606 24.000000
3.142006 -0.298655 1.355425 30.000000
3.147789 -0.335690 1.358740 32.000000
3.111958 -0.368182 1.344623 35.000000
3.107691 -0.403980 1.344103 32.000000
3.084912 -0.437199 1.335599 34.000000
3.070964 -0.471290 1.330834 35.000000
3.056428 -0.505171 1.326382 32.000000
3.014764 -0.533828 1.309623 22.000000
3.022219 -0.571043 1.314705 31.000000
2.993350 -0.601223 1.303967 31.000000
2.986460 -0.635773 1.303258 32.000000
2.974982 -0.669110 1.300182 31.000000
2.958544 -0.701284 1.295353 42.000000
2.914965 -0.726375 1.278679 32.000000
2.924700 -0.764609 1.285409 29.000000
2.894086 -0.792118 1.274333 21.000000
2.854452 -0.816486 1.259372 28.000000
2.832065 -0.845505 1.252437 29.000000
2.813769 -0.875488 1.247363 34.000000
2.790860 -0.903654 1.240253 32.000000
2.750290 -0.925543 1.225278 29.000000
2.744449 -0.958689 1.225778 31.000000
2.729622 -0.988701 1.222298 27.000000
2.697182 -1.011944 1.210976 19.000000
2.707319 -1.051570 1.219318 30.000000
2.683043 -1.077369 1.211694 29.000000
2.654043 -1.101391 1.202538 33.000000
2.658837 -1.139365 1.208632 32.000000
2.633547 -1.164477 1.201135 30.000000
2.603894 -1.187192 1.191733 32.000000
2.599196 -1.221108 1.193679 26.000000
2.560870 -1.238937 1.180284 22.000000
2.563876 -1.276688 1.185962 33.000000
2.533048 -1.298153 1.176619 31.000000
2.539490 -1.337970 1.183990 45.000000
2.508163 -1.358726 1.174575 34.000000
2.485487 -1.382943 1.168515 32.000000
2.478130 -1.416438 1.170338 36.000000
2.462408 -1.445246 1.168267 29.000000
2.422613 -1.459534 1.154855 21.000000
2.414361 -1.492560 1.156484 33.000000
2.386163 -1.513086 1.148590 30.000000
2.377271 -1.545782 1.150021 35.000000
2.367989 -1.578472 1.151344 32.000000
2.354485 -1.608538 1.150779 27.000000
2.348336 -1.643731 1.153846 24.000000
2.319106 -1.662685 1.145712 22.000000
2.278639 -1.672947 1.131839 22.000000
2.267196 -1.705478 1.133318 35.000000
2.234015 -1.720154 1.123120 32.000000
2.233647 -1.760284 1.129477 35.000000
2.199473 -1.774941 1.119683 30.000000
2.194706 -1.811926 1.124061 35.000000
2.185101 -1.846802 1.126943 36.000000
2.172436 -1.877945 1.127501 27.000000
2.137493 -1.891118 1.117479 24.000000
2.109542 -1.910028 1.111036 32.000000
2.113248 -1.956239 1.120464 29.000000
2.101712 -1.990657 1.122871 35.000000
2.069587 -2.005652 1.114524 28.000000
2.048464 -2.029133 1.111035 32.000000
2.029394 -2.056501 1.109715 31.000000
2.013209 -2.087025 1.110079 25.000000
1.996688 -2.117417 1.110422 25.000000
1.979733 -2.147675 1.110649 32.000000
1.956177 -2.170849 1.107311 32.000000
1.938614 -2.200853 1.107410 33.000000
1.908398 -2.216434 1.100445 29.000000
1.903610 -2.259376 1.106965 33.000000
1.887992 -2.292465 1.108649 32.000000
1.877725 -2.332775 1.113687 26.000000
1.897257 -2.414573 1.138174 27.000000
1.768234 -2.302832 1.071935 13.000000
1.686972 -2.248444 1.033736 14.000000
1.593267 -2.173520 0.987088 16.000000
1.517747 -2.119528 0.951027 17.000000
1.454480 -2.079547 0.921945 18.000000
1.379028 -2.018872 0.884467 13.000000
1.320745 -1.980191 0.857488 10.000000
1.250642 -1.920698 0.822169 10.000000
1.190875 -1.876376 0.794037 10.000000
1.163340 -1.878333 0.785913 16.000000
1.111472 -1.839489 0.761136 24.000000
1.089387 -1.848437 0.756412 25.000000
1.070559 -1.865999 0.755292 25.000000
1.045913 -1.870353 0.748931 31.000000
0.801968 1.466184 0.597968 30.000000
0.818760 1.455946 0.600243 24.000000
0.836711 1.450161 0.604379 28.000000
0.847405 1.431967 0.603414 26.000000
0.865128 1.425774 0.607556 25.000000
0.872910 1.403467 0.604839 32.000000
0.896438 1.404324 0.612161 26.000000
0.911497 1.393544 0.614490 18.000000
0.910789 1.359287 0.606394 32.000000
0.935933 1.363824 0.615660 27.000000
0.945251 1.344957 0.614421 32.000000
0.951509 1.322258 0.611400 30.000000
0.982391 1.333442 0.624156 30.000000
0.988312 1.310519 0.621063 35.000000
1.013876 1.313483 0.630307 27.000000
1.036756 1.312346 0.637819 27.000000
1.027420 1.270950 0.625648 31.000000
1.059048 1.280244 0.638492 30.000000
1.060845 1.253345 0.633359 35.000000
1.080592 1.247718 0.638957 30.000000
1.106459 1.248761 0.648198 32.000000
1.123190 1.238993 0.652035 36.000000
1.136008 1.226065 0.654226 29.000000
1.155777 1.219289 0.659854 23.000000
1.152915 1.188767 0.652562 40.000000
1.172502 1.181570 0.658085 34.000000
1.191467 1.174548 0.663849 61.000000
1.207667 1.163544 0.667511 53.000000
1.220446 1.149057 0.669273 41.000000
1.229150 1.131811 0.669452 69.000000
1.269155 1.141914 0.686013 34.000000
1.270783 1.117957 0.682426 26.000000
1.283147 1.102753 0.684041 33.000000
1.298391 1.090807 0.687814 31.000000
1.314034 1.078219 0.691261 36.000000
1.329126 1.065771 0.694941 35.000000
1.344618 1.052677 0.698294 31.000000
1.363228 1.042645 0.703833 47.000000
