x y z intensity
2.927054 -1.776050 -0.092921 8.000000
2.941464 -1.828938 -0.093794 7.000000
2.959313 -1.884933 -0.094798 5.000000
2.942826 -1.919798 -0.094719 5.000000
2.896864 -1.935107 -0.093698 3.000000
2.883844 -1.972124 -0.093753 1.000000
2.907234 -2.035010 -0.095012 2.000000
2.819905 -2.019966 -0.092659 2.000000
2.809866 -2.059434 -0.092847 2.000000
2.819204 -2.113946 -0.093590 2.000000
2.887295 -2.214459 -0.096421 3.000000
2.768584 -2.171748 -0.093027 2.000000
2.729141 -2.189316 -0.092285 1.000000
2.716702 -2.228412 -0.092359 1.000000
2.569798 -2.155133 -0.087950 1.000000
2.606860 -2.235035 -0.089733 1.000000
2.514671 -2.204037 -0.087177 1.000000
2.471965 -2.214617 -0.086323 1.000000
2.462394 -2.254867 -0.086537 1.000000
2.532609 -2.370376 -0.089694 1.000000
2.423590 -2.318337 -0.086414 4.000000
2.155162 -2.107040 -0.077381 7.000000
1.941220 -1.939544 -0.070284 7.000000
1.748657 -1.785583 -0.063782 8.000000
1.601171 -1.670971 -0.058850 9.000000
1.476892 -1.575242 -0.054778 9.000000
1.452930 -1.583827 -0.054327 26.000000
1.422318 -1.584629 -0.053627 35.000000
1.395133 -1.588703 -0.053056 32.000000
1.374514 -1.600015 -0.052737 25.000000
1.353912 -1.610998 -0.052419 33.000000
1.342658 -1.633303 -0.052539 26.000000
1.324909 -1.647761 -0.052346 29.000000
1.328593 -1.689529 -0.053015 30.000000
1.304128 -1.695908 -0.052573 28.000000
1.291653 -1.717940 -0.052621 32.000000
1.269993 -1.727822 -0.052237 26.000000
1.257039 -1.749622 -0.052283 21.000000
1.240906 -1.767195 -0.052207 27.000000
1.216002 -1.772333 -0.051768 25.000000
1.207910 -1.801998 -0.052051 26.000000
1.185570 -1.810796 -0.051733 24.000000
1.168573 -1.827759 -0.051654 29.000000
1.169881 -1.874265 -0.052336 25.000000
1.154647 -1.895347 -0.052370 20.000000
1.077859 -1.813281 -0.049582 8.000000
1.200981 2.048553 -0.037979 8.000000
1.187109 1.975373 -0.037000 28.000000
1.208493 1.962359 -0.037071 30.000000
1.224331 1.940748 -0.037050 28.000000
1.253482 1.939898 -0.037363 32.000000
1.263386 1.909545 -0.037179 31.000000
1.286805 1.899846 -0.037330 33.000000
1.310245 1.889877 -0.037552 32.000000
1.321922 1.863326 -0.037377 30.000000
1.342075 1.848892 -0.037516 29.000000
1.356058 1.826221 -0.037421 32.000000
1.387870 1.827357 -0.037820 39.000000
1.404554 1.808211 -0.037878 35.000000
1.421012 1.788922 -0.037865 35.000000
1.440328 1.773441 -0.038004 33.000000
1.465892 1.765374 -0.038241 36.000000
1.484942 1.749335 -0.038311 31.000000
1.490747 1.718053 -0.038116 32.000000
1.509354 1.701737 -0.038185 36.000000
1.537825 1.696325 -0.038507 43.000000
1.552737 1.675815 -0.038492 43.000000
1.574305 1.662500 -0.038716 45.000000
1.592335 1.645239 -0.038786 44.000000
1.613672 1.631391 -0.038941 42.000000
1.638430 1.620703 -0.039181 36.000000
1.652423 1.599289 -0.039166 36.000000
1.673320 1.584688 -0.039322 58.000000
1.694150 1.569726 -0.039548 67.000000
1.700098 1.541113 -0.039361 53.000000
1.731729 1.535751 -0.039775 78.000000
1.748331 1.516817 -0.039846 63.000000
1.780038 1.510610 -0.040261 71.000000
1.792581 1.487892 -0.040246 53.000000
1.797007 1.458815 -0.040058 35.000000
1.840240 1.460861 -0.040735 37.000000
1.859967 1.443774 -0.040893 38.000000
1.883599 1.429480 -0.041139 58.000000
1.899044 1.408838 -0.041211 54.000000
1.918320 1.390986 -0.041299 43.000000
1.933364 1.370012 -0.041371 54.000000
1.948191 1.348892 -0.041443 36.000000
1.971083 1.333157 -0.041691 35.000000
1.997977 1.319925 -0.042027 53.000000
2.016431 1.300781 -0.042187 67.000000
2.038953 1.284063 -0.042363 71.000000
2.052780 1.261778 -0.042437 64.000000
2.074961 1.244489 -0.042687 68.000000
2.092717 1.224415 -0.042849 40.000000
2.114574 1.206502 -0.043026 52.000000
2.158159 1.200477 -0.043719 37.000000
2.144755 1.162589 -0.043263 62.000000
2.174872 1.148546 -0.043618 65.000000
2.196150 1.129470 -0.043870 62.000000
2.230637 1.116689 -0.044390 65.000000
2.256150 1.098968 -0.044657 63.000000
2.276982 1.078660 -0.044912 42.000000
2.320303 1.068534 -0.045536 46.000000
2.340891 1.047354 -0.045792 34.000000
2.347578 1.019922 -0.045781 46.000000
2.372335 1.000201 -0.046050 51.000000
2.396904 0.980023 -0.046397 46.000000
2.407416 0.954019 -0.046397 37.000000
2.464285 0.945769 -0.047292 37.000000
2.493100 0.925902 -0.047732 57.000000
2.512414 0.902168 -0.047911 34.000000
2.526833 0.876510 -0.048083 36.000000
2.550361 0.853842 -0.048352 51.000000
2.578503 0.832237 -0.048712 47.000000
2.606530 0.810135 -0.049155 61.000000
2.624691 0.784673 -0.049335 54.000000
2.657076 0.763058 -0.049785 52.000000
2.698914 0.743494 -0.050500 37.000000
2.711694 0.715460 -0.050591 34.000000
2.762938 0.697018 -0.051402 44.000000
2.765471 0.665842 -0.051312 49.000000
2.801739 0.642506 -0.051941 34.000000
2.852543 0.621641 -0.052754 39.000000
2.844450 0.587596 -0.052483 23.000000
2.835936 0.553870 -0.052212 9.000000
2.905672 0.534764 -0.053386 9.000000
2.921115 0.504904 -0.053567 8.000000
2.985673 0.482719 -0.054651 8.000000
2.990751 0.450316 -0.054743 9.000000
3.064775 0.427489 -0.056010 9.000000
3.098965 0.397968 -0.056553 17.000000
3.167706 0.371978 -0.057729 56.000000
3.206300 0.341219 -0.058363 57.000000
3.244679 0.309704 -0.058896 66.000000
3.262807 0.275648 -0.059167 28.000000
3.360332 0.247238 -0.060884 49.000000
3.377769 0.211666 -0.061155 56.000000
3.429759 0.177474 -0.062058 26.000000
3.496475 0.142914 -0.063232 65.000000
3.532734 0.105938 -0.063865 93.000000
3.563694 0.068106 -0.064298 95.000000
3.554240 0.029292 -0.064118 95.000000
3.514356 -0.009225 -0.063396 29.000000
3.404065 -0.045929 -0.061412 10.000000
3.393342 -0.082575 -0.061128 18.000000
3.367326 -0.118579 -0.060678 11.000000
3.310852 -0.152659 -0.059688 9.000000
3.274094 -0.186582 -0.058958 9.000000
3.261917 -0.221440 -0.058778 8.000000
3.179583 -0.250582 -0.057340 6.000000
3.156746 -0.283354 -0.056884 9.000000
3.178327 -0.320105 -0.057332 58.000000
3.134973 -0.350181 -0.056518 76.000000
3.111082 -0.381734 -0.056160 70.000000
3.096867 -0.414181 -0.055885 89.000000
3.072404 -0.444884 -0.055528 91.000000
3.052563 -0.475929 -0.055165 53.000000
2.988112 -0.499144 -0.054001 26.000000
2.962785 -0.527999 -0.053645 26.000000
2.927435 -0.554567 -0.053019 9.000000
2.867336 -0.575484 -0.051952 9.000000
2.885361 -0.611732 -0.052396 45.000000
2.863882 -0.639702 -0.052040 61.000000
2.847073 -0.668497 -0.051773 66.000000
2.849372 -0.701684 -0.051950 35.000000
2.904510 -0.748810 -0.053009 29.000000
2.944542 -0.793216 -0.053799 37.000000
3.036764 -0.853548 -0.055555 32.000000
3.099294 -0.907550 -0.056777 37.000000
3.165854 -0.964373 -0.058184 62.000000
3.169445 -1.003142 -0.058346 48.000000
3.158385 -1.037439 -0.058244 40.000000
3.170682 -1.079692 -0.058580 35.000000
3.144577 -1.109054 -0.058216 19.000000
3.165237 -1.155146 -0.058724 35.000000
3.143232 -1.185864 -0.058447 32.000000
3.102262 -1.208914 -0.057824 26.000000
3.093587 -1.244417 -0.057809 21.000000
3.093699 -1.283649 -0.057967 14.000000
3.088784 -1.321113 -0.058037 10.000000
3.088051 -1.360588 -0.058193 10.000000
3.127749 -1.418741 -0.059123 8.000000
3.098540 -1.446257 -0.058760 9.000000
3.082676 -1.479864 -0.058656 10.000000
3.048462 -1.504413 -0.058209 9.000000
3.076552 -1.560017 -0.058960 10.000000
3.072692 -1.600321 -0.059005 9.000000
3.033096 -1.621738 -0.058474 8.000000
2.953995 -1.621031 -0.057181 6.000000
3.010262 -1.694709 -0.058518 5.000000
3.065198 -1.769892 -0.059850 6.000000
3.015639 -1.785231 -0.059044 6.000000
3.017435 -1.830929 -0.059358 6.000000
2.976169 -1.850479 -0.058830 5.000000
2.955846 -1.882782 -0.058616 4.000000
2.935095 -1.914765 -0.058509 2.000000
2.909973 -1.943863 -0.058319 2.000000
2.896864 -1.981123 -0.058271 1.000000
2.875119 -2.012509 -0.058164 2.000000
2.808347 -2.011656 -0.057148 2.000000
2.834591 -2.077591 -0.057925 2.000000
2.787851 -2.090383 -0.057325 2.000000
2.848182 -2.184589 -0.058833 5.000000
2.824298 -2.215484 -0.058723 4.000000
2.698585 -2.164717 -0.056385 1.000000
2.620712 -2.149683 -0.055141 1.000000
2.658413 -2.229534 -0.056231 1.000000
2.539068 -2.176986 -0.054103 1.000000
2.455027 -2.151723 -0.052610 1.000000
2.487366 -2.228467 -0.053716 1.000000
2.499773 -2.289140 -0.054314 1.000000
2.449187 -2.292331 -0.053548 1.000000
2.369912 -2.267012 -0.052251 3.000000
2.209244 -2.159832 -0.049036 6.000000
1.625665 -1.696593 -0.036934 8.000000
1.501158 -1.601101 -0.034364 9.000000
1.463397 -1.595207 -0.033762 23.000000
1.422578 -1.584954 -0.033151 35.000000
1.395391 -1.589025 -0.032789 32.000000
1.371513 -1.596544 -0.032505 28.000000
1.350888 -1.607492 -0.032300 31.000000
1.330218 -1.618178 -0.032095 29.000000
1.325167 -1.648084 -0.032272 33.000000
1.319585 -1.678068 -0.032512 29.000000
1.298229 -1.688308 -0.032306 26.000000
1.285842 -1.710276 -0.032327 31.000000
1.270255 -1.728149 -0.032272 20.000000
1.251468 -1.741831 -0.032141 23.000000
1.235358 -1.759341 -0.032085 27.000000
1.199228 -1.747926 -0.031508 23.000000
1.202541 -1.794023 -0.031970 26.000000
1.185768 -1.811126 -0.031912 26.000000
1.168772 -1.828090 -0.031853 24.000000
1.148905 -1.840672 -0.031721 23.000000
1.154850 -1.895753 -0.032316 20.000000
1.088206 -1.830794 -0.030876 9.000000
1.198525 2.044458 -0.016563 8.000000
1.200055 1.997082 -0.016283 15.000000
1.208563 1.962641 -0.016109 27.000000
1.235142 1.957873 -0.016249 18.000000
1.239986 1.919182 -0.016039 26.000000
1.271731 1.922264 -0.016179 22.000000
1.295357 1.912546 -0.016284 23.000000
1.310315 1.890158 -0.016214 32.000000
1.330740 1.875839 -0.016214 16.000000
1.339208 1.845124 -0.016143 24.000000
1.359177 1.830443 -0.016143 30.000000
1.375914 1.811641 -0.016107 22.000000
1.401626 1.804472 -0.016248 30.000000
1.411823 1.777455 -0.016141 22.000000
1.434164 1.765888 -0.016177 27.000000
1.462768 1.761737 -0.016283 32.000000
1.481847 1.745803 -0.016353 20.000000
1.487609 1.714485 -0.016210 29.000000
1.509492 1.701945 -0.016246 27.000000
1.517817 1.674309 -0.016139 26.000000
1.549548 1.672427 -0.016351 32.000000
1.567639 1.655449 -0.016351 25.000000
1.588998 1.641855 -0.016387 32.000000
1.610296 1.628047 -0.016423 32.000000
1.631531 1.613952 -0.016529 21.000000
1.648971 1.596092 -0.016529 30.000000
1.669901 1.581461 -0.016565 28.000000
1.683359 1.559743 -0.016529 31.000000
1.696534 1.537965 -0.016493 37.000000
1.713237 1.519375 -0.016563 30.000000
1.752319 1.520305 -0.016780 37.000000
1.776440 1.507589 -0.016852 37.000000
1.788876 1.484912 -0.016816 26.000000
1.804983 1.465329 -0.016816 30.000000
1.828708 1.451750 -0.016888 29.000000
1.856233 1.440924 -0.017068 30.000000
1.871867 1.420628 -0.017068 34.000000
1.891230 1.403096 -0.017105 29.000000
1.906394 1.382398 -0.017105 33.000000
1.933581 1.370229 -0.017214 34.000000
1.948408 1.349109 -0.017214 27.000000
1.971301 1.333375 -0.017286 35.000000
1.985682 1.311804 -0.017286 29.000000
2.008248 1.295580 -0.017359 30.000000
2.022251 1.273626 -0.017432 35.000000
2.044482 1.256763 -0.017505 33.000000
2.062320 1.236996 -0.017541 34.000000
2.088624 1.222038 -0.017651 35.000000
2.101843 1.199291 -0.017651 24.000000
2.123432 1.181184 -0.017724 35.000000
2.153769 1.167578 -0.017870 35.000000
2.157488 1.139431 -0.017797 30.000000
2.187559 1.125048 -0.017943 42.000000
2.226471 1.114679 -0.018161 32.000000
2.247391 1.094742 -0.018234 35.000000
2.272695 1.076750 -0.018344 41.000000
2.297908 1.058233 -0.018453 25.000000
2.313822 1.035259 -0.018490 30.000000
2.347891 1.020078 -0.018672 33.000000
2.358828 0.994531 -0.018672 32.000000
2.397220 0.980182 -0.018891 33.000000
2.435621 0.965229 -0.019109 33.000000
2.455271 0.942347 -0.019182 33.000000
2.474678 0.919102 -0.019255 35.000000
2.470390 0.887123 -0.019146 16.000000
2.527160 0.876673 -0.019511 37.000000
2.550689 0.853924 -0.019620 33.000000
2.559802 0.826259 -0.019620 31.000000
2.606863 0.810302 -0.019912 54.000000
2.620235 0.783408 -0.019948 33.000000
2.652609 0.761847 -0.020131 36.000000
2.689700 0.741009 -0.020349 35.000000
2.668528 0.704150 -0.020131 12.000000
2.734199 0.689767 -0.020568 40.000000
2.780400 0.669440 -0.020773 26.000000
2.767977 0.634771 -0.020627 8.000000
2.794278 0.608954 -0.020773 10.000000
2.810529 0.580604 -0.020845 10.000000
2.826474 0.552041 -0.020918 8.000000
2.896198 0.533044 -0.021390 8.000000
2.926494 0.505846 -0.021572 5.000000
2.981107 0.482013 -0.021935 8.000000
3.015840 0.454131 -0.022060 8.000000
3.060201 0.426893 -0.022349 8.000000
3.084564 0.396153 -0.022494 17.000000
3.168096 0.371978 -0.023072 33.000000
3.181933 0.338574 -0.023145 34.000000
3.230145 0.308279 -0.023470 49.000000
3.298080 0.278695 -0.023839 11.000000
3.335813 0.245403 -0.024091 34.000000
3.368202 0.211040 -0.024307 35.000000
3.425289 0.177320 -0.024703 9.000000
3.471925 0.141893 -0.024921 15.000000
3.503289 0.105039 -0.025137 35.000000
3.534245 0.067533 -0.025352 62.000000
3.534784 0.029235 -0.025352 86.000000
3.469894 -0.009001 -0.024780 34.000000
3.414583 -0.045960 -0.024387 47.000000
3.378865 -0.082210 -0.024137 13.000000
3.352747 -0.118052 -0.023958 8.000000
3.321347 -0.153120 -0.023643 9.000000
3.249636 -0.185160 -0.023145 8.000000
3.232387 -0.219408 -0.023038 8.000000
3.170004 -0.249796 -0.022515 8.000000
3.122371 -0.280225 -0.022196 8.000000
3.183789 -0.320605 -0.022656 75.000000
3.105545 -0.346851 -0.022030 35.000000
3.091710 -0.379393 -0.021959 38.000000
3.082476 -0.412193 -0.021924 81.000000
3.053084 -0.442113 -0.021654 42.000000
3.013513 -0.469768 -0.021408 36.000000
2.968756 -0.495941 -0.021127 34.000000
2.914021 -0.519319 -0.020686 12.000000
2.898325 -0.549074 -0.020616 9.000000
2.843182 -0.570654 -0.020267 8.000000
2.856374 -0.605601 -0.020317 29.000000
2.859450 -0.638702 -0.020387 64.000000
2.823092 -0.662872 -0.020090 34.000000
2.830311 -0.696992 -0.020194 31.000000
2.870986 -0.740164 -0.020450 30.000000
2.949742 -0.794609 -0.021070 28.000000
3.008366 -0.845528 -0.021553 32.000000
3.061399 -0.896409 -0.021904 28.000000
3.137561 -0.955732 -0.022522 26.000000
3.231921 -1.022959 -0.023174 30.000000
3.201541 -1.051685 -0.023037 22.000000
3.237352 -1.102461 -0.023275 26.000000
3.187420 -1.124225 -0.023002 10.000000
3.160952 -1.153535 -0.022798 9.000000
3.185745 -1.201850 -0.023069 9.000000
3.163231 -1.232718 -0.022897 9.000000
3.168213 -1.274372 -0.023032 10.000000
3.167998 -1.314512 -0.023029 9.000000
3.148956 -1.346775 -0.022995 9.000000
3.189124 -1.405039 -0.023291 9.000000
3.173596 -1.439604 -0.023291 8.000000
3.148794 -1.469727 -0.023119 8.000000
3.168735 -1.521186 -0.023385 9.000000
3.120615 -1.540023 -0.023046 8.000000
3.139404 -1.591885 -0.023311 8.000000
3.126329 -1.628247 -0.023236 6.000000
3.112881 -1.664383 -0.023161 6.000000
2.980603 -1.635669 -0.022308 5.000000
2.953939 -1.663032 -0.022139 4.000000
3.048203 -1.760107 -0.022988 4.000000
3.028975 -1.793086 -0.022881 5.000000
2.983562 -1.810395 -0.022686 3.000000
2.904307 -1.805812 -0.022126 2.000000
2.956167 -1.882996 -0.022569 2.000000
2.885272 -1.882302 -0.022183 1.000000
2.926924 -1.955186 -0.022559 1.000000
2.930202 -2.003917 -0.022643 1.000000
2.900017 -2.029926 -0.022579 1.000000
2.906215 -2.081853 -0.022693 1.000000
2.790554 -2.045400 -0.021963 1.000000
2.776170 -2.081703 -0.021920 1.000000
2.789001 -2.139164 -0.022097 3.000000
2.769443 -2.172500 -0.022129 2.000000
2.694896 -2.161906 -0.021615 1.000000
2.647978 -2.172086 -0.021323 1.000000
2.574346 -2.159062 -0.020918 1.000000
2.546966 -2.183699 -0.020784 1.000000
2.511727 -2.201456 -0.020590 1.000000
2.521085 -2.258698 -0.020764 1.000000
2.536958 -2.323218 -0.021101 1.000000
2.261723 -2.163624 -0.019008 1.000000
2.255910 -2.205554 -0.019160 5.000000
2.040842 -2.039169 -0.017433 6.000000
1.833072 -1.871851 -0.015751 7.000000
1.535490 -1.637710 -0.013428 8.000000
1.450009 -1.580668 -0.012765 10.000000
1.406010 -1.566545 -0.012462 19.000000
1.408717 -1.604247 -0.012575 13.000000
1.371642 -1.596673 -0.012398 24.000000
1.347800 -1.603857 -0.012275 18.000000
1.330346 -1.618370 -0.012211 25.000000
1.315832 -1.636588 -0.012177 23.000000
1.310378 -1.666472 -0.012228 20.000000
1.292263 -1.680576 -0.012228 24.000000
1.282968 -1.706475 -0.012249 19.000000
1.264398 -1.720288 -0.012184 19.000000
1.242782 -1.729845 -0.012090 17.000000
1.226869 -1.747262 -0.012054 16.000000
1.213501 -1.768735 -0.012045 22.000000
1.194256 -1.781761 -0.012045 17.000000
1.183096 -1.807141 -0.012063 19.000000
1.155373 -1.807225 -0.011914 19.000000
1.159561 -1.857838 -0.012097 16.000000
1.141912 -1.874539 -0.012057 18.000000
1.131699 -1.904056 -0.012100 7.000000
1.170711 1.997083 0.004733 7.000000
1.187179 1.975724 0.004783 23.000000
1.211185 1.966968 0.004794 21.000000
1.221734 1.936800 0.004822 24.000000
1.250840 1.936051 0.004924 24.000000
1.271731 1.922334 0.004994 24.000000
1.286945 1.900197 0.005043 29.000000
1.310315 1.890228 0.005124 24.000000
1.327847 1.871831 0.005183 27.000000
1.342144 1.849240 0.005160 25.000000
1.359177 1.830513 0.005219 25.000000
1.378938 1.815692 0.005288 27.000000
1.398560 1.800593 0.005358 25.000000
1.421082 1.789270 0.005439 29.000000
1.443620 1.777601 0.005451 29.000000
1.462768 1.761807 0.005521 26.000000
1.478611 1.742061 0.005579 29.000000
1.490886 1.718330 0.005624 24.000000
1.512810 1.705756 0.005706 29.000000
1.537965 1.696604 0.005731 42.000000
1.556345 1.679832 0.005800 29.000000
1.574515 1.662780 0.005870 34.000000
1.592475 1.645518 0.005940 32.000000
1.613812 1.631671 0.005953 35.000000
1.638641 1.621055 0.006049 36.000000
1.641786 1.589207 0.006067 23.000000
1.662640 1.574654 0.006080 51.000000
1.683359 1.559813 0.006163 46.000000
1.703943 1.544751 0.006247 35.000000
1.731941 1.536033 0.006358 65.000000
1.748543 1.517099 0.006358 66.000000
1.765004 1.497954 0.006429 37.000000
1.781182 1.478596 0.006500 46.000000
1.804983 1.465400 0.006528 18.000000
1.813045 1.439386 0.006570 35.000000
1.828587 1.419534 0.006641 40.000000
1.867885 1.417677 0.006727 36.000000
1.883199 1.397210 0.006799 36.000000
1.902418 1.379535 0.006885 37.000000
1.909177 1.352955 0.006855 33.000000
1.948480 1.349109 0.007016 54.000000
1.938169 1.311037 0.006998 18.000000
1.985682 1.311876 0.007118 36.000000
2.004046 1.292870 0.007206 71.000000
2.018021 1.270962 0.007206 36.000000
2.044555 1.256836 0.007324 67.000000
2.075256 1.244784 0.007459 62.000000
2.088697 1.222112 0.007459 37.000000
2.114871 1.206799 0.007580 49.000000
2.110398 1.173967 0.007517 20.000000
2.140583 1.160504 0.007654 37.000000
2.179593 1.151181 0.007748 74.000000
2.196452 1.129696 0.007839 46.000000
2.230942 1.116917 0.007995 57.000000
2.238477 1.090439 0.007979 57.000000
2.268253 1.074609 0.008120 36.000000
2.293444 1.056219 0.008168 71.000000
2.350410 1.051673 0.008408 23.000000
2.343305 1.018164 0.008343 56.000000
2.372649 1.000437 0.008487 67.000000
2.397220 0.980261 0.008536 41.000000
2.440269 0.967072 0.008732 44.000000
2.459939 0.944139 0.008765 42.000000
2.488819 0.924405 0.008913 35.000000
2.508116 0.900723 0.008946 42.000000
2.498818 0.866841 0.008960 26.000000
2.550771 0.854006 0.009112 71.000000
2.578916 0.832402 0.009263 70.000000
2.597315 0.807417 0.009297 60.000000
2.625109 0.784924 0.009449 66.000000
2.647887 0.760551 0.009501 64.000000
2.684880 0.739681 0.009604 56.000000
2.716956 0.716907 0.009776 79.000000
2.734285 0.689853 0.009811 34.000000
2.731878 0.657822 0.009862 27.000000
2.768064 0.634857 0.009967 9.000000
2.804136 0.611171 0.010160 9.000000
2.864390 0.591820 0.010355 36.000000
2.895264 0.565459 0.010443 37.000000
2.886453 0.531324 0.010480 18.000000
2.916641 0.504233 0.010569 9.000000
2.971328 0.480509 0.010747 8.000000
3.010989 0.453386 0.010965 9.000000
3.060296 0.426893 0.011127 9.000000
3.104400 0.398796 0.011367 26.000000
3.158262 0.370812 0.011548 79.000000
3.211764 0.341847 0.011730 95.000000
3.235222 0.308853 0.011902 67.000000
3.273271 0.276590 0.012030 83.000000
3.335915 0.245403 0.012250 47.000000
3.358325 0.210415 0.012323 37.000000
3.405317 0.176286 0.012592 10.000000
3.437060 0.140464 0.012703 20.000000
3.518389 0.105596 0.012998 95.000000
3.534245 0.067641 0.013161 95.000000
3.514785 0.029070 0.013087 95.000000
3.459894 -0.008975 0.012882 91.000000
3.409584 -0.045893 0.012696 35.000000
3.363973 -0.081845 0.012631 25.000000
3.277898 -0.115413 0.012312 9.000000
3.276497 -0.151047 0.012312 8.000000
3.209702 -0.182885 0.012068 9.000000
3.207543 -0.217715 0.012166 8.000000
3.155148 -0.248618 0.011977 7.000000
3.107431 -0.278884 0.011807 10.000000
3.114144 -0.313592 0.011844 35.000000
3.110609 -0.347406 0.011844 73.000000
3.086747 -0.378690 0.011769 64.000000
3.057698 -0.408879 0.011768 57.000000
3.013498 -0.436381 0.011616 91.000000
2.983872 -0.465147 0.011520 52.000000
2.973779 -0.496765 0.011501 29.000000
2.904176 -0.517564 0.011253 31.000000
2.824726 -0.535114 0.010967 9.000000
2.823662 -0.566719 0.010986 9.000000
2.841790 -0.602490 0.011170 43.000000
2.820413 -0.629983 0.011113 52.000000
2.803711 -0.658301 0.011074 73.000000
2.796416 -0.688623 0.011074 37.000000
2.793611 -0.720194 0.011093 11.000000
2.906292 -0.782997 0.011574 30.000000
2.940978 -0.826588 0.011747 26.000000
3.013415 -0.882358 0.012074 32.000000
3.123212 -0.951362 0.012555 26.000000
3.227154 -1.021450 0.013016 10.000000
3.253896 -1.068849 0.013170 9.000000
3.279949 -1.116968 0.013324 8.000000
3.277113 -1.155823 0.013362 7.000000
3.273781 -1.194672 0.013507 9.000000
3.288662 -1.240677 0.013623 9.000000
3.261063 -1.270844 0.013565 10.000000
3.256348 -1.309930 0.013604 9.000000
3.283558 -1.362417 0.013778 9.000000
3.254795 -1.392103 0.013720 10.000000
3.239454 -1.427322 0.013720 8.000000
3.246556 -1.472651 0.013817 7.000000
3.234877 -1.509907 0.013836 6.000000
3.200287 -1.536333 0.013759 4.000000
3.152001 -1.555512 0.013516 3.000000
3.197376 -1.621280 0.013785 2.000000
3.157371 -1.644414 0.013689 2.000000
3.059971 -1.636199 0.013343 2.000000
2.910471 -1.597183 0.012766 5.000000
2.897300 -1.631247 0.012785 3.000000
2.905421 -1.677602 0.012901 3.000000
3.024672 -1.790646 0.013516 2.000000
2.992218 -1.815582 0.013458 2.000000
2.883077 -1.792611 0.013055 1.000000
2.892911 -1.842704 0.013189 1.000000
2.906210 -1.895962 0.013343 1.000000
2.906136 -1.941406 0.013439 1.000000
2.934437 -2.006739 0.013670 1.000000
2.846768 -1.992759 0.013256 1.000000
2.845245 -2.038177 0.013351 1.000000
2.649513 -1.941947 0.012531 1.000000
2.732167 -2.048708 0.013027 1.000000
2.594604 -1.990062 0.012474 1.000000
2.655464 -2.083008 0.012875 1.000000
2.769104 -2.221350 0.013542 1.000000
2.744728 -2.251468 0.013434 1.000000
2.493997 -2.091691 0.012318 1.000000
2.455867 -2.105692 0.012242 1.000000
2.489167 -2.181683 0.012526 1.000000
2.483846 -2.225437 0.012620 1.000000
2.496396 -2.286073 0.012809 1.000000
2.449392 -2.292638 0.012594 1.000000
2.492953 -2.384825 0.012950 1.000000
2.284511 -2.233516 0.011993 4.000000
2.097433 -2.095714 0.011130 8.000000
1.896041 -1.936234 0.010172 7.000000
1.719206 -1.794284 0.009252 8.000000
1.573108 -1.677902 0.008563 8.000000
1.456769 -1.588037 0.008023 9.000000
1.406010 -1.566545 0.007837 32.000000
1.388922 -1.581705 0.007773 32.000000
1.378158 -1.604323 0.007810 24.000000
1.338149 -1.592373 0.007681 37.000000
1.339871 -1.629957 0.007727 28.000000
1.331497 -1.656071 0.007782 29.000000
1.307288 -1.662542 0.007745 29.000000
1.292263 -1.680641 0.007764 27.000000
1.282968 -1.706540 0.007753 33.000000
1.258476 -1.712231 0.007717 23.000000
1.242782 -1.729845 0.007735 19.000000
1.218249 -1.735051 0.007634 28.000000
1.205015 -1.756366 0.007670 23.000000
1.188688 -1.773455 0.007688 29.000000
1.174880 -1.794657 0.007659 25.000000
1.166145 -1.824076 0.007730 24.000000
1.148971 -1.840871 0.007748 26.000000
1.134108 -1.861795 0.007717 21.000000
1.083162 -1.822392 0.007505 9.000000
1.178155 2.009952 0.025740 8.000000
1.184464 1.971298 0.025549 21.000000
1.200559 1.949799 0.025578 27.000000
1.221664 1.936660 0.025718 26.000000
1.242560 1.923312 0.025858 30.000000
1.260627 1.905584 0.025941 29.000000
1.284002 1.895917 0.026137 29.000000
1.298782 1.873652 0.026162 32.000000
1.324815 1.867613 0.026417 28.000000
1.336132 1.841009 0.026382 25.000000
1.362018 1.834457 0.026638 35.000000
1.378799 1.815623 0.026719 29.000000
1.395354 1.796575 0.026799 32.000000
1.411684 1.777386 0.026879 31.000000
1.443480 1.777531 0.027255 32.000000
1.459435 1.757891 0.027335 34.000000
1.475237 1.738110 0.027415 30.000000
1.484194 1.710639 0.027303 34.000000
1.506036 1.698136 0.027502 36.000000
1.534467 1.692830 0.027823 37.000000
1.549409 1.672357 0.027902 44.000000
1.567500 1.655449 0.027971 35.000000
1.585382 1.638263 0.028110 36.000000
1.613672 1.631531 0.028435 41.000000
1.634875 1.617398 0.028638 35.000000
1.645239 1.592545 0.028583 52.000000
1.662500 1.574585 0.028723 59.000000
1.675885 1.552946 0.028800 64.000000
1.685283 1.527891 0.028743 66.000000
1.716838 1.522693 0.029136 61.000000
1.725744 1.497300 0.029079 71.000000
1.749545 1.484872 0.029346 87.000000
1.773347 1.472139 0.029544 35.000000
1.781552 1.446421 0.029556 32.000000
1.824650 1.448642 0.030078 52.000000
1.832395 1.422529 0.030090 42.000000
1.835812 1.393425 0.029966 58.000000
1.879041 1.394159 0.030564 47.000000
1.869825 1.355983 0.030243 37.000000
1.896726 1.344212 0.030581 65.000000
1.944153 1.346191 0.031179 44.000000
1.958660 1.324972 0.031251 36.000000
1.981365 1.309048 0.031528 73.000000
1.995499 1.287376 0.031601 52.000000
2.017875 1.270889 0.031807 72.000000
2.035818 1.251453 0.032019 53.000000
2.062173 1.236996 0.032294 66.000000
2.088476 1.222038 0.032569 73.000000
2.097280 1.196813 0.032575 32.000000
2.123284 1.181184 0.032926 36.000000
2.144829 1.162812 0.033136 65.000000
2.170601 1.146436 0.033415 46.000000
2.205117 1.134194 0.033831 75.000000
2.221772 1.112365 0.033975 63.000000
2.242743 1.092552 0.034187 55.000000
2.263505 1.072392 0.034401 95.000000
2.275049 1.047776 0.034477 36.000000
2.313667 1.035259 0.035045 34.000000
2.338486 1.016093 0.035330 66.000000
2.353987 0.992589 0.035477 37.000000
2.383101 0.974505 0.035834 47.000000
2.416791 0.957861 0.036261 62.000000
2.455030 0.942267 0.036760 49.000000
2.479203 0.920842 0.037050 56.000000
2.498461 0.897262 0.037190 30.000000
2.522192 0.875034 0.037482 49.000000
2.536303 0.849162 0.037634 66.000000
2.554880 0.824723 0.037856 41.000000
2.592291 0.805850 0.038362 75.000000
2.610488 0.780544 0.038586 70.000000
2.642830 0.759087 0.039024 71.000000
2.665346 0.734369 0.039322 71.000000
2.692529 0.710529 0.039606 33.000000
2.719398 0.686184 0.039976 56.000000
2.726760 0.656566 0.040062 23.000000
2.743439 0.629183 0.040290 9.000000
2.764708 0.602567 0.040505 9.000000
2.869018 0.592831 0.042026 57.000000
2.889997 0.564500 0.042331 71.000000
2.920603 0.537660 0.042690 69.000000
2.906517 0.502440 0.042493 17.000000
2.975987 0.481307 0.043429 25.000000
3.000823 0.451897 0.043810 10.000000
3.010498 0.419985 0.043975 9.000000
3.089238 0.396885 0.045060 32.000000
3.157873 0.370909 0.046097 72.000000
3.181640 0.338672 0.046387 58.000000
3.229947 0.308378 0.047138 95.000000
3.267988 0.276169 0.047646 16.000000
3.320651 0.244405 0.048373 73.000000
3.338058 0.209165 0.048693 35.000000
3.405005 0.176286 0.049639 10.000000
3.446736 0.140872 0.050327 27.000000
3.507965 0.105296 0.051202 95.000000
3.518926 0.067354 0.051348 95.000000
3.514463 0.029070 0.051275 98.000000
3.419582 -0.008871 0.049993 35.000000
3.389276 -0.045623 0.049555 44.000000
3.323579 -0.080872 0.048605 16.000000
3.302579 -0.116292 0.048312 8.000000
3.251126 -0.149797 0.047581 9.000000
3.224381 -0.183738 0.047314 8.000000
3.187297 -0.216361 0.046802 8.000000
3.139906 -0.247440 0.046143 8.000000
3.092208 -0.277543 0.045483 9.000000
3.118831 -0.314093 0.045923 57.000000
3.090449 -0.345186 0.045557 42.000000
3.071576 -0.376863 0.045337 62.000000
3.062370 -0.409542 0.045264 81.000000
2.993428 -0.433422 0.044312 54.000000
2.978656 -0.464377 0.044165 49.000000
2.938894 -0.490907 0.043652 36.000000
2.894062 -0.515720 0.043066 28.000000
2.829375 -0.535957 0.042187 14.000000
2.833202 -0.568598 0.042246 25.000000
2.836633 -0.601364 0.042392 63.000000
2.790874 -0.623443 0.041807 75.000000
2.788846 -0.654785 0.041880 51.000000
2.791298 -0.687428 0.042027 36.000000
2.793347 -0.720105 0.042085 24.000000
2.862571 -0.771200 0.043252 26.000000
2.931072 -0.823789 0.044419 27.000000
3.008329 -0.880858 0.045732 28.000000
3.060742 -0.932324 0.046582 19.000000
3.326939 -1.053028 0.050804 9.000000
3.353328 -1.101509 0.051278 8.000000
3.355352 -1.142648 0.051496 8.000000
3.380521 -1.192301 0.052077 8.000000
3.362696 -1.227129 0.051895 8.000000
3.344471 -1.261745 0.051823 9.000000
3.311982 -1.290705 0.051424 8.000000
3.307046 -1.330347 0.051569 8.000000
3.329410 -1.381469 0.052038 7.000000
3.332615 -1.425308 0.052326 6.000000
3.330631 -1.467530 0.052432 6.000000
3.319077 -1.505587 0.052504 4.000000
3.248140 -1.516142 0.051530 2.000000
3.231511 -1.551370 0.051530 2.000000
3.156162 -1.557617 0.050488 2.000000
3.143541 -1.594038 0.050452 2.000000
3.276764 -1.706660 0.052886 2.000000
3.196323 -1.709064 0.051773 2.000000
2.954098 -1.621134 0.048028 5.000000
2.910167 -1.638402 0.047601 5.000000
2.948409 -1.702500 0.048423 4.000000
2.899590 -1.716573 0.047823 1.000000
2.906415 -1.763605 0.048248 1.000000
3.022871 -1.879625 0.050410 1.000000
2.846214 -1.813053 0.047688 1.000000
2.838897 -1.852044 0.047796 1.000000
2.876822 -1.921753 0.048677 1.000000
2.851577 -1.950186 0.048607 1.000000
2.858843 -2.001148 0.048993 1.000000
2.690587 -1.927433 0.046365 1.000000
2.629051 -1.927069 0.045565 1.000000
2.599960 -1.949524 0.045326 1.000000
2.634075 -2.020389 0.046201 1.000000
2.600085 -2.039704 0.045892 1.000000
2.714183 -2.177443 0.048215 1.000000
2.589789 -2.124420 0.046312 1.000000
2.516682 -2.110769 0.045313 1.000000
2.485934 -2.131528 0.045075 2.000000
2.458887 -2.155218 0.044907 1.000000
2.427789 -2.175190 0.044670 1.000000
2.426033 -2.221814 0.044980 1.000000
2.423636 -2.268518 0.045289 1.000000
2.369912 -2.267112 0.044644 1.000000
2.327214 -2.275361 0.044105 5.000000
2.125546 -2.123803 0.040625 7.000000
1.600323 -1.706940 0.031421 9.000000
1.476915 -1.610011 0.029206 9.000000
1.422578 -1.585019 0.028406 29.000000
1.385495 -1.577884 0.027942 34.000000
1.364998 -1.589024 0.027811 29.000000
1.341239 -1.596074 0.027551 35.000000
1.320693 -1.606655 0.027422 38.000000
1.303237 -1.620874 0.027295 32.000000
1.294798 -1.646756 0.027428 35.000000
1.273849 -1.656731 0.027299 33.000000
1.264812 -1.682433 0.027366 35.000000
1.261307 -1.716194 0.027626 31.000000
1.239735 -1.725655 0.027431 27.000000
1.215247 -1.730830 0.027238 31.000000
1.196400 -1.743868 0.027173 33.000000
1.188558 -1.773390 0.027300 32.000000
1.166534 -1.781977 0.027171 31.000000
1.144470 -1.790310 0.026978 27.000000
1.135604 -1.819532 0.027166 32.000000
1.131374 -1.857392 0.027413 26.000000
1.070325 -1.800774 0.026277 8.000000
1.177941 2.009668 0.046788 8.000000
1.184253 1.971088 0.046396 22.000000
1.195107 1.941075 0.046201 26.000000
1.221455 1.936450 0.046613 31.000000
1.236925 1.914705 0.046688 29.000000
1.260348 1.905306 0.047000 30.000000
1.275383 1.883290 0.047002 27.000000
1.298573 1.873444 0.047314 32.000000
1.318821 1.859249 0.047523 31.000000
1.332988 1.836755 0.047523 26.000000
1.355780 1.826151 0.047836 29.000000
1.375497 1.811363 0.048044 32.000000
1.392010 1.792350 0.048146 30.000000
1.408298 1.773264 0.048247 34.000000
1.446351 1.781132 0.049097 34.000000
1.449647 1.746074 0.048770 32.000000
1.468489 1.730279 0.048977 30.000000
1.477366 1.702880 0.048860 32.000000
1.502442 1.694188 0.049284 34.000000
1.520760 1.677737 0.049492 37.000000
1.538870 1.661147 0.049630 33.000000
1.563715 1.651541 0.050057 36.000000
1.581628 1.634392 0.050265 42.000000
1.578241 1.595781 0.049740 48.000000
1.623934 1.606641 0.050835 35.000000
1.637706 1.585382 0.050933 34.000000
1.654893 1.567430 0.051072 50.000000
1.660871 1.539147 0.050943 70.000000
1.696045 1.537685 0.051645 67.000000
1.723967 1.529046 0.052195 42.000000
1.717844 1.490539 0.051654 85.000000
1.756887 1.491131 0.052546 52.000000
1.769150 1.468665 0.052573 43.000000
1.781202 1.446141 0.052598 29.000000
1.808635 1.435995 0.053154 42.000000
1.820196 1.413121 0.053179 65.000000
1.839442 1.396236 0.053436 49.000000
1.854598 1.376074 0.053577 63.000000
1.869473 1.355771 0.053788 53.000000
1.884136 1.335328 0.053929 63.000000
1.919135 1.328901 0.054655 45.000000
1.954159 1.321954 0.055385 34.000000
1.980930 1.308830 0.055882 57.000000
1.995064 1.287159 0.056026 70.000000
2.017439 1.270743 0.056408 74.000000
2.026937 1.246072 0.056435 63.000000
2.057519 1.234204 0.057056 71.000000
2.075090 1.214243 0.057321 61.000000
2.096837 1.196592 0.057707 37.000000
2.135943 1.188251 0.058573 34.000000
2.135594 1.157824 0.058288 55.000000
2.170152 1.146211 0.059037 62.000000
2.195773 1.129395 0.059549 81.000000
2.216848 1.109976 0.059941 68.000000
2.233300 1.088022 0.060138 76.000000
2.254013 1.067959 0.060532 54.000000
2.274513 1.047623 0.060928 60.000000
2.317688 1.037146 0.061857 35.000000
2.338019 1.015938 0.062256 49.000000
2.367336 0.998259 0.062823 68.000000
2.391882 0.978132 0.063347 71.000000
2.407021 0.953940 0.063549 56.000000
2.449883 0.940315 0.064568 58.000000
2.450605 0.910238 0.064401 60.000000
2.493190 0.895410 0.065425 36.000000
2.493289 0.865203 0.065259 39.000000
2.535732 0.849244 0.066206 76.000000
2.559063 0.826259 0.066741 83.000000
2.577393 0.801398 0.067072 61.000000
2.609906 0.780544 0.067776 81.000000
2.637438 0.757706 0.068357 86.000000
2.650299 0.730385 0.068649 67.000000
2.672518 0.705426 0.069108 52.000000
2.718799 0.686184 0.070193 50.000000
2.711497 0.653055 0.069903 16.000000
2.737966 0.628065 0.070490 9.000000
2.773871 0.604696 0.071329 10.000000
2.824338 0.583638 0.072548 78.000000
2.889368 0.564500 0.074146 85.000000
2.910137 0.535759 0.074614 62.000000
2.925588 0.505937 0.074957 33.000000
3.004949 0.486096 0.076850 65.000000
3.014909 0.454131 0.077069 62.000000
3.034600 0.423439 0.077542 29.000000
3.083615 0.396248 0.078775 52.000000
3.132374 0.367897 0.079915 81.000000
3.175987 0.338143 0.081026 73.000000
3.209351 0.306477 0.081885 81.000000
3.222363 0.272381 0.082139 29.000000
3.304883 0.243304 0.084271 53.000000
3.337344 0.209267 0.085034 34.000000
3.389302 0.175511 0.086408 10.000000
3.425917 0.140160 0.087299 27.000000
3.482235 0.104546 0.088699 95.000000
3.508179 0.067162 0.089442 98.000000
3.463731 0.028656 0.088296 95.000000
3.463837 -0.008988 0.088296 58.000000
3.373558 -0.045422 0.086002 37.000000
3.307879 -0.080508 0.084447 14.000000
3.291883 -0.115940 0.084064 9.000000
3.235452 -0.149106 0.082661 9.000000
3.178779 -0.181178 0.081258 8.000000
3.176641 -0.215683 0.081258 8.000000
3.089404 -0.243512 0.079089 7.000000
3.061675 -0.274768 0.078452 9.000000
3.098269 -0.312089 0.079472 44.000000
3.079755 -0.343982 0.079089 54.000000
3.051070 -0.374428 0.078452 45.000000
3.017122 -0.403578 0.077593 73.000000
2.987835 -0.432706 0.076956 53.000000
2.963196 -0.462067 0.076447 29.000000
2.884028 -0.481847 0.074535 10.000000
2.873751 -0.512212 0.074319 28.000000
2.872870 -0.544331 0.074446 62.000000
2.842297 -0.570477 0.073721 58.000000
2.826234 -0.599290 0.073467 81.000000
2.780507 -0.621176 0.072363 79.000000
2.754172 -0.646786 0.071855 58.000000
2.756624 -0.678972 0.072023 40.000000
2.754010 -0.710121 0.072150 10.000000
2.828154 -0.762007 0.074216 30.000000
2.906363 -0.817026 0.076495 30.000000
3.002863 -0.879453 0.079186 33.000000
3.050496 -0.929411 0.080607 20.000000
3.364316 -1.065097 0.089090 9.000000
3.419055 -1.123352 0.090857 9.000000
3.420835 -1.165211 0.091125 8.000000
3.417465 -1.205273 0.091267 5.000000
3.418276 -1.247473 0.091533 6.000000
3.409290 -1.286229 0.091548 6.000000
3.320646 -1.294118 0.089430 6.000000
3.417689 -1.374790 0.092327 6.000000
3.397891 -1.409873 0.092090 6.000000
3.382392 -1.446709 0.091978 5.000000
3.361984 -1.481305 0.091740 4.000000
3.304753 -1.499059 0.090506 2.000000
3.297306 -1.539069 0.090645 2.000000
3.226348 -1.548879 0.089041 2.000000
3.195858 -1.577203 0.088450 2.000000
3.200850 -1.623103 0.088961 2.000000
3.125361 -1.627817 0.087243 1.000000
3.160397 -1.689878 0.088618 1.000000
2.927189 -1.606396 0.082358 4.000000
2.844221 -1.601313 0.080409 5.000000
2.904500 -1.677090 0.082524 5.000000
2.903378 -1.718811 0.082809 2.000000
2.888699 -1.752921 0.082829 1.000000
2.835555 -1.763061 0.081645 1.000000
2.955311 -1.882461 0.085571 1.000000
2.892803 -1.887239 0.084140 1.000000
2.838781 -1.896446 0.083061 1.000000
2.776782 -1.898974 0.081640 1.000000
2.690416 -1.883301 0.079599 1.000000
2.763123 -1.979425 0.082178 1.000000
2.769657 -2.030097 0.082814 1.000000
2.635356 -1.976216 0.079338 1.000000
2.625636 -2.013900 0.079497 1.000000
2.634976 -2.067067 0.080254 1.000000
2.694158 -2.161378 0.082558 1.000000
2.651111 -2.174734 0.081856 1.000000
2.508521 -2.103944 0.077957 2.000000
2.470355 -2.118114 0.077282 1.000000
2.424557 -2.125165 0.076373 1.000000
2.438460 -2.184799 0.077357 1.000000
2.392455 -2.191029 0.076451 1.000000
2.434078 -2.278360 0.078368 1.000000
2.441650 -2.335818 0.079219 1.000000
2.298223 -2.247007 0.075155 3.000000
2.171054 -2.169368 0.071578 7.000000
1.975983 -2.017882 0.065607 7.000000
1.784458 -1.862406 0.059760 8.000000
1.613641 -1.721241 0.054520 8.000000
1.496923 -1.631845 0.051035 9.000000
1.408963 -1.569879 0.048487 22.000000
1.375344 -1.566359 0.047722 29.000000
1.364742 -1.588768 0.047823 28.000000
1.331400 -1.584338 0.047126 30.000000
1.317265 -1.602540 0.047050 32.000000
1.306116 -1.624516 0.047149 36.000000
1.291516 -1.642507 0.047071 32.000000
1.267500 -1.648550 0.046719 32.000000
1.252604 -1.666193 0.046640 32.000000
1.237429 -1.683646 0.046624 30.000000
1.233707 -1.717276 0.046989 26.000000
1.215054 -1.730572 0.046859 34.000000
1.193379 -1.739488 0.046555 32.000000
1.177230 -1.756454 0.046472 28.000000
1.169077 -1.785899 0.046781 32.000000
1.144276 -1.789986 0.046368 31.000000
1.135407 -1.819270 0.046608 26.000000
1.118173 -1.835780 0.046519 25.000000
1.128875 -1.899354 0.047683 9.000000
1.205456 2.056669 0.069364 6.000000
1.173677 1.953530 0.066588 11.000000
1.202690 1.953425 0.067376 14.000000
1.213107 1.923350 0.067067 24.000000
1.239289 1.918485 0.067710 15.000000
1.260069 1.904887 0.067989 21.000000
1.277838 1.887012 0.068119 24.000000
1.301072 1.877133 0.068547 21.000000
1.315512 1.854755 0.068594 25.000000
1.326771 1.828249 0.068418 10.000000
1.349475 1.817709 0.068846 25.000000
1.369106 1.802986 0.069122 27.000000
1.388598 1.787987 0.069399 18.000000
1.404775 1.768936 0.069521 26.000000
1.427030 1.757435 0.069952 24.000000
1.455615 1.753418 0.070693 21.000000
1.468074 1.729864 0.070660 26.000000
1.493328 1.721341 0.071250 10.000000
1.498712 1.690034 0.070901 30.000000
1.523701 1.681025 0.071492 31.000000
1.538455 1.660733 0.071611 26.000000
1.552991 1.640238 0.071660 32.000000
1.577736 1.630454 0.072254 29.000000
1.595332 1.613135 0.072531 29.000000
1.619894 1.602708 0.073059 32.000000
1.626517 1.574537 0.072855 10.000000
1.650777 1.563576 0.073385 35.000000
1.667718 1.545525 0.073663 32.000000
1.684450 1.527266 0.073871 29.000000
1.715997 1.522062 0.074800 38.000000
1.736230 1.506567 0.075174 32.000000
1.748705 1.484312 0.075221 34.000000
1.768658 1.468314 0.075595 36.000000
1.776763 1.442641 0.075546 15.000000
1.800244 1.429358 0.076086 32.000000
1.823157 1.416327 0.076629 34.000000
1.846484 1.402422 0.077173 27.000000
1.845587 1.370257 0.076718 35.000000
1.884734 1.367652 0.077932 31.000000
1.903601 1.349851 0.078313 34.000000
1.934639 1.340427 0.079200 36.000000
1.932532 1.308022 0.078741 16.000000
1.975892 1.306219 0.080138 35.000000
1.994194 1.287304 0.080452 36.000000
1.999655 1.260159 0.080330 31.000000
2.025992 1.246144 0.081057 55.000000
2.056567 1.234277 0.081885 36.000000
2.056961 1.204218 0.081591 31.000000
2.100366 1.199144 0.082936 37.000000
2.095825 1.166455 0.082471 20.000000
2.125919 1.153134 0.083306 37.000000
2.160417 1.141617 0.084390 52.000000
2.177171 1.120325 0.084712 32.000000
2.207080 1.105500 0.085555 40.000000
2.232466 1.088022 0.086226 36.000000
2.239629 1.061538 0.086279 35.000000
2.269135 1.045532 0.087128 40.000000
2.275789 1.018771 0.087106 12.000000
2.327997 1.011876 0.088832 33.000000
2.343453 0.988471 0.089162 35.000000
2.391015 0.978132 0.090721 30.000000
2.401507 0.952099 0.090879 42.000000
2.439672 0.936733 0.092093 35.000000
2.459095 0.913639 0.092606 30.000000
2.492381 0.895329 0.093649 35.000000
2.459359 0.853732 0.092218 10.000000
2.525357 0.845988 0.094505 57.000000
2.548650 0.823105 0.095118 45.000000
2.571715 0.799914 0.095815 35.000000
2.594630 0.776164 0.096431 38.000000
2.622110 0.753483 0.097310 38.000000
2.625291 0.723662 0.097298 34.000000
2.690999 0.710444 0.099525 46.000000
2.679100 0.676315 0.098895 18.000000
2.691215 0.648289 0.099243 9.000000
2.727283 0.625745 0.100403 9.000000
2.763154 0.602567 0.101651 10.000000
2.813583 0.581615 0.103355 49.000000
2.863860 0.559708 0.105062 36.000000
2.894401 0.533044 0.106052 32.000000
2.929514 0.506698 0.107223 41.000000
2.979264 0.482105 0.108937 28.000000
2.999156 0.451897 0.109570 33.000000
3.043469 0.424821 0.111108 56.000000
3.033012 0.389877 0.110660 10.000000
3.096577 0.363816 0.112925 16.000000
3.155040 0.336026 0.115012 34.000000
3.178424 0.303626 0.115737 32.000000
3.236214 0.273643 0.117828 47.000000
3.298788 0.242937 0.120105 29.000000
3.311286 0.207703 0.120468 23.000000
3.388162 0.175511 0.123293 9.000000
3.424766 0.140160 0.124564 24.000000
3.466082 0.104096 0.126122 63.000000
3.492013 0.066875 0.127031 82.000000
3.467564 0.028698 0.126122 47.000000
3.412707 -0.008858 0.124227 71.000000
3.337452 -0.044951 0.121499 32.000000
3.266807 -0.079535 0.118953 10.000000
3.250828 -0.114434 0.118407 8.000000
3.229373 -0.148876 0.117679 7.000000
3.152767 -0.179659 0.114951 8.000000
3.130705 -0.212540 0.114224 8.000000
3.108289 -0.244988 0.113496 7.000000
3.060642 -0.274768 0.111859 9.000000
3.072366 -0.309490 0.112405 29.000000
3.053886 -0.341208 0.111765 33.000000
3.030200 -0.371899 0.111038 27.000000
2.946764 -0.394209 0.108131 10.000000
2.922535 -0.423302 0.107314 9.000000
2.878260 -0.448886 0.105861 8.000000
2.853476 -0.476816 0.105046 7.000000
2.838337 -0.505984 0.104595 18.000000
2.847342 -0.539590 0.105139 34.000000
2.836425 -0.569494 0.104870 40.000000
2.795849 -0.592982 0.103602 58.000000
2.769797 -0.618910 0.102791 46.000000
2.758086 -0.647755 0.102523 68.000000
2.741202 -0.675300 0.102075 33.000000
2.690156 -0.693812 0.100364 9.000000
2.860943 -0.771019 0.106953 27.000000
2.876488 -0.808818 0.107763 21.000000
2.953860 -0.865310 0.110913 24.000000
3.030306 -0.923487 0.114057 16.000000
3.315494 -1.049905 0.125105 6.000000
3.451076 -1.134163 0.130566 6.000000
3.514217 -1.197330 0.133213 5.000000
3.439809 -1.213473 0.130771 5.000000
3.417054 -1.247362 0.130302 2.000000
3.380016 -1.275532 0.129186 3.000000
3.277442 -1.277676 0.125684 4.000000
3.416452 -1.374678 0.131350 4.000000
3.368965 -1.398268 0.129991 4.000000
3.307654 -1.415149 0.127991 3.000000
3.388185 -1.493284 0.131611 1.000000
3.362576 -1.525901 0.131030 1.000000
3.341360 -1.560210 0.130627 1.000000
3.283704 -1.577001 0.128923 1.000000
3.243948 -1.601536 0.127818 1.000000
3.386694 -1.718048 0.133942 1.000000
3.195081 -1.664760 0.126848 1.000000
3.326627 -1.779554 0.132600 1.000000
2.860263 -1.570325 0.114586 3.000000
2.782072 -1.566981 0.111934 3.000000
2.898944 -1.674693 0.117160 4.000000
2.833249 -1.678169 0.115035 2.000000
2.960075 -1.797003 0.120653 1.000000
3.000227 -1.958359 0.124175 1.000000
2.903896 -1.940979 0.120845 1.000000
2.826757 -2.026212 0.119583 1.000000
2.752177 -2.018485 0.117036 1.000000
2.733975 -2.051394 0.116999 1.000000
2.802605 -2.151012 0.120609 1.000000
2.638090 -2.069538 0.114161 1.000000
2.549938 -2.138667 0.112497 1.000000
2.473354 -2.120771 0.109834 1.000000
2.499026 -2.190453 0.111821 1.000000
2.508474 -2.247558 0.113026 1.000000
2.498635 -2.288312 0.113386 1.000000
2.542918 -2.380197 0.116245 1.000000
2.509640 -2.400834 0.115593 1.000000
2.183195 -2.134621 0.101342 2.000000
2.177562 -2.175870 0.101890 6.000000
2.034815 -2.078064 0.095999 6.000000
1.818479 -1.898018 0.086522 6.000000
1.643970 -1.753621 0.078826 8.000000
1.503206 -1.638805 0.072723 8.000000
1.411915 -1.573212 0.068934 9.000000
1.374962 -1.565913 0.067701 24.000000
1.367679 -1.592111 0.067996 13.000000
1.334236 -1.587785 0.066997 30.000000
1.310602 -1.594439 0.066422 23.000000
1.296340 -1.612450 0.066393 26.000000
1.272601 -1.618553 0.065821 27.000000
1.276321 -1.659991 0.066747 21.000000
1.267236 -1.685720 0.066968 27.000000
1.248949 -1.699372 0.066710 26.000000
1.233384 -1.716888 0.066675 13.000000
1.208987 -1.721940 0.066102 27.000000
1.193057 -1.739102 0.066002 19.000000
1.176908 -1.756067 0.065900 23.000000
1.157802 -1.768718 0.065642 25.000000
1.141324 -1.785386 0.065603 20.000000
1.129853 -1.810398 0.065807 26.000000
1.120511 -1.839589 0.066160 19.000000
1.069877 -1.800135 0.064062 9.000000
1.163403 1.987894 0.087788 8.000000
1.174647 1.957954 0.087445 24.000000
1.187995 1.932285 0.087286 28.000000
1.216835 1.931943 0.088212 25.000000
1.235046 1.914426 0.088436 29.000000
1.255712 1.900858 0.088784 30.000000
1.273508 1.883012 0.089006 29.000000
1.293851 1.869057 0.089353 32.000000
1.319830 1.863047 0.090164 24.000000
1.322390 1.824342 0.089325 29.000000
1.342072 1.809822 0.089669 32.000000
1.361616 1.795164 0.090013 31.000000
1.378029 1.776283 0.090225 32.000000
1.400291 1.765159 0.090770 31.000000
1.416206 1.745934 0.090912 31.000000
1.435089 1.730415 0.091255 33.000000
1.457065 1.718570 0.091802 28.000000
1.469102 1.695054 0.091738 30.000000
1.494089 1.686433 0.092490 36.000000
1.519032 1.677460 0.093246 34.000000
1.540535 1.664468 0.093729 42.000000
1.562049 1.651263 0.094283 35.000000
1.569475 1.623340 0.094006 36.000000
1.601107 1.620311 0.095116 39.000000
1.611542 1.595747 0.095045 29.000000
1.618097 1.567654 0.094692 34.000000
1.638721 1.553405 0.095247 49.000000
1.648224 1.528610 0.095100 37.000000
1.683269 1.527266 0.096435 48.000000
1.696127 1.505551 0.096569 36.000000
1.723722 1.496742 0.097486 41.000000
1.759006 1.494013 0.098835 45.000000
1.748253 1.452423 0.097615 33.000000
1.779521 1.445791 0.098753 36.000000
1.799121 1.429428 0.099249 35.000000
1.810618 1.406640 0.099314 35.000000
1.829794 1.389841 0.099811 42.000000
1.848896 1.372744 0.100239 45.000000
1.863738 1.352485 0.100520 38.000000
1.886519 1.337794 0.101239 37.000000
1.913319 1.325699 0.102108 33.000000
1.935884 1.310394 0.102832 36.000000
1.958429 1.294694 0.103487 36.000000
1.980807 1.278669 0.104215 36.000000
1.990337 1.254328 0.104210 60.000000
2.012141 1.238218 0.104941 52.000000
2.025493 1.216205 0.105158 36.000000
2.051559 1.201621 0.106115 54.000000
2.081909 1.189160 0.107227 29.000000
2.112182 1.176102 0.108342 45.000000
2.133591 1.157824 0.109012 56.000000
2.154882 1.139133 0.109684 34.000000
2.180491 1.122536 0.110583 44.000000
2.205950 1.105425 0.111485 46.000000
2.222349 1.083568 0.111861 37.000000
2.243007 1.063602 0.112541 55.000000
2.254458 1.039107 0.112768 29.000000
2.288399 1.024743 0.114133 34.000000
2.308513 1.003832 0.114741 44.000000
2.328483 0.982568 0.115428 32.000000
2.352929 0.962841 0.116268 36.000000
2.395680 0.950099 0.118103 44.000000
2.405759 0.924274 0.118260 35.000000
2.434405 0.905017 0.119415 46.000000
2.453486 0.881894 0.120034 29.000000
2.467683 0.856850 0.120423 35.000000
2.495723 0.836304 0.121505 54.000000
2.542670 0.821488 0.123513 42.000000
2.556256 0.795298 0.123907 46.000000
2.588604 0.774567 0.125228 61.000000
2.606460 0.749177 0.125857 58.000000
2.633673 0.726317 0.126951 71.000000
2.631777 0.695055 0.126653 26.000000
2.706974 0.683567 0.130077 38.000000
2.665669 0.642438 0.127918 9.000000
2.706530 0.621275 0.129634 9.000000
2.756979 0.601502 0.131905 18.000000
2.822049 0.583638 0.134794 49.000000
2.862523 0.559619 0.136608 62.000000
2.878317 0.530329 0.137165 56.000000
2.869097 0.496479 0.136641 13.000000
2.938439 0.475629 0.139778 51.000000
2.978012 0.448919 0.141512 72.000000
3.012383 0.420583 0.143013 45.000000
2.991982 0.384689 0.141931 10.000000
3.040587 0.357402 0.144140 9.000000
3.059227 0.325972 0.144939 9.000000
3.122272 0.298400 0.147858 15.000000
3.180082 0.269013 0.150546 15.000000
3.237602 0.238434 0.153236 47.000000
3.269890 0.205100 0.154651 27.000000
3.291843 0.170599 0.155695 9.000000
3.378389 0.138321 0.159808 32.000000
