x y z intensity
1.938256 0.999854 0.592312 44.000000
1.948878 0.978267 0.593485 50.000000
1.968169 0.960427 0.597011 63.000000
1.987137 0.942671 0.600685 33.000000
2.010506 0.926250 0.605477 32.000000
2.042461 0.913613 0.613064 50.000000
2.069923 0.898495 0.619349 35.000000
2.088379 0.879098 0.622928 36.000000
2.111164 0.861181 0.627842 37.000000
2.124885 0.839351 0.630037 35.000000
2.169941 0.829246 0.641480 62.000000
2.183361 0.806646 0.643622 30.000000
2.210137 0.788581 0.649769 33.000000
2.223164 0.765404 0.651848 58.000000
2.235853 0.742126 0.654079 36.000000
2.266704 0.724613 0.661596 61.000000
2.297565 0.706211 0.668902 95.000000
2.305027 0.680551 0.669663 35.000000
2.330796 0.660065 0.675722 43.000000
2.370392 0.642792 0.685748 31.000000
2.391145 0.620037 0.690565 33.000000
2.425843 0.600205 0.699275 50.000000
2.450844 0.577617 0.705303 40.000000
2.471083 0.553401 0.709991 40.000000
2.495778 0.529790 0.715956 57.000000
2.520236 0.505677 0.721848 42.000000
2.549262 0.482037 0.729101 36.000000
2.578057 0.457788 0.736445 27.000000
2.644509 0.439321 0.754469 36.000000
2.677721 0.414158 0.763112 73.000000
2.691544 0.385627 0.766167 61.000000
2.714679 0.358143 0.772026 41.000000
2.756633 0.332451 0.783232 60.000000
2.807812 0.306953 0.797254 37.000000
2.811036 0.275604 0.797434 51.000000
2.818606 0.244671 0.799151 21.000000
2.883490 0.217984 0.817186 35.000000
2.948111 0.189814 0.834956 49.000000
2.974007 0.158207 0.841944 62.000000
3.009167 0.126468 0.851656 39.000000
3.043975 0.093980 0.861373 52.000000
3.073705 0.060550 0.869635 49.000000
3.131924 0.026820 0.886066 39.000000
3.156079 -0.008208 0.892871 35.000000
3.223128 -0.044267 0.911926 36.000000
3.241650 -0.080733 0.917268 32.000000
3.283894 -0.118391 0.929412 33.000000
3.354524 -0.158375 0.949611 33.000000
3.376622 -0.197161 0.956198 32.000000
3.446260 -0.239932 0.976601 31.000000
3.491369 -0.282153 0.989758 29.000000
3.521688 -0.324120 0.999051 32.000000
3.489157 -0.360406 0.990673 31.000000
3.461139 -0.396490 0.983326 32.000000
3.447061 -0.433843 0.980169 33.000000
3.404073 -0.467059 0.968872 28.000000
3.393974 -0.504266 0.967080 32.000000
3.393069 -0.542887 0.967892 33.000000
3.292095 -0.564426 0.940251 23.000000
3.290581 -0.601826 0.940969 30.000000
3.269620 -0.635762 0.936379 30.000000
3.238867 -0.667439 0.928985 29.000000
3.231424 -0.703500 0.928251 35.000000
3.190820 -0.731921 0.918066 30.000000
3.173366 -0.765150 0.914539 30.000000
3.174115 -0.802893 0.916510 32.000000
3.123402 -0.826976 0.903458 21.000000
3.123469 -0.864356 0.905330 31.000000
3.104665 -0.896496 0.901718 32.000000
3.080897 -0.926838 0.896667 30.000000
3.029232 -0.948338 0.883882 32.000000
3.009612 -0.979044 0.880097 30.000000
2.980628 -1.006263 0.873643 29.000000
2.974015 -1.041135 0.873983 31.000000
2.930731 -1.062866 0.863641 24.000000
2.937029 -1.102317 0.867987 32.000000
2.915925 -1.131611 0.864231 35.000000
2.872131 -1.151537 0.853734 28.000000
2.872758 -1.189002 0.856542 34.000000
2.828730 -1.207737 0.845981 31.000000
2.793425 -1.229470 0.838095 32.000000
2.788686 -1.264458 0.839387 32.000000
2.748420 -1.283607 0.830400 24.000000
2.751796 -1.322388 0.834232 32.000000
2.724142 -1.346883 0.829124 35.000000
2.692232 -1.368324 0.822332 31.000000
2.677044 -1.398509 0.820995 34.000000
2.657604 -1.425838 0.818157 34.000000
2.637641 -1.453359 0.815420 32.000000
2.625751 -1.485252 0.815392 32.000000
2.596823 -1.507450 0.809959 27.000000
2.601338 -1.548365 0.814748 37.000000
2.580091 -1.574934 0.811920 35.000000
2.542332 -1.591066 0.803824 21.000000
2.508540 -1.609062 0.797046 18.000000
2.511025 -1.650384 0.801892 33.000000
2.472858 -1.664891 0.793751 30.000000
2.474485 -1.706286 0.798475 34.000000
2.420254 -1.708816 0.785144 26.000000
2.417217 -1.747175 0.788479 35.000000
2.378018 -1.760378 0.780595 34.000000
2.362635 -1.789819 0.780000 35.000000
2.343086 -1.816196 0.778129 35.000000
2.323350 -1.842199 0.776165 34.000000
2.295818 -1.861920 0.771675 29.000000
2.304626 -1.912934 0.779984 33.000000
2.254330 -1.913477 0.767852 30.000000
2.237195 -1.941636 0.767054 34.000000
2.219805 -1.969689 0.766156 36.000000
2.197637 -1.995037 0.764286 32.000000
2.186774 -2.029239 0.765864 39.000000
2.154330 -2.043396 0.759889 33.000000
2.127936 -2.064622 0.756689 29.000000
2.105711 -2.088155 0.754354 33.000000
2.082365 -2.112248 0.752300 25.000000
2.076500 -2.152571 0.756092 35.000000
2.060091 -2.182500 0.756087 33.000000
2.035722 -2.206019 0.753915 32.000000
2.025206 -2.242709 0.756315 44.000000
1.990478 -2.254993 0.750403 34.000000
1.963277 -2.273080 0.746642 11.000000
1.894133 -2.243548 0.727540 24.000000
1.876498 -2.271804 0.727351 16.000000
1.628579 -2.017411 0.637841 17.000000
1.519870 -1.924650 0.600967 22.000000
1.412471 -1.830467 0.564640 19.000000
1.313100 -1.741848 0.530831 21.000000
1.239951 -1.681853 0.506465 26.000000
1.215505 -1.688136 0.502346 31.000000
1.186548 -1.685428 0.495710 32.000000
1.184376 -1.723057 0.500954 26.000000
1.165218 -1.736574 0.499182 34.000000
1.146977 -1.749237 0.497148 31.000000
1.127490 -1.762359 0.495311 31.000000
1.114211 -1.782883 0.495571 35.000000
1.094370 -1.795605 0.493660 29.000000
1.074463 -1.808130 0.491748 27.000000
1.065385 -1.836647 0.494172 29.000000
1.071324 -1.895467 0.504662 9.000000
0.989822 1.786166 0.489432 8.000000
1.000010 1.757602 0.486738 24.000000
1.024398 1.754253 0.490992 23.000000
1.040082 1.738730 0.491981 26.000000
1.054281 1.718233 0.491521 28.000000
1.069618 1.702406 0.492421 28.000000
1.088443 1.689898 0.494253 32.000000
1.104468 1.673086 0.494887 25.000000
1.130073 1.672861 0.500513 30.000000
1.134803 1.639710 0.496316 25.000000
1.154789 1.631064 0.499472 26.000000
1.167139 1.609758 0.498799 30.000000
1.192694 1.608429 0.504402 29.000000
1.207534 1.590704 0.504941 30.000000
1.230200 1.584907 0.509288 35.000000
1.238719 1.559186 0.507228 26.000000
1.261258 1.552909 0.511587 33.000000
1.262922 1.519665 0.507012 25.000000
1.288389 1.516604 0.512558 32.000000
1.305196 1.501615 0.514126 51.000000
1.327554 1.494302 0.518393 33.000000
1.347319 1.482443 0.521227 36.000000
1.359757 1.463864 0.521733 36.000000
1.382679 1.455058 0.525716 32.000000
1.401499 1.443076 0.528696 35.000000
1.416860 1.427334 0.530410 29.000000
1.432729 1.410894 0.531807 48.000000
1.426892 1.374716 0.525763 73.000000
1.462690 1.378584 0.535044 39.000000
1.481541 1.364845 0.537666 61.000000
1.510528 1.361171 0.544430 52.000000
1.521487 1.340955 0.544675 36.000000
1.539564 1.326995 0.547449 61.000000
1.554275 1.309137 0.548734 24.000000
1.560893 1.285527 0.547598 36.000000
1.586041 1.276959 0.552935 74.000000
1.595966 1.256075 0.553038 38.000000
1.598051 1.229265 0.550436 58.000000
1.626737 1.222806 0.557056 46.000000
1.655482 1.215871 0.563701 35.000000
1.660779 1.191465 0.562349 57.000000
1.697337 1.189297 0.571619 26.000000
1.702308 1.164696 0.570201 55.000000
1.714913 1.145430 0.571442 74.000000
1.755572 1.144384 0.581982 65.000000
1.763920 1.121952 0.581837 54.000000
1.780197 1.104492 0.584306 59.000000
1.808624 1.094285 0.590817 45.000000
1.820548 1.073787 0.591956 59.000000
1.856905 1.067956 0.601337 29.000000
1.868584 1.046907 0.602355 41.000000
1.909496 1.041857 0.612865 82.000000
1.916351 1.018287 0.612748 53.000000
1.940251 1.003239 0.617794 77.000000
1.959514 0.985811 0.621698 70.000000
1.961657 0.959388 0.619872 43.000000
1.980527 0.941558 0.623716 56.000000
2.012444 0.929442 0.631610 27.000000
2.031136 0.910867 0.635339 34.000000
2.067333 0.899628 0.644574 63.000000
2.076994 0.876369 0.645505 35.000000
2.108684 0.862134 0.653327 52.000000
2.122410 0.840252 0.655647 62.000000
2.135884 0.818052 0.657826 53.000000
2.176212 0.805762 0.668311 35.000000
2.189285 0.783058 0.670655 33.000000
2.211400 0.763167 0.675555 48.000000
2.242288 0.746003 0.683392 73.000000
2.259468 0.723708 0.686848 49.000000
2.280925 0.702622 0.691853 48.000000
2.297642 0.679790 0.695323 70.000000
2.314113 0.656676 0.698874 50.000000
2.334891 0.634691 0.703828 37.000000
2.388199 0.620540 0.718420 33.000000
2.418003 0.599650 0.726201 43.000000
2.438352 0.575956 0.731036 40.000000
2.458534 0.551788 0.735878 49.000000
2.483158 0.528306 0.742050 37.000000
2.512251 0.505188 0.749552 62.000000
2.559978 0.485117 0.762848 38.000000
2.588735 0.460736 0.770374 35.000000
2.636180 0.438896 0.783536 40.000000
2.664475 0.412993 0.790999 54.000000
2.683009 0.385282 0.795738 56.000000
2.706084 0.357796 0.801632 55.000000
2.738392 0.331036 0.810612 48.000000
2.765655 0.302939 0.817926 51.000000
2.816490 0.276743 0.832388 49.000000
2.852821 0.248143 0.842537 34.000000
2.903108 0.219882 0.856835 39.000000
2.938835 0.189626 0.866998 52.000000
2.964656 0.158018 0.874247 42.000000
3.004503 0.126575 0.885833 70.000000
3.029716 0.093735 0.893090 44.000000
3.068847 0.060547 0.904394 49.000000
3.126886 0.026762 0.921451 45.000000
3.141373 -0.008195 0.925791 34.000000
3.203415 -0.044135 0.944064 35.000000
3.236263 -0.080750 0.953957 34.000000
3.273577 -0.118287 0.965159 32.000000
3.339189 -0.158042 0.984623 35.000000
3.385155 -0.198175 0.998642 35.000000
3.449768 -0.240605 1.018087 33.000000
3.504276 -0.283756 1.034920 25.000000
3.520138 -0.324664 1.040230 33.000000
3.478256 -0.360073 1.028605 33.000000
3.454967 -0.396706 1.022629 32.000000
3.426745 -0.432202 1.014917 33.000000
3.398039 -0.467277 1.007651 34.000000
3.354841 -0.499591 0.995729 33.000000
3.372809 -0.540823 1.002336 30.000000
3.281611 -0.563896 0.976361 14.000000
3.280083 -0.601295 0.977132 30.000000
3.259272 -0.635129 0.972175 34.000000
3.233293 -0.667676 0.966030 33.000000
3.207085 -0.699697 0.959683 32.000000
3.180548 -0.731195 0.953345 33.000000
3.158459 -0.763299 0.948312 31.000000
3.159397 -0.800780 0.950181 30.000000
3.094707 -0.821333 0.932676 17.000000
3.104255 -0.860865 0.937143 31.000000
3.057837 -0.884897 0.925060 31.000000
3.052621 -0.920376 0.925543 35.000000
3.005832 -0.942920 0.913391 29.000000
2.986090 -0.973675 0.909808 31.000000
2.979962 -1.008446 0.910000 33.000000
2.959703 -1.038646 0.906324 27.000000
2.907709 -1.056759 0.892556 19.000000
2.914003 -1.096051 0.897111 34.000000
2.861537 -1.113004 0.883481 31.000000
2.867088 -1.152153 0.887932 33.000000
2.823259 -1.171344 0.877004 32.000000
2.814771 -1.204775 0.877119 34.000000
2.779562 -1.226467 0.868981 33.000000
2.774911 -1.261402 0.870376 28.000000
2.756722 -1.290224 0.867555 28.000000
2.729622 -1.314679 0.862001 33.000000
2.723629 -1.349712 0.863580 35.000000
2.674585 -1.362524 0.851125 42.000000
2.667969 -1.397076 0.852516 33.000000
2.644307 -1.422129 0.848174 35.000000
2.632713 -1.454258 0.848103 35.000000
2.608223 -1.479169 0.843963 28.000000
2.550643 -1.483768 0.828639 25.000000
2.571482 -1.534594 0.839286 37.000000
2.566814 -1.571083 0.841808 34.000000
2.533141 -1.589740 0.834810 24.000000
2.499407 -1.607744 0.827832 17.000000
2.489752 -1.641102 0.828815 32.000000
2.467624 -1.666363 0.825779 34.000000
2.449330 -1.694087 0.823987 27.000000
2.422887 -1.715957 0.819535 29.000000
2.380579 -1.726143 0.809691 32.000000
2.365555 -1.755730 0.809154 32.000000
2.334829 -1.773364 0.803232 35.000000
2.319248 -1.802486 0.802602 30.000000
2.310875 -1.837419 0.804595 34.000000
2.294541 -1.866238 0.803852 33.000000
2.277953 -1.894953 0.803102 26.000000
2.234541 -1.902319 0.793491 26.000000
2.224776 -1.936692 0.795262 32.000000
2.200192 -1.958281 0.791727 30.000000
2.193259 -1.995762 0.794670 35.000000
2.160167 -2.010997 0.788829 29.000000
2.148944 -2.045043 0.790454 33.000000
2.123369 -2.065470 0.786828 34.000000
2.096840 -2.086474 0.783397 25.000000
2.070945 -2.106186 0.779692 24.000000
2.065145 -2.146544 0.783629 32.000000
2.034456 -2.163184 0.778930 33.000000
2.030874 -2.206933 0.783987 37.000000
2.012654 -2.237401 0.784239 33.000000
1.982342 -2.252344 0.779068 35.000000
1.954021 -2.271474 0.775450 14.000000
1.879958 -2.233647 0.752830 14.000000
1.848871 -2.247697 0.747949 16.000000
1.609344 -2.000116 0.657243 10.000000
1.527136 -1.942383 0.630418 19.000000
1.409106 -1.832348 0.587443 22.000000
1.307140 -1.739998 0.551110 16.000000
1.242853 -1.691803 0.529489 29.000000
1.198517 -1.670613 0.516737 29.000000
1.183704 -1.687717 0.515945 27.000000
1.159416 -1.693265 0.511710 26.000000
1.136204 -1.697850 0.507235 31.000000
1.146511 -1.755659 0.518577 29.000000
1.116499 -1.752465 0.511881 32.000000
1.110910 -1.785226 0.515747 28.000000
1.091023 -1.798044 0.513765 29.000000
1.072259 -1.809871 0.511650 31.000000
1.061827 -1.839059 0.514310 26.000000
1.043672 -1.855565 0.513482 9.000000
0.996937 1.804966 0.513416 6.000000
0.996687 1.760046 0.505979 10.000000
1.021095 1.756596 0.510388 20.000000
1.031875 1.732720 0.508955 25.000000
1.053635 1.724732 0.512151 21.000000
1.072724 1.712260 0.514124 27.000000
1.088052 1.696221 0.514985 24.000000
1.106841 1.683398 0.516953 21.000000
1.124424 1.671084 0.519048 27.000000
1.151201 1.669837 0.524645 10.000000
1.160352 1.645059 0.522983 23.000000
1.170070 1.619709 0.521039 25.000000
1.184211 1.602774 0.521790 20.000000
1.202002 1.588881 0.523550 28.000000
1.218724 1.575427 0.525499 26.000000
1.242202 1.568735 0.529755 26.000000
1.255713 1.551082 0.530429 26.000000
1.285245 1.551279 0.537285 10.000000
1.282870 1.514785 0.531435 32.000000
1.296577 1.496147 0.531769 28.000000
1.318807 1.488860 0.536186 25.000000
1.341065 1.481179 0.540621 32.000000
1.360832 1.469116 0.543510 26.000000
1.376473 1.453792 0.545283 31.000000
1.388570 1.434875 0.545674 29.000000
1.418123 1.432346 0.552477 16.000000
1.423080 1.406236 0.550222 36.000000
1.438151 1.390151 0.551868 30.000000
1.457104 1.376743 0.554658 33.000000
1.482445 1.370113 0.560256 57.000000
1.497150 1.353362 0.561855 32.000000
1.518943 1.342798 0.566143 35.000000
1.533911 1.325132 0.567492 36.000000
1.544430 1.304681 0.567682 26.000000
1.543687 1.274927 0.563735 35.000000
1.579860 1.275607 0.573347 30.000000
1.601193 1.263667 0.577552 32.000000
1.626270 1.254365 0.583072 35.000000
1.643662 1.238755 0.585809 32.000000
1.653179 1.217291 0.585809 32.000000
1.674145 1.204140 0.589927 31.000000
1.683304 1.182394 0.589858 22.000000
1.711955 1.174131 0.596689 36.000000
1.732662 1.160031 0.600710 36.000000
1.737202 1.135107 0.599194 34.000000
1.757297 1.120893 0.603359 48.000000
1.777637 1.105967 0.607337 32.000000
1.797888 1.090723 0.611326 35.000000
1.826312 1.080046 0.617988 44.000000
1.829462 1.054883 0.616534 24.000000
1.857678 1.043471 0.623223 35.000000
1.877207 1.027278 0.627256 31.000000
1.901138 1.012675 0.632502 32.000000
1.924669 0.997992 0.637970 38.000000
1.944131 0.980378 0.641763 34.000000
1.958897 0.960668 0.644287 37.000000
1.977897 0.942786 0.648235 34.000000
1.996639 0.924569 0.652122 23.000000
2.024071 0.909949 0.658865 32.000000
2.051391 0.894865 0.665555 34.000000
2.074251 0.877377 0.670763 33.000000
2.101451 0.861266 0.677411 35.000000
2.132974 0.846378 0.685507 31.000000
2.151054 0.825765 0.689250 34.000000
2.168768 0.805025 0.693074 31.000000
2.154924 0.772476 0.686702 10.000000
2.199295 0.760858 0.699159 36.000000
2.225546 0.742223 0.705811 33.000000
2.247296 0.721491 0.710734 34.000000
2.273265 0.701864 0.717334 46.000000
2.289799 0.679257 0.721135 32.000000
2.315522 0.658760 0.727606 37.000000
2.350288 0.640211 0.736984 31.000000
2.352415 0.612753 0.736312 9.000000
2.414569 0.600250 0.754419 39.000000
2.430228 0.575318 0.758037 31.000000
2.455030 0.552278 0.764408 31.000000
2.479604 0.528657 0.770787 33.000000
2.522778 0.508398 0.782914 30.000000
2.537512 0.481943 0.786484 28.000000
2.570789 0.458471 0.795722 32.000000
2.585056 0.431219 0.799139 10.000000
2.627375 0.408160 0.811399 30.000000
2.683681 0.386300 0.827971 37.000000
2.687747 0.356192 0.828403 29.000000
2.724696 0.330022 0.838981 34.000000
2.785145 0.305715 0.856789 31.000000
2.807307 0.276472 0.862997 30.000000
2.838675 0.247545 0.872228 33.000000
2.874592 0.218249 0.882657 18.000000
2.914967 0.188513 0.894647 29.000000
2.959796 0.158084 0.908014 36.000000
2.975639 0.125577 0.912598 29.000000
3.038895 0.094232 0.931835 32.000000
3.058887 0.060547 0.937695 32.000000
3.102298 0.026639 0.951080 24.000000
3.140640 -0.008221 0.962803 31.000000
3.183459 -0.044003 0.975891 28.000000
3.211421 -0.080288 0.984683 30.000000
3.281951 -0.118875 1.006557 28.000000
3.313909 -0.157150 1.016602 28.000000
3.369271 -0.197679 1.033964 32.000000
3.409931 -0.238384 1.046927 25.000000
3.449981 -0.280051 1.059884 23.000000
3.480103 -0.321686 1.069685 30.000000
3.452643 -0.358148 1.061926 26.000000
3.443684 -0.396263 1.060242 32.000000
3.382224 -0.427674 1.042258 25.000000
3.372700 -0.464882 1.040361 25.000000
3.362647 -0.501875 1.038249 30.000000
3.328784 -0.534860 1.028842 25.000000
3.308621 -0.569647 1.023929 18.000000
3.259858 -0.598931 1.010167 30.000000
3.239113 -0.632556 1.005057 26.000000
3.217901 -0.665972 1.000058 29.000000
3.177747 -0.694879 0.989246 27.000000
3.151421 -0.726172 0.982601 24.000000
3.152572 -0.763598 0.984681 29.000000
3.121005 -0.792985 0.976495 24.000000
3.075280 -0.817957 0.963974 11.000000
3.093812 -0.860149 0.971852 28.000000
3.061206 -0.888088 0.963696 26.000000
3.028642 -0.915209 0.955251 28.000000
2.995623 -0.941919 0.947024 30.000000
2.980562 -0.974165 0.944781 25.000000
2.956265 -1.002832 0.939359 28.000000
2.931670 -1.031096 0.933749 24.000000
2.911184 -1.060695 0.929885 10.000000
2.886188 -1.088106 0.924296 29.000000
2.860713 -1.115216 0.918914 25.000000
2.852833 -1.149186 0.919172 24.000000
2.831250 -1.177441 0.915039 29.000000
2.805051 -1.203512 0.909486 26.000000
2.774301 -1.227152 0.902423 28.000000
2.743333 -1.250303 0.895377 26.000000
2.707910 -1.270737 0.886831 9.000000
2.706961 -1.307271 0.889660 29.000000
2.684021 -1.333237 0.885296 26.000000
2.664873 -1.361382 0.882642 29.000000
2.654362 -1.393318 0.882435 30.000000
2.626150 -1.416527 0.876870 26.000000
2.614973 -1.448083 0.876474 29.000000
2.594640 -1.475181 0.873643 28.000000
2.545529 -1.484689 0.860627 10.000000
2.570229 -1.538100 0.873120 32.000000
2.532822 -1.554489 0.864518 26.000000
2.519601 -1.585666 0.864212 19.000000
2.482391 -1.600468 0.855272 11.000000
2.468756 -1.631174 0.854971 21.000000
2.454688 -1.661596 0.854570 28.000000
2.424577 -1.681061 0.848635 24.000000
2.374677 -1.686159 0.835728 10.000000
2.387289 -1.735401 0.844887 33.000000
2.341270 -1.742198 0.833402 23.000000
2.337399 -1.780156 0.836843 30.000000
2.314121 -1.803491 0.833519 29.000000
2.283104 -1.820370 0.827382 23.000000
2.293018 -1.870356 0.836128 31.000000
2.257873 -1.883736 0.828639 22.000000
2.208068 -1.884007 0.815581 10.000000
2.212199 -1.931567 0.823187 29.000000
2.183980 -1.949912 0.818262 24.000000
2.173499 -1.984053 0.819968 26.000000
2.151963 -2.008293 0.817638 28.000000
2.122430 -2.026438 0.812917 21.000000
2.107398 -2.056867 0.813163 28.000000
2.081796 -2.076863 0.809412 21.000000
2.065182 -2.107765 0.809918 10.000000
2.052502 -2.141183 0.811260 30.000000
2.032811 -2.167505 0.810041 24.000000
2.011727 -2.194466 0.809003 26.000000
1.988191 -2.216685 0.806367 30.000000
1.983664 -2.260485 0.811451 26.000000
1.936279 -2.257645 0.799984 10.000000
1.887383 -2.249478 0.786904 10.000000
1.862241 -2.271187 0.784399 9.000000
1.599205 -1.994001 0.680058 9.000000
1.505383 -1.921105 0.647124 9.000000
1.399688 -1.826400 0.607711 10.000000
1.301042 -1.738011 0.571390 13.000000
1.239830 -1.693789 0.550182 16.000000
1.206890 -1.688415 0.542010 29.000000
1.177933 -1.685837 0.534882 21.000000
1.170036 -1.715450 0.538017 18.000000
1.135857 -1.704109 0.528363 30.000000
1.124737 -1.729390 0.530225 24.000000
1.116927 -1.758095 0.532973 24.000000
1.102412 -1.779258 0.533474 23.000000
1.080065 -1.787832 0.530266 21.000000
1.066313 -1.808021 0.530414 26.000000
1.048511 -1.824580 0.529586 18.000000
1.048347 -1.869948 0.537055 9.000000
0.974649 1.773260 0.522883 9.000000
0.988394 1.753857 0.522666 23.000000
1.007881 1.742114 0.524761 25.000000
1.024772 1.726022 0.525589 24.000000
1.037731 1.706234 0.525262 27.000000
1.059258 1.698047 0.528555 27.000000
1.074408 1.682035 0.529484 26.000000
1.093124 1.669368 0.531438 28.000000
1.116022 1.665104 0.536164 20.000000
1.120844 1.632030 0.531581 27.000000
1.143536 1.627292 0.536312 31.000000
1.161579 1.613838 0.538198 29.000000
1.169971 1.589169 0.536276 31.000000
1.193440 1.583080 0.540780 27.000000
1.210122 1.569659 0.542786 31.000000
1.227556 1.555423 0.544542 31.000000
1.250041 1.549128 0.549209 26.000000
1.263359 1.531358 0.549828 33.000000
1.280396 1.516522 0.551525 34.000000
1.296490 1.502062 0.553474 36.000000
1.312395 1.487477 0.555360 38.000000
1.335443 1.479221 0.559698 33.000000
1.354437 1.467660 0.562887 39.000000
1.363475 1.445399 0.562002 36.000000
1.382885 1.432853 0.564942 30.000000
1.408368 1.427520 0.570817 37.000000
1.430467 1.418319 0.575281 36.000000
1.446258 1.401568 0.576815 45.000000
1.457795 1.381895 0.577161 37.000000
1.472593 1.365376 0.578819 35.000000
1.473094 1.335759 0.574923 62.000000
1.516176 1.344571 0.587642 60.000000
1.516156 1.314733 0.583667 33.000000
1.523501 1.290796 0.582207 35.000000
1.541162 1.276528 0.585134 33.000000
1.558634 1.262049 0.588004 32.000000
1.587329 1.256225 0.595176 62.000000
1.597123 1.235197 0.595179 34.000000
1.618135 1.222799 0.599426 42.000000
1.635223 1.207251 0.602267 44.000000
1.667795 1.202635 0.610744 32.000000
1.668678 1.175764 0.608033 34.000000
1.701219 1.170295 0.616485 39.000000
1.709935 1.148224 0.616367 36.000000
1.726473 1.131362 0.619050 52.000000
1.742805 1.114211 0.621738 36.000000
1.762727 1.099768 0.626074 57.000000
1.778803 1.082124 0.628645 44.000000
1.815316 1.076458 0.638459 34.000000
1.839183 1.063253 0.644225 44.000000
1.846599 1.039904 0.643856 35.000000
1.874527 1.028354 0.650897 35.000000
1.902312 1.016291 0.658029 57.000000
1.921946 0.998956 0.661915 39.000000
1.941193 0.981635 0.666087 55.000000
1.955966 0.961875 0.668665 61.000000
1.966263 0.939818 0.669778 32.000000
1.993689 0.925671 0.676776 32.000000
2.016723 0.909030 0.682250 37.000000
2.035297 0.890039 0.686190 35.000000
2.062466 0.874509 0.693095 37.000000
2.067424 0.849364 0.692545 33.000000
2.107697 0.838295 0.703773 36.000000
2.125451 0.818097 0.707829 35.000000
2.156703 0.802328 0.716057 28.000000
2.156250 0.774902 0.714111 33.000000
2.177981 0.755351 0.719459 42.000000
2.217770 0.741475 0.730783 37.000000
2.243789 0.722351 0.737653 45.000000
2.260669 0.699846 0.741396 45.000000
2.281880 0.678419 0.746642 43.000000
2.307463 0.657916 0.753318 61.000000
2.319049 0.633307 0.755662 30.000000
2.381114 0.621773 0.774441 35.000000
2.406238 0.599615 0.781158 35.000000
2.417225 0.573580 0.783376 37.000000
2.451254 0.552684 0.793041 37.000000
2.480437 0.530084 0.801052 38.000000
2.504730 0.506017 0.807811 37.000000
2.519412 0.479665 0.811400 36.000000
2.552573 0.456377 0.821030 25.000000
2.576276 0.430801 0.827485 37.000000
2.604254 0.405536 0.835626 58.000000
2.632058 0.379742 0.843692 37.000000
2.678577 0.355759 0.857646 43.000000
2.705950 0.328523 0.865558 47.000000
2.723476 0.299713 0.870537 37.000000
2.759829 0.272368 0.881490 37.000000
2.772075 0.242205 0.884786 18.000000
2.869498 0.218334 0.915456 46.000000
2.876464 0.186478 0.917248 36.000000
2.944916 0.157735 0.938663 49.000000
2.970227 0.125684 0.946436 49.000000
3.000036 0.093150 0.955728 42.000000
3.029385 0.060071 0.964830 52.000000
3.091801 0.026639 0.984750 35.000000
3.120485 -0.008195 0.993854 34.000000
3.196403 -0.044231 1.018029 48.000000
3.219603 -0.080766 1.025615 35.000000
3.285122 -0.119289 1.046750 36.000000
3.326479 -0.158175 1.060190 35.000000
3.367364 -0.198023 1.073732 35.000000
3.422021 -0.239832 1.091601 35.000000
3.452518 -0.280878 1.101882 34.000000
3.482401 -0.322671 1.112155 34.000000
3.436050 -0.357323 1.098186 32.000000
3.413022 -0.393637 1.091577 32.000000
3.384874 -0.428927 1.083680 33.000000
3.365905 -0.464991 1.078704 34.000000
3.332294 -0.498512 1.068979 34.000000
3.307970 -0.532807 1.062288 34.000000
3.269084 -0.564247 1.051179 28.000000
3.253337 -0.599160 1.047523 32.000000
3.232631 -0.632840 1.042257 32.000000
3.202226 -0.664269 1.033878 31.000000
3.199452 -0.701194 1.034756 38.000000
3.173007 -0.732858 1.028002 33.000000
3.141709 -0.762874 1.019648 30.000000
3.110119 -0.792163 1.011205 32.000000
3.078349 -0.820832 1.002673 23.000000
3.050898 -0.850162 0.995655 29.000000
3.036895 -0.883076 0.993245 31.000000
3.008819 -0.911736 0.986348 29.000000
2.994113 -0.943987 0.983847 32.000000
2.970068 -0.973165 0.978262 30.000000
2.950337 -1.003374 0.974080 29.000000
2.948279 -1.039529 0.975864 33.000000
2.883080 -1.052861 0.956710 26.000000
2.884703 -1.090401 0.960089 30.000000
2.859533 -1.117420 0.954257 32.000000
2.842645 -1.147814 0.951597 30.000000
2.821191 -1.176172 0.947363 35.000000
2.781779 -1.196586 0.937224 33.000000
2.759889 -1.223960 0.933014 34.000000
2.763770 -1.262955 0.937463 30.000000
2.745569 -1.291878 0.934536 29.000000
2.701216 -1.308110 0.922701 29.000000
2.691217 -1.340522 0.922634 35.000000
2.651001 -1.357584 0.912312 30.000000
2.623099 -1.381036 0.906500 34.000000
2.599643 -1.405720 0.901973 33.000000
2.592731 -1.439407 0.903094 31.000000
2.580899 -1.471198 0.903035 32.000000
2.569015 -1.502325 0.902686 29.000000
2.527690 -1.516783 0.892380 32.000000
2.514942 -1.547866 0.892229 30.000000
2.502326 -1.578382 0.891694 19.000000
2.464683 -1.593766 0.882796 15.000000
2.451091 -1.624286 0.882456 32.000000
2.413289 -1.638564 0.873505 27.000000
2.430565 -1.690504 0.884528 30.000000
2.369612 -1.686718 0.866561 25.000000
2.378107 -1.733246 0.874680 26.000000
2.332193 -1.740068 0.862671 32.000000
2.305399 -1.760552 0.857890 31.000000
2.293663 -1.792491 0.858688 30.000000
2.262788 -1.809346 0.852324 33.000000
2.246686 -1.837820 0.851612 28.000000
2.248736 -1.881592 0.857913 29.000000
2.223741 -1.904482 0.854555 23.000000
2.206596 -1.932683 0.853718 27.000000
2.189103 -1.960593 0.852781 31.000000
2.157185 -1.975514 0.846184 28.000000
2.142733 -2.006242 0.846632 28.000000
2.131424 -2.040171 0.848260 31.000000
2.104943 -2.061448 0.844727 25.000000
2.089476 -2.091822 0.844949 25.000000
2.050056 -2.097992 0.835567 22.000000
2.036380 -2.132162 0.837338 24.000000
2.020033 -2.161828 0.837442 31.000000
1.987020 -2.173694 0.830649 24.000000
1.978682 -2.214708 0.835082 26.000000
1.961294 -2.243988 0.834955 29.000000
1.931044 -2.258392 0.829433 10.000000
1.887093 -2.258619 0.818850 10.000000
1.841695 -2.253387 0.806704 15.000000
1.603977 -2.006558 0.709355 10.000000
1.510317 -1.933914 0.675239 10.000000
1.396151 -1.827981 0.630459 10.000000
1.312179 -1.759084 0.599367 11.000000
1.231027 -1.687904 0.568273 16.000000
1.195334 -1.678524 0.558509 21.000000
1.177612 -1.691750 0.556359 21.000000
1.150511 -1.693451 0.550509 16.000000
1.143275 -1.722227 0.553482 24.000000
1.121448 -1.731430 0.550169 19.000000
1.103205 -1.743809 0.547954 22.000000
1.093810 -1.773100 0.551048 19.000000
1.075198 -1.785136 0.548746 23.000000
1.069962 -1.822656 0.554252 18.000000
1.056830 -1.847723 0.555908 16.000000
1.023280 -1.834050 0.545944 9.000000
0.975605 1.783931 0.544687 9.000000
0.981268 1.746982 0.539077 26.000000
1.001977 1.740019 0.542725 27.000000
1.018883 1.723932 0.543510 35.000000
1.034368 1.708281 0.544537 29.000000
1.055927 1.700059 0.547879 33.000000
1.071197 1.684086 0.548833 37.000000
1.087263 1.667288 0.549524 29.000000
1.107521 1.659007 0.553065 33.000000
1.112368 1.625990 0.548383 29.000000
1.137690 1.625280 0.554543 30.000000
1.152049 1.608479 0.555329 35.000000
1.172832 1.598688 0.558629 34.000000
1.192568 1.589334 0.562065 34.000000
1.207283 1.571404 0.562590 35.000000
1.223942 1.557762 0.564664 34.000000
1.241293 1.543303 0.566487 36.000000
1.260691 1.532995 0.569879 32.000000
1.280042 1.522367 0.573217 37.000000
1.271909 1.478143 0.563875 65.000000
1.309846 1.489008 0.575551 41.000000
1.309614 1.456289 0.570450 53.000000
1.345361 1.462039 0.580545 60.000000
1.357677 1.443320 0.581033 36.000000
1.376441 1.431337 0.584272 53.000000
1.398516 1.422510 0.588936 32.000000
1.396695 1.389734 0.583613 37.000000
1.432865 1.393351 0.593660 65.000000
1.451290 1.380364 0.596869 37.000000
1.455628 1.353993 0.594296 71.000000
1.470193 1.337466 0.595942 75.000000
1.484631 1.320685 0.597588 57.000000
1.524161 1.325704 0.609342 72.000000
1.516582 1.289717 0.602266 24.000000
1.537905 1.278505 0.606756 36.000000
1.562883 1.270015 0.612652 62.000000
1.572885 1.249118 0.612735 54.000000
1.594026 1.237036 0.617134 63.000000
1.611229 1.221702 0.620016 54.000000
1.628365 1.206086 0.622970 35.000000
1.645306 1.190254 0.625801 56.000000
1.677785 1.185164 0.634541 25.000000
1.690710 1.165939 0.635919 44.000000
1.703045 1.147043 0.637494 60.000000
1.715512 1.127490 0.638740 35.000000
1.731866 1.110383 0.641475 57.000000
1.776002 1.111165 0.654856 42.000000
1.784053 1.088317 0.654567 35.000000
1.791516 1.065828 0.654540 56.000000
1.836195 1.064358 0.667609 26.000000
1.843451 1.041303 0.667463 33.000000
1.871543 1.029356 0.674570 55.000000
1.890953 1.012733 0.678886 36.000000
1.906028 0.993582 0.681634 38.000000
1.929445 0.978508 0.687346 48.000000
1.944247 0.958724 0.690040 35.000000
1.976001 0.947009 0.698816 59.000000
1.977543 0.920598 0.696826 23.000000
1.996146 0.902087 0.700922 29.000000
2.027705 0.889046 0.709605 46.000000
2.041665 0.867848 0.712126 35.000000
2.068657 0.851918 0.719171 35.000000
2.095376 0.835735 0.726377 36.000000
2.113296 0.815365 0.730313 32.000000
2.121939 0.791542 0.731330 32.000000
2.143791 0.772484 0.736962 28.000000
2.170021 0.754540 0.744075 32.000000
2.218640 0.743600 0.758840 61.000000
2.235649 0.721447 0.762754 55.000000
2.247954 0.697604 0.765129 34.000000
2.282770 0.680298 0.775091 53.000000
2.308239 0.659915 0.782204 41.000000
2.306082 0.631436 0.779951 34.000000
2.363336 0.618657 0.797792 26.000000
2.392978 0.597750 0.806265 32.000000
2.422428 0.576243 0.814752 36.000000
2.447124 0.553088 0.821536 36.000000
2.466862 0.528521 0.827014 33.000000
2.500390 0.506387 0.837014 36.000000
2.505716 0.478282 0.837588 32.000000
2.557552 0.458393 0.853686 30.000000
2.567078 0.430299 0.855748 33.000000
2.595056 0.405114 0.864147 33.000000
2.641578 0.381950 0.878640 36.000000
2.664352 0.354700 0.885325 36.000000
2.691636 0.327600 0.893669 34.000000
2.728072 0.300924 0.904889 42.000000
2.750060 0.272102 0.911684 36.000000
2.800112 0.245251 0.927529 32.000000
2.849892 0.217428 0.943564 35.000000
2.866309 0.186201 0.948543 33.000000
2.929785 0.157291 0.969114 35.000000
2.955010 0.125292 0.977145 36.000000
2.989462 0.093054 0.988316 35.000000
3.014060 0.059880 0.996160 34.000000
3.080908 0.026540 1.018321 35.000000
3.118985 -0.008221 1.030873 33.000000
3.170900 -0.044033 1.048031 36.000000
3.217748 -0.080901 1.063720 36.000000
3.259308 -0.118665 1.077735 35.000000
3.319489 -0.158188 1.097916 36.000000
3.346002 -0.197248 1.107219 33.000000
3.395729 -0.238504 1.124142 32.000000
3.445047 -0.280931 1.141055 26.000000
3.460625 -0.321456 1.147101 33.000000
3.414547 -0.355896 1.132335 31.000000
3.382053 -0.391125 1.122719 32.000000
3.368255 -0.427892 1.118933 31.000000
3.321009 -0.459887 1.104418 35.000000
3.320535 -0.497972 1.105443 31.000000
3.282104 -0.529892 1.093750 31.000000
3.243362 -0.561180 1.082389 25.000000
3.237017 -0.597662 1.081755 28.000000
3.225694 -0.633123 1.079455 34.000000
3.204666 -0.666544 1.073934 33.000000
3.169463 -0.696382 1.063644 30.000000
3.152389 -0.729880 1.059802 32.000000
3.135050 -0.763067 1.055964 32.000000
3.103530 -0.792518 1.047263 26.000000
3.067239 -0.820016 1.036921 19.000000
3.049011 -0.851808 1.032800 31.000000
3.030533 -0.883293 1.028483 31.000000
3.011607 -0.914674 1.024476 32.000000
2.974202 -0.940017 1.014189 30.000000
2.959273 -0.972066 1.011544 31.000000
2.943978 -1.003813 1.008902 32.000000
2.914963 -1.030502 1.001442 27.000000
2.872386 -1.051782 0.989382 17.000000
2.852008 -1.080592 0.984935 30.000000
2.844408 -1.114605 0.985394 31.000000
2.823437 -1.142871 0.980859 35.000000
2.784391 -1.163694 0.970406 27.000000
2.753943 -1.187595 0.963034 29.000000
2.749570 -1.222610 0.964741 34.000000
2.727411 -1.249599 0.960246 27.000000
2.713568 -1.280360 0.958804 18.000000
2.690963 -1.306768 0.954227 29.000000
2.668065 -1.332791 0.949660 29.000000
2.644973 -1.358430 0.945007 35.000000
2.609045 -1.377014 0.935735 29.000000
2.602408 -1.410838 0.937053 32.000000
2.578254 -1.435858 0.932618 36.000000
2.546109 -1.455201 0.924715 28.000000
2.546329 -1.493946 0.929218 22.000000
2.530083 -1.522376 0.927234 32.000000
2.533476 -1.563713 0.933105 30.000000
2.508462 -1.586890 0.928027 28.000000
2.458867 -1.594586 0.914404 16.000000
2.449111 -1.627885 0.915503 26.000000
2.407944 -1.638928 0.904445 32.000000
2.385875 -1.663562 0.901104 26.000000
2.383026 -1.701707 0.905058 26.000000
2.348798 -1.717552 0.897201 34.000000
2.326016 -1.741357 0.893779 33.000000
2.287933 -1.753168 0.884313 33.000000
2.268611 -1.779023 0.882289 32.000000
2.252835 -1.807779 0.881632 33.000000
2.236624 -1.836251 0.880876 33.000000
2.245808 -1.886161 0.890279 26.000000
2.210710 -1.899129 0.882147 24.000000
2.204278 -1.936671 0.885602 32.000000
2.151179 -1.932752 0.870204 31.000000
2.140653 -1.966711 0.872118 33.000000
2.136714 -2.007191 0.876874 30.000000
2.121868 -2.037922 0.877210 31.000000
2.102238 -2.065922 0.876386 34.000000
2.069665 -2.079377 0.869496 24.000000
2.043907 -2.099194 0.865465 23.000000
2.027869 -2.129075 0.865586 30.000000
2.017941 -2.165846 0.868504 31.000000
1.996788 -2.192836 0.867459 33.000000
1.966827 -2.208016 0.861832 28.000000
1.952604 -2.240777 0.863196 33.000000
1.911817 -2.245256 0.853600 17.000000
1.884758 -2.262832 0.849310 11.000000
1.830181 -2.246620 0.832603 16.000000
1.598431 -2.008448 0.734967 10.000000
1.509078 -1.938940 0.700816 13.000000
1.397095 -1.837793 0.656177 21.000000
1.305862 -1.756793 0.619710 16.000000
1.223891 -1.686385 0.587764 19.000000
1.197696 -1.688217 0.581461 27.000000
1.168809 -1.685643 0.573842 24.000000
1.141860 -1.687327 0.567800 20.000000
1.129295 -1.708015 0.568279 29.000000
1.115389 -1.729345 0.568869 26.000000
1.092007 -1.733566 0.563934 27.000000
1.090283 -1.775039 0.571047 25.000000
1.069148 -1.783031 0.567358 28.000000
1.054024 -1.803858 0.567876 29.000000
1.051794 -1.844904 0.574573 19.000000
1.019332 -1.836152 0.565853 9.000000
0.967136 1.777515 0.561273 9.000000
0.981091 1.758016 0.561024 16.000000
1.003130 1.750330 0.564604 31.000000
1.012930 1.721716 0.561367 25.000000
1.030914 1.710191 0.563773 29.000000
1.046308 1.694383 0.564752 36.000000
1.067832 1.685938 0.568206 27.000000
1.085563 1.673779 0.570549 35.000000
1.101583 1.656796 0.571259 28.000000
1.116315 1.640316 0.572085 22.000000
1.131843 1.623080 0.572711 36.000000
1.149006 1.610192 0.574911 31.000000
1.166923 1.596487 0.576923 35.000000
1.186644 1.587129 0.580466 40.000000
1.209298 1.581263 0.585430 29.000000
1.224009 1.563113 0.585915 45.000000
1.234567 1.541668 0.585222 29.000000
1.247876 1.523941 0.585871 29.000000
1.267949 1.512812 0.589119 37.000000
1.280926 1.494717 0.589696 34.000000
1.296855 1.480167 0.591703 61.000000
1.328628 1.483193 0.600869 37.000000
1.341962 1.463924 0.601134 50.000000
1.354394 1.445172 0.601644 59.000000
1.373117 1.433148 0.604997 32.000000
1.388505 1.417444 0.606834 32.000000
1.414551 1.411171 0.612879 61.000000
1.429668 1.394970 0.614665 35.000000
1.427439 1.362151 0.609077 60.000000
1.466501 1.368640 0.621194 53.000000
1.463670 1.335756 0.615509 56.000000
1.485232 1.325332 0.620193 71.000000
1.510336 1.317755 0.626321 36.000000
1.513674 1.291163 0.623502 31.000000
1.534999 1.279901 0.628091 43.000000
1.552570 1.265268 0.631192 34.000000
1.570013 1.250422 0.634237 70.000000
1.587394 1.235298 0.637289 35.000000
1.604581 1.219959 0.640283 37.000000
1.625072 1.207634 0.645061 61.000000
1.657510 1.202945 0.654094 32.000000
1.658977 1.175592 0.650899 31.000000
1.687474 1.167336 0.658377 42.000000
1.699838 1.148395 0.660021 43.000000
1.716372 1.131416 0.662871 70.000000
1.736768 1.116787 0.667198 56.000000
1.752651 1.099713 0.670262 58.000000
1.764665 1.079535 0.671457 59.000000
1.804797 1.076674 0.683678 34.000000
1.820372 1.058628 0.686645 29.000000
1.844405 1.044632 0.692451 56.000000
1.859794 1.026035 0.695300 34.000000
1.891702 1.016200 0.704388 55.000000
1.911017 0.999152 0.708821 58.000000
1.921755 0.977400 0.710068 58.000000
1.945053 0.961892 0.715945 75.000000
1.955374 0.939787 0.717061 31.000000
1.978458 0.923495 0.722891 29.000000
2.001393 0.906911 0.728665 47.000000
2.019901 0.887910 0.732877 36.000000
2.037994 0.868855 0.737241 56.000000
2.060553 0.851057 0.742909 35.000000
2.087203 0.834867 0.750389 34.000000
2.114006 0.817916 0.757597 39.000000
2.109364 0.789009 0.753857 29.000000
2.131219 0.769996 0.759639 28.000000
2.157291 0.752095 0.766952 46.000000
2.196829 0.738171 0.778986 36.000000
2.222773 0.719159 0.786185 44.000000
2.248467 0.699740 0.793550 52.000000
2.269592 0.678253 0.799103 40.000000
2.290424 0.656534 0.804818 62.000000
2.297409 0.630669 0.805663 31.000000
2.354474 0.617951 0.824066 29.000000
2.388623 0.598187 0.834399 41.000000
2.399656 0.572229 0.836640 32.000000
2.442557 0.553571 0.850294 35.000000
2.467044 0.529861 0.857293 45.000000
2.495852 0.506674 0.865992 37.000000
2.505837 0.479405 0.868177 36.000000
2.543379 0.457055 0.880202 30.000000
2.562296 0.430582 0.885457 34.000000
2.590112 0.405339 0.894113 42.000000
2.636571 0.382200 0.909068 37.000000
2.659283 0.354894 0.915959 37.000000
2.691184 0.328310 0.926176 46.000000
2.708613 0.299531 0.931465 37.000000
2.730609 0.270813 0.938287 35.000000
2.770964 0.243325 0.951678 26.000000
2.839604 0.217060 0.974429 32.000000
2.855878 0.186016 0.979562 35.000000
2.886065 0.155323 0.989556 36.000000
2.944268 0.125197 1.009276 34.000000
2.978503 0.092958 1.020808 37.000000
3.012473 0.060069 1.032151 37.000000
3.055429 0.026417 1.046832 49.000000
3.112287 -0.008233 1.066378 45.000000
3.159382 -0.043931 1.082483 36.000000
3.187040 -0.080321 1.092206 36.000000
3.256812 -0.118800 1.116408 37.000000
3.297969 -0.157629 1.130778 36.000000
3.338551 -0.197312 1.144927 36.000000
3.411678 -0.240169 1.170617 33.000000
3.399380 -0.278010 1.167268 25.000000
3.433873 -0.319805 1.179775 34.000000
3.401970 -0.355565 1.169624 32.000000
3.379089 -0.391667 1.162714 34.000000
3.360620 -0.427944 1.157207 35.000000
3.313523 -0.459999 1.142230 33.000000
3.294307 -0.495215 1.136846 35.000000
3.270035 -0.529358 1.129745 30.000000
3.231413 -0.560546 1.117919 21.000000
3.234482 -0.598644 1.120297 34.000000
3.204579 -0.630556 1.111501 32.000000
3.178988 -0.662699 1.104220 33.000000
3.148336 -0.693615 1.095548 36.000000
3.140751 -0.728945 1.094613 33.000000
3.109542 -0.758870 1.085751 33.000000
3.082734 -0.789243 1.078403 33.000000
3.051147 -0.817873 1.069463 18.000000
3.032966 -0.849616 1.065140 32.000000
3.009991 -0.879724 1.059224 32.000000
2.991028 -0.911005 1.055118 31.000000
2.976541 -0.943210 1.052212 35.000000
2.957081 -0.973831 1.047916 32.000000
2.923932 -0.999549 1.038747 32.000000
2.912889 -1.032479 1.037553 33.000000
2.861397 -1.050605 1.021955 21.000000
2.841053 -1.079418 1.017408 32.000000
2.824512 -1.109961 1.014746 33.000000
2.808008 -1.139915 1.011600 34.000000
2.786583 -1.168131 1.007268 36.000000
2.760787 -1.193684 1.000879 35.000000
2.730199 -1.217203 0.993219 32.000000
2.725365 -1.252119 0.994925 34.000000
2.702994 -1.278918 0.990335 24.000000
2.676059 -1.303252 0.984088 34.000000
2.661708 -1.333485 0.982462 35.000000
2.634404 -1.357002 0.976143 32.000000
2.606862 -1.380042 0.969744 37.000000
2.579275 -1.402608 0.963268 35.000000
2.563998 -1.431652 0.961476 34.000000
2.556119 -1.465707 0.963074 34.000000
2.503351 -1.472773 0.947229 23.000000
2.507670 -1.513118 0.953007 33.000000
2.502975 -1.549295 0.955948 33.000000
2.486163 -1.577347 0.953870 24.000000
2.456631 -1.597994 0.947461 19.000000
2.430948 -1.620725 0.942511 24.000000
2.393867 -1.634476 0.932698 28.000000
2.399153 -1.678169 0.939917 36.000000
2.361218 -1.691611 0.930321 23.000000
2.342510 -1.718603 0.928273 33.000000
2.316553 -1.738853 0.922817 34.000000
2.282234 -1.753587 0.914719 33.000000
2.266627 -1.782523 0.914017 34.000000
2.247056 -1.808279 0.911894 32.000000
2.230797 -1.836882 0.911090 32.000000
2.225230 -1.874510 0.914870 33.000000
2.190203 -1.887277 0.906466 19.000000
2.162422 -1.905840 0.901171 29.000000
2.155776 -1.943140 0.904634 34.000000
2.145063 -1.977247 0.906673 30.000000
2.133954 -2.011315 0.908502 35.000000
2.101804 -2.025541 0.901546 27.000000
2.083205 -2.052576 0.900313 28.000000
2.059953 -2.076949 0.898072 32.000000
2.027460 -2.089906 0.890882 19.000000
2.008171 -2.116235 0.889645 32.000000
2.001547 -2.156385 0.894122 30.000000
1.983577 -2.186840 0.894488 29.000000
1.969571 -2.219894 0.895905 33.000000
1.936316 -2.231183 0.888651 30.000000
1.909303 -2.249280 0.884203 21.000000
1.856400 -2.238368 0.868691 10.000000
1.835430 -2.262930 0.867153 13.000000
1.602770 -2.020537 0.764608 10.000000
1.488987 -1.921828 0.718229 11.000000
1.401869 -1.850523 0.683136 16.000000
1.310758 -1.769786 0.645469 19.000000
1.223371 -1.691785 0.609727 21.000000
1.191528 -1.685921 0.600423 28.000000
1.161659 -1.684018 0.592822 27.000000
1.141163 -1.693035 0.589096 20.000000
1.122097 -1.706394 0.587021 29.000000
1.109264 -1.727064 0.587438 26.000000
1.084743 -1.731945 0.582546 22.000000
1.073984 -1.756383 0.584242 26.000000
1.050569 -1.760071 0.579107 23.000000
1.059846 -1.822349 0.593147 24.000000
1.044073 -1.843225 0.593573 23.000000
1.019946 -1.846476 0.588402 8.000000
0.965495 1.783596 0.581783 8.000000
0.974968 1.755656 0.578819 16.000000
0.987537 1.731277 0.576881 22.000000
1.020187 1.744873 0.587727 21.000000
1.027368 1.711963 0.582969 29.000000
1.050358 1.708394 0.588259 21.000000
1.064375 1.687651 0.587602 27.000000
1.079484 1.671436 0.588596 27.000000
1.095518 1.654459 0.589263 18.000000
1.110328 1.637985 0.590171 19.000000
1.124865 1.621320 0.591005 20.000000
1.145745 1.611769 0.594519 28.000000
1.157192 1.590919 0.593898 29.000000
1.176855 1.581525 0.597543 23.000000
1.191684 1.563639 0.598037 27.000000
1.214120 1.557573 0.603153 29.000000
1.233674 1.547446 0.606761 21.000000
1.241918 1.521621 0.604308 30.000000
1.261159 1.511052 0.607853 26.000000
1.277253 1.496656 0.609928 31.000000
1.293221 1.482008 0.612003 32.000000
1.309880 1.466606 0.613763 28.000000
1.328751 1.455104 0.617269 35.000000
1.350890 1.446890 0.622221 31.000000
1.372990 1.438273 0.627193 27.000000
1.381729 1.415671 0.626084 30.000000
1.393624 1.396403 0.626471 31.000000
1.422907 1.393184 0.634118 35.000000
1.424199 1.363681 0.629882 36.000000
1.445869 1.353828 0.634766 28.000000
1.449937 1.327554 0.631953 61.000000
1.478487 1.323550 0.639791 30.000000
1.499963 1.312827 0.644586 30.000000
1.503379 1.286226 0.641621 28.000000
1.520991 1.271947 0.644818 28.000000
1.537905 1.257967 0.648278 33.000000
1.562754 1.249073 0.654472 34.000000
1.580117 1.233946 0.657572 29.000000
1.593575 1.215723 0.659117 34.000000
1.637302 1.220004 0.673122 31.000000
1.653999 1.204361 0.676463 30.000000
1.651680 1.174224 0.671618 28.000000
1.691803 1.174070 0.684019 32.000000
1.692472 1.146948 0.680935 34.000000
1.713011 1.132581 0.685416 35.000000
1.740972 1.123507 0.693348 29.000000
1.749296 1.100844 0.693026 38.000000
1.777228 1.090869 0.700861 31.000000
1.789178 1.070325 0.702136 30.000000
1.817029 1.059527 0.709942 30.000000
1.828343 1.038864 0.711297 32.000000
1.851951 1.024943 0.717467 33.000000
1.875435 1.010605 0.723656 35.000000
1.898928 0.995776 0.729724 35.000000
1.913858 0.976291 0.732582 35.000000
1.941342 0.962809 0.740225 34.000000
1.947494 0.938602 0.739794 29.000000
1.970456 0.922372 0.745773 29.000000
1.989104 0.903754 0.750073 28.000000
2.002947 0.883173 0.753039 32.000000
2.034289 0.869573 0.762171 31.000000
2.056672 0.851934 0.768207 29.000000
2.074716 0.831951 0.772407 32.000000
2.105546 0.816967 0.781666 30.000000
2.123144 0.796362 0.785962 24.000000
2.144963 0.777092 0.791906 31.000000
2.171198 0.758931 0.799430 29.000000
2.188248 0.737276 0.803609 29.000000
2.213971 0.718331 0.811235 34.000000
2.235239 0.697349 0.817004 31.000000
2.256221 0.676135 0.822860 33.000000
2.272449 0.653236 0.827075 30.000000
2.270307 0.624968 0.824611 19.000000
2.349939 0.618368 0.851837 29.000000
2.361116 0.592877 0.854200 26.000000
2.390434 0.571513 0.863113 29.000000
2.414875 0.548664 0.870541 30.000000
2.443696 0.526312 0.879559 28.000000
2.490868 0.507040 0.895153 27.000000
2.524001 0.484160 0.905700 29.000000
2.496591 0.449784 0.894806 11.000000
2.547845 0.429296 0.911856 29.000000
2.594279 0.407024 0.927427 28.000000
2.612524 0.379651 0.932849 27.000000
2.653833 0.355173 0.946782 33.000000
2.657473 0.325099 0.947302 25.000000
2.693645 0.298660 0.959415 26.000000
2.748306 0.273346 0.978127 29.000000
2.760556 0.243056 0.981645 9.000000
2.819366 0.216156 1.002045 29.000000
2.845077 0.185739 1.010580 28.000000
2.893886 0.156152 1.027659 25.000000
2.928438 0.124806 1.039356 30.000000
2.957836 0.092567 1.049573 27.000000
2.972736 0.059407 1.054876 24.000000
3.043896 0.026417 1.080051 27.000000
3.095828 -0.008221 1.098442 28.000000
3.142643 -0.043866 1.115059 35.000000
3.175007 -0.080219 1.126556 29.000000
3.230489 -0.118178 1.146508 30.000000
3.285401 -0.157416 1.166564 35.000000
3.316520 -0.196431 1.177940 26.000000
3.375266 -0.238289 1.199442 29.000000
3.395902 -0.278340 1.207353 29.000000
3.392703 -0.316732 1.207133 24.000000
3.388952 -0.355123 1.206802 31.000000
3.333372 -0.387419 1.188007 26.000000
3.329026 -0.425118 1.187463 27.000000
3.291563 -0.458160 1.175036 28.000000
3.291061 -0.495975 1.176164 27.000000
3.243577 -0.526451 1.160532 26.000000
3.205105 -0.557487 1.148350 24.000000
3.198894 -0.593600 1.147508 24.000000
3.192261 -0.629819 1.146771 30.000000
3.162125 -0.661106 1.137730 26.000000
3.136283 -0.692680 1.130151 26.000000
3.124103 -0.727045 1.127557 31.000000
3.092995 -0.756821 1.118443 25.000000
3.079979 -0.790666 1.115860 25.000000
3.030125 -0.814406 1.100047 25.000000
3.021094 -0.848703 1.098930 23.000000
2.998172 -0.878815 1.092862 29.000000
2.975033 -0.908418 1.086702 27.000000
2.955878 -0.939345 1.082402 27.000000
2.932103 -0.968187 1.076062 29.000000
2.890156 -0.990600 1.063360 25.000000
2.879099 -1.023377 1.062175 20.000000
2.867844 -1.055857 1.060892 26.000000
2.825293 -1.076562 1.048047 24.000000
2.817873 -1.110130 1.048217 30.000000
2.792321 -1.136866 1.042143 30.000000
2.766885 -1.162913 1.035693 26.000000
2.740891 -1.188761 1.029546 30.000000
2.715019 -1.213735 1.022931 25.000000
2.692992 -1.240682 1.018244 16.000000
2.674942 -1.269174 1.015091 28.000000
2.660901 -1.299550 1.013563 25.000000
2.625434 -1.319208 1.003951 30.000000
2.615141 -1.351134 1.003860 31.000000
2.600240 -1.380746 1.002151 29.000000
2.568430 -1.401099 0.993915 30.000000
2.544891 -1.425515 0.988818 27.000000
2.537500 -1.458999 0.990237 17.000000
2.513403 -1.482758 0.985059 26.000000
2.492807 -1.509160 0.981770 26.000000
2.484438 -1.542312 0.982892 30.000000
2.467115 -1.570838 0.981197 19.000000
2.426342 -1.582973 0.969418 9.000000
2.424490 -1.621394 0.973981 22.000000
2.399114 -1.643247 0.968476 23.000000
2.388643 -1.676198 0.969665 12.000000
2.362355 -1.697966 0.964547 25.000000
2.336467 -1.718810 0.958976 23.000000
2.294691 -1.728334 0.947436 27.000000
2.279343 -1.757544 0.946875 26.000000
2.267383 -1.789507 0.947773 23.000000
2.243925 -1.812405 0.943992 29.000000
2.224753 -1.837320 0.941306 23.000000
2.200930 -1.859629 0.937443 15.000000
2.176896 -1.881578 0.933496 26.000000
2.152653 -1.903260 0.929465 17.000000
2.156531 -1.950117 0.937719 28.000000
2.128192 -1.968173 0.932141 24.000000
2.117104 -2.002148 0.934118 25.000000
2.098769 -2.029552 0.933025 27.000000
2.062121 -2.040748 0.924614 21.000000
2.060010 -2.084502 0.930908 15.000000
2.020830 -2.090732 0.920641 22.000000
2.001487 -2.117094 0.919260 19.000000
1.997982 -2.160762 0.925368 29.000000
1.961832 -2.169202 0.916469 25.000000
1.943646 -2.199364 0.916832 23.000000
1.929270 -2.232159 0.918287 29.000000
1.908401 -2.257589 0.916750 10.000000
1.899346 -2.297534 0.921013 9.000000
1.717239 -2.126497 0.841644 9.000000
1.590777 -2.014569 0.787359 9.000000
1.487483 -1.926536 0.743664 10.000000
1.387986 -1.840890 0.701936 10.000000
1.308732 -1.775599 0.668892 10.000000
