x y z intensity
2.862139 -0.773738 0.299109 71.000000
2.834439 -0.799529 0.296831 69.000000
2.820813 -0.828929 0.296059 71.000000
2.787917 -0.852229 0.293197 56.000000
2.783180 -0.884136 0.293428 82.000000
2.754607 -0.908002 0.291073 32.000000
2.895200 -0.989559 0.306674 15.000000
3.010844 -1.065918 0.319844 9.000000
3.284156 -1.202918 0.349698 3.000000
3.470922 -1.314402 0.370632 2.000000
3.604850 -1.409959 0.386056 1.000000
3.524710 -1.423174 0.378526 1.000000
3.508972 -1.461644 0.378060 1.000000
3.223253 -1.383623 0.348326 2.000000
3.308085 -1.463074 0.358752 1.000000
3.329762 -1.559956 0.363433 1.000000
3.460430 -1.667546 0.379073 1.000000
3.437595 -1.703151 0.377994 1.000000
3.312464 -1.686381 0.365658 1.000000
3.126325 -1.634889 0.346516 1.000000
3.336574 -1.790909 0.371234 1.000000
3.329910 -1.834575 0.371998 1.000000
3.207310 -1.859658 0.361496 1.000000
2.998525 -1.782771 0.339504 6.000000
2.996271 -1.825216 0.340688 6.000000
2.929719 -1.829036 0.334737 3.000000
2.980871 -1.906603 0.342286 1.000000
3.022378 -1.980060 0.348842 1.000000
3.037752 -2.038028 0.352382 1.000000
3.050013 -2.143478 0.357494 1.000000
2.913220 -2.095472 0.343360 1.000000
2.926305 -2.153821 0.346866 1.000000
2.930412 -2.206749 0.349405 1.000000
2.941610 -2.266139 0.352875 1.000000
2.947844 -2.323000 0.355854 1.000000
2.930054 -2.361462 0.355875 1.000000
2.836720 -2.388943 0.348878 1.000000
2.644367 -2.277052 0.327417 1.000000
2.638020 -2.322380 0.328891 1.000000
2.634691 -2.371124 0.330817 2.000000
2.645365 -2.433621 0.334582 1.000000
2.593206 -2.438611 0.330356 1.000000
2.598782 -2.497919 0.333630 1.000000
2.500244 -2.456523 0.323447 1.000000
2.561111 -2.572012 0.334043 5.000000
2.442629 -2.507098 0.321164 7.000000
2.274312 -2.385931 0.301524 9.000000
2.167619 -2.322407 0.289619 10.000000
2.051553 -2.246778 0.276430 10.000000
1.953956 -2.187360 0.265668 13.000000
1.861237 -2.129827 0.255416 10.000000
1.757028 -2.055389 0.243346 9.000000
1.686658 -2.017222 0.235818 16.000000
1.620446 -1.981538 0.228859 16.000000
1.552142 -1.940843 0.221419 19.000000
1.521770 -1.945901 0.219331 30.000000
1.482427 -1.938661 0.215930 34.000000
1.464249 -1.958726 0.215547 35.000000
1.436945 -1.966565 0.213923 33.000000
1.406846 -1.970000 0.211869 23.000000
1.402443 -2.009786 0.213658 33.000000
1.377716 -2.020835 0.212475 29.000000
1.356888 -2.034995 0.211576 29.000000
1.345509 -2.066377 0.212469 32.000000
1.328346 -2.089438 0.212493 29.000000
1.316103 -2.120703 0.213362 31.000000
1.300682 -2.147783 0.213794 28.000000
1.315318 -2.226198 0.219286 9.000000
0.923739 1.588024 0.169703 7.000000
0.930712 1.560673 0.168587 18.000000
0.945047 1.546178 0.168848 25.000000
0.959178 1.531462 0.169104 24.000000
0.980280 1.529819 0.170760 24.000000
0.999608 1.523176 0.171953 29.000000
1.004979 1.495592 0.170737 28.000000
1.018397 1.480389 0.170926 27.000000
1.031561 1.465082 0.171112 32.000000
1.032889 1.433466 0.169386 18.000000
1.057295 1.434108 0.171472 29.000000
1.066870 1.414472 0.171166 30.000000
1.091308 1.414559 0.173266 29.000000
1.106592 1.402508 0.173869 30.000000
1.124945 1.394165 0.175012 28.000000
1.143218 1.385589 0.176104 29.000000
1.148631 1.361565 0.175242 30.000000
1.153631 1.337588 0.174369 23.000000
1.183997 1.344067 0.177539 32.000000
1.198553 1.330994 0.178088 42.000000
1.213055 1.317755 0.178693 35.000000
1.227338 1.304352 0.179297 37.000000
1.251856 1.301540 0.181345 35.000000
1.259005 1.280653 0.180897 34.000000
1.294098 1.287770 0.184463 37.000000
1.300970 1.266550 0.184015 16.000000
1.318328 1.255612 0.185078 44.000000
1.335090 1.244931 0.186199 69.000000
1.359666 1.240202 0.188286 40.000000
1.373160 1.225185 0.188794 70.000000
1.390231 1.213268 0.189870 58.000000
1.414770 1.207613 0.191919 46.000000
1.424077 1.188789 0.191918 49.000000
1.463965 1.195096 0.196042 21.000000
1.469180 1.172714 0.195471 47.000000
1.481580 1.156910 0.196048 50.000000
1.494154 1.140529 0.196567 49.000000
1.502570 1.121060 0.196508 54.000000
1.526819 1.113223 0.198535 59.000000
1.563177 1.113720 0.202141 53.000000
1.579333 1.099303 0.203137 44.000000
1.586914 1.079441 0.203142 18.000000
1.602717 1.064699 0.204141 54.000000
1.630976 1.057865 0.206669 80.000000
1.646632 1.042506 0.207616 68.000000
1.666396 1.029609 0.209156 62.000000
1.681595 1.014140 0.210169 41.000000
1.709704 1.005719 0.212724 35.000000
1.729227 0.991853 0.214218 42.000000
1.765968 0.987380 0.217796 27.000000
1.776650 0.967942 0.218231 58.000000
1.804522 0.958013 0.220815 69.000000
1.819285 0.940416 0.221729 59.000000
1.847231 0.929360 0.224263 79.000000
1.857070 0.909365 0.224771 73.000000
1.871397 0.891063 0.225629 45.000000
1.899048 0.878861 0.228179 37.000000
1.935560 0.870471 0.231887 22.000000
1.949498 0.851219 0.232756 41.000000
1.972435 0.835681 0.234717 35.000000
2.008896 0.825576 0.238384 45.000000
2.045468 0.814537 0.241995 44.000000
2.072668 0.799452 0.244590 45.000000
2.095230 0.781952 0.246574 47.000000
2.122237 0.765903 0.249113 39.000000
2.107017 0.734448 0.246712 31.000000
2.138378 0.719420 0.249805 43.000000
2.174429 0.705203 0.253387 67.000000
2.200913 0.687405 0.255945 58.000000
2.222554 0.667764 0.257885 50.000000
2.267876 0.654415 0.262592 58.000000
2.298779 0.636328 0.265649 57.000000
2.319927 0.615100 0.267605 35.000000
2.355387 0.597073 0.271227 32.000000
2.376218 0.574911 0.273192 38.000000
2.421036 0.557861 0.277863 42.000000
2.451179 0.536778 0.280872 57.000000
2.471477 0.512992 0.282773 53.000000
2.515909 0.493749 0.287542 70.000000
2.535764 0.468982 0.289372 51.000000
2.560255 0.444745 0.291841 29.000000
2.599293 0.422311 0.295990 9.000000
2.643043 0.399954 0.300622 21.000000
2.711196 0.380023 0.308138 85.000000
2.739786 0.353608 0.311104 72.000000
2.763171 0.325989 0.313513 46.000000
2.801172 0.299610 0.317519 50.000000
2.853657 0.273726 0.323295 66.000000
2.896078 0.245922 0.327956 33.000000
2.938216 0.217254 0.332531 8.000000
2.970139 0.187096 0.335987 8.000000
3.051352 0.158780 0.345055 8.000000
3.082732 0.126690 0.348517 8.000000
3.143461 0.094850 0.355348 8.000000
3.208906 0.061805 0.362744 19.000000
3.234239 0.027019 0.365552 42.000000
3.328735 -0.008588 0.376221 48.000000
3.378107 -0.045551 0.381836 95.000000
3.362480 -0.082022 0.380151 90.000000
3.336621 -0.117817 0.377344 66.000000
3.300342 -0.152612 0.373413 32.000000
3.258835 -0.186365 0.368821 20.000000
3.251672 -0.221616 0.368159 32.000000
3.199541 -0.253132 0.362547 24.000000
3.191636 -0.287581 0.361887 76.000000
3.153785 -0.318825 0.357765 61.000000
3.130336 -0.350975 0.355425 49.000000
3.101714 -0.382088 0.352430 49.000000
3.092471 -0.415211 0.351774 70.000000
3.073025 -0.446796 0.349903 51.000000
3.028700 -0.474123 0.345236 10.000000
2.925333 -0.490729 0.333863 7.000000
2.929649 -0.524271 0.334799 9.000000
2.909156 -0.553475 0.332940 9.000000
2.883489 -0.581106 0.330435 9.000000
2.867265 -0.610472 0.329048 9.000000
2.845968 -0.638448 0.327106 9.000000
2.814622 -0.663737 0.324054 9.000000
2.855576 -0.706306 0.329351 29.000000
2.823666 -0.731152 0.326300 28.000000
2.839587 -0.768274 0.328718 53.000000
2.826314 -0.797818 0.327892 73.000000
2.803085 -0.824452 0.325869 81.000000
2.779768 -0.850507 0.323849 80.000000
2.760923 -0.877667 0.322386 92.000000
2.732351 -0.901595 0.319910 33.000000
2.802390 -0.958624 0.328848 15.000000
2.969747 -1.052249 0.349427 8.000000
3.172870 -1.163147 0.374261 3.000000
3.415592 -1.294684 0.404084 2.000000
3.475392 -1.360569 0.412307 1.000000
3.561749 -1.439467 0.423796 1.000000
3.518538 -1.466564 0.419921 1.000000
3.182636 -1.367603 0.381066 1.000000
3.244791 -1.436585 0.389815 1.000000
3.293977 -1.544844 0.398414 1.000000
3.429094 -1.654352 0.416218 1.000000
3.433359 -1.702327 0.418229 1.000000
3.246245 -1.654104 0.396945 1.000000
3.289668 -1.721830 0.403842 1.000000
3.174641 -1.705524 0.391174 1.000000
3.464888 -1.910565 0.428754 1.000000
3.048323 -1.769146 0.380594 1.000000
2.986130 -1.777044 0.374586 5.000000
2.954198 -1.801278 0.372129 6.000000
2.904826 -1.815227 0.367650 3.000000
2.859625 -1.830894 0.363719 2.000000
2.968282 -1.946678 0.379465 1.000000
3.045871 -2.045783 0.391432 1.000000
2.965638 -2.135600 0.387261 1.000000
2.858026 -2.106069 0.375325 1.000000
2.890405 -2.179357 0.381907 1.000000
2.854599 -2.201794 0.379448 1.000000
2.854353 -2.250689 0.381473 1.000000
2.832287 -2.388488 0.385937 1.000000
2.647728 -2.283119 0.363321 1.000000
2.596513 -2.289060 0.358748 1.000000
2.589815 -2.334064 0.360362 1.000000
2.578775 -2.375890 0.361450 1.000000
2.568091 -2.416740 0.362311 1.000000
2.641846 -2.541422 0.375607 1.000000
2.546569 -2.503950 0.364828 2.000000
2.547137 -2.559987 0.367896 4.000000
2.432257 -2.498682 0.354158 7.000000
2.301955 -2.417140 0.337978 8.000000
2.183877 -2.343953 0.323395 10.000000
2.077798 -2.279590 0.310397 11.000000
1.983292 -2.224222 0.298970 13.000000
1.874910 -2.147526 0.284944 10.000000
1.783539 -2.088446 0.273574 9.000000
1.706488 -2.042985 0.264333 13.000000
1.627458 -1.992157 0.254571 12.000000
1.562204 -1.955480 0.246833 23.000000
1.513297 -1.937150 0.241588 29.000000
1.473993 -1.929855 0.237834 32.000000
1.458949 -1.953839 0.237912 35.000000
1.437566 -1.969690 0.237090 32.000000
1.410253 -1.977213 0.235303 25.000000
1.388659 -1.992553 0.234409 30.000000
1.366990 -2.007594 0.233516 30.000000
1.358804 -2.043209 0.235005 32.000000
1.333826 -2.053779 0.233628 30.000000
1.307320 -2.059113 0.231706 29.000000
1.313657 -2.119862 0.235990 30.000000
1.290570 -2.134081 0.235073 22.000000
1.292549 -2.190947 0.238752 9.000000
0.921881 1.587236 0.186200 6.000000
0.911115 1.530033 0.181414 9.000000
0.955213 1.567191 0.187890 16.000000
0.956464 1.531295 0.185555 22.000000
0.978442 1.529039 0.187357 13.000000
0.997765 1.522394 0.188652 22.000000
1.005927 1.498948 0.187825 16.000000
1.025027 1.491913 0.189120 19.000000
1.032609 1.468380 0.188278 26.000000
1.063051 1.477102 0.191612 10.000000
1.055493 1.433344 0.188134 26.000000
1.077045 1.429596 0.189899 21.000000
1.104675 1.433483 0.192731 19.000000
1.101761 1.397837 0.190209 26.000000
1.128709 1.401689 0.193108 20.000000
1.159699 1.408394 0.196447 20.000000
1.165382 1.384162 0.195563 25.000000
1.186864 1.378811 0.197308 10.000000
1.168994 1.328373 0.192569 31.000000
1.196741 1.330225 0.195337 26.000000
1.224645 1.331619 0.198174 25.000000
1.225525 1.303583 0.196600 33.000000
1.253416 1.304348 0.199451 22.000000
1.256637 1.280378 0.198468 31.000000
1.302249 1.298015 0.204037 28.000000
1.298575 1.266272 0.201893 16.000000
1.312331 1.251903 0.202505 33.000000
1.344141 1.254317 0.205901 31.000000
1.339399 1.222663 0.203675 31.000000
1.356416 1.211157 0.204792 35.000000
1.399133 1.222736 0.209953 29.000000
1.419983 1.213727 0.211649 33.000000
1.433179 1.198007 0.212223 31.000000
1.453895 1.188402 0.213871 24.000000
1.462934 1.169209 0.213880 33.000000
1.471791 1.149985 0.213829 27.000000
1.491790 1.140183 0.215601 33.000000
1.508170 1.126602 0.216692 35.000000
1.540488 1.124590 0.220078 29.000000
1.528473 1.090234 0.217101 33.000000
1.572896 1.096050 0.222226 30.000000
1.596873 1.087415 0.224546 22.000000
1.612820 1.072536 0.225600 37.000000
1.624425 1.054742 0.226076 29.000000
1.644299 1.042087 0.227714 35.000000
1.655604 1.023904 0.228192 35.000000
1.679184 1.013718 0.230481 28.000000
1.703051 1.002713 0.232657 34.000000
1.726840 0.991364 0.234839 34.000000
1.741697 0.975066 0.235976 23.000000
1.774042 0.967755 0.239346 47.000000
1.788922 0.950522 0.240370 33.000000
1.808014 0.935413 0.241986 30.000000
1.835697 0.924703 0.244789 48.000000
1.850137 0.906673 0.245824 34.000000
1.868725 0.890808 0.247454 35.000000
1.918872 0.889038 0.253184 36.000000
1.914912 0.861801 0.251789 20.000000
1.942271 0.848970 0.254626 35.000000
1.974309 0.837290 0.258003 35.000000
2.019934 0.830908 0.263251 33.000000
2.042697 0.814199 0.265384 35.000000
2.060610 0.795535 0.266989 30.000000
2.087765 0.779872 0.269732 32.000000
2.105460 0.760498 0.271346 30.000000
2.122953 0.740646 0.272895 10.000000
2.140241 0.720657 0.274447 40.000000
2.166831 0.703460 0.277210 35.000000
2.183799 0.682749 0.278769 31.000000
2.219632 0.667336 0.282683 42.000000
2.255296 0.651371 0.286675 32.000000
2.286138 0.633385 0.290070 33.000000
2.312108 0.613532 0.292792 35.000000
2.308960 0.585791 0.291870 9.000000
2.377888 0.575778 0.300076 29.000000
2.417831 0.557709 0.304642 33.000000
2.433477 0.533360 0.306167 31.000000
2.458504 0.510741 0.308838 35.000000
2.497994 0.490644 0.313345 32.000000
2.527558 0.467920 0.316715 31.000000
2.561792 0.445355 0.320624 39.000000
2.576305 0.418964 0.322008 10.000000
2.644502 0.400533 0.330213 26.000000
2.702751 0.379166 0.337120 49.000000
2.726381 0.352167 0.339825 33.000000
2.769438 0.327067 0.344904 60.000000
2.792604 0.298908 0.347532 34.000000
2.849959 0.273638 0.354462 32.000000
2.892329 0.245833 0.359466 33.000000
2.919571 0.216064 0.362718 6.000000
2.956396 0.186380 0.367113 7.000000
3.017680 0.157138 0.374585 8.000000
3.078752 0.126690 0.382061 7.000000
3.134444 0.094700 0.388925 8.000000
3.155156 0.060848 0.391386 10.000000
3.230067 0.027019 0.400716 26.000000
3.319480 -0.008473 0.411796 54.000000
3.358865 -0.045350 0.416720 81.000000
3.338300 -0.081537 0.414258 67.000000
3.322397 -0.117467 0.412411 55.000000
3.261486 -0.150905 0.404925 9.000000
3.229855 -0.184847 0.401232 9.000000
3.227667 -0.220165 0.401133 26.000000
3.215187 -0.254601 0.399803 29.000000
3.177619 -0.286591 0.395399 58.000000
3.129949 -0.316729 0.389768 35.000000
3.111480 -0.349218 0.387731 36.000000
3.107533 -0.383110 0.387539 62.000000
3.073692 -0.413036 0.383663 35.000000
3.059198 -0.445177 0.382340 70.000000
2.985527 -0.467790 0.373563 9.000000
2.941081 -0.493741 0.368380 7.000000
2.920926 -0.523214 0.366359 9.000000
2.880963 -0.548562 0.361800 8.000000
2.860237 -0.576910 0.359694 9.000000
2.853777 -0.608133 0.359425 9.000000
2.832523 -0.636005 0.357323 8.000000
2.810981 -0.663382 0.355225 9.000000
2.803610 -0.694020 0.354869 19.000000
2.795884 -0.724569 0.354603 20.000000
2.835793 -0.767913 0.360334 89.000000
2.779544 -0.785313 0.353893 33.000000
2.780362 -0.818398 0.354752 57.000000
2.761782 -0.845879 0.353182 60.000000
2.742999 -0.872885 0.351614 37.000000
2.719303 -0.898041 0.349355 39.000000
2.756399 -0.943610 0.354962 10.000000
2.811410 -0.997020 0.363061 8.000000
2.972907 -1.090721 0.384829 3.000000
3.327459 -1.262321 0.432042 1.000000
3.586229 -1.405269 0.466884 1.000000
3.630537 -1.468781 0.474103 1.000000
3.605362 -1.504206 0.472181 1.000000
3.374353 -1.451410 0.443417 1.000000
3.249619 -1.439735 0.428381 1.000000
3.446561 -1.618242 0.457606 1.000000
3.558534 -1.718051 0.474058 1.000000
3.450652 -1.712893 0.461437 1.000000
3.408363 -1.785423 0.459187 1.000000
3.323029 -1.787512 0.449603 1.000000
3.312007 -1.828726 0.449973 1.000000
3.074050 -1.785739 0.421170 1.000000
2.879482 -1.715206 0.396332 3.000000
2.928758 -1.787600 0.404883 6.000000
2.909041 -1.819653 0.404145 3.000000
2.989240 -1.915911 0.417309 1.000000
2.901656 -1.905035 0.407224 2.000000
3.012520 -2.025598 0.424974 1.000000
2.933491 -2.164391 0.422910 1.000000
2.889815 -2.181572 0.419139 1.000000
2.615254 -2.307187 0.396439 1.000000
2.667342 -2.405771 0.407195 1.000000
2.633560 -2.428270 0.404968 1.000000
2.624904 -2.474134 0.406669 1.000000
2.601341 -2.506273 0.406120 1.000000
2.460433 -2.423210 0.387077 2.000000
2.426811 -2.443096 0.384906 5.000000
2.404474 -2.472248 0.384191 8.000000
2.322556 -2.440907 0.374195 8.000000
2.221267 -2.386228 0.360952 10.000000
2.094754 -2.300217 0.343394 9.000000
1.983490 -2.226654 0.328033 10.000000
1.867710 -2.143342 0.311765 9.000000
1.779749 -2.088109 0.299854 8.000000
1.709180 -2.050213 0.290804 10.000000
1.645895 -2.018810 0.282805 9.000000
1.565873 -1.962099 0.271548 10.000000
1.498576 -1.920343 0.262511 17.000000
1.474551 -1.932765 0.261080 22.000000
1.450537 -1.944822 0.259652 29.000000
1.420454 -1.948555 0.257094 24.000000
1.404985 -1.972121 0.257262 15.000000
1.389116 -1.995591 0.257349 28.000000
1.367329 -2.010663 0.256379 22.000000
1.348143 -2.029654 0.255931 26.000000
1.328643 -2.048555 0.255479 21.000000
1.322204 -2.088225 0.257616 21.000000
1.301992 -2.106865 0.257146 24.000000
1.285477 -2.128754 0.257034 18.000000
1.284927 -2.181284 0.260574 9.000000
0.908935 1.569752 0.200556 8.000000
0.918367 1.546797 0.199736 20.000000
0.937798 1.540822 0.201174 25.000000
0.951896 1.526193 0.201393 22.000000
0.955145 1.494654 0.199429 31.000000
0.984928 1.504872 0.203051 26.000000
1.004044 1.498062 0.204442 24.000000
1.006274 1.466447 0.202391 29.000000
1.030736 1.467499 0.204858 25.000000
1.026360 1.427808 0.201696 24.000000
1.046934 1.425010 0.203651 29.000000
1.065400 1.417356 0.204985 27.000000
1.077789 1.401652 0.205172 33.000000
1.099139 1.397509 0.207089 26.000000
1.114325 1.385327 0.207799 31.000000
1.129348 1.372982 0.208564 29.000000
1.147457 1.364272 0.209859 27.000000
1.159010 1.347799 0.209984 30.000000
1.163219 1.324262 0.208983 29.000000
1.197531 1.333534 0.213231 35.000000
1.208661 1.316602 0.213354 42.000000
1.226395 1.306818 0.214608 30.000000
1.233734 1.286048 0.214077 35.000000
1.261604 1.286530 0.217126 33.000000
1.268590 1.265560 0.216591 32.000000
1.293018 1.261858 0.219058 35.000000
1.309825 1.251457 0.220383 33.000000
1.319844 1.233532 0.220446 35.000000
1.351600 1.235668 0.224094 36.000000
1.365057 1.220635 0.224713 34.000000
1.385815 1.212022 0.226554 36.000000
1.406149 1.203588 0.228458 35.000000
1.426849 1.194363 0.230312 35.000000
1.436056 1.175370 0.230269 30.000000
1.452713 1.162548 0.231514 33.000000
1.477082 1.155641 0.233943 40.000000
1.485715 1.136246 0.233899 33.000000
1.493765 1.117225 0.233910 32.000000
1.521948 1.112353 0.236920 37.000000
1.538104 1.098363 0.238125 42.000000
1.566295 1.092682 0.241154 34.000000
1.573828 1.072969 0.241172 32.000000
1.589617 1.058257 0.242270 33.000000
1.605290 1.043336 0.243429 52.000000
1.620787 1.028264 0.244591 42.000000
1.657009 1.026336 0.248983 33.000000
1.663918 1.005481 0.248828 47.000000
1.704712 1.004684 0.253759 37.000000
1.724026 0.991119 0.255581 33.000000
1.739060 0.974514 0.256709 36.000000
1.758315 0.960067 0.258418 32.000000
1.786058 0.950273 0.261537 36.000000
1.813942 0.939661 0.264541 59.000000
1.824000 0.919921 0.265107 37.000000
1.838385 0.901988 0.266191 37.000000
1.861577 0.888101 0.268506 42.000000
1.880030 0.872024 0.270307 32.000000
1.912007 0.861478 0.273928 33.000000
1.939405 0.848579 0.277039 32.000000
1.957653 0.831083 0.278730 32.000000
1.993993 0.821068 0.283092 35.000000
2.007492 0.800934 0.284142 32.000000
2.025255 0.782620 0.285847 34.000000
2.070753 0.774457 0.291544 35.000000
2.083717 0.753344 0.292539 26.000000
2.110484 0.737100 0.295570 32.000000
2.132420 0.718796 0.297951 40.000000
2.149537 0.698584 0.299612 34.000000
2.185364 0.683948 0.303977 36.000000
2.206863 0.664336 0.306306 37.000000
2.223480 0.642823 0.307908 34.000000
2.258976 0.626615 0.312225 60.000000
2.299145 0.610767 0.317212 27.000000
2.329681 0.591671 0.320812 33.000000
2.374503 0.575553 0.326405 37.000000
2.395083 0.552944 0.328770 35.000000
2.444475 0.536316 0.334966 37.000000
2.430770 0.505541 0.332619 63.000000
2.504197 0.492400 0.342228 64.000000
2.519129 0.466780 0.343794 37.000000
2.553312 0.444346 0.348023 21.000000
2.582475 0.420395 0.351592 38.000000
2.557430 0.387661 0.347835 11.000000
2.586028 0.363149 0.351408 9.000000
2.668435 0.345009 0.362243 23.000000
2.726127 0.322242 0.369835 40.000000
2.768924 0.296710 0.375347 52.000000
2.806538 0.269758 0.380196 61.000000
2.794418 0.237762 0.378278 10.000000
2.841309 0.210484 0.384468 9.000000
2.912645 0.183793 0.393919 8.000000
2.964015 0.154558 0.400698 8.000000
3.019936 0.124353 0.408150 9.000000
3.085531 0.093256 0.416943 8.000000
3.125922 0.060369 0.422393 18.000000
3.126404 0.026189 0.422490 98.000000
3.290010 -0.008409 0.444585 49.000000
3.339249 -0.045046 0.451281 95.000000
3.328726 -0.081313 0.449941 95.000000
3.307791 -0.117014 0.447161 85.000000
3.251917 -0.150676 0.439798 10.000000
3.240119 -0.185598 0.438359 9.000000
3.232977 -0.220641 0.437590 36.000000
3.166170 -0.250880 0.428794 81.000000
3.148528 -0.284168 0.426690 91.000000
3.135359 -0.317534 0.425255 95.000000
3.102127 -0.348473 0.421051 67.000000
3.083432 -0.380490 0.418855 86.000000
3.059484 -0.411525 0.415992 98.000000
3.030308 -0.441321 0.412465 62.000000
2.995939 -0.469814 0.408274 13.000000
2.922294 -0.491094 0.398661 9.000000
2.911942 -0.522065 0.397812 9.000000
2.896285 -0.552002 0.396207 10.000000
2.856200 -0.576731 0.391187 9.000000
2.844893 -0.606831 0.390253 9.000000
2.833341 -0.636824 0.389319 10.000000
2.806985 -0.663116 0.386307 9.000000
2.818855 -0.698522 0.388604 26.000000
2.830264 -0.734259 0.390987 51.000000
2.817289 -0.763841 0.389964 78.000000
2.775547 -0.784958 0.384797 91.000000
2.781106 -0.819532 0.386513 49.000000
2.762525 -0.846976 0.384747 69.000000
2.720127 -0.866514 0.379687 95.000000
2.705929 -0.894577 0.378590 50.000000
2.752279 -0.943252 0.386043 14.000000
2.835402 -1.006325 0.398733 10.000000
2.931207 -1.076756 0.413361 9.000000
3.109375 -1.180721 0.439648 3.000000
3.368742 -1.321298 0.477637 1.000000
3.597551 -1.456775 0.511717 1.000000
3.339224 -1.394592 0.476300 1.000000
3.465002 -1.492018 0.495946 1.000000
3.040776 -1.348635 0.436576 2.000000
3.382072 -1.544724 0.487289 1.000000
3.306919 -1.553935 0.477943 1.000000
3.280785 -1.585831 0.475974 1.000000
3.329887 -1.654930 0.485001 1.000000
3.241266 -1.654905 0.473758 1.000000
3.205334 -1.681197 0.470396 1.000000
3.204530 -1.725240 0.472078 1.000000
3.250589 -1.796384 0.480925 1.000000
3.065174 -1.782154 0.457349 1.000000
2.862275 -1.706660 0.429126 3.000000
2.928034 -1.789764 0.441053 6.000000
2.904507 -1.818704 0.439361 5.000000
2.963678 -1.901430 0.450575 2.000000
2.868058 -1.885007 0.438307 1.000000
3.036525 -2.043982 0.466543 1.000000
3.014566 -2.076526 0.465417 1.000000
3.019969 -2.129643 0.468808 1.000000
2.984535 -2.204646 0.468641 1.000000
2.929242 -2.212683 0.462387 1.000000
2.826233 -2.184192 0.448901 1.000000
2.716551 -2.147487 0.434120 1.000000
2.712641 -2.293984 0.442147 1.000000
2.541746 -2.196304 0.416824 1.000000
2.506417 -2.214339 0.413845 2.000000
2.485622 -2.245228 0.413429 3.000000
2.475486 -2.285989 0.414740 4.000000
2.428658 -2.292694 0.409945 6.000000
2.443722 -2.356364 0.415289 7.000000
2.385921 -2.351727 0.408691 8.000000
2.363566 -2.381410 0.408162 9.000000
2.340823 -2.410862 0.407526 10.000000
2.314378 -2.436584 0.406287 8.000000
2.206525 -2.374618 0.390688 10.000000
2.130333 -2.343630 0.380545 12.000000
2.012266 -2.263113 0.362727 10.000000
1.929854 -2.216838 0.350759 13.000000
1.799332 -2.113139 0.330183 9.000000
1.719022 -2.064164 0.318478 10.000000
1.643097 -2.017451 0.307431 11.000000
1.565345 -1.965522 0.295867 10.000000
1.513294 -1.943403 0.289036 13.000000
1.470970 -1.932242 0.283987 27.000000
1.437994 -1.932348 0.280627 30.000000
1.417938 -1.947297 0.279517 24.000000
1.402384 -1.970858 0.279630 21.000000
1.386505 -1.994322 0.279733 23.000000
1.359135 -2.001251 0.277623 24.000000
1.345526 -2.028458 0.278212 23.000000
1.331497 -2.055621 0.278862 25.000000
1.309005 -2.070215 0.277809 22.000000
1.294189 -2.097192 0.278364 19.000000
1.278946 -2.124039 0.278982 19.000000
1.270822 -2.163680 0.281181 8.000000
0.909471 1.572991 0.217413 8.000000
0.913902 1.541532 0.215379 27.000000
0.920336 1.514374 0.213864 27.000000
0.931593 1.495652 0.213533 33.000000
0.953184 1.493674 0.215608 29.000000
0.971204 1.487806 0.217140 28.000000
0.979099 1.464613 0.216187 35.000000
1.000631 1.461915 0.218277 32.000000
1.019384 1.454812 0.219708 34.000000
1.020714 1.423344 0.217447 27.000000
1.039108 1.415978 0.218873 30.000000
1.060460 1.412408 0.220925 37.000000
1.078801 1.404554 0.222362 31.000000
1.091043 1.388669 0.222554 35.000000
1.114699 1.388704 0.225306 35.000000
1.126671 1.372490 0.225498 34.000000
1.138395 1.356182 0.225631 32.000000
1.146697 1.336017 0.225125 24.000000
1.174299 1.338197 0.228429 43.000000
1.188870 1.325105 0.229141 41.000000
1.209980 1.319267 0.231189 35.000000
1.220361 1.302704 0.231372 56.000000
1.241392 1.296298 0.233376 47.000000
1.259001 1.286031 0.234740 60.000000
1.283535 1.282530 0.237406 48.000000
1.297497 1.268289 0.238132 21.000000
1.304126 1.247029 0.237498 46.000000
1.328090 1.243195 0.240239 84.000000
1.341642 1.228411 0.240911 37.000000
1.362410 1.220072 0.242899 68.000000
1.375698 1.204982 0.243575 39.000000
1.403929 1.202563 0.246899 37.000000
1.416621 1.187424 0.247638 70.000000
1.437206 1.177940 0.249596 18.000000
1.446214 1.158877 0.249558 36.000000
1.470528 1.151951 0.252192 57.000000
1.482723 1.136074 0.252883 36.000000
1.503023 1.125503 0.254803 70.000000
1.515283 1.108790 0.255381 35.000000
1.531399 1.094900 0.256692 33.000000
1.559297 1.089609 0.260039 50.000000
1.583407 1.080702 0.262661 22.000000
1.591037 1.060357 0.262513 42.000000
1.602345 1.043100 0.263160 50.000000
1.630376 1.035937 0.266423 55.000000
1.641623 1.017847 0.266959 55.000000
1.660928 1.005122 0.268986 35.000000
1.680404 0.991793 0.270839 37.000000
1.708334 0.983036 0.274135 60.000000
1.740373 0.976569 0.278132 23.000000
1.759701 0.962073 0.280007 39.000000
1.787440 0.952166 0.283397 62.000000
1.802133 0.934662 0.284528 35.000000
1.825529 0.921461 0.287114 53.000000
1.835360 0.901547 0.287681 35.000000
1.849595 0.883389 0.288820 34.000000
1.872479 0.869492 0.291422 36.000000
1.886345 0.850848 0.292567 17.000000
1.931742 0.846137 0.298686 34.000000
1.954445 0.830821 0.301248 34.000000
1.981720 0.816830 0.304519 30.000000
1.999635 0.798832 0.306390 33.000000
2.026597 0.784139 0.309677 43.000000
2.072122 0.775648 0.315661 35.000000
2.085029 0.754687 0.316846 34.000000
2.083751 0.728588 0.315840 21.000000
2.119647 0.715285 0.320502 32.000000
2.141421 0.696705 0.323046 36.000000
2.167741 0.679157 0.326306 34.000000
2.203386 0.663982 0.330927 41.000000
2.219989 0.642610 0.332777 44.000000
2.245903 0.623535 0.335915 34.000000
2.276427 0.605386 0.339917 35.000000
2.321259 0.590229 0.345925 23.000000
2.361199 0.572918 0.351303 33.000000
2.396196 0.553756 0.355899 40.000000
2.421367 0.531838 0.359146 35.000000
2.460857 0.512372 0.364474 43.000000
2.480848 0.488341 0.366938 50.000000
2.515184 0.466543 0.371483 36.000000
2.554276 0.444955 0.376753 46.000000
2.563797 0.417847 0.377792 31.000000
2.563311 0.388986 0.377313 10.000000
2.591887 0.364366 0.381074 9.000000
2.605494 0.337304 0.382758 9.000000
2.667938 0.315761 0.391657 9.000000
2.725282 0.292318 0.399760 23.000000
2.777573 0.267215 0.407148 35.000000
2.829623 0.241035 0.414542 32.000000
2.851811 0.211494 0.417607 7.000000
2.898366 0.183079 0.424199 8.000000
2.944623 0.153693 0.430885 8.000000
2.985623 0.123130 0.436761 8.000000
3.060997 0.092657 0.447608 8.000000
3.106365 0.059987 0.454211 21.000000
3.181052 0.026687 0.465159 35.000000
3.255361 -0.008333 0.476010 54.000000
3.319370 -0.044845 0.485414 95.000000
3.318653 -0.081192 0.485414 95.000000
3.297750 -0.116737 0.482419 88.000000
3.232079 -0.149888 0.473016 10.000000
3.210526 -0.184082 0.470024 10.000000
3.193536 -0.218181 0.467756 30.000000
3.181105 -0.252347 0.466212 27.000000
3.123951 -0.282193 0.458067 65.000000
3.115740 -0.315940 0.457248 95.000000
3.102333 -0.348833 0.455611 92.000000
3.078744 -0.380299 0.452531 95.000000
3.015598 -0.406052 0.443683 68.000000
3.011000 -0.438991 0.443401 95.000000
2.966923 -0.465790 0.437448 10.000000
2.917823 -0.490821 0.430688 8.000000
2.892777 -0.519170 0.427536 9.000000
2.857815 -0.545239 0.422948 9.000000
2.851714 -0.576462 0.422679 9.000000
2.840505 -0.606562 0.421691 9.000000
2.828870 -0.636467 0.420615 9.000000
2.817080 -0.666177 0.419451 10.000000
2.795173 -0.693398 0.417034 19.000000
2.773168 -0.720216 0.414531 22.000000
2.798647 -0.759414 0.419095 66.000000
2.785480 -0.788647 0.417934 64.000000
2.738760 -0.807885 0.411866 65.000000
2.725137 -0.836279 0.410713 74.000000
2.696960 -0.860060 0.407424 60.000000
2.692233 -0.891028 0.407612 76.000000
2.701166 -0.926743 0.409929 12.000000
2.756244 -0.979349 0.419425 8.000000
2.912657 -1.070863 0.444399 10.000000
3.025708 -1.150408 0.462937 4.000000
3.234282 -1.270190 0.496272 1.000000
3.431377 -1.390858 0.527992 1.000000
3.425102 -1.432343 0.528717 1.000000
3.254863 -1.402917 0.503984 1.000000
3.135398 -1.392112 0.487054 1.000000
3.498136 -1.599504 0.545380 1.000000
3.140252 -1.477281 0.491179 1.000000
3.230839 -1.563480 0.507221 1.000000
3.231534 -1.607368 0.509130 1.000000
3.182877 -1.627078 0.503470 1.000000
3.164919 -1.662112 0.502699 1.000000
3.068398 -1.654082 0.489199 1.000000
3.210329 -1.776518 0.514005 1.000000
2.987077 -1.739249 0.482367 1.000000
2.874258 -1.716200 0.466338 2.000000
2.897935 -1.773095 0.472190 7.000000
2.903431 -1.820808 0.475475 6.000000
2.891702 -1.858157 0.475897 3.000000
2.908821 -1.913791 0.480995 2.000000
2.899904 -1.954169 0.482079 2.000000
2.959899 -2.042318 0.494738 1.000000
2.820502 -1.991261 0.473806 2.000000
2.854697 -2.062937 0.482238 1.000000
2.859795 -2.115019 0.485890 2.000000
2.773251 -2.098737 0.473991 2.000000
2.691875 -2.082930 0.462710 1.000000
2.711652 -2.146422 0.468947 1.000000
2.703304 -2.188715 0.470564 1.000000
2.507359 -2.076283 0.439297 1.000000
2.519247 -2.131960 0.444095 3.000000
2.491923 -2.156359 0.442312 5.000000
2.475602 -2.190324 0.442421 8.000000
2.425754 -2.194327 0.436670 9.000000
2.423315 -2.241205 0.439420 9.000000
2.403138 -2.270422 0.438757 9.000000
2.388797 -2.307112 0.439503 9.000000
2.366971 -2.336869 0.438931 9.000000
2.348250 -2.369918 0.438904 10.000000
2.339419 -2.413492 0.440923 12.000000
2.295774 -2.421161 0.436337 9.000000
2.229725 -2.401793 0.427145 10.000000
2.136732 -2.352792 0.412949 18.000000
2.021995 -2.276173 0.394243 15.000000
1.922175 -2.212282 0.378303 12.000000
1.814421 -2.135044 0.360539 9.000000
1.730744 -2.082491 0.347249 12.000000
1.651692 -2.032126 0.334673 11.000000
1.584104 -1.991225 0.323913 12.000000
1.510569 -1.941965 0.312119 17.000000
1.453270 -1.911156 0.303534 26.000000
1.429337 -1.923053 0.301801 29.000000
1.411248 -1.942691 0.301392 24.000000
1.398594 -1.970263 0.302146 24.000000
1.379872 -1.989648 0.301649 26.000000
1.363695 -2.012906 0.301764 26.000000
1.336162 -2.019583 0.299415 24.000000
1.326094 -2.050100 0.300593 27.000000
1.308946 -2.072982 0.300609 27.000000
1.286257 -2.087304 0.299478 26.000000
1.276205 -2.122669 0.301291 23.000000
1.270559 -2.166575 0.304283 9.000000
0.902446 1.563285 0.232388 8.000000
0.910873 1.540981 0.231519 23.000000
0.912255 1.505348 0.228646 26.000000
0.936516 1.507745 0.231507 26.000000
0.950242 1.493129 0.231786 32.000000
0.963768 1.478354 0.232061 30.000000
0.974343 1.459353 0.231675 32.000000
0.998615 1.460771 0.234565 34.000000
1.011680 1.445544 0.234777 30.000000
1.015029 1.418774 0.233105 23.000000
1.039227 1.419437 0.236013 32.000000
1.060606 1.415776 0.238214 31.000000
1.069994 1.396090 0.237746 33.000000
1.082105 1.380274 0.237887 32.000000
1.103320 1.375958 0.240100 34.000000
1.118258 1.363682 0.240915 36.000000
1.138798 1.359380 0.243197 29.000000
1.147157 1.339183 0.242653 26.000000
1.168296 1.333814 0.244836 36.000000
1.186076 1.324503 0.246341 34.000000
1.203882 1.314954 0.247797 42.000000
1.218164 1.301550 0.248621 35.000000
1.235209 1.292111 0.250137 34.000000
1.252771 1.281881 0.251604 58.000000
1.273744 1.274911 0.253771 32.000000
1.284093 1.257284 0.253850 31.000000
1.297829 1.242938 0.254570 35.000000
1.314512 1.232366 0.256104 44.000000
1.335250 1.224393 0.258237 62.000000
1.355967 1.216147 0.260378 52.000000
1.372996 1.204306 0.261762 55.000000
1.393175 1.195888 0.263973 55.000000
1.410042 1.183559 0.265366 36.000000
1.426809 1.170975 0.266762 29.000000
1.443418 1.158192 0.268162 35.000000
1.459579 1.145611 0.269623 43.000000
1.475979 1.132314 0.271030 42.000000
1.488372 1.115906 0.271661 33.000000
1.512160 1.108501 0.274523 39.000000
1.536312 1.100313 0.277337 36.000000
1.544266 1.080399 0.277251 42.000000
1.568320 1.071563 0.280020 32.000000
1.583801 1.057258 0.281454 35.000000
1.603603 1.045035 0.283506 36.000000
1.614704 1.027614 0.284156 62.000000
1.625924 1.009663 0.284746 37.000000
1.662286 1.006966 0.289701 61.000000
1.677277 0.991373 0.291099 62.000000
1.713745 0.987549 0.296082 46.000000
1.741547 0.978561 0.299659 32.000000
1.756487 0.961578 0.300957 51.000000
1.779833 0.949402 0.303746 35.000000
1.803330 0.936503 0.306544 62.000000
1.808890 0.914517 0.306361 36.000000
1.832083 0.901043 0.309107 53.000000
1.850643 0.885269 0.311174 52.000000
1.860205 0.864752 0.311617 35.000000
1.891974 0.854599 0.315948 30.000000
1.914718 0.839855 0.318722 35.000000
1.946493 0.828362 0.322946 34.000000
1.964512 0.810843 0.324980 35.000000
1.996117 0.798500 0.329224 35.000000
2.013830 0.780167 0.331271 32.000000
2.054693 0.770035 0.336916 36.000000
2.067536 0.749226 0.338150 29.000000
2.089541 0.731445 0.340908 29.000000
2.120742 0.716453 0.345128 41.000000
2.133113 0.694689 0.346305 34.000000
2.164099 0.678737 0.350539 52.000000
2.185434 0.659416 0.353324 44.000000
2.206721 0.639503 0.356044 34.000000
2.251615 0.625894 0.362530 49.000000
2.272577 0.605096 0.365265 33.000000
2.312557 0.588642 0.370932 29.000000
2.347627 0.570286 0.375913 34.000000
2.377661 0.550187 0.380133 36.000000
2.407666 0.529411 0.384362 35.000000
2.418060 0.504074 0.385437 52.000000
2.467022 0.486119 0.392686 41.000000
2.520717 0.468111 0.400638 61.000000
2.535360 0.442169 0.402500 33.000000
2.554676 0.416811 0.405137 32.000000
2.558993 0.388826 0.405377 10.000000
2.572854 0.362139 0.407165 8.000000
2.615814 0.339046 0.413602 8.000000
2.658642 0.315014 0.420047 9.000000
2.642222 0.283711 0.417111 9.000000
2.733678 0.263340 0.431236 9.000000
2.770758 0.236244 0.436837 10.000000
2.837197 0.210674 0.447100 8.000000
2.903388 0.183613 0.457370 8.000000
2.934871 0.153344 0.462120 8.000000
2.980738 0.123038 0.469202 8.000000
3.031307 0.091909 0.477064 8.000000
3.086376 0.059700 0.485611 19.000000
3.165876 0.026604 0.498140 42.000000
3.274635 -0.008397 0.515237 81.000000
3.308902 -0.044778 0.520677 95.000000
3.298413 -0.080728 0.519123 95.000000
3.267675 -0.115862 0.514460 62.000000
3.221856 -0.149559 0.507366 10.000000
3.185446 -0.182851 0.501829 9.000000
3.198060 -0.218756 0.504060 33.000000
3.101935 -0.246382 0.489207 24.000000
3.118824 -0.282096 0.492217 76.000000
3.086050 -0.313253 0.487367 74.000000
3.077501 -0.346431 0.486400 79.000000
3.049068 -0.377076 0.482331 93.000000
3.030112 -0.408504 0.479721 98.000000
2.981494 -0.435236 0.472560 85.000000
2.966894 -0.466279 0.470732 15.000000
2.888541 -0.486445 0.458847 8.000000
2.878250 -0.517151 0.457803 9.000000
2.848207 -0.543953 0.453667 9.000000
2.842117 -0.575123 0.453309 9.000000
2.830926 -0.605171 0.452179 10.000000
2.790395 -0.628510 0.446424 10.000000
2.778609 -0.657852 0.445301 14.000000
2.800145 -0.695336 0.449478 27.000000
2.739796 -0.712315 0.440662 11.000000
2.741463 -0.744808 0.441761 21.000000
2.737969 -0.776162 0.442090 26.000000
2.724617 -0.804733 0.440884 83.000000
2.706309 -0.831399 0.438826 75.000000
2.683008 -0.856444 0.436093 69.000000
2.668837 -0.884287 0.434807 65.000000
2.691826 -0.924609 0.439629 17.000000
2.770087 -0.985523 0.453586 9.000000
2.884495 -1.061754 0.473504 10.000000
3.001945 -1.142776 0.494324 4.000000
3.334385 -1.311142 0.550587 1.000000
3.429907 -1.392146 0.568013 1.000000
3.451063 -1.444787 0.573271 1.000000
3.344254 -1.443614 0.557451 1.000000
3.093663 -1.375519 0.517283 2.000000
3.231419 -1.479120 0.542081 1.000000
3.170356 -1.493708 0.533784 1.000000
3.100637 -1.502247 0.523792 1.000000
3.110487 -1.549612 0.527550 1.000000
3.194861 -1.635206 0.543813 1.000000
3.194196 -1.679637 0.545918 1.000000
3.162876 -1.707234 0.542676 1.000000
3.130933 -1.734988 0.539553 1.000000
3.155138 -1.793336 0.545886 1.000000
2.968618 -1.730925 0.516032 1.000000
2.864960 -1.712425 0.500153 1.000000
2.921902 -1.790447 0.512538 6.000000
2.855958 -1.793767 0.503466 7.000000
2.898991 -1.864807 0.513370 3.000000
2.919654 -1.924033 0.519656 2.000000
2.980838 -2.010854 0.533136 2.000000
2.917845 -2.015578 0.524709 1.000000
2.871296 -2.030715 0.519233 2.000000
2.852845 -2.065295 0.518877 2.000000
2.770941 -2.051883 0.506669 1.000000
2.716743 -2.058505 0.499697 2.000000
2.560992 -1.985509 0.473940 3.000000
2.555214 -2.025287 0.475627 4.000000
2.544320 -2.062790 0.476580 7.000000
2.529210 -2.097189 0.476905 8.000000
2.517331 -2.134754 0.477839 9.000000
2.494431 -2.161623 0.476516 10.000000
2.455799 -2.176076 0.472444 9.000000
2.450162 -2.219702 0.474682 10.000000
2.411073 -2.233259 0.470624 9.000000
2.398151 -2.269201 0.471325 9.000000
2.380230 -2.302444 0.471411 9.000000
2.358331 -2.332159 0.470787 8.000000
2.353560 -2.379244 0.473559 10.000000
2.310146 -2.387346 0.468725 10.000000
2.291667 -2.419004 0.468582 9.000000
2.234779 -2.411580 0.460897 9.000000
2.135167 -2.355385 0.444255 10.000000
2.033738 -2.293670 0.427017 11.000000
1.927400 -2.222424 0.408411 13.000000
1.819635 -2.145427 0.389321 9.000000
1.737070 -2.092175 0.374874 11.000000
1.667283 -2.053508 0.363409 16.000000
1.592432 -2.005884 0.350657 13.000000
1.527896 -1.968528 0.340010 18.000000
1.455419 -1.918237 0.327406 23.000000
1.422553 -1.918262 0.323535 27.000000
1.404500 -1.937866 0.323101 28.000000
1.392978 -1.964660 0.323773 23.000000
1.371473 -1.979937 0.322586 26.000000
1.346967 -1.990812 0.320738 26.000000
1.330675 -2.013883 0.320798 23.000000
1.313979 -2.036779 0.320921 24.000000
1.299593 -2.063763 0.321614 26.000000
1.276996 -2.078027 0.320413 25.000000
1.264370 -2.109075 0.321731 24.000000
1.262769 -2.156396 0.325459 9.000000
0.901807 1.566856 0.249289 8.000000
0.916332 1.552510 0.249661 17.000000
0.925580 1.529524 0.248650 18.000000
0.944826 1.523321 0.250333 16.000000
0.941885 1.484060 0.246576 27.000000
0.976974 1.502607 0.252432 18.000000
0.982348 1.475133 0.250626 29.000000
0.995673 1.460063 0.250907 27.000000
1.011525 1.448951 0.251833 19.000000
1.018636 1.425593 0.250689 22.000000
1.028350 1.406206 0.250186 18.000000
1.051739 1.407140 0.253347 25.000000
1.067123 1.395386 0.254268 28.000000
1.085339 1.387366 0.255908 23.000000
1.100441 1.375252 0.256777 28.000000
1.118512 1.366804 0.258424 28.000000
1.139788 1.361917 0.260748 21.000000
1.147547 1.342182 0.260276 28.000000
1.158890 1.325657 0.260416 20.000000
1.179932 1.320103 0.262699 30.000000
1.204306 1.317890 0.265781 33.000000
1.208556 1.293609 0.264392 23.000000
1.228986 1.287762 0.266803 33.000000
1.239540 1.270491 0.266884 29.000000
1.263874 1.267133 0.269887 24.000000
1.281268 1.256509 0.271463 32.000000
1.298016 1.246085 0.273100 24.000000
1.311680 1.231588 0.273878 36.000000
1.328761 1.220268 0.275410 32.000000
1.345749 1.208756 0.276890 28.000000
1.373329 1.207231 0.280763 35.000000
1.390288 1.195096 0.282258 28.000000
1.403365 1.179585 0.282994 32.000000
1.416215 1.163904 0.283730 27.000000
1.440108 1.157793 0.286823 21.000000
1.448892 1.138647 0.286796 32.000000
1.473053 1.131511 0.289791 31.000000
1.489051 1.118471 0.291310 27.000000
1.505229 1.104769 0.292775 36.000000
1.513269 1.085106 0.292633 29.000000
1.528877 1.071431 0.294159 28.000000
1.569115 1.073883 0.300253 30.000000
1.576406 1.054043 0.300234 26.000000
1.596161 1.041863 0.302387 35.000000
1.620022 1.032035 0.305331 36.000000
1.622617 1.009131 0.304470 30.000000
1.646324 0.998744 0.307425 33.000000
1.682468 0.995861 0.312880 33.000000
1.706112 0.984532 0.315798 33.000000
1.716645 0.965841 0.316468 28.000000
1.735774 0.951531 0.318605 27.000000
1.763347 0.941803 0.322401 32.000000
1.791122 0.931321 0.326147 34.000000
1.805449 0.913954 0.327570 30.000000
1.824063 0.898547 0.329796 33.000000
1.833870 0.878304 0.330236 29.000000
1.856659 0.864436 0.333274 29.000000
1.892881 0.856248 0.338671 31.000000
1.911168 0.839210 0.340731 30.000000
1.938297 0.826035 0.344475 30.000000
1.965398 0.812268 0.348293 30.000000
1.992400 0.798035 0.352057 28.000000
2.000896 0.776131 0.352522 31.000000
2.023050 0.759362 0.355487 29.000000
2.063666 0.748955 0.361644 24.000000
2.071678 0.726276 0.362119 28.000000
2.107456 0.712946 0.367483 29.000000
2.119785 0.691353 0.368712 31.000000
2.155401 0.676909 0.374026 32.000000
2.172043 0.656210 0.376151 31.000000
2.198010 0.637773 0.379846 32.000000
2.228566 0.620171 0.384297 29.000000
2.263744 0.603390 0.389648 18.000000
2.294019 0.584692 0.394189 28.000000
2.324205 0.565399 0.398666 24.000000
2.349417 0.544320 0.402327 25.000000
2.384061 0.524865 0.407641 34.000000
2.433021 0.507799 0.415360 32.000000
2.448081 0.482945 0.417317 32.000000
2.496810 0.464267 0.425054 33.000000
2.496825 0.435993 0.424621 10.000000
2.545252 0.415776 0.432295 34.000000
2.534936 0.385620 0.430054 9.000000
2.553631 0.359834 0.432854 7.000000
2.606280 0.338167 0.441374 8.000000
2.644052 0.313687 0.447418 7.000000
2.666958 0.286709 0.450898 7.000000
2.709126 0.261277 0.457698 8.000000
2.726559 0.232803 0.460439 7.000000
2.846938 0.211683 0.480527 26.000000
2.868742 0.181654 0.483936 9.000000
2.914834 0.152480 0.491497 7.000000
2.955780 0.122131 0.498230 8.000000
3.025872 0.091815 0.510043 7.000000
3.071081 0.059509 0.517519 11.000000
3.130720 0.026258 0.527584 33.000000
3.234355 -0.008308 0.545032 34.000000
3.293215 -0.044543 0.555002 95.000000
3.282643 -0.080486 0.553340 63.000000
3.247135 -0.115237 0.547424 40.000000
3.211152 -0.149231 0.541609 10.000000
3.174905 -0.182469 0.535696 9.000000
3.177658 -0.217646 0.536428 32.000000
3.101370 -0.246581 0.523779 36.000000
3.093571 -0.280124 0.522757 36.000000
3.090399 -0.313962 0.522565 95.000000
3.057348 -0.344582 0.517493 43.000000
3.053445 -0.378098 0.517302 82.000000
2.995409 -0.404264 0.507903 95.000000
2.966431 -0.433530 0.503481 37.000000
2.927509 -0.460636 0.497410 10.000000
2.883383 -0.486174 0.490517 9.000000
2.853688 -0.513387 0.486112 8.000000
2.867319 -0.548225 0.489058 10.000000
2.822512 -0.571827 0.482092 16.000000
2.835474 -0.606877 0.485035 28.000000
2.838277 -0.640091 0.486325 60.000000
2.811970 -0.666600 0.482670 35.000000
2.785494 -0.692599 0.478932 31.000000
2.753904 -0.716848 0.474377 9.000000
2.693630 -0.732632 0.464815 9.000000
2.709235 -0.768902 0.468486 11.000000
2.724346 -0.805605 0.472148 65.000000
2.696698 -0.829512 0.468346 62.000000
2.673352 -0.854594 0.465369 63.000000
2.663975 -0.883853 0.464848 52.000000
2.630841 -0.905002 0.460247 10.000000
2.760266 -0.983414 0.484184 10.000000
2.855941 -1.052937 0.502273 9.000000
2.936463 -1.119241 0.517874 4.000000
3.277693 -1.290486 0.579711 1.000000
3.380890 -1.417273 0.601443 1.000000
3.329123 -1.438575 0.594070 1.000000
3.141796 -1.398977 0.562718 1.000000
3.400105 -1.558772 0.610925 1.000000
3.222427 -1.519994 0.580918 1.000000
3.192252 -1.549115 0.577736 1.000000
3.302966 -1.692734 0.602073 1.000000
3.157499 -1.662538 0.577972 1.000000
3.195854 -1.727358 0.587241 1.000000
2.999690 -1.664539 0.553680 1.000000
2.968791 -1.689770 0.550128 1.000000
2.800791 -1.635482 0.521502 2.000000
2.829643 -1.693749 0.529112 4.000000
2.823512 -1.732789 0.530464 6.000000
2.867370 -1.802822 0.541171 5.000000
2.826624 -1.821168 0.536188 3.000000
2.925977 -1.931331 0.557938 2.000000
3.027817 -2.045907 0.580157 1.000000
2.944206 -2.037292 0.567291 1.000000
2.773059 -1.963450 0.536975 2.000000
2.711338 -1.965223 0.528032 4.000000
2.614139 -1.939211 0.512129 6.000000
2.616935 -1.985380 0.515472 7.000000
2.583210 -2.005213 0.512036 9.000000
2.545513 -2.021511 0.507737 8.000000
2.543004 -2.064490 0.510179 8.000000
2.504936 -2.079989 0.505894 8.000000
2.508272 -2.130029 0.509947 8.000000
2.473503 -2.148053 0.506436 9.000000
2.446842 -2.171278 0.504157 8.000000
2.437542 -2.211633 0.505882 8.000000
2.402181 -2.228479 0.502288 9.000000
2.402701 -2.278896 0.506160 8.000000
2.399771 -2.325091 0.509145 8.000000
2.370575 -2.348122 0.506950 9.000000
2.337775 -2.367248 0.504011 9.000000
2.311692 -2.393126 0.502470 9.000000
2.269341 -2.399708 0.497106 9.000000
2.273160 -2.457348 0.502254 8.000000
2.139928 -2.365112 0.477038 10.000000
2.038565 -2.303457 0.458604 9.000000
1.967910 -2.273599 0.446890 9.000000
1.838551 -2.169849 0.421143 9.000000
1.754722 -2.117663 0.405869 10.000000
1.681650 -2.075510 0.392871 10.000000
1.600460 -2.020370 0.377776 10.000000
1.529887 -1.975353 0.364941 10.000000
1.460374 -1.929034 0.352110 18.000000
1.425575 -1.924523 0.347181 19.000000
1.413159 -1.952206 0.348069 21.000000
1.371753 -1.939453 0.341821 21.000000
1.370208 -1.983045 0.345543 20.000000
1.345666 -1.994027 0.343573 25.000000
1.321139 -2.004651 0.341534 17.000000
1.309800 -2.035883 0.343082 20.000000
1.288759 -2.049463 0.341590 21.000000
1.279247 -2.084741 0.343726 17.000000
1.253864 -2.094588 0.341676 15.000000
1.265875 -2.168226 0.349986 7.000000
0.893653 1.557495 0.264097 7.000000
0.895605 1.521837 0.260821 17.000000
0.917275 1.520228 0.263323 15.000000
0.931272 1.505724 0.263682 23.000000
0.945013 1.491059 0.263980 22.000000
0.966686 1.488730 0.266555 24.000000
0.979289 1.474314 0.266905 24.000000
0.998129 1.467421 0.268691 24.000000
1.019774 1.464359 0.271235 24.000000
1.018534 1.428808 0.267756 17.000000
1.042819 1.429356 0.271002 24.000000
1.058388 1.417666 0.271985 28.000000
1.070085 1.402430 0.272315 21.000000
1.088432 1.394341 0.274061 31.000000
1.106701 1.386020 0.275758 26.000000
1.121820 1.373639 0.276744 28.000000
1.133608 1.357249 0.276902 28.000000
1.144551 1.341365 0.277163 20.000000
1.155957 1.324842 0.277310 32.000000
1.183557 1.326654 0.281305 32.000000
1.188021 1.302416 0.279832 29.000000
1.208426 1.296839 0.282441 32.000000
1.222559 1.283309 0.283317 32.000000
1.240027 1.273151 0.284930 36.000000
1.267857 1.273300 0.288985 34.000000
1.284818 1.263042 0.290726 13.000000
1.298630 1.248617 0.291561 36.000000
1.312276 1.234080 0.292397 38.000000
1.329386 1.222718 0.293979 33.000000
1.364291 1.228118 0.299764 46.000000
1.366633 1.203067 0.298135 34.000000
1.390970 1.197409 0.301353 40.000000
1.407458 1.185488 0.303017 35.000000
1.443284 1.188539 0.308701 23.000000
1.437026 1.156880 0.305370 34.000000
1.453228 1.144295 0.307045 33.000000
1.477428 1.137011 0.310251 35.000000
1.482003 1.114586 0.309298 36.000000
1.505741 1.107171 0.312576 36.000000
1.513880 1.087407 0.312443 44.000000
1.533545 1.076578 0.314908 42.000000
1.557457 1.067778 0.318037 19.000000
1.573242 1.053105 0.319570 35.000000
1.596871 1.043972 0.322835 36.000000
1.604112 1.023487 0.322589 37.000000
1.627560 1.013753 0.325868 43.000000
1.659662 1.008386 0.330658 35.000000
1.683143 0.997770 0.333903 50.000000
1.694047 0.978931 0.334508 53.000000
1.704527 0.960394 0.335235 23.000000
1.749504 0.960342 0.342547 68.000000
1.772798 0.948157 0.345769 74.000000
1.787315 0.930947 0.347303 35.000000
1.806278 0.915493 0.349566 59.000000
1.829317 0.902214 0.352749 43.000000
1.843361 0.884256 0.354234 43.000000
1.857324 0.866074 0.355723 41.000000
1.893642 0.857574 0.361304 25.000000
1.929905 0.848672 0.367029 35.000000
1.952574 0.833247 0.370193 55.000000
1.970554 0.815575 0.372506 35.000000
1.983847 0.795671 0.373896 41.000000
2.006162 0.779233 0.377014 42.000000
2.009887 0.755429 0.376683 35.000000
2.045774 0.743366 0.382407 52.000000
2.076965 0.728994 0.387210 23.000000
2.112654 0.715762 0.392960 53.000000
2.125008 0.693996 0.394313 53.000000
2.155905 0.677966 0.399076 51.000000
2.186682 0.661492 0.403918 53.000000
2.203218 0.640096 0.406086 55.000000
2.238428 0.623850 0.411747 52.000000
2.259323 0.603100 0.414871 43.000000
2.299090 0.586834 0.421426 21.000000
2.324473 0.566194 0.425294 37.000000
2.364047 0.548396 0.431796 49.000000
2.374646 0.523503 0.433049 54.000000
2.399497 0.501374 0.436859 71.000000
2.467593 0.487484 0.448653 84.000000
2.482339 0.462151 0.450801 56.000000
2.521210 0.440845 0.457269 49.000000
2.554956 0.417840 0.462786 25.000000
2.539828 0.386864 0.459665 9.000000
2.582876 0.364488 0.466953 9.000000
2.650124 0.344346 0.478655 9.000000
2.673319 0.317503 0.482431 9.000000
2.691254 0.289703 0.485329 8.000000
2.728481 0.263474 0.491676 8.000000
2.804751 0.239759 0.505091 16.000000
2.875903 0.214063 0.517632 33.000000
2.922251 0.185302 0.525764 72.000000
2.958468 0.154964 0.532133 59.000000
2.984614 0.123464 0.536553 20.000000
3.020157 0.091815 0.542834 9.000000
3.114484 0.060368 0.559728 31.000000
