x y z intensity
1.014046 -1.798906 0.598389 15.000000
1.004274 -1.827229 0.601372 6.000000
1.054648 1.958350 0.659297 9.000000
1.084592 1.962878 0.667837 18.000000
1.104294 1.945501 0.669046 20.000000
1.110294 1.907914 0.663194 22.000000
1.123056 1.882779 0.661674 21.000000
1.151586 1.881394 0.668540 26.000000
1.168881 1.864117 0.669827 25.000000
1.184555 1.841896 0.669361 24.000000
1.209311 1.836252 0.674951 22.000000
1.220740 1.810399 0.673199 22.000000
1.235532 1.787827 0.672544 26.000000
1.260000 1.781460 0.678150 28.000000
1.273300 1.759223 0.677682 25.000000
1.295859 1.747712 0.681467 30.000000
1.311555 1.729022 0.682472 26.000000
1.329883 1.713956 0.684902 26.000000
1.349115 1.697988 0.687124 27.000000
1.355216 1.667646 0.683423 23.000000
1.382104 1.663083 0.690394 33.000000
1.393740 1.639893 0.689697 33.000000
1.418404 1.630385 0.694758 29.000000
1.435861 1.614036 0.697044 36.000000
1.459512 1.604586 0.702411 35.000000
1.473529 1.584266 0.703092 34.000000
1.490539 1.567256 0.705244 33.000000
1.500784 1.543225 0.704287 32.000000
1.524072 1.532681 0.709549 57.000000
1.547368 1.521706 0.714760 55.000000
1.560403 1.500494 0.715283 43.000000
1.576685 1.482473 0.717301 48.000000
1.592688 1.464243 0.719249 46.000000
1.612149 1.448975 0.722779 37.000000
1.627839 1.430287 0.724732 50.000000
1.646986 1.414547 0.728204 25.000000
1.640583 1.377187 0.720458 36.000000
1.670270 1.370171 0.728643 37.000000
1.707404 1.368602 0.739992 43.000000
1.706877 1.337674 0.735612 68.000000
1.744036 1.335090 0.746948 56.000000
1.758621 1.314841 0.748647 39.000000
1.772498 1.294946 0.750559 37.000000
1.794430 1.279836 0.755430 29.000000
1.808438 1.259002 0.756923 61.000000
1.829625 1.243768 0.762028 69.000000
1.847274 1.225171 0.765088 36.000000
1.868232 1.209266 0.770075 79.000000
1.885162 1.190515 0.773439 59.000000
1.902292 1.171024 0.776449 45.000000
1.922947 1.154232 0.781326 58.000000
1.927192 1.127503 0.779552 26.000000
1.951545 1.112502 0.786022 67.000000
1.975904 1.097002 0.792437 71.000000
1.991894 1.076660 0.795557 55.000000
2.024336 1.064860 0.805250 71.000000
2.040079 1.043770 0.808245 71.000000
2.055572 1.022510 0.811171 57.000000
2.075131 1.002981 0.815771 60.000000
2.107354 0.989191 0.825318 26.000000
2.117832 0.965296 0.826826 53.000000
2.132618 0.942929 0.829557 37.000000
2.159978 0.926107 0.837631 37.000000
2.187424 0.908510 0.845343 51.000000
2.205907 0.887156 0.849937 60.000000
2.228546 0.867156 0.856149 37.000000
2.259796 0.850016 0.865750 52.000000
2.246840 0.816229 0.858320 33.000000
2.282240 0.799909 0.869477 58.000000
2.321907 0.784648 0.882590 64.000000
2.339279 0.761006 0.886856 63.000000
2.365292 0.740129 0.894684 73.000000
2.391185 0.718684 0.902528 94.000000
2.389766 0.688856 0.900097 46.000000
2.419769 0.667907 0.909501 42.000000
2.467843 0.651159 0.925576 31.000000
2.497591 0.628809 0.934851 63.000000
2.513336 0.602654 0.939186 65.000000
2.538039 0.578295 0.946862 72.000000
2.558073 0.552359 0.952499 68.000000
2.582178 0.527136 0.960281 68.000000
2.596968 0.499549 0.964306 51.000000
2.625319 0.474258 0.973650 36.000000
2.662849 0.449833 0.986000 37.000000
2.681417 0.421840 0.991762 81.000000
2.713707 0.395476 1.002770 63.000000
2.755127 0.369639 1.016868 73.000000
2.796204 0.342957 1.031158 88.000000
2.813773 0.312836 1.036774 67.000000
2.835680 0.282679 1.043930 62.000000
2.861933 0.252603 1.052996 37.000000
2.920620 0.224517 1.074023 39.000000
2.946326 0.192915 1.082917 65.000000
2.971585 0.160783 1.091913 61.000000
3.015436 0.128824 1.107413 67.000000
3.068319 0.096200 1.126458 75.000000
3.083096 0.061754 1.131925 42.000000
3.125838 0.027133 1.147533 64.000000
3.144714 -0.008383 1.154527 35.000000
3.186646 -0.044551 1.169829 37.000000
3.218870 -0.081542 1.181679 43.000000
3.260039 -0.119623 1.197076 35.000000
3.300644 -0.158555 1.212686 36.000000
3.336305 -0.198164 1.226031 36.000000
3.390104 -0.239949 1.246474 34.000000
3.424660 -0.281470 1.259912 30.000000
3.458813 -0.323727 1.273117 36.000000
3.515785 -0.369399 1.295138 43.000000
3.506870 -0.408726 1.292959 34.000000
3.478994 -0.445446 1.283792 34.000000
3.413409 -0.476446 1.261002 32.000000
3.398859 -0.513682 1.256673 33.000000
3.369874 -0.548334 1.247424 31.000000
3.349671 -0.584295 1.241834 26.000000
3.301594 -0.614453 1.225524 30.000000
3.280897 -0.649139 1.219622 35.000000
3.246139 -0.680404 1.208267 33.000000
3.229316 -0.715322 1.204199 34.000000
3.193912 -0.745438 1.192978 33.000000
3.158327 -0.774825 1.181561 31.000000
3.135909 -0.807212 1.175598 28.000000
3.099742 -0.835408 1.164318 23.000000
3.094991 -0.871908 1.164979 30.000000
3.076264 -0.904324 1.160428 31.000000
3.057281 -0.936328 1.155676 35.000000
3.020124 -0.962314 1.144142 31.000000
2.996033 -0.992227 1.138026 30.000000
2.954038 -1.015311 1.124634 31.000000
2.951656 -1.052007 1.126700 27.000000
2.935554 -1.083913 1.123689 22.000000
2.888410 -1.103755 1.108768 32.000000
2.889413 -1.141727 1.112421 35.000000
2.846413 -1.161901 1.099028 32.000000
2.837699 -1.196312 1.099414 33.000000
2.803031 -1.218955 1.089325 31.000000
2.759377 -1.237547 1.076204 32.000000
2.750234 -1.270576 1.076016 29.000000
2.706319 -1.287799 1.062847 15.000000
2.708984 -1.326953 1.067871 34.000000
2.677496 -1.349326 1.059547 32.000000
2.666738 -1.381968 1.059561 36.000000
2.634828 -1.403426 1.051072 33.000000
2.615236 -1.431200 1.047579 33.000000
2.595403 -1.458591 1.043996 35.000000
2.559077 -1.476262 1.033813 27.000000
2.506374 -1.483564 1.016973 13.000000
2.522469 -1.531601 1.028061 34.000000
2.489174 -1.550700 1.019776 32.000000
2.496290 -1.594097 1.027428 31.000000
2.439436 -1.596446 1.008782 16.000000
2.429397 -1.629768 1.010163 22.000000
2.419622 -1.662513 1.011058 33.000000
2.389450 -1.682205 1.004193 27.000000
2.332417 -1.682075 0.985903 13.000000
2.340971 -1.727905 0.994720 35.000000
2.318052 -1.751984 0.990948 30.000000
2.309796 -1.787376 0.993625 34.000000
2.283353 -1.807294 0.987682 31.000000
2.263365 -1.833476 0.985430 28.000000
2.246742 -1.862494 0.984589 36.000000
2.226251 -1.888248 0.982145 29.000000
2.169675 -1.882654 0.963797 10.000000
2.180878 -1.935857 0.975577 34.000000
2.156064 -1.957631 0.971367 29.000000
2.141562 -1.988728 0.971899 32.000000
2.112967 -2.006724 0.966027 33.000000
2.080827 -2.020973 0.958603 27.000000
2.065470 -2.051346 0.959028 33.000000
2.036449 -2.068148 0.953103 26.000000
1.984315 -2.060557 0.936216 10.000000
2.004268 -2.128139 0.953524 33.000000
1.978055 -2.147445 0.948976 28.000000
1.958004 -2.173464 0.947518 31.000000
1.931304 -2.192134 0.942979 32.000000
1.915792 -2.225817 0.944857 33.000000
1.910181 -2.269421 0.950813 23.000000
1.837412 -2.232162 0.923245 11.000000
1.810436 -2.249290 0.918580 23.000000
1.487429 -1.892286 0.763094 17.000000
1.295752 -1.686111 0.671559 15.000000
1.211826 -1.613036 0.634668 22.000000
1.190803 -1.623518 0.631107 29.000000
1.165075 -1.625402 0.624319 31.000000
1.147749 -1.638573 0.621953 34.000000
1.126577 -1.648184 0.618364 30.000000
1.111690 -1.664914 0.617414 15.000000
1.088758 -1.669502 0.612112 30.000000
1.074992 -1.690488 0.612811 24.000000
1.059613 -1.706699 0.611838 28.000000
1.040387 -1.719324 0.609531 26.000000
1.029488 -1.743416 0.611367 24.000000
1.006248 -1.746801 0.605971 26.000000
1.012302 -1.804768 0.619431 21.000000
0.990887 -1.812034 0.615367 9.000000
1.052916 1.968874 0.683369 9.000000
1.077523 1.960021 0.687546 17.000000
1.091192 1.934969 0.686048 30.000000
1.101007 1.900897 0.681268 26.000000
1.125885 1.896332 0.687121 28.000000
1.145836 1.883290 0.689940 30.000000
1.159406 1.857193 0.687982 27.000000
1.179087 1.843746 0.690783 29.000000
1.197204 1.825403 0.691724 25.000000
1.213836 1.807610 0.692933 26.000000
1.238409 1.801373 0.698697 33.000000
1.253166 1.778601 0.698024 29.000000
1.266496 1.756377 0.697538 34.000000
1.285172 1.741727 0.700176 30.000000
1.309440 1.734460 0.705834 32.000000
1.323080 1.711110 0.704967 34.000000
1.341339 1.695766 0.707466 25.000000
1.353484 1.672898 0.706845 32.000000
1.374345 1.660866 0.710830 37.000000
1.392148 1.644933 0.713254 34.000000
1.404431 1.620996 0.712181 46.000000
1.421811 1.604788 0.714526 36.000000
1.445421 1.595332 0.719974 35.000000
1.462601 1.578567 0.722260 47.000000
1.479573 1.561595 0.724477 34.000000
1.496407 1.544415 0.726694 35.000000
1.519768 1.533823 0.732052 68.000000
1.536328 1.516150 0.734209 42.000000
1.552749 1.498337 0.736296 71.000000
1.575843 1.486739 0.741622 68.000000
1.588510 1.465223 0.742025 56.000000
1.607990 1.449909 0.745676 78.000000
1.623714 1.431250 0.747632 33.000000
1.624358 1.400531 0.743320 34.000000
1.646891 1.387705 0.748473 62.000000
1.658345 1.365500 0.748637 56.000000
1.684304 1.355075 0.755390 77.000000
1.702340 1.338913 0.759070 72.000000
1.728200 1.327644 0.765794 49.000000
1.739020 1.304652 0.765824 67.000000
1.771818 1.298821 0.776121 33.000000
1.786111 1.278130 0.777686 35.000000
1.803554 1.260492 0.781279 64.000000
1.829124 1.247362 0.787875 43.000000
1.842392 1.226492 0.789668 69.000000
1.859464 1.207972 0.793073 44.000000
1.864807 1.181231 0.791137 38.000000
1.897490 1.172198 0.801235 71.000000
1.914104 1.152855 0.804520 37.000000
1.926498 1.130894 0.806114 35.000000
1.946911 1.113456 0.811037 64.000000
1.958847 1.091111 0.812565 47.000000
1.983032 1.075269 0.819141 52.000000
2.011300 1.061261 0.827370 65.000000
2.035359 1.044506 0.833836 51.000000
2.055059 1.025291 0.838603 74.000000
2.070403 1.003612 0.841589 35.000000
2.085341 0.982135 0.844805 33.000000
2.104518 0.961988 0.849375 50.000000
2.131907 0.945601 0.857707 36.000000
2.154922 0.926895 0.864182 38.000000
2.178060 0.907359 0.870441 54.000000
2.205128 0.889509 0.878601 43.000000
2.214721 0.864289 0.879761 46.000000
2.250324 0.848920 0.891347 29.000000
2.246036 0.818587 0.887457 37.000000
2.268093 0.797492 0.893695 59.000000
2.312208 0.783535 0.908506 53.000000
2.329383 0.760128 0.913191 65.000000
2.350932 0.737841 0.919553 75.000000
2.372170 0.715090 0.925766 51.000000
2.393334 0.691869 0.931990 59.000000
2.405234 0.665843 0.934637 33.000000
2.462178 0.651528 0.954673 35.000000
2.478061 0.625847 0.959182 57.000000
2.493912 0.599626 0.963365 36.000000
2.523079 0.576407 0.972998 37.000000
2.547449 0.551679 0.980801 70.000000
2.562481 0.524489 0.985005 44.000000
2.586315 0.498948 0.992827 40.000000
2.619175 0.474485 1.004189 28.000000
2.647182 0.448613 1.013714 35.000000
2.684253 0.423498 1.026608 77.000000
2.702657 0.394941 1.032355 54.000000
2.753105 0.370434 1.050667 42.000000
2.780118 0.342019 1.060059 78.000000
2.797625 0.311858 1.065735 37.000000
2.828755 0.282866 1.076728 46.000000
2.831631 0.250674 1.077192 26.000000
2.908718 0.224231 1.105825 38.000000
2.938994 0.192934 1.116746 48.000000
2.968925 0.160999 1.127770 71.000000
3.026623 0.129628 1.148950 42.000000
3.051173 0.095953 1.158015 61.000000
3.075339 0.061748 1.167183 52.000000
3.103786 0.027052 1.177927 35.000000
3.117912 -0.008346 1.183249 33.000000
3.164450 -0.044420 1.200886 32.000000
3.182524 -0.080844 1.207773 33.000000
3.246783 -0.119411 1.232497 34.000000
3.277878 -0.157890 1.245017 32.000000
3.299391 -0.196557 1.253453 31.000000
3.394949 -0.241052 1.290463 34.000000
3.392172 -0.279598 1.290129 28.000000
3.440157 -0.322952 1.309172 34.000000
3.496773 -0.368450 1.331858 35.000000
3.473950 -0.406095 1.324317 32.000000
3.450831 -0.443090 1.316554 32.000000
3.404153 -0.476422 1.299955 29.000000
3.370913 -0.511021 1.288787 31.000000
3.360624 -0.548533 1.286353 32.000000
3.303719 -0.577880 1.266150 24.000000
3.288066 -0.613689 1.261745 32.000000
3.262945 -0.647251 1.253710 31.000000
3.228202 -0.678580 1.242270 31.000000
3.202398 -0.711204 1.234366 34.000000
3.171698 -0.742240 1.224499 27.000000
3.149673 -0.775099 1.218481 31.000000
3.141108 -0.810840 1.217318 34.000000
3.068741 -0.829479 1.191690 20.000000
3.082049 -0.870760 1.199421 29.000000
3.045496 -0.897882 1.187762 28.000000
3.022133 -0.928310 1.181271 29.000000
3.016398 -0.964034 1.181680 33.000000
2.979095 -0.989420 1.169760 28.000000
2.954764 -1.018779 1.163301 31.000000
2.912576 -1.041522 1.149884 27.000000
2.888009 -1.069470 1.142953 24.000000
2.871802 -1.100674 1.139812 32.000000
2.859690 -1.133306 1.138311 33.000000
2.838597 -1.162283 1.133243 32.000000
2.799503 -1.183953 1.121660 34.000000
2.803751 -1.223196 1.126893 34.000000
2.760461 -1.241460 1.113023 29.000000
2.738068 -1.269203 1.108100 33.000000
2.698910 -1.287977 1.095816 26.000000
2.697265 -1.325098 1.099414 35.000000
2.661562 -1.345461 1.089081 34.000000
2.642570 -1.373718 1.085624 32.000000
2.631525 -1.406116 1.085593 43.000000
2.599544 -1.427106 1.076925 34.000000
2.571565 -1.449835 1.069792 30.000000
2.567770 -1.486320 1.072977 35.000000
2.523193 -1.498682 1.059075 25.000000
2.510834 -1.529884 1.058578 32.000000
2.494144 -1.558399 1.056480 33.000000
2.472634 -1.584756 1.052981 27.000000
2.443596 -1.605090 1.045644 21.000000
2.414440 -1.624871 1.038235 25.000000
2.404089 -1.658227 1.039609 30.000000
2.401509 -1.696252 1.043840 32.000000
2.336742 -1.690900 1.021712 25.000000
2.322415 -1.720040 1.020762 35.000000
2.299482 -1.744036 1.016949 36.000000
2.276333 -1.767757 1.013050 32.000000
2.261195 -1.796237 1.012000 42.000000
2.259616 -1.837179 1.017820 35.000000
2.232021 -1.857218 1.012081 32.000000
2.222258 -1.892210 1.014566 33.000000
2.177228 -1.895297 1.000184 25.000000
2.170555 -1.932855 1.004105 34.000000
2.149253 -1.957910 1.001477 36.000000
2.110464 -1.966472 0.990636 35.000000
2.112841 -2.013516 0.999273 37.000000
2.077256 -2.024595 0.989989 32.000000
2.055088 -2.048446 0.987183 32.000000
2.039365 -2.078778 0.987495 32.000000
2.003632 -2.088472 0.978182 25.000000
1.987461 -2.118318 0.978390 36.000000
1.977175 -2.155019 0.981668 55.000000
1.947494 -2.170555 0.975483 32.000000
1.924033 -2.192796 0.972292 41.000000
1.908335 -2.226407 0.974301 37.000000
1.902583 -2.270017 0.980427 32.000000
1.845005 -2.251327 0.959964 20.000000
1.808898 -2.257545 0.950354 25.000000
1.494530 -1.907831 0.793140 24.000000
1.293838 -1.691484 0.694531 25.000000
1.195990 -1.599609 0.648816 22.000000
1.184492 -1.620878 0.649523 35.000000
1.153278 -1.615035 0.639473 32.000000
1.126851 -1.617061 0.632725 35.000000
1.112222 -1.633822 0.631847 41.000000
1.097510 -1.650391 0.630957 26.000000
1.081377 -1.667529 0.630247 34.000000
1.061074 -1.675781 0.626260 33.000000
1.054684 -1.708771 0.631474 32.000000
1.029182 -1.708521 0.624423 31.000000
1.018325 -1.732539 0.626335 31.000000
0.998667 -1.744809 0.623958 26.000000
0.987151 -1.768758 0.625752 28.000000
0.976153 -1.797461 0.629239 9.000000
1.059746 1.940933 0.701282 22.000000
1.091091 1.944382 0.710112 22.000000
1.104531 1.919218 0.708540 27.000000
1.106727 1.872810 0.699000 24.000000
1.131461 1.868049 0.704931 22.000000
1.156228 1.862965 0.710887 32.000000
1.172083 1.840734 0.710394 26.000000
1.196816 1.835038 0.716303 22.000000
1.208386 1.809259 0.714437 29.000000
1.218061 1.778772 0.710622 24.000000
1.245146 1.776230 0.718037 32.000000
1.261209 1.757941 0.719180 30.000000
1.279995 1.743190 0.721824 29.000000
1.301421 1.732090 0.726056 34.000000
1.318055 1.712505 0.726764 29.000000
1.339285 1.700919 0.730938 29.000000
1.345604 1.670548 0.727028 30.000000
1.363507 1.654857 0.729517 30.000000
1.387300 1.646265 0.735237 35.000000
1.398828 1.622923 0.734425 32.000000
1.422500 1.613703 0.740097 34.000000
1.443926 1.599994 0.743741 46.000000
1.457977 1.579684 0.744471 33.000000
1.481470 1.569613 0.750045 35.000000
1.488579 1.542129 0.747407 33.000000
1.505274 1.524741 0.749624 36.000000
1.528466 1.513854 0.755083 72.000000
1.547577 1.499880 0.759249 56.000000
1.557050 1.475265 0.758009 40.000000
1.580003 1.463479 0.763433 71.000000
1.592410 1.441838 0.763781 41.000000
1.618714 1.432554 0.770836 71.000000
1.637964 1.416724 0.774481 28.000000
1.631216 1.379887 0.766596 35.000000
1.657197 1.369759 0.773475 75.000000
1.672259 1.350303 0.775357 38.000000
1.719697 1.357484 0.792760 64.000000
1.712296 1.320142 0.784308 69.000000
1.730016 1.303386 0.788053 35.000000
1.748150 1.285840 0.791384 64.000000
1.777080 1.276779 0.800226 29.000000
1.791159 1.255944 0.801862 43.000000
1.800726 1.232744 0.801986 88.000000
1.833858 1.224628 0.812115 50.000000
1.854841 1.208665 0.817372 59.000000
1.863848 1.184831 0.817365 64.000000
1.892506 1.173294 0.826046 54.000000
1.905117 1.151478 0.827641 62.000000
1.921548 1.131822 0.830981 33.000000
1.933750 1.109669 0.832579 51.000000
1.953982 1.091940 0.837609 88.000000
1.978136 1.076041 0.844333 61.000000
1.989806 1.053215 0.845728 61.000000
2.013737 1.036594 0.852332 64.000000
2.045583 1.024172 0.862779 36.000000
2.052570 0.998398 0.862280 52.000000
2.076126 0.980636 0.868780 28.000000
2.095039 0.960784 0.873823 36.000000
2.126622 0.946364 0.884129 59.000000
2.141019 0.923823 0.887199 41.000000
2.172700 0.908009 0.897166 59.000000
2.186797 0.884844 0.900178 63.000000
2.209322 0.864831 0.906689 36.000000
2.222836 0.841369 0.909872 36.000000
2.227538 0.814214 0.909169 36.000000
2.262711 0.797870 0.920927 44.000000
2.280018 0.775071 0.925691 69.000000
2.328117 0.762074 0.943039 59.000000
2.336288 0.735477 0.944080 57.000000
2.366464 0.715471 0.954123 86.000000
2.387504 0.692275 0.960418 60.000000
2.399398 0.666115 0.963116 36.000000
2.460649 0.653007 0.985509 39.000000
2.472083 0.626075 0.988316 42.000000
2.496803 0.602236 0.996468 66.000000
2.512279 0.575732 1.000929 56.000000
2.536570 0.550915 1.008934 53.000000
2.560778 0.525681 1.016864 60.000000
2.575405 0.498260 1.021262 42.000000
2.603478 0.473044 1.031112 34.000000
2.645244 0.449561 1.046250 41.000000
2.668393 0.422238 1.054047 62.000000
2.682034 0.393056 1.058125 44.000000
2.755349 0.371759 1.086034 61.000000
2.773132 0.342041 1.092041 57.000000
2.785959 0.311398 1.096049 52.000000
2.830779 0.283889 1.113087 76.000000
2.847489 0.252773 1.119021 35.000000
2.901173 0.224304 1.139355 37.000000
2.931335 0.192951 1.150581 54.000000
2.961152 0.161058 1.161522 44.000000
2.981311 0.128032 1.169109 62.000000
3.043072 0.096000 1.192919 50.000000
3.062487 0.061647 1.200517 37.000000
3.100127 0.027032 1.215316 63.000000
3.132814 -0.008421 1.228089 30.000000
3.151227 -0.044317 1.235285 34.000000
3.173877 -0.080858 1.244096 35.000000
3.228557 -0.119133 1.265987 33.000000
3.268924 -0.157900 1.282082 35.000000
3.299524 -0.197174 1.294849 32.000000
3.362044 -0.239396 1.320160 33.000000
3.373202 -0.278882 1.325297 22.000000
3.425611 -0.322613 1.346722 36.000000
3.477569 -0.367387 1.367903 35.000000
3.445580 -0.403784 1.356519 32.000000
3.445537 -0.443712 1.357771 34.000000
3.389909 -0.475749 1.336965 35.000000
3.347577 -0.508842 1.321969 29.000000
3.346405 -0.547866 1.323121 29.000000
3.289715 -0.577114 1.302363 17.000000
3.265052 -0.611102 1.294227 29.000000
3.230779 -0.642855 1.282365 35.000000
3.214432 -0.677827 1.277877 35.000000
3.188707 -0.710349 1.269771 32.000000
3.167179 -0.743521 1.263378 35.000000
3.136244 -0.774042 1.253165 30.000000
3.118757 -0.807341 1.248389 28.000000
3.073688 -0.833219 1.232998 16.000000
3.068794 -0.869612 1.233759 30.000000
3.041302 -0.899390 1.225299 31.000000
3.022426 -0.931298 1.220454 34.000000
2.976540 -0.954353 1.204724 28.000000
2.952831 -0.983768 1.197905 35.000000
2.928810 -1.012778 1.190997 32.000000
2.899887 -1.040012 1.182614 25.000000
2.862048 -1.063389 1.170566 23.000000
2.872365 -1.104199 1.177705 32.000000
2.838497 -1.128354 1.167273 32.000000
2.821702 -1.159011 1.163894 35.000000
2.800047 -1.187944 1.159137 30.000000
2.752687 -1.204840 1.143126 33.000000
2.739539 -1.236138 1.141360 34.000000
2.721858 -1.265368 1.137724 26.000000
2.678131 -1.282577 1.123769 25.000000
2.672278 -1.317526 1.125753 34.000000
2.657990 -1.347754 1.123614 34.000000
2.630574 -1.371783 1.116581 35.000000
2.615385 -1.401966 1.114840 34.000000
2.595806 -1.429794 1.111150 41.000000
2.571814 -1.454932 1.105713 34.000000
2.547730 -1.479689 1.100193 29.000000
2.503337 -1.492075 1.085861 26.000000
2.474923 -1.513403 1.078546 34.000000
2.478252 -1.554097 1.085068 33.000000
2.473137 -1.589983 1.087989 32.000000
2.436236 -1.605302 1.077035 14.000000
2.414316 -1.630959 1.073313 27.000000
2.373441 -1.642415 1.060503 32.000000
2.381758 -1.689107 1.070486 27.000000
2.333136 -1.693990 1.054188 29.000000
2.306673 -1.715554 1.048607 34.000000
2.284537 -1.738855 1.044283 35.000000
2.265145 -1.765333 1.041952 40.000000
2.242543 -1.788040 1.037454 33.000000
2.251868 -1.837799 1.048703 44.000000
2.209741 -1.845824 1.036000 37.000000
2.186551 -1.867607 1.031417 26.000000
2.169492 -1.896064 1.030490 26.000000
2.162523 -1.933741 1.034593 34.000000
2.127376 -1.946025 1.025167 34.000000
2.119662 -1.983464 1.029142 37.000000
2.084233 -1.994958 1.019658 32.000000
2.066686 -2.021508 1.018050 35.000000
2.044611 -2.045266 1.015150 32.000000
2.015658 -2.062088 1.008948 23.000000
1.999621 -2.092128 1.009257 28.000000
1.986472 -2.125489 1.011095 32.000000
1.963350 -2.148330 1.007993 34.000000
1.935670 -2.168303 1.003635 36.000000
1.905897 -2.183419 0.997098 29.000000
1.903821 -2.230490 1.005267 52.000000
1.897887 -2.274141 1.011652 30.000000
1.870251 -2.292252 1.006603 17.000000
1.786493 -2.239671 0.971069 25.000000
1.471093 -1.886584 0.807787 18.000000
1.300329 -1.708081 0.722328 27.000000
1.199875 -1.612709 0.673693 28.000000
1.171445 -1.611081 0.664902 32.000000
1.148709 -1.616739 0.659312 34.000000
1.109708 -1.598747 0.644254 35.000000
1.112864 -1.643528 0.654592 29.000000
1.095260 -1.656284 0.652104 28.000000
1.072500 -1.660801 0.646445 31.000000
1.058713 -1.681733 0.647257 36.000000
1.040790 -1.693852 0.644706 29.000000
1.030145 -1.718021 0.646699 30.000000
1.010680 -1.730484 0.644258 30.000000
0.989886 -1.737909 0.640100 31.000000
0.981632 -1.770790 0.645256 23.000000
1.059401 1.950275 0.725269 10.000000
1.093942 1.962630 0.737691 20.000000
1.094934 1.911904 0.726416 22.000000
1.127272 1.919482 0.737321 16.000000
1.135361 1.885920 0.732434 24.000000
1.149124 1.859799 0.730372 24.000000
1.168820 1.846293 0.733326 20.000000
1.185938 1.828601 0.734613 26.000000
1.200139 1.806743 0.734284 9.000000
1.223211 1.795910 0.738409 22.000000
1.236918 1.773790 0.737981 27.000000
1.253068 1.755436 0.739080 18.000000
1.274643 1.744572 0.743420 29.000000
1.291545 1.725168 0.744228 24.000000
1.309984 1.710070 0.746873 22.000000
1.331197 1.698409 0.751160 29.000000
1.355302 1.690223 0.757039 10.000000
1.358481 1.656086 0.751356 34.000000
1.379316 1.643765 0.755579 30.000000
1.397020 1.627589 0.758009 24.000000
1.414516 1.611204 0.760509 33.000000
1.428795 1.591175 0.761262 26.000000
1.445975 1.574411 0.763617 26.000000
1.469462 1.564299 0.769347 34.000000
1.476591 1.536865 0.766566 17.000000
1.499842 1.526224 0.772242 37.000000
1.519768 1.511975 0.776166 33.000000
1.532820 1.490816 0.776616 32.000000
1.545662 1.469598 0.777057 35.000000
1.571286 1.461597 0.784632 30.000000
1.587255 1.443117 0.786724 35.000000
1.610100 1.430663 0.792198 43.000000
1.622177 1.408677 0.792499 21.000000
1.629844 1.384087 0.791334 44.000000
1.659442 1.376855 0.800171 32.000000
1.678244 1.360223 0.803810 31.000000
1.699937 1.346837 0.809416 36.000000
1.714773 1.326773 0.811253 31.000000
1.740105 1.315531 0.818572 33.000000
1.758376 1.297832 0.822039 32.000000
1.768405 1.274859 0.822269 23.000000
1.785810 1.257143 0.826029 34.000000
1.803631 1.238769 0.829369 37.000000
1.824678 1.223122 0.834778 35.000000
1.849533 1.209710 0.841911 35.000000
1.862524 1.188346 0.843715 33.000000
1.879264 1.169233 0.847162 33.000000
1.899903 1.152377 0.852480 37.000000
1.912323 1.130369 0.854078 26.000000
1.936728 1.115128 0.860995 43.000000
1.948788 1.092690 0.862530 34.000000
1.960629 1.070032 0.864065 34.000000
1.984676 1.053860 0.870874 35.000000
2.008203 1.037552 0.877997 33.000000
2.032018 1.020514 0.884768 36.000000
2.038703 0.995164 0.884516 31.000000
2.041135 0.967469 0.882067 21.000000
2.085335 0.959581 0.898121 33.000000
2.116819 0.945072 0.908674 35.000000
2.131196 0.922605 0.911869 33.000000
2.149676 0.901610 0.916823 35.000000
2.172316 0.882092 0.923544 32.000000
2.194839 0.862123 0.930201 34.000000
2.238902 0.850030 0.946058 32.000000
2.217384 0.813206 0.934517 13.000000
2.283111 0.807782 0.959465 41.000000
2.296096 0.783127 0.962501 34.000000
2.317703 0.761112 0.969234 37.000000
2.330224 0.735915 0.972124 36.000000
2.346980 0.711804 0.976868 31.000000
2.368012 0.688705 0.983309 32.000000
2.402226 0.668956 0.995321 38.000000
2.395813 0.637841 0.990820 10.000000
2.461066 0.625324 1.015943 35.000000
2.472338 0.598037 1.018386 31.000000
2.501140 0.574973 1.028774 28.000000
2.525436 0.550235 1.036981 33.000000
2.549479 0.524996 1.045027 30.000000
2.582369 0.501108 1.057069 27.000000
2.605815 0.474846 1.065223 28.000000
2.620013 0.446520 1.069566 13.000000
2.643057 0.419438 1.077561 33.000000
2.688665 0.395221 1.095173 35.000000
2.715754 0.367571 1.105059 26.000000
2.751753 0.340445 1.118695 34.000000
2.773741 0.311031 1.126545 30.000000
2.795408 0.281196 1.134586 29.000000
2.849163 0.253631 1.155369 32.000000
2.870192 0.222490 1.163238 21.000000
2.900124 0.191537 1.174955 30.000000
2.966933 0.161874 1.201288 32.000000
2.991555 0.128932 1.210856 30.000000
3.011368 0.095215 1.218452 30.000000
3.058502 0.061734 1.237500 34.000000
3.100617 0.027154 1.254579 26.000000
3.119259 -0.008421 1.262080 30.000000
3.137592 -0.044317 1.269478 31.000000
3.155506 -0.080636 1.276771 32.000000
3.200683 -0.118407 1.295414 29.000000
3.236245 -0.156789 1.310198 26.000000
3.299104 -0.197790 1.336331 32.000000
3.338435 -0.238405 1.352648 27.000000
3.377150 -0.279970 1.369175 24.000000
3.406110 -0.321726 1.382173 33.000000
3.448611 -0.365463 1.400331 28.000000
3.421364 -0.402247 1.390517 30.000000
3.393723 -0.438390 1.380597 28.000000
3.356626 -0.472602 1.366721 27.000000
3.342214 -0.509575 1.362203 29.000000
3.313546 -0.544083 1.352197 25.000000
3.289087 -0.578760 1.343958 19.000000
3.259809 -0.612053 1.333752 29.000000
3.212097 -0.641084 1.315994 23.000000
3.209419 -0.678887 1.317102 27.000000
3.165530 -0.707469 1.301346 29.000000
3.144298 -0.740328 1.294380 28.000000
3.126791 -0.774206 1.289919 28.000000
3.104840 -0.806392 1.283183 24.000000
3.060139 -0.832073 1.266973 13.000000
3.032893 -0.862115 1.258516 26.000000
3.009900 -0.892861 1.251821 24.000000
2.982246 -0.921826 1.243184 27.000000
2.958827 -0.951704 1.236307 28.000000
2.930684 -0.979600 1.227494 23.000000
2.933100 -1.017656 1.231503 29.000000
2.908563 -1.046673 1.224754 25.000000
2.853631 -1.063515 1.204638 10.000000
2.854754 -1.101319 1.208750 30.000000
2.821005 -1.125432 1.198070 26.000000
2.804249 -1.156042 1.194743 28.000000
2.778571 -1.182710 1.187562 27.000000
2.757075 -1.210756 1.182224 26.000000
2.739605 -1.240329 1.178524 29.000000
2.704903 -1.261832 1.167544 24.000000
2.627756 -1.262870 1.138694 9.000000
2.660031 -1.315484 1.156662 31.000000
2.632799 -1.339859 1.149570 29.000000
2.618384 -1.369752 1.147345 30.000000
2.603099 -1.400032 1.145604 32.000000
2.559051 -1.414232 1.131042 26.000000
2.563643 -1.455212 1.138036 29.000000
2.527479 -1.472975 1.127023 26.000000
2.467158 -1.475708 1.105183 10.000000
2.490780 -1.528511 1.121023 32.000000
2.450256 -1.542148 1.108008 24.000000
2.437342 -1.572778 1.107521 23.000000
2.412302 -1.595576 1.101593 13.000000
2.391053 -1.620534 1.097455 16.000000
2.388212 -1.659211 1.102471 27.000000
2.358747 -1.678316 1.094603 22.000000
2.291456 -1.669422 1.069118 10.000000
2.295187 -1.713032 1.077462 32.000000
2.265629 -1.730654 1.069486 25.000000
2.257366 -1.765701 1.072419 28.000000
2.238409 -1.791381 1.069618 32.000000
2.222050 -1.820405 1.068934 24.000000
2.209030 -1.852338 1.069888 29.000000
2.171431 -1.862038 1.058211 22.000000
2.140282 -1.878073 1.050413 10.000000
2.140393 -1.921798 1.058083 30.000000
2.115703 -1.943503 1.053649 25.000000
2.102005 -1.973745 1.053813 29.000000
2.063422 -1.981833 1.042444 30.000000
2.048289 -2.012395 1.042977 24.000000
2.029510 -2.039502 1.041696 27.000000
1.993979 -2.049551 1.031919 20.000000
1.974864 -2.076060 1.030550 11.000000
1.961713 -2.109260 1.032544 31.000000
1.935573 -2.128468 1.027687 25.000000
1.921748 -2.161404 1.029454 28.000000
1.895140 -2.180052 1.024597 27.000000
1.895900 -2.230771 1.034558 35.000000
1.889821 -2.274425 1.041109 35.000000
1.877036 -2.310887 1.044285 18.000000
1.784590 -2.247529 1.002788 13.000000
1.464972 -1.887617 0.831700 10.000000
1.296203 -1.708735 0.743597 12.000000
1.183934 -1.598985 0.687363 19.000000
1.163947 -1.608838 0.683295 28.000000
1.149373 -1.626159 0.682416 28.000000
1.123834 -1.627710 0.675002 32.000000
1.110626 -1.649148 0.675925 25.000000
1.092938 -1.661966 0.673361 20.000000
1.070002 -1.666553 0.667540 32.000000
1.062341 -1.694993 0.671287 25.000000
1.035672 -1.695666 0.664150 28.000000
1.022436 -1.715773 0.664622 28.000000
1.004128 -1.727593 0.661924 27.000000
0.989147 -1.748128 0.662551 27.000000
0.986554 -1.788670 0.670694 17.000000
1.055064 1.956051 0.747984 22.000000
1.075095 1.938598 0.749317 26.000000
1.091050 1.917514 0.749243 22.000000
1.104302 1.892312 0.747458 31.000000
1.120846 1.870421 0.747043 24.000000
1.135734 1.849139 0.746813 26.000000
1.155344 1.835692 0.749755 27.000000
1.185194 1.837842 0.759256 16.000000
1.185127 1.791646 0.748775 26.000000
1.204289 1.777691 0.751622 26.000000
1.228620 1.771210 0.757785 25.000000
1.244857 1.752861 0.758910 31.000000
1.260803 1.734368 0.760023 26.000000
1.279410 1.719511 0.762800 31.000000
1.304628 1.711239 0.768593 33.000000
1.322968 1.695829 0.771243 21.000000
1.332364 1.669248 0.768813 35.000000
1.350306 1.653523 0.771445 31.000000
1.371193 1.641196 0.775713 32.000000
1.388897 1.625020 0.778282 40.000000
1.406393 1.608635 0.780782 33.000000
1.417560 1.585044 0.779838 33.000000
1.441037 1.575240 0.785711 36.000000
1.454911 1.554875 0.786339 28.000000
1.481470 1.547856 0.793906 49.000000
1.487679 1.520930 0.791327 54.000000
1.507548 1.506646 0.795361 37.000000
1.534051 1.498689 0.802842 51.000000
1.547019 1.477286 0.803320 34.000000
1.563197 1.459016 0.805412 52.000000
1.578469 1.441095 0.807923 71.000000
1.587251 1.416182 0.806400 30.000000
1.609848 1.403579 0.811967 35.000000
1.628187 1.388131 0.816120 36.000000
1.639833 1.365854 0.816221 42.000000
1.661578 1.352851 0.822034 37.000000
1.683801 1.338979 0.827515 42.000000
1.709060 1.328152 0.835024 47.000000
1.727431 1.310722 0.838669 36.000000
1.756460 1.301816 0.847959 34.000000
1.759517 1.272797 0.844241 42.000000
1.769293 1.249773 0.844345 41.000000
1.778870 1.226553 0.844441 44.000000
1.807487 1.216346 0.853649 62.000000
1.824517 1.197905 0.857262 42.000000
1.845234 1.181740 0.862714 68.000000
1.854082 1.157788 0.862604 75.000000
1.890389 1.150706 0.875359 35.000000
1.906879 1.131070 0.878799 37.000000
1.927227 1.113520 0.884092 40.000000
1.939359 1.091008 0.885627 40.000000
1.963420 1.075115 0.892718 58.000000
1.983014 1.056978 0.898194 46.000000
2.006898 1.040196 0.905099 54.000000
2.030402 1.023425 0.912395 81.000000
2.041617 0.999649 0.913666 34.000000
2.064799 0.982073 0.920764 31.000000
2.092169 0.966077 0.929752 52.000000
2.106789 0.943781 0.933066 34.000000
2.121146 0.921310 0.936310 42.000000
2.143856 0.902108 0.943242 42.000000
2.175034 0.886028 0.953874 50.000000
2.184627 0.860885 0.955112 42.000000
2.198083 0.837468 0.958391 30.000000
2.224531 0.818359 0.967031 34.000000
2.246288 0.797379 0.973955 53.000000
2.263532 0.774601 0.978999 49.000000
2.293786 0.755728 0.989582 71.000000
2.306240 0.730681 0.992516 51.000000
2.349539 0.714795 1.008751 69.000000
2.370472 0.691619 1.015346 47.000000
2.382259 0.665648 1.018391 31.000000
2.407307 0.642826 1.026745 34.000000
2.436528 0.620898 1.037266 45.000000
2.474523 0.600470 1.051538 52.000000
2.471907 0.569892 1.048558 45.000000
2.504935 0.547497 1.061034 38.000000
2.542532 0.525160 1.075017 37.000000
2.570690 0.500416 1.085446 38.000000
2.571424 0.469997 1.084223 26.000000
2.630969 0.449799 1.107827 45.000000
2.649323 0.421814 1.114375 50.000000
2.672115 0.394011 1.122494 46.000000
2.699095 0.366409 1.132718 48.000000
2.725782 0.338283 1.142771 56.000000
2.756754 0.310056 1.155028 43.000000
2.805886 0.283050 1.174433 56.000000
2.785791 0.248740 1.165285 24.000000
2.885007 0.224352 1.205953 45.000000
2.891717 0.191555 1.208452 36.000000
2.925984 0.160068 1.221922 37.000000
2.955196 0.127738 1.233761 44.000000
2.979431 0.094530 1.243483 36.000000
3.044806 0.061633 1.270734 60.000000
3.068278 0.026890 1.280563 42.000000
3.077608 -0.008346 1.284415 53.000000
3.123543 -0.044213 1.303568 37.000000
3.159826 -0.081005 1.318658 52.000000
3.214117 -0.119329 1.341759 57.000000
3.244893 -0.157695 1.355020 47.000000
3.270489 -0.196632 1.366460 35.000000
3.323452 -0.238074 1.389004 34.000000
3.380489 -0.281165 1.413789 34.000000
3.395616 -0.321711 1.420920 36.000000
3.465217 -0.368422 1.451453 36.000000
3.419812 -0.403302 1.433354 35.000000
3.378633 -0.437715 1.417420 36.000000
3.355393 -0.473870 1.409066 34.000000
3.336214 -0.510303 1.402861 35.000000
3.321413 -0.547061 1.397910 35.000000
3.274365 -0.577881 1.379993 28.000000
3.254267 -0.612890 1.373367 33.000000
3.220200 -0.644756 1.360898 33.000000
3.185817 -0.675998 1.348661 32.000000
3.173887 -0.711455 1.345566 35.000000
3.138955 -0.741497 1.333033 32.000000
3.121677 -0.775269 1.328152 33.000000
3.117548 -0.812224 1.328890 33.000000
3.045966 -0.831135 1.301260 25.000000
3.014667 -0.859604 1.290286 31.000000
3.000613 -0.892942 1.287246 34.000000
2.968506 -0.920596 1.276611 32.000000
2.940745 -0.948956 1.267687 32.000000
2.908314 -0.975339 1.256782 31.000000
2.901960 -1.010245 1.257057 32.000000
2.903876 -1.048192 1.261210 32.000000
2.870492 -1.073568 1.250442 30.000000
2.832864 -1.096269 1.237307 28.000000
2.807852 -1.123838 1.230154 33.000000
2.765333 -1.143728 1.215390 30.000000
2.748454 -1.173747 1.211835 31.000000
2.739704 -1.207209 1.212039 32.000000
2.696951 -1.225328 1.197052 29.000000
2.675097 -1.252305 1.191459 29.000000
2.661392 -1.282923 1.189515 27.000000
2.642851 -1.311769 1.185998 30.000000
2.632718 -1.344061 1.185724 35.000000
2.576655 -1.353098 1.165388 32.000000
2.566103 -1.384674 1.165043 32.000000
2.542552 -1.409875 1.159422 35.000000
2.514777 -1.432398 1.151869 32.000000
2.503008 -1.463833 1.151719 31.000000
2.470880 -1.483209 1.142255 28.000000
2.458472 -1.514218 1.141918 31.000000
2.437863 -1.540066 1.137808 34.000000
2.444453 -1.583435 1.146527 28.000000
2.392174 -1.588349 1.127595 16.000000
2.371002 -1.613315 1.123324 25.000000
2.345784 -1.635247 1.117241 27.000000
2.327983 -1.662136 1.114711 27.000000
2.309246 -1.689493 1.112463 26.000000
2.276051 -1.704735 1.102609 30.000000
2.260577 -1.734380 1.102086 35.000000
2.227253 -1.748682 1.092092 30.000000
2.225896 -1.789420 1.098660 29.000000
2.206659 -1.814821 1.095672 35.000000
2.179343 -1.834579 1.089578 29.000000
2.173865 -1.871624 1.093631 26.000000
2.142546 -1.887745 1.085677 23.000000
2.100735 -1.894041 1.072247 26.000000
2.094460 -1.930538 1.076176 32.000000
2.086703 -1.967912 1.080345 26.000000
2.061634 -1.988981 1.075688 28.000000
2.039689 -2.013074 1.072700 36.000000
2.017557 -2.036887 1.069711 30.000000
2.009219 -2.073041 1.073225 25.000000
1.967216 -2.076025 1.059607 20.000000
1.938037 -2.092041 1.052979 25.000000
1.940415 -2.142408 1.063638 31.000000
1.901450 -2.147394 1.051741 28.000000
1.893418 -2.187244 1.056964 27.000000
1.933375 -2.284553 1.089498 98.000000
1.923473 -2.325212 1.094425 95.000000
1.948462 -2.409710 1.119685 110.000000
1.837820 -2.325201 1.066759 98.000000
1.461616 -1.892210 0.857234 10.000000
1.295424 -1.718143 0.768803 22.000000
1.187466 -1.611843 0.712440 16.000000
1.150814 -1.598817 0.698155 24.000000
1.136305 -1.616068 0.697332 26.000000
1.118915 -1.629238 0.694710 28.000000
1.096139 -1.634378 0.688786 26.000000
1.082664 -1.655643 0.689723 16.000000
1.072515 -1.680118 0.692022 22.000000
1.057048 -1.696621 0.690951 27.000000
1.034063 -1.700805 0.684922 21.000000
1.026713 -1.733745 0.690521 23.000000
1.010489 -1.749803 0.689340 22.000000
0.991790 -1.761597 0.686539 20.000000
0.971592 -1.773846 0.683932 16.000000
1.068518 1.939949 0.770527 26.000000
1.077659 1.906523 0.765427 31.000000
1.096955 1.888850 0.766674 31.000000
1.109851 1.863626 0.764795 29.000000
1.129645 1.850360 0.767883 35.000000
1.144371 1.828967 0.767620 29.000000
1.165127 1.814641 0.770345 29.000000
1.184485 1.800803 0.773350 32.000000
1.198517 1.778884 0.772896 31.000000
1.217582 1.764620 0.775748 36.000000
1.241861 1.757824 0.782086 33.000000
1.255225 1.735466 0.781523 32.000000
1.279459 1.728053 0.787747 40.000000
1.292380 1.705408 0.787090 30.000000
1.313624 1.693737 0.791535 32.000000
1.324121 1.666477 0.788764 32.000000
1.342132 1.650752 0.791396 35.000000
1.368922 1.645691 0.799276 73.000000
1.379663 1.622937 0.798694 35.000000
1.397228 1.606552 0.801263 36.000000
1.411545 1.586465 0.801996 52.000000
1.435089 1.576615 0.808033 35.000000
1.452206 1.559637 0.810469 43.000000
1.472405 1.545764 0.814687 34.000000
1.482763 1.521573 0.813482 57.000000
1.509242 1.513854 0.821152 53.000000
1.524966 1.496523 0.823807 51.000000
1.544755 1.481650 0.827847 67.000000
1.560933 1.463300 0.830018 72.000000
1.576342 1.445301 0.832540 56.000000
1.588771 1.423423 0.832823 66.000000
1.607929 1.407550 0.836742 28.000000
1.619241 1.385964 0.837295 44.000000
1.638045 1.369660 0.841084 62.000000
1.656213 1.353622 0.845163 36.000000
1.671164 1.333899 0.847058 54.000000
1.692670 1.320242 0.852926 40.000000
1.706769 1.300573 0.855112 35.000000
1.724946 1.283042 0.858729 51.000000
1.761183 1.279345 0.871932 29.000000
1.756001 1.245386 0.864619 37.000000
1.777009 1.230204 0.870266 75.000000
1.801831 1.217299 0.877801 35.000000
1.814928 1.196259 0.879661 49.000000
1.835675 1.180015 0.885209 61.000000
1.868091 1.170898 0.896349 36.000000
1.868948 1.141794 0.892432 61.000000
1.905154 1.134131 0.905434 29.000000
1.921509 1.114087 0.908935 40.000000
1.933667 1.091601 0.910474 51.000000
1.953344 1.073791 0.916106 37.000000
1.977343 1.057385 0.923288 54.000000
1.992618 1.036725 0.926897 72.000000
2.012285 1.017461 0.932052 35.000000
2.043886 1.004415 0.943257 55.000000
2.067070 0.986687 0.950586 26.000000
2.077666 0.962771 0.952100 33.000000
2.100664 0.944305 0.959305 48.000000
2.115097 0.921783 0.962601 35.000000
2.133515 0.900729 0.967753 35.000000
2.156051 0.881145 0.974770 37.000000
2.173951 0.859802 0.980177 31.000000
2.196231 0.839365 0.987067 32.000000
2.200779 0.812477 0.986452 28.000000
2.235444 0.796358 0.999416 36.000000
2.270153 0.779481 1.012252 58.000000
2.287247 0.756058 1.017335 55.000000
2.321640 0.738014 1.030055 36.000000
2.347246 0.716430 1.038820 82.000000
2.359391 0.690559 1.041665 35.000000
2.371075 0.664587 1.044759 35.000000
2.418101 0.647959 1.063413 28.000000
2.447279 0.625767 1.074192 35.000000
2.458450 0.598625 1.077072 35.000000
2.482754 0.574322 1.085666 48.000000
2.497741 0.547720 1.090604 34.000000
2.530612 0.524388 1.102973 55.000000
2.554237 0.498756 1.111687 33.000000
2.573072 0.471794 1.118274 31.000000
2.609648 0.447627 1.132998 34.000000
2.641628 0.421829 1.145244 40.000000
2.645979 0.391457 1.145954 35.000000
2.695598 0.367200 1.166277 42.000000
2.722282 0.338964 1.176583 37.000000
2.766928 0.312173 1.194690 43.000000
2.788356 0.282214 1.203134 39.000000
2.800393 0.250922 1.207546 33.000000
2.867033 0.223612 1.235456 33.000000
2.882981 0.191572 1.241857 35.000000
2.912516 0.159874 1.253799 40.000000
2.941601 0.127543 1.265940 36.000000
2.970320 0.094479 1.277888 37.000000
3.021623 0.061346 1.299915 35.000000
3.035803 0.026728 1.305943 32.000000
3.072647 -0.008371 1.321851 32.000000
3.118369 -0.044344 1.341402 41.000000
3.122339 -0.080310 1.343170 33.000000
3.185457 -0.118604 1.370718 35.000000
3.225266 -0.157364 1.388279 36.000000
3.255430 -0.196416 1.402103 33.000000
3.303556 -0.237414 1.423275 31.000000
3.337320 -0.278536 1.438734 28.000000
3.402697 -0.323434 1.467883 36.000000
3.444750 -0.367359 1.486923 36.000000
3.417678 -0.404352 1.476719 35.000000
3.381095 -0.439521 1.462352 30.000000
3.344263 -0.473955 1.447884 34.000000
3.325364 -0.510331 1.441080 34.000000
3.296770 -0.544895 1.430682 31.000000
3.254678 -0.576310 1.413842 23.000000
3.220989 -0.608600 1.401173 30.000000
3.196212 -0.641969 1.392339 32.000000
3.184358 -0.677902 1.389619 32.000000
3.141006 -0.706451 1.372742 29.000000
3.137578 -0.743721 1.373740 36.000000
3.097987 -0.771982 1.358963 31.000000
3.080507 -0.805341 1.353886 29.000000
3.053882 -0.835854 1.344695 23.000000
3.000493 -0.858259 1.323805 26.000000
2.995284 -0.894234 1.324618 29.000000
2.963251 -0.921999 1.313629 34.000000
2.931060 -0.949050 1.302557 30.000000
2.889987 -0.972555 1.287514 30.000000
2.874930 -1.004269 1.284056 31.000000
2.855271 -1.034212 1.278562 27.000000
2.818015 -1.057279 1.265227 20.000000
2.806158 -1.089961 1.263832 31.000000
2.768626 -1.111735 1.250344 30.000000
2.760546 -1.145588 1.250793 33.000000
2.726686 -1.168440 1.239474 31.000000
2.722176 -1.203667 1.241558 33.000000
2.687891 -1.225488 1.230176 31.000000
2.666056 -1.252519 1.224384 26.000000
2.639858 -1.277151 1.216689 24.000000
2.625906 -1.307575 1.214655 31.000000
2.598841 -1.331871 1.207180 33.000000
2.580383 -1.359515 1.203056 36.000000
2.548814 -1.380747 1.193612 33.000000
2.533985 -1.409927 1.191315 35.000000
2.506245 -1.432507 1.183616 35.000000
2.482362 -1.456958 1.177734 27.000000
2.442438 -1.471478 1.164305 22.000000
2.437993 -1.507169 1.167803 31.000000
2.421369 -1.535410 1.165537 32.000000
2.412231 -1.568514 1.166933 29.000000
2.391129 -1.593896 1.162595 16.000000
2.365970 -1.616385 1.156392 28.000000
2.348336 -1.643731 1.153846 35.000000
2.319106 -1.662685 1.145712 25.000000
2.267414 -1.664706 1.126263 21.000000
2.267196 -1.705478 1.133318 32.000000
2.241376 -1.725822 1.126821 32.000000
2.233647 -1.760284 1.129477 35.000000
2.206708 -1.780780 1.123366 31.000000
2.191120 -1.808965 1.122224 34.000000
2.177994 -1.840796 1.123278 34.000000
2.147789 -1.856639 1.114709 27.000000
2.109598 -1.866438 1.102895 22.000000
2.095732 -1.897523 1.103763 32.000000
2.082472 -1.927750 1.104147 30.000000
2.071252 -1.961807 1.106598 33.000000
2.049494 -1.986180 1.103703 33.000000
2.071667 -2.052116 1.123619 103.000000
2.039229 -2.066468 1.115094 98.000000
1.997000 -2.070221 1.101141 28.000000
1.951818 -2.069834 1.085469 24.000000
1.922716 -2.085821 1.078662 29.000000
1.909228 -2.118748 1.080736 29.000000
1.889144 -2.144691 1.079151 33.000000
1.887024 -2.191610 1.088120 35.000000
1.915678 -2.273698 1.113982 103.000000
1.893948 -2.299696 1.112146 95.000000
1.901234 -2.361980 1.127630 100.000000
1.781394 -2.267118 1.068668 36.000000
1.439725 -1.875004 0.872787 20.000000
1.292688 -1.722931 0.792128 25.000000
1.188011 -1.620674 0.736017 25.000000
1.143096 -1.596329 0.716269 30.000000
1.123182 -1.605873 0.711947 29.000000
1.108527 -1.622862 0.710975 28.000000
1.091050 -1.635810 0.708360 27.000000
1.073447 -1.648566 0.705681 19.000000
1.057154 -1.665681 0.704876 26.000000
1.046758 -1.690099 0.707154 25.000000
1.021287 -1.690232 0.699378 26.000000
1.012771 -1.718438 0.703214 25.000000
1.004823 -1.751420 0.708914 24.000000
0.983711 -1.759121 0.704391 29.000000
1.045946 1.912235 0.779885 30.000000
1.081686 1.923490 0.792998 29.000000
1.088194 1.886024 0.786032 26.000000
1.101147 1.860748 0.784097 30.000000
1.123448 1.851499 0.788967 26.000000
1.143215 1.838063 0.792133 33.000000
1.156531 1.811775 0.789773 27.000000
1.178527 1.801793 0.794509 20.000000
1.197857 1.787716 0.797521 32.000000
1.209023 1.761768 0.795300 28.000000
1.225326 1.743463 0.796472 29.000000
1.249540 1.736413 0.802902 32.000000
1.265453 1.717654 0.803998 31.000000
1.286777 1.706288 0.808620 35.000000
1.302330 1.687178 0.809634 27.000000
1.326352 1.678923 0.815980 25.000000
1.338582 1.655867 0.815131 43.000000
1.347609 1.629075 0.812464 31.000000
1.374276 1.623651 0.820488 41.000000
1.388897 1.603706 0.821258 34.000000
1.403163 1.583624 0.822016 31.000000
1.426670 1.573762 0.828212 39.000000
1.442952 1.557341 0.830995 30.000000
1.466332 1.546910 0.837155 28.000000
1.470291 1.516012 0.832199 52.000000
1.493467 1.505017 0.838231 42.000000
1.522430 1.500812 0.848251 70.000000
1.538855 1.482632 0.850568 70.000000
1.551758 1.460989 0.850960 42.000000
1.567167 1.443060 0.853551 81.000000
1.579546 1.421186 0.853788 36.000000
1.601535 1.408932 0.860043 26.000000
1.610086 1.383728 0.858331 39.000000
1.635405 1.373940 0.866345 33.000000
1.643438 1.348508 0.864547 40.000000
1.665019 1.335111 0.870565 55.000000
1.683506 1.317986 0.874286 34.000000
1.701279 1.301198 0.878369 62.000000
1.733719 1.295112 0.889997 33.000000
1.732708 1.263936 0.884514 31.000000
1.757592 1.251656 0.892228 50.000000
1.767267 1.228426 0.892309 37.000000
1.792027 1.215510 0.899985 70.000000
1.812893 1.199564 0.905692 41.000000
1.825901 1.178219 0.907560 47.000000
1.862117 1.171538 0.920941 73.000000
1.874854 1.149630 0.922615 33.000000
1.887373 1.127576 0.924289 29.000000
1.911182 1.112695 0.932153 50.000000
1.927420 1.092481 0.935637 37.000000
1.947448 1.074177 0.941001 56.000000
1.962853 1.053802 0.944795 46.000000
1.974152 1.031055 0.946494 41.000000
2.010065 1.020210 0.959648 68.000000
2.016856 0.994848 0.959257 31.000000
2.048258 0.981276 0.970648 26.000000
2.071314 0.963271 0.978059 35.000000
2.077515 0.937190 0.977529 32.000000
2.100283 0.918493 0.984812 36.000000
2.127173 0.901142 0.994011 46.000000
2.140862 0.878324 0.997603 35.000000
2.171809 0.861718 1.008664 50.000000
2.176611 0.834988 1.008155 26.000000
2.198432 0.814500 1.015435 28.000000
2.228683 0.796723 1.026709 57.000000
2.250273 0.775301 1.033866 37.000000
2.271643 0.753497 1.041037 61.000000
2.314706 0.738277 1.058043 52.000000
2.331396 0.714031 1.063010 44.000000
2.352135 0.690955 1.070229 50.000000
2.359401 0.663689 1.071371 32.000000
2.379937 0.639745 1.078118 28.000000
2.413369 0.618989 1.091055 43.000000
2.450897 0.598789 1.106355 34.000000
2.461831 0.571406 1.109121 35.000000
2.490165 0.547940 1.120187 54.000000
2.518521 0.523616 1.130843 35.000000
2.541974 0.497979 1.139669 36.000000
2.556069 0.470358 1.144736 30.000000
2.601677 0.447700 1.163491 31.000000
2.638141 0.422655 1.178052 53.000000
2.651557 0.393522 1.182801 44.000000
2.673798 0.365329 1.191505 36.000000
2.709164 0.338418 1.206462 57.000000
2.758249 0.312225 1.226948 42.000000
2.779595 0.282211 1.235593 39.000000
2.773377 0.249321 1.232013 25.000000
2.848911 0.222969 1.264668 32.000000
2.864886 0.190884 1.270929 35.000000
2.903225 0.159835 1.287508 62.000000
2.923047 0.127148 1.295801 34.000000
2.960870 0.094526 1.312097 40.000000
3.011836 0.061339 1.334773 36.000000
3.035194 0.026748 1.345001 34.000000
3.062620 -0.008383 1.357257 36.000000
3.085270 -0.043980 1.367180 33.000000
3.130350 -0.080796 1.387225 37.000000
3.184125 -0.119010 1.411421 39.000000
3.214600 -0.157373 1.425381 36.000000
3.253737 -0.196919 1.443168 48.000000
3.301504 -0.238071 1.465322 34.000000
3.348749 -0.280380 1.487249 27.000000
3.386462 -0.322980 1.505006 47.000000
3.428298 -0.366899 1.524659 35.000000
3.383170 -0.401738 1.506006 35.000000
3.356061 -0.437659 1.494995 35.000000
3.323921 -0.472526 1.482201 31.000000
3.291418 -0.506654 1.469197 33.000000
3.285642 -0.544756 1.468641 31.000000
3.216356 -0.571540 1.439745 18.000000
3.237122 -0.613696 1.450525 34.000000
3.185336 -0.642007 1.429512 31.000000
3.146637 -0.672149 1.414667 30.000000
3.130305 -0.706391 1.409466 33.000000
3.117935 -0.741592 1.406494 33.000000
3.092047 -0.772932 1.396970 34.000000
3.074584 -0.806398 1.391791 32.000000
2.981449 -0.819031 1.352863 19.000000
3.003314 -0.862282 1.365436 29.000000
2.971895 -0.890257 1.353876 31.000000
2.926977 -0.913730 1.336755 29.000000
2.907947 -0.944890 1.331435 33.000000
2.871400 -0.969674 1.318046 29.000000
2.860709 -1.002958 1.316533 31.000000
2.862548 -1.040641 1.320887 32.000000
2.816848 -1.060735 1.303272 20.000000
2.779579 -1.083168 1.289566 31.000000
2.758865 -1.112069 1.284115 33.000000
2.734183 -1.138415 1.276202 30.000000
2.725707 -1.172018 1.276505 36.000000
2.700098 -1.198070 1.268909 32.000000
2.695210 -1.233192 1.270985 36.000000
2.660840 -1.254590 1.259277 34.000000
2.626390 -1.275407 1.247404 25.000000
2.612340 -1.305734 1.245370 37.000000
2.581346 -1.327935 1.235792 35.000000
