x y z intensity
0.801782 -0.486437 -0.795889 95.000000
0.793364 -0.495264 -0.791158 95.000000
0.787682 -0.506217 -0.789925 100.000000
0.782373 -0.516872 -0.788280 95.000000
0.770165 -0.523331 -0.780510 56.000000
0.789928 -0.551284 -0.804444 95.000000
0.786923 -0.564401 -0.806111 76.000000
0.786851 -0.579810 -0.810919 95.000000
0.783568 -0.592948 -0.812478 81.000000
0.777070 -0.603726 -0.810766 78.000000
0.779559 -0.621655 -0.818493 81.000000
0.772827 -0.632363 -0.816682 50.000000
0.760117 -0.638008 -0.808437 42.000000
0.765091 -0.658569 -0.819125 95.000000
0.755193 -0.666509 -0.813959 66.000000
0.750452 -0.679755 -0.815317 84.000000
0.754786 -0.700646 -0.825725 47.000000
0.746851 -0.711280 -0.823832 77.000000
0.745121 -0.727019 -0.827759 78.000000
0.753586 -0.754126 -0.844397 76.000000
0.747942 -0.767563 -0.845377 46.000000
0.750955 -0.789249 -0.855227 39.000000
0.736889 -0.794041 -0.846828 65.000000
0.733499 -0.810298 -0.850663 67.000000
0.727239 -0.823658 -0.851400 63.000000
0.720872 -0.836923 -0.852036 71.000000
0.714355 -0.850177 -0.852612 63.000000
0.712768 -0.869520 -0.859200 34.000000
0.705926 -0.882733 -0.859592 47.000000
0.712847 -0.915103 -0.878382 30.000000
0.691042 -0.909329 -0.860540 54.000000
0.683736 -0.922406 -0.860790 44.000000
0.695150 -0.961359 -0.884893 52.000000
0.686350 -0.974939 -0.885254 37.000000
0.689767 -1.004668 -0.900086 34.000000
0.432246 0.646377 -0.562998 75.000000
0.434383 0.633469 -0.559018 77.000000
0.448545 0.636874 -0.569582 63.000000
0.452812 0.627158 -0.568506 68.000000
0.452774 0.610755 -0.561238 68.000000
0.461577 0.607492 -0.566034 95.000000
0.470418 0.604074 -0.570791 82.000000
0.462331 0.578379 -0.554356 36.000000
0.476053 0.581103 -0.565067 95.000000
0.471988 0.562113 -0.554673 71.000000
0.483192 0.561440 -0.562320 95.000000
0.478689 0.542645 -0.551782 95.000000
0.487211 0.538813 -0.556349 94.000000
0.490325 0.529010 -0.554809 98.000000
0.490649 0.516330 -0.550140 80.000000
0.490766 0.503748 -0.545413 84.000000
0.473585 0.474675 -0.522404 53.000000
0.475983 0.465230 -0.520595 79.000000
0.464059 0.442246 -0.503281 98.000000
0.534705 0.497383 -0.575858 95.000000
1.231046 1.034841 -1.287311 16.000000
1.238970 1.015459 -1.287197 16.000000
1.252798 1.000893 -1.293221 16.000000
1.257352 0.978893 -1.289696 18.000000
1.255493 0.952182 -1.279839 13.000000
1.268894 0.937200 -1.285538 21.000000
1.275936 0.917552 -1.284919 13.000000
1.276470 0.893308 -1.277823 10.000000
1.286309 0.875782 -1.280098 15.000000
1.298501 0.860571 -1.285987 17.000000
1.285392 0.828093 -1.265765 18.000000
1.290734 0.808665 -1.265054 24.000000
1.293293 0.786906 -1.260528 16.000000
1.301590 0.769411 -1.262813 26.000000
1.299793 0.746072 -1.255345 18.000000
1.307788 0.728471 -1.257374 11.000000
1.322333 0.714387 -1.265784 16.000000
1.326744 0.694685 -1.264418 16.000000
1.337745 0.678467 -1.269382 21.000000
1.344641 0.660537 -1.271541 21.000000
1.345077 0.639038 -1.266621 17.000000
1.348242 0.619432 -1.265286 24.000000
1.348314 0.598021 -1.260159 14.000000
1.344116 0.575479 -1.252119 10.000000
0.852480 0.338983 -0.788967 31.000000
0.785381 0.300467 -0.724542 94.000000
0.785148 0.288592 -0.721986 95.000000
0.795145 0.280690 -0.729473 98.000000
0.794730 0.268760 -0.726812 95.000000
0.801066 0.259321 -0.730902 98.000000
0.814601 0.251981 -0.741528 98.000000
0.792211 0.233550 -0.718928 82.000000
0.809198 0.227063 -0.732706 95.000000
0.793184 0.211460 -0.717109 95.000000
0.791863 0.199961 -0.714283 95.000000
0.794082 0.189365 -0.714680 95.000000
0.799637 0.179626 -0.718606 95.000000
0.805411 0.169724 -0.722169 95.000000
0.807148 0.158997 -0.722671 81.000000
0.812512 0.148947 -0.726373 62.000000
0.832626 0.141277 -0.743259 88.000000
0.834171 0.130188 -0.743534 95.000000
0.831660 0.118604 -0.740742 95.000000
0.833027 0.107529 -0.740879 98.000000
0.837776 0.096886 -0.744564 98.000000
0.838737 0.085762 -0.744839 100.000000
0.832133 0.073975 -0.738422 100.000000
0.829180 0.062634 -0.735246 49.000000
0.826153 0.051392 -0.732002 88.000000
0.830501 0.040582 -0.735314 85.000000
0.830806 0.029572 -0.735517 95.000000
0.842205 0.018814 -0.745594 86.000000
0.861061 0.007791 -0.762233 103.000000
0.849864 -0.003568 -0.752291 103.000000
0.846086 -0.014794 -0.748908 98.000000
0.845948 -0.026002 -0.748735 100.000000
0.845741 -0.037209 -0.748494 105.000000
0.837710 -0.048022 -0.741870 95.000000
0.837061 -0.059131 -0.741768 88.000000
0.821408 -0.068985 -0.728387 95.000000
0.854207 -0.083163 -0.757941 98.000000
0.827216 -0.091597 -0.734467 103.000000
0.848599 -0.105309 -0.753935 100.000000
0.850958 -0.117128 -0.757067 100.000000
0.849840 -0.128379 -0.756543 100.000000
0.848337 -0.139666 -0.756228 100.000000
0.839335 -0.149634 -0.749243 64.000000
0.845052 -0.162169 -0.755390 98.000000
0.843305 -0.173385 -0.754831 98.000000
0.841209 -0.184637 -0.754551 100.000000
0.839287 -0.195784 -0.753852 100.000000
0.836981 -0.207000 -0.753398 100.000000
0.834605 -0.218147 -0.752909 98.000000
0.832473 -0.229189 -0.752000 95.000000
0.833546 -0.241315 -0.754617 95.000000
0.823411 -0.250280 -0.747638 95.000000
0.824332 -0.262384 -0.750113 95.000000
0.821536 -0.273321 -0.749275 100.000000
0.821965 -0.285605 -0.751880 98.000000
0.811895 -0.293906 -0.744368 95.000000
0.812102 -0.306097 -0.746864 98.000000
0.805181 -0.315580 -0.742767 98.000000
0.808734 -0.329228 -0.748370 74.000000
0.819157 -0.345951 -0.760421 95.000000
0.822413 -0.359927 -0.765840 98.000000
0.821703 -0.372591 -0.768254 98.000000
0.814311 -0.381930 -0.763824 95.000000
0.809954 -0.392913 -0.762888 98.000000
0.805884 -0.403680 -0.761555 95.000000
0.797987 -0.412799 -0.757252 71.000000
0.800186 -0.427161 -0.762576 95.000000
0.818980 -0.450873 -0.783871 95.000000
0.814066 -0.461893 -0.782568 95.000000
0.805761 -0.470901 -0.777989 100.000000
0.800718 -0.481691 -0.776580 95.000000
0.801701 -0.496684 -0.781775 100.000000
0.799718 -0.509522 -0.783427 98.000000
0.797202 -0.522561 -0.785292 90.000000
0.791737 -0.533227 -0.783596 91.000000
0.795326 -0.550652 -0.791664 61.000000
0.792380 -0.563731 -0.793337 95.000000
0.792439 -0.579110 -0.798076 82.000000
0.792284 -0.594582 -0.802750 81.000000
0.788906 -0.607773 -0.804180 95.000000
0.782305 -0.618516 -0.802422 80.000000
0.781724 -0.634056 -0.806840 76.000000
0.774953 -0.644724 -0.804951 68.000000
0.777034 -0.662855 -0.812319 35.000000
0.766519 -0.671106 -0.807541 87.000000
0.765299 -0.686782 -0.811634 86.000000
0.757544 -0.697457 -0.809835 83.000000
0.758899 -0.715835 -0.816884 80.000000
0.776395 -0.751100 -0.842620 51.000000
0.765230 -0.759148 -0.837504 79.000000
0.754707 -0.766702 -0.832029 49.000000
0.754471 -0.785816 -0.839024 29.000000
0.745869 -0.796349 -0.836800 81.000000
0.742502 -0.812622 -0.840561 57.000000
0.738965 -0.828962 -0.844288 53.000000
0.735215 -0.845324 -0.847897 40.000000
0.726125 -0.855614 -0.845453 46.000000
0.719458 -0.868857 -0.845923 52.000000
0.715244 -0.885160 -0.849322 35.000000
0.702534 -0.892407 -0.843999 27.000000
0.710220 -0.924570 -0.862132 57.000000
0.698070 -0.931348 -0.856381 36.000000
0.706426 -0.967597 -0.877504 63.000000
0.703308 -0.987442 -0.883392 37.000000
0.696661 -1.004393 -0.886609 42.000000
0.690698 -1.020972 -0.889373 41.000000
0.435772 0.661280 -0.560071 42.000000
0.435765 0.644934 -0.553333 33.000000
0.456939 0.658550 -0.572489 54.000000
0.452549 0.635273 -0.559658 66.000000
0.459141 0.628857 -0.561504 39.000000
0.470525 0.628866 -0.569218 90.000000
0.477629 0.621998 -0.570846 36.000000
0.474159 0.602563 -0.560844 40.000000
0.470364 0.583350 -0.550768 38.000000
0.471904 0.570311 -0.546278 59.000000
0.490928 0.579003 -0.562795 95.000000
0.497100 0.572110 -0.564439 62.000000
0.503214 0.565131 -0.566025 95.000000
0.509299 0.558095 -0.567611 95.000000
0.496212 0.530537 -0.548061 81.000000
0.504719 0.526471 -0.552552 95.000000
0.516022 0.525083 -0.560002 32.000000
0.479422 0.475894 -0.515894 72.000000
0.481811 0.466442 -0.514122 98.000000
0.512467 0.484383 -0.542996 100.000000
1.266219 1.055236 -1.293072 19.000000
1.268198 1.030605 -1.286797 23.000000
1.263742 1.001160 -1.274215 13.000000
1.271240 0.981583 -1.273930 17.000000
1.281750 0.964253 -1.276621 19.000000
1.292136 0.946799 -1.279248 19.000000
1.302396 0.929156 -1.281750 17.000000
1.277316 0.886998 -1.249736 9.000000
1.303124 0.880483 -1.267678 14.000000
1.312864 0.862667 -1.269836 20.000000
1.311926 0.838823 -1.263037 15.000000
1.324522 0.823003 -1.268150 22.000000
1.316589 0.795260 -1.254740 19.000000
1.321551 0.775613 -1.253875 16.000000
1.343872 0.765259 -1.268250 19.000000
1.328330 0.734116 -1.248094 9.000000
1.342986 0.719952 -1.256435 16.000000
1.350761 0.701870 -1.258303 21.000000
1.354375 0.682238 -1.257402 20.000000
1.351520 0.658965 -1.249439 18.000000
1.372700 0.647324 -1.263788 20.000000
1.375898 0.627529 -1.262572 17.000000
1.379482 0.607406 -1.260687 16.000000
1.197204 0.490733 -1.087143 40.000000
0.868164 0.329816 -0.783402 32.000000
0.800011 0.292055 -0.719639 95.000000
0.806846 0.282632 -0.723550 100.000000
0.806102 0.270754 -0.721204 95.000000
0.812759 0.261167 -0.724985 95.000000
0.815459 0.250400 -0.725737 95.000000
0.810786 0.237460 -0.719935 51.000000
0.824318 0.229752 -0.730316 95.000000
0.801034 0.212026 -0.708127 95.000000
0.807048 0.202305 -0.711877 95.000000
0.813016 0.192487 -0.715530 98.000000
0.811192 0.180918 -0.712913 95.000000
0.809317 0.169448 -0.710190 98.000000
0.818756 0.160159 -0.716940 95.000000
0.831622 0.151387 -0.727125 67.000000
0.844431 0.142285 -0.737286 95.000000
0.841999 0.130600 -0.734608 98.000000
0.847190 0.119973 -0.738080 98.000000
0.844814 0.108284 -0.734951 98.000000
0.853363 0.098024 -0.741865 98.000000
0.850569 0.086385 -0.738873 95.000000
0.851431 0.075177 -0.739114 103.000000
0.840912 0.063086 -0.729439 60.000000
0.837852 0.051760 -0.726236 74.000000
0.846016 0.041084 -0.732778 95.000000
0.846289 0.029941 -0.732983 95.000000
0.842715 0.018715 -0.729847 95.000000
0.846631 0.007656 -0.733188 103.000000
0.876903 -0.003646 -0.759374 103.000000
0.827699 -0.014336 -0.716722 95.000000
0.854052 -0.026036 -0.739493 100.000000
0.831143 -0.036288 -0.719626 100.000000
0.857034 -0.048770 -0.742523 103.000000
0.848866 -0.059532 -0.735878 95.000000
0.859453 -0.071667 -0.745516 98.000000
0.836057 -0.080791 -0.725660 100.000000
0.857748 -0.094281 -0.744959 100.000000
0.860532 -0.106051 -0.747842 100.000000
0.862956 -0.117920 -0.750932 100.000000
0.861517 -0.129291 -0.750687 100.000000
0.860289 -0.140627 -0.750090 98.000000
0.854976 -0.151302 -0.746444 55.000000
0.853299 -0.162588 -0.745990 95.000000
0.858707 -0.175393 -0.752259 98.000000
0.853165 -0.185899 -0.748370 100.000000
0.851234 -0.197130 -0.747704 100.000000
0.852609 -0.209301 -0.750496 98.000000
0.850248 -0.220581 -0.749967 103.000000
0.847780 -0.231825 -0.749368 98.000000
0.841583 -0.241982 -0.745457 71.000000
0.842599 -0.254172 -0.747958 95.000000
0.839885 -0.265310 -0.747183 100.000000
0.836783 -0.276484 -0.746584 98.000000
0.826673 -0.284992 -0.739176 98.000000
0.823423 -0.295999 -0.738477 95.000000
0.823685 -0.308276 -0.740930 95.000000
0.823847 -0.320614 -0.743306 95.000000
0.827424 -0.334411 -0.748852 36.000000
0.834441 -0.349808 -0.757486 86.000000
0.834216 -0.362393 -0.759611 98.000000
0.829985 -0.373567 -0.758815 98.000000
0.829564 -0.386147 -0.760782 100.000000
0.825170 -0.397260 -0.759838 95.000000
0.820740 -0.408300 -0.758821 95.000000
0.816563 -0.419122 -0.757441 95.000000
0.828972 -0.439051 -0.772167 58.000000
0.830972 -0.453842 -0.777289 94.000000
0.826038 -0.464908 -0.775980 98.000000
0.817305 -0.474180 -0.771771 95.000000
0.815570 -0.487039 -0.773476 98.000000
0.810411 -0.497918 -0.772018 98.000000
0.808051 -0.510948 -0.773893 98.000000
0.802683 -0.521684 -0.772278 95.000000
0.806583 -0.539026 -0.780329 50.000000
0.823086 -0.565391 -0.800781 81.000000
0.810454 -0.572019 -0.793014 95.000000
0.810508 -0.587578 -0.797656 95.000000
0.807243 -0.600854 -0.799125 95.000000
0.810040 -0.618896 -0.806708 98.000000
0.800285 -0.627424 -0.801827 91.000000
0.790503 -0.635749 -0.796920 80.000000
0.780694 -0.643872 -0.791949 33.000000
0.785397 -0.664846 -0.802602 60.000000
0.781371 -0.678027 -0.803678 84.000000
0.782554 -0.696668 -0.811101 95.000000
0.772390 -0.704553 -0.805906 98.000000
0.790557 -0.739569 -0.831422 95.000000
0.791580 -0.758436 -0.838200 95.000000
0.785994 -0.772173 -0.839166 71.000000
0.777499 -0.782993 -0.837053 34.000000
0.771694 -0.796637 -0.837869 33.000000
0.765743 -0.810188 -0.838626 52.000000
0.759601 -0.823730 -0.839325 52.000000
0.753352 -0.837220 -0.839964 48.000000
0.744348 -0.847639 -0.837563 47.000000
0.740448 -0.864079 -0.841063 69.000000
0.736418 -0.880492 -0.844441 36.000000
0.726242 -0.891060 -0.842180 33.000000
0.731896 -0.920076 -0.857201 30.000000
0.739589 -0.952621 -0.875048 34.000000
0.711604 -0.940635 -0.852006 42.000000
0.723450 -0.979935 -0.875427 41.000000
0.722705 -1.003206 -0.884131 45.000000
0.704321 -1.003640 -0.872742 37.000000
0.704487 -1.030724 -0.884438 33.000000
0.693795 -1.040622 -0.881356 32.000000
0.455261 0.683746 -0.570282 23.000000
0.455947 0.666937 -0.563501 27.000000
0.472198 0.673916 -0.576936 16.000000
0.465422 0.647134 -0.561410 29.000000
0.465381 0.630557 -0.554443 25.000000
0.479288 0.633804 -0.564981 25.000000
0.488893 0.630085 -0.569493 31.000000
0.472722 0.594676 -0.545084 10.000000
0.476409 0.584940 -0.543843 32.000000
0.480425 0.574992 -0.542387 26.000000
0.491782 0.574445 -0.549877 26.000000
0.503185 0.573696 -0.557402 35.000000
0.503909 0.560720 -0.553073 28.000000
0.509901 0.553730 -0.554614 32.000000
0.524112 0.555423 -0.565048 33.000000
0.521743 0.539520 -0.557610 26.000000
0.485246 0.489603 -0.514221 29.000000
0.482017 0.474461 -0.506515 23.000000
0.507353 0.487158 -0.528811 90.000000
0.614655 0.575633 -0.635486 95.000000
1.153302 0.978022 -1.158592 10.000000
1.270420 1.050854 -1.268135 10.000000
1.269897 1.023399 -1.258393 10.000000
1.280710 1.006299 -1.261285 12.000000
1.285066 0.984210 -1.257915 10.000000
1.292416 0.964522 -1.257530 10.000000
1.315454 0.956310 -1.272476 14.000000
1.300108 0.920359 -1.250299 9.000000
1.303588 0.898350 -1.246523 10.000000
1.316686 0.882949 -1.251897 10.000000
1.319799 0.860850 -1.247846 10.000000
1.332613 0.845097 -1.253041 12.000000
1.334627 0.823281 -1.249331 10.000000
1.337164 0.801215 -1.244988 11.000000
1.345505 0.783437 -1.247301 16.000000
1.353785 0.765537 -1.249493 10.000000
1.351642 0.741896 -1.242153 10.000000
1.356125 0.722061 -1.241005 11.000000
1.360447 0.702197 -1.239727 12.000000
1.375027 0.687513 -1.247772 19.000000
1.382580 0.669144 -1.249464 14.000000
1.382932 0.647368 -1.244717 13.000000
1.396598 0.632346 -1.252969 16.000000
1.393094 0.609025 -1.244856 10.000000
1.296183 0.547089 -1.154551 24.000000
0.865689 0.313884 -0.761645 30.000000
0.821843 0.285948 -0.720906 90.000000
0.821365 0.273834 -0.718300 98.000000
0.824146 0.263054 -0.719158 98.000000
0.826859 0.252239 -0.719913 95.000000
0.822401 0.239108 -0.713923 53.000000
0.832317 0.230335 -0.720978 95.000000
0.823659 0.216458 -0.711907 98.000000
0.814600 0.202907 -0.703055 95.000000
0.820569 0.193057 -0.706702 95.000000
0.830197 0.183871 -0.713465 98.000000
0.828312 0.172218 -0.710824 100.000000
0.830065 0.161359 -0.711297 95.000000
0.854575 0.154483 -0.730781 84.000000
0.855961 0.143330 -0.731439 98.000000
0.861297 0.132689 -0.734940 98.000000
0.862758 0.121382 -0.735183 100.000000
0.864150 0.110041 -0.735322 100.000000
0.869023 0.099167 -0.738932 100.000000
0.866168 0.087393 -0.735983 100.000000
0.863269 0.075717 -0.732998 98.000000
0.852646 0.063574 -0.723447 91.000000
0.857140 0.052631 -0.726746 95.000000
0.857758 0.041405 -0.726746 95.000000
0.858032 0.030178 -0.726952 100.000000
0.877310 0.019373 -0.743246 100.000000
0.885081 0.007965 -0.749780 103.000000
0.888931 -0.003662 -0.753012 103.000000
0.877415 -0.015091 -0.743211 103.000000
0.865867 -0.026221 -0.733379 105.000000
0.873251 -0.037878 -0.739596 103.000000
0.868881 -0.049089 -0.736366 100.000000
0.860639 -0.059935 -0.729803 95.000000
0.878939 -0.072751 -0.745773 98.000000
0.870526 -0.083548 -0.739071 100.000000
0.877212 -0.095733 -0.745209 103.000000
0.872432 -0.106760 -0.741597 100.000000
0.874886 -0.118715 -0.744645 103.000000
0.873476 -0.130170 -0.744398 100.000000
0.875735 -0.142239 -0.747302 100.000000
0.855545 -0.150327 -0.730504 68.000000
0.864922 -0.163754 -0.739983 100.000000
0.866920 -0.175816 -0.742671 98.000000
0.865087 -0.187166 -0.742072 100.000000
0.859131 -0.197656 -0.738473 98.000000
0.860575 -0.209865 -0.741226 100.000000
0.858460 -0.221109 -0.740380 98.000000
0.856028 -0.232354 -0.739781 98.000000
0.853455 -0.243598 -0.739111 56.000000
0.857893 -0.257084 -0.745084 95.000000
0.855156 -0.268318 -0.744266 98.000000
0.852347 -0.279518 -0.743377 98.000000
0.841859 -0.288257 -0.736327 95.000000
0.842246 -0.300656 -0.738806 95.000000
0.835267 -0.310427 -0.734846 95.000000
0.839050 -0.324208 -0.740355 95.000000
0.849838 -0.341020 -0.752125 32.000000
0.856897 -0.356653 -0.760620 82.000000
0.849497 -0.366399 -0.756393 88.000000
0.852377 -0.380828 -0.761877 95.000000
0.837808 -0.387128 -0.751195 81.000000
0.840454 -0.401624 -0.756518 86.000000
0.829020 -0.409317 -0.749197 76.000000
0.827944 -0.422086 -0.751251 79.000000
0.819832 -0.431251 -0.746982 32.000000
0.849397 -0.460686 -0.777081 83.000000
0.837630 -0.468157 -0.769538 69.000000
0.829215 -0.477282 -0.765027 95.000000
0.820767 -0.486205 -0.760490 71.000000
0.818598 -0.499301 -0.762410 81.000000
0.820004 -0.514232 -0.767088 95.000000
0.814200 -0.525237 -0.765769 58.000000
0.811631 -0.538337 -0.767507 39.000000
0.838138 -0.571343 -0.796959 35.000000
0.825430 -0.578086 -0.789258 36.000000
0.819102 -0.589141 -0.787656 52.000000
0.812695 -0.600117 -0.786016 32.000000
0.812509 -0.615750 -0.790464 36.000000
0.812143 -0.631473 -0.794806 42.000000
0.802301 -0.639833 -0.789891 37.000000
0.794990 -0.650820 -0.788311 32.000000
0.821626 -0.689502 -0.819772 32.000000
0.796278 -0.684895 -0.799541 38.000000
0.818455 -0.722126 -0.827987 43.000000
0.807428 -0.730655 -0.823091 33.000000
0.805748 -0.746834 -0.826855 53.000000
0.797482 -0.757828 -0.824841 32.000000
0.797740 -0.777124 -0.831760 33.000000
0.792010 -0.790860 -0.832624 32.000000
0.777794 -0.795969 -0.824499 21.000000
0.777417 -0.815356 -0.831165 30.000000
0.774106 -0.831895 -0.834821 29.000000
0.767826 -0.845468 -0.835406 31.000000
0.758757 -0.855961 -0.832988 31.000000
0.754900 -0.872491 -0.836396 27.000000
0.748210 -0.885938 -0.836800 31.000000
0.753570 -0.915352 -0.852038 26.000000
0.741309 -0.922518 -0.846456 10.000000
0.749229 -0.955122 -0.864044 29.000000
0.743362 -0.972244 -0.867325 20.000000
0.735644 -0.985727 -0.867322 27.000000
0.734204 -1.009438 -0.876149 29.000000
0.727542 -1.026644 -0.879177 25.000000
0.712238 -1.029961 -0.870425 25.000000
0.712183 -1.057205 -0.881856 24.000000
0.483683 0.737030 -0.597535 36.000000
0.454895 0.675173 -0.554453 18.000000
0.452403 0.655280 -0.545110 30.000000
0.459706 0.648742 -0.546818 79.000000
0.462054 0.635491 -0.542812 37.000000
0.471035 0.632402 -0.547500 58.000000
0.483076 0.632181 -0.554861 58.000000
0.484570 0.619102 -0.550928 37.000000
0.499223 0.621753 -0.561113 42.000000
0.482341 0.586501 -0.536890 27.000000
0.499005 0.592329 -0.550117 79.000000
0.497746 0.575986 -0.542858 95.000000
0.498435 0.563079 -0.538633 77.000000
0.509873 0.562233 -0.546025 95.000000
0.507561 0.546334 -0.538782 60.000000
0.502240 0.527646 -0.528497 95.000000
0.511134 0.523452 -0.532676 81.000000
0.496783 0.496490 -0.513403 70.000000
0.501774 0.489879 -0.514916 105.000000
0.609084 0.580159 -0.620022 123.000000
1.237773 1.093872 -1.230857 18.000000
1.264120 1.090413 -1.249040 18.000000
1.279334 1.075743 -1.254650 10.000000
1.299758 1.066247 -1.266803 13.000000
1.302359 1.040982 -1.260263 13.000000
1.310124 1.021184 -1.260112 17.000000
1.298705 0.986838 -1.241774 17.000000
1.309215 0.969446 -1.244464 12.000000
1.319537 0.951929 -1.247029 14.000000
1.326491 0.932008 -1.246484 10.000000
1.316994 0.900810 -1.230535 9.000000
1.336648 0.889736 -1.242049 13.000000
1.336426 0.865390 -1.235024 13.000000
1.339216 0.843228 -1.230975 11.000000
1.354627 0.829724 -1.239636 18.000000
1.360467 0.809570 -1.238461 14.000000
1.372337 0.793566 -1.243817 16.000000
1.377827 0.773195 -1.242448 18.000000
1.375642 0.749404 -1.235307 10.000000
1.373214 0.725702 -1.227953 13.000000
1.384496 0.709361 -1.232932 18.000000
1.392190 0.691006 -1.234749 21.000000
1.403227 0.674285 -1.239499 23.000000
1.407031 0.654054 -1.237960 19.000000
1.410194 0.634037 -1.236835 19.000000
1.417264 0.615306 -1.238165 22.000000
1.412883 0.592234 -1.230524 12.000000
1.393843 0.563486 -1.210196 24.000000
1.388913 0.540931 -1.202310 28.000000
1.366024 0.511551 -1.178055 28.000000
0.873616 0.301967 -0.749488 26.000000
0.799545 0.264826 -0.683953 95.000000
0.809654 0.256774 -0.691058 98.000000
0.808818 0.244991 -0.688369 98.000000
0.815101 0.235488 -0.692228 77.000000
0.843707 0.232014 -0.714975 98.000000
0.849934 0.221957 -0.718727 95.000000
0.848569 0.209909 -0.716044 98.000000
0.850879 0.198805 -0.716492 98.000000
0.852845 0.187736 -0.717147 100.000000
0.858766 0.177344 -0.720598 98.000000
0.856776 0.165424 -0.717940 100.000000
0.862299 0.154968 -0.721567 95.000000
0.844898 0.140545 -0.706046 100.000000
0.846422 0.129536 -0.706317 103.000000
0.851664 0.119027 -0.709737 100.000000
0.856611 0.108452 -0.713364 103.000000
0.854046 0.096841 -0.710248 100.000000
0.858833 0.086099 -0.713706 103.000000
0.855850 0.074587 -0.710758 103.000000
0.860474 0.063745 -0.714082 95.000000
0.853468 0.052065 -0.707808 95.000000
0.857925 0.041139 -0.710996 95.000000
0.862046 0.030146 -0.714390 95.000000
0.858436 0.018851 -0.711337 91.000000
0.866238 0.007759 -0.717751 95.000000
0.858572 -0.003471 -0.711371 84.000000
0.858538 -0.014632 -0.711303 88.000000
0.854552 -0.025677 -0.707943 71.000000
0.862012 -0.037119 -0.714116 95.000000
0.861465 -0.048330 -0.714082 94.000000
0.876222 -0.060604 -0.726729 73.000000
0.860166 -0.070718 -0.713809 95.000000
0.874691 -0.083357 -0.726312 98.000000
0.877654 -0.095149 -0.729183 100.000000
0.876396 -0.106575 -0.729078 95.000000
0.879170 -0.118481 -0.731805 98.000000
0.873915 -0.129358 -0.728379 98.000000
0.876257 -0.141328 -0.731244 98.000000
0.882284 -0.154062 -0.737213 95.000000
0.880585 -0.165532 -0.736718 81.000000
0.878815 -0.177002 -0.736187 98.000000
0.872912 -0.187659 -0.732696 95.000000
0.874744 -0.199835 -0.735160 95.000000
0.876203 -0.212180 -0.737867 100.000000
0.870071 -0.222633 -0.734169 95.000000
0.871332 -0.235005 -0.736729 100.000000
0.868773 -0.246347 -0.736053 94.000000
0.854990 -0.254335 -0.725839 86.000000
0.863120 -0.269029 -0.734773 100.000000
0.860275 -0.280229 -0.733885 94.000000
0.860790 -0.292786 -0.736392 98.000000
0.850176 -0.301434 -0.729354 95.000000
0.843445 -0.311097 -0.725153 89.000000
0.850649 -0.326456 -0.733999 91.000000
0.839874 -0.334675 -0.726805 83.000000
0.850682 -0.351609 -0.738328 86.000000
0.854114 -0.365774 -0.743532 98.000000
0.849938 -0.377032 -0.742660 90.000000
0.849534 -0.389739 -0.744614 98.000000
0.848694 -0.402612 -0.746741 98.000000
0.840708 -0.412058 -0.742608 95.000000
0.839648 -0.424878 -0.744617 81.000000
0.838513 -0.437754 -0.746542 81.000000
0.844111 -0.454373 -0.754607 62.000000
0.835794 -0.463523 -0.750216 95.000000
0.833873 -0.476637 -0.752261 95.000000
0.832206 -0.489544 -0.753924 100.000000
0.826673 -0.500647 -0.752728 100.000000
0.821439 -0.511451 -0.751195 95.000000
0.815757 -0.522367 -0.749886 95.000000
0.816537 -0.537599 -0.754651 78.000000
0.827029 -0.559517 -0.768466 36.000000
0.827391 -0.575042 -0.773054 95.000000
0.821151 -0.586049 -0.771503 78.000000
0.818003 -0.599290 -0.772906 75.000000
0.817909 -0.614932 -0.777243 88.000000
0.811360 -0.625755 -0.775478 95.000000
0.810956 -0.641453 -0.779695 94.000000
0.803684 -0.652440 -0.778154 46.000000
0.809113 -0.673271 -0.788205 35.000000
0.804576 -0.686869 -0.789470 90.000000
0.800507 -0.700105 -0.790398 88.000000
0.816592 -0.732404 -0.812385 91.000000
0.805549 -0.740720 -0.807500 79.000000
0.803236 -0.757162 -0.811431 77.000000
0.803620 -0.776442 -0.818286 95.000000
0.795758 -0.787051 -0.815835 39.000000
0.781494 -0.792027 -0.807804 35.000000
0.775113 -0.805856 -0.808846 82.000000
0.769172 -0.819301 -0.809537 70.000000
0.768616 -0.838727 -0.815997 86.000000
0.765070 -0.855217 -0.819416 60.000000
0.758628 -0.868657 -0.819904 86.000000
0.753987 -0.885450 -0.823480 68.000000
0.762882 -0.917713 -0.841122 30.000000
0.727462 -0.896267 -0.809734 32.000000
0.719850 -0.909680 -0.810274 69.000000
0.715370 -0.925980 -0.813348 71.000000
0.717345 -0.952447 -0.825095 95.000000
0.717235 -0.975499 -0.833649 58.000000
0.713541 -0.995650 -0.839527 70.000000
0.711853 -1.019301 -0.848170 62.000000
0.708325 -1.039294 -0.853562 42.000000
0.708235 -1.066620 -0.864772 32.000000
0.481766 0.746000 -0.587882 39.000000
0.476186 0.718259 -0.573217 26.000000
0.463035 0.680504 -0.550077 29.000000
0.456299 0.653496 -0.535107 32.000000
0.462920 0.647227 -0.536982 47.000000
0.472546 0.644001 -0.541458 58.000000
0.479673 0.637316 -0.543107 42.000000
0.488730 0.634046 -0.547756 81.000000
0.490693 0.620654 -0.543662 47.000000
0.486753 0.601183 -0.534057 45.000000
0.493523 0.594327 -0.535520 35.000000
0.494403 0.581364 -0.531469 46.000000
0.503653 0.577498 -0.535753 95.000000
0.507004 0.567627 -0.534449 95.000000
0.512993 0.560730 -0.536010 90.000000
0.510583 0.544817 -0.528845 95.000000
0.528078 0.549449 -0.541688 80.000000
0.519679 0.527788 -0.528649 95.000000
0.493592 0.489261 -0.498002 40.000000
0.603887 0.584177 -0.604392 113.000000
1.226378 1.102925 -1.200417 32.000000
1.271846 1.115590 -1.235659 20.000000
1.281056 1.095770 -1.235388 17.000000
1.304712 1.089128 -1.250430 10.000000
1.316818 1.071484 -1.253006 13.000000
1.321664 1.049039 -1.250079 21.000000
1.317519 1.018883 -1.237540 18.000000
1.318619 0.994166 -1.231360 16.000000
1.338859 0.983801 -1.243050 19.000000
1.336302 0.956759 -1.233640 16.000000
1.346524 0.939011 -1.236148 18.000000
1.340117 0.909932 -1.223526 10.000000
1.346642 0.889893 -1.222799 13.000000
1.359632 0.874186 -1.227986 21.000000
1.365861 0.853988 -1.227063 16.000000
1.385442 0.842010 -1.238207 21.000000
1.394095 0.823894 -1.240635 24.000000
1.386112 0.795472 -1.227276 18.000000
1.377113 0.767688 -1.214175 19.000000
1.399112 0.757185 -1.228524 10.000000
1.397255 0.733026 -1.220817 13.000000
1.412091 0.718283 -1.228833 20.000000
1.419800 0.699743 -1.230669 21.000000
1.420269 0.677684 -1.226175 22.000000
1.427148 0.659236 -1.228306 26.000000
1.430798 0.638879 -1.226685 23.000000
1.434291 0.618435 -1.224935 24.000000
1.407992 0.586239 -1.198883 11.000000
1.406860 0.564958 -1.194293 25.000000
1.413280 0.546405 -1.195354 35.000000
1.382346 0.514292 -1.165763 29.000000
0.881228 0.290030 -0.737226 37.000000
0.813542 0.256201 -0.678689 98.000000
0.816169 0.245656 -0.679420 98.000000
0.852774 0.244679 -0.707920 71.000000
0.855337 0.233630 -0.708544 100.000000
0.861610 0.223491 -0.712256 98.000000
0.867800 0.213220 -0.715870 98.000000
0.862265 0.200274 -0.710345 100.000000
0.868290 0.189884 -0.713857 100.000000
0.866629 0.177794 -0.711038 100.000000
0.872256 0.167340 -0.714692 100.000000
0.866329 0.154665 -0.708836 95.000000
0.860269 0.142188 -0.702939 100.000000
0.857925 0.130460 -0.700108 100.000000
0.867062 0.120403 -0.706627 103.000000
0.868195 0.109211 -0.707039 103.000000
0.857872 0.096644 -0.697713 100.000000
0.858820 0.085567 -0.697984 103.000000
0.863540 0.074792 -0.701367 100.000000
0.860447 0.063345 -0.698357 89.000000
0.861124 0.052234 -0.698425 95.000000
0.861734 0.041090 -0.698459 100.000000
0.865922 0.030114 -0.701809 98.000000
0.862242 0.018834 -0.698797 100.000000
0.866228 0.007724 -0.701979 95.000000
0.870147 -0.003486 -0.705127 95.000000
0.862343 -0.014600 -0.698763 98.000000
0.873859 -0.026093 -0.708035 100.000000
0.873619 -0.037354 -0.707829 98.000000
0.865343 -0.048216 -0.701503 98.000000
0.895752 -0.061507 -0.726563 51.000000
0.887263 -0.072471 -0.720098 95.000000
0.867104 -0.082065 -0.704136 95.000000
0.893285 -0.096191 -0.725823 100.000000
0.895913 -0.108219 -0.728859 98.000000
0.887102 -0.118727 -0.722119 98.000000
0.885698 -0.130203 -0.721873 98.000000
0.888068 -0.142295 -0.724660 100.000000
0.890320 -0.154417 -0.727407 53.000000
0.896281 -0.167352 -0.733178 95.000000
0.886851 -0.177391 -0.726381 98.000000
0.888540 -0.189711 -0.729192 95.000000
0.886336 -0.201230 -0.728765 98.000000
0.888104 -0.213555 -0.731143 103.000000
0.885712 -0.225088 -0.730607 98.000000
0.879438 -0.235538 -0.726881 98.000000
0.850535 -0.239497 -0.704388 46.000000
0.873963 -0.258328 -0.725707 95.000000
0.863747 -0.267319 -0.718667 100.000000
0.868133 -0.280975 -0.724321 95.000000
0.864968 -0.292281 -0.723645 95.000000
0.858282 -0.302107 -0.719513 98.000000
0.862289 -0.315959 -0.724930 95.000000
0.858826 -0.327134 -0.724073 98.000000
0.858659 -0.339864 -0.726522 53.000000
0.869555 -0.356954 -0.737867 95.000000
0.869421 -0.369763 -0.739893 95.000000
0.861605 -0.379564 -0.735971 98.000000
0.864476 -0.394104 -0.741210 98.000000
0.864001 -0.406927 -0.742993 100.000000
0.859496 -0.418227 -0.741960 98.000000
0.854880 -0.429452 -0.740852 98.000000
0.846714 -0.438784 -0.736614 54.000000
0.862555 -0.461203 -0.754010 95.000000
0.854146 -0.470522 -0.749644 103.000000
0.845664 -0.479675 -0.745251 98.000000
0.840244 -0.490852 -0.744129 98.000000
0.828267 -0.497672 -0.736571 98.000000
0.836248 -0.516983 -0.747452 95.000000
0.837206 -0.532301 -0.752175 95.000000
0.848010 -0.554230 -0.765883 55.000000
0.845240 -0.567657 -0.767459 85.000000
0.845634 -0.583324 -0.771949 90.000000
0.839281 -0.594462 -0.770341 94.000000
0.829648 -0.603164 -0.765703 95.000000
0.826380 -0.616461 -0.767008 94.000000
0.823021 -0.629725 -0.768221 95.000000
0.815856 -0.640788 -0.766725 88.000000
0.812260 -0.654021 -0.767839 37.000000
0.820408 -0.677765 -0.781011 62.000000
0.831844 -0.704127 -0.796701 81.000000
0.833172 -0.723240 -0.803762 95.000000
0.831219 -0.739784 -0.807762 98.000000
0.820043 -0.748215 -0.802902 84.000000
0.812392 -0.758918 -0.800602 90.000000
0.804114 -0.769789 -0.798595 55.000000
0.798656 -0.783424 -0.799412 36.000000
0.798758 -0.802788 -0.805969 59.000000
0.784420 -0.807667 -0.798023 89.000000
0.783538 -0.827387 -0.804739 95.000000
0.780236 -0.843909 -0.808192 61.000000
0.776721 -0.860409 -0.811570 94.000000
0.778459 -0.883168 -0.820588 91.000000
0.779096 -0.906400 -0.829760 61.000000
0.769550 -0.916835 -0.827185 49.000000
0.740898 -0.905224 -0.805034 46.000000
0.752055 -0.940971 -0.825037 57.000000
0.728755 -0.935106 -0.808501 95.000000
0.754153 -0.991009 -0.845093 95.000000
0.760413 -1.024771 -0.862114 103.000000
0.775742 -1.072419 -0.890081 105.000000
1.048046 -1.603726 -1.263623 17.000000
0.477530 0.751297 -0.575417 21.000000
0.490330 0.751527 -0.582805 30.000000
0.493899 0.737613 -0.579267 25.000000
0.473572 0.689270 -0.548279 19.000000
0.466676 0.662139 -0.533547 36.000000
0.478845 0.662325 -0.540753 33.000000
0.483096 0.652519 -0.539868 37.000000
0.485268 0.639112 -0.535980 39.000000
0.494887 0.635615 -0.540356 37.000000
0.498844 0.625683 -0.539337 69.000000
0.511066 0.625145 -0.546474 32.000000
0.496291 0.592878 -0.525709 23.000000
0.508318 0.592240 -0.532803 86.000000
0.509074 0.579210 -0.528762 82.000000
0.518337 0.575193 -0.532967 95.000000
0.532758 0.577290 -0.543046 86.000000
0.510637 0.540299 -0.516078 95.000000
0.522506 0.539121 -0.523037 100.000000
0.522457 0.526269 -0.518729 59.000000
1.063439 0.996055 -1.031082 50.000000
1.227686 1.122037 -1.181305 25.000000
1.276291 1.138055 -1.218933 21.000000
1.290957 1.124063 -1.225112 22.000000
1.315609 1.117233 -1.239540 13.000000
1.312308 1.086594 -1.227649 10.000000
1.342430 1.084696 -1.248242 18.000000
1.348097 1.061682 -1.244905 17.000000
1.355955 1.041493 -1.244873 21.000000
1.341772 1.003938 -1.223673 25.000000
1.342571 0.979141 -1.217467 18.000000
1.356228 0.963873 -1.223006 19.000000
1.363191 0.943685 -1.222559 13.000000
1.363312 0.919027 -1.216028 10.000000
1.366458 0.896647 -1.212380 13.000000
1.389734 0.887272 -1.226553 15.000000
1.392582 0.864731 -1.222706 18.000000
1.395212 0.842182 -1.218714 15.000000
1.404465 0.823800 -1.220640 17.000000
1.406092 0.801583 -1.216990 20.000000
1.408003 0.779177 -1.212702 12.000000
1.405640 0.755188 -1.205750 9.000000
1.424237 0.742404 -1.216760 13.000000
1.432109 0.723895 -1.218667 17.000000
1.443430 0.706951 -1.223540 26.000000
1.440298 0.682978 -1.216168 21.000000
1.436932 0.659224 -1.208648 20.000000
1.454983 0.645286 -1.219227 26.000000
1.443911 0.618448 -1.205414 15.000000
1.435666 0.593778 -1.194973 11.000000
1.430793 0.570833 -1.187431 26.000000
1.433568 0.550657 -1.185385 24.000000
1.432010 0.529384 -1.180688 30.000000
1.396694 0.496273 -1.148300 37.000000
1.304862 0.444984 -1.069750 49.000000
0.892330 0.279253 -0.728004 40.000000
0.827432 0.247351 -0.673180 75.000000
0.864115 0.246418 -0.701576 59.000000
0.870491 0.236317 -0.705282 95.000000
0.872972 0.225100 -0.705876 98.000000
0.879205 0.214748 -0.709485 100.000000
0.873891 0.201643 -0.703768 98.000000
0.883768 0.192006 -0.710327 98.000000
0.885698 0.180670 -0.710924 100.000000
0.880049 0.167723 -0.704985 100.000000
0.881754 0.156416 -0.705403 62.000000
0.871765 0.143166 -0.696499 100.000000
0.881073 0.133112 -0.703002 105.000000
0.878640 0.121249 -0.700146 100.000000
0.879778 0.109972 -0.700594 100.000000
0.877121 0.098225 -0.697563 100.000000
0.881985 0.087350 -0.700974 100.000000
0.886753 0.076341 -0.704283 98.000000
0.871910 0.063801 -0.692043 82.000000
0.876504 0.052842 -0.695215 100.000000
0.873203 0.041411 -0.692111 95.000000
0.877427 0.030317 -0.695420 98.000000
0.873714 0.018987 -0.692451 98.000000
0.881687 0.007828 -0.698730 95.000000
0.881721 -0.003502 -0.698696 98.000000
0.881653 -0.014797 -0.698627 95.000000
0.912858 -0.027056 -0.723325 98.000000
0.885192 -0.037588 -0.701353 98.000000
0.900333 -0.049835 -0.713731 94.000000
0.907524 -0.061915 -0.719867 78.000000
0.906781 -0.073562 -0.719690 95.000000
0.905967 -0.085209 -0.719442 98.000000
0.905046 -0.096820 -0.719124 98.000000
0.903807 -0.108467 -0.718982 100.000000
0.906601 -0.120560 -0.721619 98.000000
0.905214 -0.132222 -0.721370 98.000000
0.899807 -0.143230 -0.717920 98.000000
0.894342 -0.154103 -0.714438 50.000000
0.912008 -0.169178 -0.729434 98.000000
0.898388 -0.178618 -0.719877 95.000000
0.896504 -0.190137 -0.719272 98.000000
0.902012 -0.203423 -0.725016 98.000000
0.899681 -0.215041 -0.724550 95.000000
0.901097 -0.227588 -0.727057 98.000000
0.894804 -0.238170 -0.723366 95.000000
0.892223 -0.249644 -0.722685 67.000000
0.885748 -0.260008 -0.718860 98.000000
0.882749 -0.271469 -0.718325 95.000000
0.879642 -0.282895 -0.717682 95.000000
0.880497 -0.295399 -0.719817 100.000000
0.884664 -0.309377 -0.725183 98.000000
0.877546 -0.319451 -0.721331 98.000000
0.896274 -0.339168 -0.738747 95.000000
0.892323 -0.350836 -0.738119 71.000000
0.884885 -0.360823 -0.734039 95.000000
0.877441 -0.370642 -0.729895 95.000000
0.884145 -0.386844 -0.738166 98.000000
0.876186 -0.396662 -0.734205 98.000000
0.868190 -0.406386 -0.730178 98.000000
0.870871 -0.421105 -0.735200 95.000000
0.866236 -0.432377 -0.734087 98.000000
0.854473 -0.439960 -0.726869 77.000000
0.877936 -0.465963 -0.749743 95.000000
0.869453 -0.475406 -0.745408 98.000000
0.867526 -0.488798 -0.747350 100.000000
0.851969 -0.493944 -0.736919 98.000000
0.846451 -0.505130 -0.735718 95.000000
0.851074 -0.522499 -0.743436 98.000000
0.838472 -0.529345 -0.736183 95.000000
0.859637 -0.557813 -0.758627 98.000000
0.860222 -0.573521 -0.763086 88.000000
0.857310 -0.587051 -0.764520 98.000000
0.857568 -0.602869 -0.768860 100.000000
0.854375 -0.616418 -0.770144 95.000000
0.841268 -0.622760 -0.762543 95.000000
0.834194 -0.633945 -0.761081 94.000000
0.827515 -0.644813 -0.759303 95.000000
0.826577 -0.660903 -0.763573 92.000000
0.860515 -0.705068 -0.799599 52.000000
0.849543 -0.713909 -0.794931 95.000000
0.847794 -0.730511 -0.798908 95.000000
0.840282 -0.741505 -0.796726 93.000000
0.835168 -0.755361 -0.797728 91.000000
0.829867 -0.769257 -0.798632 95.000000
0.824507 -0.783105 -0.799437 95.000000
0.815980 -0.794049 -0.797358 76.000000
0.807411 -0.804866 -0.795237 30.000000
0.807378 -0.824400 -0.801589 95.000000
0.800741 -0.838392 -0.802505 79.000000
0.797450 -0.855042 -0.805857 95.000000
0.791125 -0.868664 -0.806303 70.000000
0.803184 -0.904224 -0.826790 67.000000
0.793661 -0.914865 -0.824241 72.000000
0.796701 -0.941572 -0.835988 85.000000
0.831768 -1.006485 -0.880843 35.000000
0.843865 -1.047008 -0.903389 100.000000
0.905029 -1.149683 -0.978237 100.000000
0.963162 -1.254587 -1.052863 100.000000
1.029120 -1.374632 -1.138004 70.000000
1.074233 -1.469145 -1.200038 57.000000
1.106462 -1.552123 -1.251119 35.000000
1.149069 -1.653364 -1.315381 24.000000
1.184941 -1.749111 -1.373741 18.000000
1.184062 -1.793672 -1.390859 10.000000
1.189391 -1.849046 -1.415873 10.000000
0.497432 0.774589 -0.583653 24.000000
0.501207 0.760561 -0.580276 10.000000
0.502404 0.743075 -0.574134 18.000000
0.488958 0.704954 -0.551680 20.000000
0.489343 0.687871 -0.545316 16.000000
0.482025 0.660761 -0.530733 32.000000
0.504310 0.674192 -0.548781 13.000000
0.519338 0.677157 -0.558684 22.000000
0.508191 0.647218 -0.541317 26.000000
0.510143 0.633685 -0.537399 18.000000
0.511360 0.620471 -0.533624 31.000000
0.504825 0.597512 -0.521263 13.000000
0.511481 0.590569 -0.522668 26.000000
0.523126 0.589981 -0.529852 33.000000
0.529301 0.582994 -0.531447 29.000000
0.538674 0.578747 -0.535614 45.000000
0.541913 0.568585 -0.534346 34.000000
0.542147 0.555486 -0.530184 33.000000
0.563044 0.562632 -0.545581 17.000000
1.300928 1.180174 -1.222363 23.000000
1.304520 1.154716 -1.216713 17.000000
1.326332 1.145365 -1.228175 11.000000
1.338022 1.128189 -1.231440 12.000000
1.331435 1.094794 -1.216817 9.000000
1.333926 1.069430 -1.210724 10.000000
1.357826 1.062083 -1.225252 11.000000
1.359924 1.036606 -1.218997 10.000000
1.374019 1.021344 -1.224662 12.000000
1.382162 1.000653 -1.223996 10.000000
1.376157 0.970947 -1.212021 10.000000
1.383137 0.950666 -1.211627 10.000000
1.366384 0.914578 -1.190568 8.000000
1.393120 0.907780 -1.207551 10.000000
1.406317 0.891694 -1.212689 14.000000
1.405688 0.866978 -1.205981 10.000000
1.422031 0.852717 -1.213948 17.000000
1.417445 0.825973 -1.204058 11.000000
1.419008 0.803746 -1.200428 12.000000
1.434958 0.789022 -1.208095 18.000000
1.414850 0.755309 -1.186419 9.000000
1.448345 0.749665 -1.208782 13.000000
1.445514 0.725555 -1.201756 16.000000
1.446050 0.703353 -1.197567 13.000000
1.449951 0.682922 -1.196289 16.000000
1.460980 0.665784 -1.200871 16.000000
1.460938 0.643651 -1.196403 15.000000
1.474869 0.628092 -1.204236 22.000000
1.467063 0.602806 -1.193496 10.000000
1.451036 0.575200 -1.177129 25.000000
1.450084 0.553501 -1.172117 26.000000
1.448416 0.532113 -1.167507 24.000000
1.450327 0.512126 -1.165786 30.000000
1.406832 0.476836 -1.127663 33.000000
0.887971 0.263874 -0.706473 24.000000
0.879240 0.249246 -0.698079 35.000000
0.882048 0.237910 -0.698465 98.000000
0.884575 0.226610 -0.699062 98.000000
0.894674 0.217146 -0.705671 100.000000
0.893179 0.204754 -0.703088 100.000000
0.891313 0.192532 -0.700711 98.000000
0.901223 0.182666 -0.707123 98.000000
0.895279 0.169685 -0.701553 98.000000
0.897244 0.158174 -0.701729 95.000000
0.894985 0.146095 -0.699062 103.000000
0.892608 0.134046 -0.696323 108.000000
0.897781 0.123208 -0.699866 100.000000
0.903070 0.112199 -0.703098 103.000000
0.900402 0.100215 -0.700145 103.000000
0.901380 0.088719 -0.700460 103.000000
0.902288 0.077223 -0.700670 103.000000
0.887283 0.064545 -0.688602 98.000000
0.891917 0.053452 -0.691732 98.000000
0.896279 0.042258 -0.695070 100.000000
0.888897 0.030556 -0.688877 98.000000
0.897006 0.019397 -0.695139 100.000000
0.889240 0.007862 -0.689083 103.000000
0.889275 -0.003468 -0.689083 100.000000
0.893158 -0.014897 -0.692042 100.000000
0.928583 -0.027324 -0.719458 98.000000
0.932066 -0.039360 -0.722556 100.000000
0.927794 -0.051026 -0.719207 95.000000
0.927148 -0.062859 -0.719099 95.000000
0.922453 -0.074375 -0.715861 95.000000
0.921632 -0.086122 -0.715611 100.000000
0.924638 -0.098287 -0.718346 98.000000
0.919490 -0.109616 -0.715147 100.000000
0.926016 -0.122437 -0.721043 98.000000
0.924792 -0.134212 -0.720503 103.000000
0.915455 -0.144786 -0.714076 95.000000
0.913848 -0.156462 -0.713647 86.000000
0.923611 -0.170329 -0.722616 90.000000
0.921803 -0.182082 -0.722037 95.000000
0.908028 -0.191453 -0.712540 95.000000
0.909936 -0.203854 -0.714904 95.000000
0.911504 -0.216425 -0.717478 95.000000
0.905239 -0.227090 -0.713864 95.000000
0.906570 -0.239687 -0.716290 95.000000
0.907591 -0.252420 -0.718891 95.000000
0.897243 -0.261765 -0.712071 59.000000
0.898036 -0.274474 -0.714561 98.000000
0.891398 -0.284678 -0.710637 94.000000
0.895766 -0.298637 -0.715998 95.000000
0.888673 -0.308828 -0.712220 95.000000
0.907795 -0.328348 -0.729515 72.000000
0.915460 -0.344195 -0.737662 95.000000
0.907740 -0.354592 -0.733944 64.000000
0.892865 -0.361669 -0.723890 35.000000
0.892434 -0.374765 -0.726118 95.000000
0.888520 -0.386138 -0.724973 93.000000
0.884199 -0.397585 -0.724050 95.000000
0.879805 -0.408995 -0.723053 81.000000
0.882534 -0.423806 -0.727949 84.000000
0.892310 -0.442295 -0.738785 77.000000
0.883963 -0.451931 -0.734600 69.000000
0.896550 -0.472846 -0.748510 30.000000
0.880900 -0.478577 -0.738269 95.000000
0.875467 -0.490052 -0.737167 95.000000
0.887814 -0.511325 -0.750536 95.000000
0.882117 -0.522836 -0.749295 74.000000
0.872853 -0.532205 -0.745071 60.000000
0.866985 -0.543555 -0.743720 81.000000
0.867808 -0.559213 -0.748199 82.000000
0.865117 -0.572695 -0.749687 27.000000
0.875682 -0.595311 -0.762777 75.000000
0.865939 -0.604337 -0.758267 52.000000
0.862778 -0.617892 -0.759511 71.000000
0.849172 -0.624460 -0.752308 42.000000
0.839319 -0.632993 -0.747671 44.000000
0.838644 -0.649048 -0.751959 54.000000
0.835020 -0.662417 -0.752980 35.000000
0.843508 -0.686309 -0.765740 30.000000
0.867301 -0.723649 -0.792801 40.000000
0.850501 -0.726822 -0.782059 35.000000
0.848717 -0.743435 -0.785942 45.000000
0.843633 -0.757341 -0.786863 41.000000
0.838405 -0.771243 -0.787727 49.000000
0.830036 -0.782275 -0.785741 36.000000
0.815651 -0.787453 -0.778011 29.000000
0.815980 -0.806902 -0.784378 33.000000
0.835752 -0.847353 -0.810659 26.000000
0.823829 -0.855359 -0.805523 35.000000
0.823280 -0.875275 -0.811598 29.000000
0.858197 -0.935332 -0.854135 59.000000
0.964434 -1.101719 -0.976572 67.000000
1.044042 -1.222506 -1.067896 36.000000
1.115734 -1.339225 -1.153174 17.000000
1.117645 -1.373329 -1.165845 10.000000
1.151708 -1.450822 -1.214505 22.000000
1.172694 -1.512292 -1.248633 18.000000
1.204018 -1.591799 -1.296551 19.000000
1.191426 -1.614971 -1.297841 14.000000
1.208079 -1.679013 -1.331574 12.000000
1.211372 -1.726621 -1.351498 10.000000
1.230494 -1.798882 -1.390005 10.000000
1.220140 -1.829892 -1.395990 8.000000
1.216230 -1.871557 -1.409912 9.000000
0.474855 0.751126 -0.549830 41.000000
0.487577 0.751649 -0.557056 32.000000
0.493373 0.741357 -0.556306 46.000000
0.491865 0.720510 -0.547533 24.000000
0.489958 0.699892 -0.538689 25.000000
0.480329 0.669122 -0.521718 33.000000
0.492590 0.669312 -0.528752 34.000000
0.494820 0.655822 -0.525050 84.000000
0.499416 0.645710 -0.523956 36.000000
0.506521 0.638871 -0.525525 36.000000
0.520967 0.641957 -0.535425 61.000000
0.509297 0.612276 -0.517908 31.000000
0.513365 0.602132 -0.516624 32.000000
0.511318 0.585905 -0.510041 32.000000
0.526198 0.588289 -0.519652 63.000000
0.512597 0.559808 -0.501905 95.000000
0.516022 0.549800 -0.500446 71.000000
0.521795 0.543006 -0.501882 95.000000
0.550827 0.559825 -0.525564 78.000000
1.318157 1.245843 -1.227330 14.000000
1.340576 1.236881 -1.238899 15.000000
1.347760 1.213654 -1.236362 11.000000
1.351523 1.187730 -1.230907 16.000000
1.354975 1.161851 -1.225278 12.000000
1.354961 1.133378 -1.216709 10.000000
1.357771 1.107707 -1.210930 10.000000
1.356291 1.079984 -1.202587 9.000000
1.371381 1.064600 -1.207889 10.000000
1.373382 1.039041 -1.201758 11.000000
1.374262 1.014058 -1.195910 10.000000
1.392234 1.000636 -1.203883 17.000000
1.386043 0.970944 -1.192107 13.000000
1.403022 0.957607 -1.200342 10.000000
1.402988 0.932678 -1.194080 10.000000
1.413007 0.914466 -1.196412 10.000000
1.415948 0.891788 -1.192813 12.000000
1.429012 0.875538 -1.197853 18.000000
1.424601 0.848610 -1.188278 12.000000
1.426848 0.826050 -1.184311 18.000000
1.442966 0.811443 -1.192013 16.000000
1.437142 0.785240 -1.182484 13.000000
1.449474 0.768397 -1.187080 10.000000
1.446712 0.744304 -1.180311 10.000000
1.461800 0.729328 -1.188094 15.000000
1.455505 0.703247 -1.177612 16.000000
1.459416 0.682798 -1.176373 13.000000
1.470398 0.665710 -1.180908 18.000000
1.477661 0.646790 -1.182434 17.000000
1.476832 0.624851 -1.178344 15.000000
1.494878 0.610409 -1.188572 13.000000
1.497498 0.589844 -1.187256 21.000000
1.500329 0.569130 -1.185384 21.000000
1.487420 0.543061 -1.171972 24.000000
1.504561 0.528053 -1.182168 17.000000
1.495038 0.503663 -1.171516 23.000000
1.496617 0.483301 -1.169612 18.000000
1.494278 0.461792 -1.164656 16.000000
0.898459 0.253066 -0.697052 15.000000
0.862417 0.231282 -0.667782 81.000000
0.864867 0.220291 -0.668360 95.000000
0.863292 0.208328 -0.665871 95.000000
0.888920 0.202652 -0.684320 81.000000
0.871604 0.187115 -0.669687 94.000000
0.865844 0.174410 -0.664018 95.000000
0.879375 0.165669 -0.673545 92.000000
0.892850 0.156561 -0.683016 83.000000
0.894685 0.145166 -0.683120 90.000000
0.903931 0.135018 -0.689732 87.000000
0.901410 0.122983 -0.686964 95.000000
0.906726 0.111991 -0.690152 95.000000
0.911774 0.100934 -0.693517 98.000000
0.908963 0.088964 -0.690536 84.000000
0.909871 0.077433 -0.690781 81.000000
0.898710 0.065004 -0.681869 50.000000
0.895420 0.053352 -0.678955 64.000000
0.899814 0.042209 -0.682249 72.000000
0.892363 0.030522 -0.676143 78.000000
0.916476 0.019724 -0.694394 85.000000
0.928573 0.008177 -0.703522 98.000000
0.932594 -0.003606 -0.706506 95.000000
0.932522 -0.015425 -0.706435 98.000000
0.932379 -0.027243 -0.706292 100.000000
0.927933 -0.038931 -0.703309 100.000000
0.927613 -0.050663 -0.702989 100.000000
0.926973 -0.062431 -0.702882 86.000000
0.926226 -0.074199 -0.702705 98.000000
0.925408 -0.085932 -0.702456 100.000000
0.924306 -0.097700 -0.702385 100.000000
0.923275 -0.109397 -0.701994 100.000000
0.925917 -0.121649 -0.704828 98.000000
0.920538 -0.132826 -0.701531 100.000000
0.919258 -0.144452 -0.700927 103.000000
0.913507 -0.155514 -0.697777 66.000000
0.919704 -0.168530 -0.703328 98.000000
0.913996 -0.179400 -0.699754 100.000000
0.907985 -0.190206 -0.696396 98.000000
0.901921 -0.200912 -0.693007 98.000000
0.907419 -0.214207 -0.698509 98.000000
0.901188 -0.224757 -0.694945 100.000000
0.898745 -0.236191 -0.694343 98.000000
0.903922 -0.249725 -0.699615 57.000000
0.904880 -0.262410 -0.702138 95.000000
0.898281 -0.272683 -0.698329 95.000000
0.899000 -0.285359 -0.700704 95.000000
0.899656 -0.298097 -0.703002 98.000000
0.900141 -0.310860 -0.705221 95.000000
0.896742 -0.322324 -0.704389 95.000000
0.893270 -0.333715 -0.703521 95.000000
0.896943 -0.348128 -0.708765 53.000000
0.896960 -0.361011 -0.710742 95.000000
0.892895 -0.372510 -0.709936 95.000000
0.892718 -0.385388 -0.711755 95.000000
0.892102 -0.398471 -0.713785 91.000000
0.884039 -0.408188 -0.709842 95.000000
0.886889 -0.422996 -0.714658 95.000000
0.885587 -0.436278 -0.716780 95.000000
0.909778 -0.462233 -0.739089 50.000000
0.883312 -0.462564 -0.720253 85.000000
0.881626 -0.475902 -0.722125 95.000000
0.880162 -0.489105 -0.723687 98.000000
0.881729 -0.504494 -0.728378 95.000000
0.883130 -0.520027 -0.733013 95.000000
0.884326 -0.535626 -0.737552 95.000000
0.874976 -0.544867 -0.733297 98.000000
0.872466 -0.558338 -0.734800 64.000000
0.873242 -0.574062 -0.739141 78.000000
0.873805 -0.589846 -0.743380 76.000000
0.874191 -0.605725 -0.747555 74.000000
0.871102 -0.619325 -0.748798 71.000000
0.867363 -0.633172 -0.750268 80.000000
0.864012 -0.646705 -0.751365 81.000000
0.860006 -0.660524 -0.752692 66.000000
0.852634 -0.671763 -0.751121 71.000000
0.845665 -0.682679 -0.749187 52.000000
