x y z intensity
1.698766 -1.268008 -0.954961 10.000000
1.688553 -1.290786 -0.954811 22.000000
1.685254 -1.319062 -0.958668 15.000000
1.685120 -1.350305 -0.964462 18.000000
1.677605 -1.375874 -0.966076 16.000000
1.659173 -1.392650 -0.961583 13.000000
1.668410 -1.432886 -0.973215 21.000000
1.631653 -1.434872 -0.958828 10.000000
1.633301 -1.469311 -0.966284 10.000000
1.627663 -1.497657 -0.969523 17.000000
1.610860 -1.517261 -0.967091 12.000000
1.621133 -1.561496 -0.980262 20.000000
1.606943 -1.584196 -0.979631 14.000000
1.606362 -1.619178 -0.986553 15.000000
1.591509 -1.641813 -0.985878 19.000000
1.573195 -1.660963 -0.983067 10.000000
1.571414 -1.696059 -0.989713 12.000000
1.564957 -1.728578 -0.994644 18.000000
1.551947 -1.754270 -0.995616 16.000000
1.539643 -1.779174 -0.996098 21.000000
1.549819 -1.832833 -1.012490 16.000000
1.529547 -1.851436 -1.009310 22.000000
1.529473 -1.894922 -1.019568 25.000000
1.507035 -1.908944 -1.013938 10.000000
1.500228 -1.945320 -1.020148 10.000000
1.490079 -1.978103 -1.024383 13.000000
1.484926 -2.018358 -1.032294 12.000000
1.468325 -2.043735 -1.032451 18.000000
1.456628 -2.076574 -1.036363 15.000000
1.452285 -2.120798 -1.045791 22.000000
1.429250 -2.138329 -1.041980 26.000000
1.426314 -2.186590 -1.053134 23.000000
1.407586 -2.211601 -1.052909 22.000000
1.381170 -2.224554 -1.047001 26.000000
1.357073 -2.241249 -1.042956 24.000000
1.325715 -2.245592 -1.033385 29.000000
1.310597 -2.277812 -1.036615 23.000000
1.292768 -2.305940 -1.037959 28.000000
0.606348 1.088558 -0.479114 10.000000
0.678224 1.186378 -0.527870 26.000000
0.721623 1.230378 -0.553439 17.000000
0.739640 1.229537 -0.559218 24.000000
0.750402 1.216504 -0.559557 25.000000
0.768445 1.215282 -0.565324 17.000000
0.758743 1.170822 -0.550919 24.000000
0.773903 1.165447 -0.554776 18.000000
0.786487 1.156032 -0.556797 19.000000
0.796280 1.142670 -0.556915 27.000000
0.816726 1.144341 -0.564426 16.000000
0.834589 1.141888 -0.570153 27.000000
0.838638 1.120657 -0.566434 25.000000
0.864843 1.128905 -0.577733 24.000000
0.848500 1.081982 -0.560772 29.000000
0.871869 1.086128 -0.570162 22.000000
0.868994 1.057743 -0.562452 25.000000
0.886461 1.054295 -0.568026 33.000000
0.915999 1.064622 -0.581272 26.000000
0.923943 1.050486 -0.581302 37.000000
0.941630 1.046157 -0.586861 27.000000
0.968703 1.051765 -0.598231 30.000000
0.941708 1.000184 -0.576939 35.000000
0.952667 0.988817 -0.578530 25.000000
1.012035 1.026458 -0.609274 31.000000
1.114327 1.105430 -0.665807 27.000000
1.381621 1.309669 -0.812826 14.000000
1.733307 1.605309 -1.011671 24.000000
1.774084 1.606501 -1.028310 9.000000
1.712787 1.515064 -0.985270 9.000000
1.079590 0.850479 -0.600906 36.000000
1.088699 0.837753 -0.602325 29.000000
1.061127 0.797394 -0.583575 32.000000
1.073444 0.787577 -0.586920 24.000000
1.078207 0.772215 -0.586186 30.000000
1.075330 0.751571 -0.581305 35.000000
1.087295 0.741401 -0.584561 30.000000
1.106747 0.736114 -0.591804 37.000000
1.099460 0.713033 -0.584764 86.000000
1.103354 0.697588 -0.583818 51.000000
1.106845 0.682363 -0.582994 71.000000
1.102595 0.662142 -0.577847 28.000000
1.093870 0.640109 -0.570796 34.000000
1.100911 0.627086 -0.571687 66.000000
1.103587 0.612024 -0.570687 61.000000
1.090100 0.588276 -0.561423 71.000000
1.096616 0.575286 -0.562170 95.000000
1.098705 0.560393 -0.561013 49.000000
1.100665 0.545471 -0.559850 95.000000
1.098360 0.528631 -0.556520 31.000000
1.108205 0.517633 -0.559418 35.000000
1.105343 0.501032 -0.556196 66.000000
1.106642 0.486208 -0.554843 42.000000
1.111756 0.473342 -0.555695 62.000000
1.116952 0.460232 -0.556304 95.000000
1.117605 0.445522 -0.554981 42.000000
1.101199 0.424341 -0.545224 73.000000
1.126986 0.419400 -0.556396 30.000000
1.097317 0.393955 -0.540227 38.000000
1.110164 0.384058 -0.545024 92.000000
1.110011 0.369662 -0.543431 77.000000
1.114026 0.356632 -0.543943 98.000000
1.104769 0.339684 -0.538202 95.000000
1.112695 0.328125 -0.540898 83.000000
1.111851 0.313925 -0.539291 95.000000
1.115197 0.300968 -0.539758 66.000000
1.114040 0.286843 -0.538068 52.000000
1.112743 0.272742 -0.536297 90.000000
1.115600 0.259810 -0.536799 60.000000
1.118302 0.246839 -0.537224 58.000000
1.112066 0.231980 -0.533360 77.000000
1.123398 0.220780 -0.537957 61.000000
1.125791 0.207693 -0.538227 95.000000
1.118998 0.193106 -0.534355 89.000000
1.103239 0.177177 -0.525991 79.000000
1.114033 0.165694 -0.530516 95.000000
1.111224 0.152162 -0.528763 95.000000
1.099390 0.137536 -0.522517 95.000000
1.114327 0.126278 -0.529028 98.000000
1.106617 0.112422 -0.524987 91.000000
1.112284 0.099952 -0.527272 100.000000
1.108757 0.086710 -0.525363 90.000000
1.105147 0.073534 -0.523264 95.000000
1.110408 0.060922 -0.525513 98.000000
1.101976 0.047656 -0.521315 95.000000
1.097905 0.034706 -0.519215 91.000000
1.093682 0.021860 -0.517152 91.000000
1.093830 0.009195 -0.517226 99.000000
1.102907 -0.003537 -0.521464 100.000000
1.102833 -0.016345 -0.521426 103.000000
1.102646 -0.029152 -0.521277 103.000000
1.102237 -0.041960 -0.521240 100.000000
1.097200 -0.054506 -0.519030 100.000000
1.096570 -0.067261 -0.518881 84.000000
1.095717 -0.079979 -0.518844 98.000000
1.094864 -0.092697 -0.518585 98.000000
1.093789 -0.105378 -0.518399 100.000000
1.110588 -0.120002 -0.526707 95.000000
1.203456 -0.144232 -0.571365 98.000000
1.224243 -0.161169 -0.581816 98.000000
1.231449 -0.176617 -0.585659 95.000000
1.233948 -0.191578 -0.587452 95.000000
1.249567 -0.208966 -0.595752 95.000000
1.256168 -0.225003 -0.599534 98.000000
1.244739 -0.237933 -0.594983 93.000000
1.250962 -0.254177 -0.598802 78.000000
1.248122 -0.268721 -0.598372 94.000000
1.249568 -0.284183 -0.599976 74.000000
1.856197 -0.513676 -0.897976 18.000000
1.854845 -0.536465 -0.899179 11.000000
1.875036 -0.565840 -0.910854 17.000000
1.864514 -0.586233 -0.907694 16.000000
1.845005 -0.603704 -0.900527 11.000000
1.864049 -0.634020 -0.912224 19.000000
1.852751 -0.654231 -0.909131 13.000000
1.849811 -0.677396 -0.910105 9.000000
1.859308 -0.705294 -0.917357 13.000000
1.834712 -0.720243 -0.907721 10.000000
1.847878 -0.750110 -0.916905 18.000000
1.831124 -0.768231 -0.911661 14.000000
1.835303 -0.794855 -0.916443 10.000000
1.826440 -0.816339 -0.915234 16.000000
1.817712 -0.837421 -0.913623 10.000000
1.812557 -0.860588 -0.914354 9.000000
1.823512 -0.891782 -0.923291 16.000000
1.789313 -0.900732 -0.909393 10.000000
1.799664 -0.932085 -0.918166 12.000000
1.793160 -0.955481 -0.918936 13.000000
1.790742 -0.980752 -0.921348 14.000000
1.788094 -1.006004 -0.923744 17.000000
1.792557 -1.036283 -0.930431 12.000000
1.769633 -1.050012 -0.922356 9.000000
1.769627 -1.078056 -0.926898 10.000000
1.754255 -1.096072 -0.922852 10.000000
1.757472 -1.126531 -0.929257 10.000000
1.737353 -1.142221 -0.923386 10.000000
1.736089 -1.170298 -0.927587 10.000000
1.745806 -1.206304 -0.937756 10.000000
1.739963 -1.232124 -0.939807 10.000000
1.719114 -1.247156 -0.933721 9.000000
1.720151 -1.278259 -0.939628 10.000000
1.698935 -1.292848 -0.933408 10.000000
1.710165 -1.332406 -0.945120 11.000000
1.692145 -1.349539 -0.940817 10.000000
1.691741 -1.380876 -0.946393 10.000000
1.683167 -1.407028 -0.948254 13.000000
1.682028 -1.438586 -0.953615 10.000000
1.683871 -1.473276 -0.960907 9.000000
1.660453 -1.487355 -0.954666 9.000000
1.651398 -1.512809 -0.955853 10.000000
1.657948 -1.554605 -0.967180 12.000000
1.638118 -1.570640 -0.962364 10.000000
1.620590 -1.590199 -0.959806 10.000000
1.620005 -1.625248 -0.966501 11.000000
1.601995 -1.644625 -0.963842 10.000000
1.625101 -1.707206 -0.986195 10.000000
1.594587 -1.712409 -0.975303 10.000000
1.594358 -1.751931 -0.983949 10.000000
1.590374 -1.788213 -0.990536 12.000000
1.568687 -1.802984 -0.985232 10.000000
1.563865 -1.839298 -0.991653 10.000000
1.543714 -1.857936 -0.988547 10.000000
1.529159 -1.883525 -0.989136 10.000000
1.540198 -1.941759 -1.006554 10.000000
1.518973 -1.960127 -1.003207 9.000000
1.511581 -1.996738 -1.009204 10.000000
1.514659 -2.048279 -1.022422 15.000000
1.492292 -2.066373 -1.018904 17.000000
1.480551 -2.099402 -1.022615 24.000000
1.457768 -2.117122 -1.018986 25.000000
1.432137 -2.130645 -1.013353 24.000000
1.414164 -2.155609 -1.013305 22.000000
1.393343 -2.176353 -1.011239 16.000000
1.374822 -2.200939 -1.011058 19.000000
1.358301 -2.229285 -1.012488 21.000000
1.331822 -2.241595 -1.006756 18.000000
1.309937 -2.261670 -1.004541 19.000000
1.290089 -2.285526 -1.004098 18.000000
0.629803 1.123104 -0.482224 19.000000
0.683902 1.188435 -0.515799 21.000000
0.744149 1.260721 -0.553204 29.000000
0.752823 1.243696 -0.551805 22.000000
0.775964 1.250464 -0.561017 28.000000
0.766821 1.205631 -0.547089 29.000000
0.790752 1.211552 -0.556085 10.000000
0.777832 1.163269 -0.540161 27.000000
0.777157 1.134653 -0.533049 21.000000
0.808132 1.151992 -0.547679 24.000000
0.806943 1.123358 -0.540470 31.000000
0.832832 1.132362 -0.551504 22.000000
0.839447 1.114929 -0.549728 26.000000
0.845810 1.097447 -0.547882 29.000000
0.906605 1.149335 -0.581060 16.000000
0.860702 1.066188 -0.545923 33.000000
0.878184 1.062993 -0.551391 31.000000
0.892099 1.056387 -0.555203 33.000000
0.894462 1.035174 -0.551279 41.000000
0.911901 1.031361 -0.556694 27.000000
0.935573 1.034136 -0.565891 33.000000
0.940534 1.016133 -0.563773 27.000000
0.960616 1.015315 -0.571273 22.000000
0.962114 0.993777 -0.567149 82.000000
1.386225 1.337612 -0.797655 95.000000
1.855857 1.711378 -1.052083 21.000000
1.888513 1.701445 -1.062299 24.000000
1.882285 1.658081 -1.051709 9.000000
1.890148 1.626401 -1.048386 12.000000
1.889773 1.589532 -1.041395 23.000000
1.060093 0.793169 -0.566235 35.000000
1.064908 0.777978 -0.565539 35.000000
1.084535 0.773454 -0.572690 36.000000
1.081593 0.752841 -0.567992 35.000000
1.104926 0.750412 -0.577107 75.000000
1.105402 0.732334 -0.574243 68.000000
1.105635 0.714303 -0.571407 43.000000
1.109550 0.698810 -0.570464 95.000000
1.101519 0.676127 -0.563475 62.000000
1.104731 0.661038 -0.562677 80.000000
1.115934 0.650266 -0.565627 60.000000
1.122819 0.637314 -0.566745 65.000000
1.125827 0.621805 -0.565593 95.000000
1.104220 0.593564 -0.552507 95.000000
1.106730 0.578359 -0.551240 90.000000
1.112895 0.565445 -0.552157 95.000000
1.110779 0.548401 -0.549021 94.000000
1.108410 0.531507 -0.545791 98.000000
1.126582 0.524319 -0.552708 35.000000
1.123901 0.507404 -0.549385 75.000000
1.120892 0.490723 -0.546215 95.000000
1.117804 0.474032 -0.542829 83.000000
1.135624 0.466120 -0.549567 95.000000
1.136350 0.451260 -0.548301 95.000000
1.136877 0.436458 -0.546988 95.000000
1.111594 0.412122 -0.533322 95.000000
1.124582 0.402259 -0.538064 31.000000
1.120282 0.386215 -0.534552 98.000000
1.120123 0.371728 -0.533010 95.000000
1.115473 0.355877 -0.529404 98.000000
1.119199 0.342975 -0.530031 98.000000
1.122963 0.329917 -0.530423 98.000000
1.122070 0.315625 -0.528867 98.000000
1.121033 0.301435 -0.527268 98.000000
1.115407 0.286138 -0.523596 32.000000
1.113997 0.272203 -0.522026 95.000000
1.112487 0.258177 -0.520300 95.000000
1.119650 0.246286 -0.522795 95.000000
1.113319 0.231476 -0.519028 100.000000
1.115761 0.218544 -0.519371 98.000000
1.109143 0.203967 -0.515481 95.000000
1.106857 0.190293 -0.513629 95.000000
1.113343 0.178197 -0.516049 35.000000
1.119694 0.165997 -0.518395 98.000000
1.121442 0.153003 -0.518623 100.000000
1.127548 0.140572 -0.520859 103.000000
1.124482 0.127015 -0.519041 100.000000
1.121252 0.113563 -0.517184 100.000000
1.117900 0.100178 -0.515249 100.000000
1.123447 0.087566 -0.517449 95.000000
1.133461 0.075150 -0.521660 51.000000
1.120576 0.061283 -0.515513 100.000000
1.116639 0.048122 -0.513501 100.000000
1.117127 0.035209 -0.513501 100.000000
1.117390 0.022297 -0.513614 100.000000
1.113035 0.009309 -0.511563 98.000000
1.108529 -0.003537 -0.509475 100.000000
1.112960 -0.016412 -0.511488 95.000000
1.130941 -0.029788 -0.519725 95.000000
1.121442 -0.042513 -0.515513 95.000000
1.125453 -0.055703 -0.517487 95.000000
1.120274 -0.068444 -0.515287 95.000000
1.092252 -0.079431 -0.502696 34.000000
1.109409 -0.093610 -0.510928 98.000000
1.230466 -0.118162 -0.567026 98.000000
1.274327 -0.137265 -0.587615 95.000000
1.268307 -0.151442 -0.585231 88.000000
1.275564 -0.167289 -0.589180 73.000000
1.269163 -0.181414 -0.586797 73.000000
1.267141 -0.196087 -0.586453 66.000000
1.269475 -0.211464 -0.588144 35.000000
1.240194 -0.221394 -0.575421 81.000000
1.237700 -0.235764 -0.575083 81.000000
1.235080 -0.250051 -0.574660 80.000000
1.903053 -0.477654 -0.891187 22.000000
1.902195 -0.500845 -0.892463 18.000000
1.896592 -0.522861 -0.891606 11.000000
1.908365 -0.549857 -0.898931 20.000000
1.910903 -0.574634 -0.902386 19.000000
1.900339 -0.595327 -0.899192 18.000000
1.898005 -0.618811 -0.900381 21.000000
1.878168 -0.636477 -0.893285 19.000000
1.896941 -0.667327 -0.904596 20.000000
1.902460 -0.694021 -0.909598 17.000000
1.882069 -0.711201 -0.902308 11.000000
1.895514 -0.741246 -0.911246 24.000000
1.874787 -0.758026 -0.903764 17.000000
1.870483 -0.781688 -0.904788 21.000000
1.853424 -0.799817 -0.899499 21.000000
1.857381 -0.826702 -0.904110 12.000000
1.864827 -0.855988 -0.910935 16.000000
1.863637 -0.881548 -0.913616 16.000000
1.849823 -0.901222 -0.910149 10.000000
1.831826 -0.918545 -0.904600 20.000000
1.833977 -0.946098 -0.909074 12.000000
1.847567 -0.980511 -0.919844 18.000000
1.832948 -0.999727 -0.916161 17.000000
1.821746 -1.021296 -0.914700 14.000000
1.818694 -1.046881 -0.916894 15.000000
1.807023 -1.068196 -0.915287 11.000000
1.787721 -1.084266 -0.909342 10.000000
1.795154 -1.117329 -0.917625 16.000000
1.771172 -1.130953 -0.909906 12.000000
1.777933 -1.164212 -0.918073 13.000000
1.772699 -1.190172 -0.920123 18.000000
1.759644 -1.210890 -0.918208 11.000000
1.772665 -1.249933 -0.930013 10.000000
1.770161 -1.278751 -0.933823 10.000000
1.711876 -1.266510 -0.908112 9.000000
1.734776 -1.314218 -0.925560 16.000000
1.731398 -1.342890 -0.929179 12.000000
1.731299 -1.374463 -0.934644 15.000000
1.719419 -1.397950 -0.934536 18.000000
1.715003 -1.426757 -0.937927 11.000000
1.692619 -1.440646 -0.931477 11.000000
1.690425 -1.472920 -0.937057 10.000000
1.678150 -1.495495 -0.936310 9.000000
1.692134 -1.543491 -0.951267 21.000000
1.672332 -1.559791 -0.946555 12.000000
1.671677 -1.595612 -0.953598 17.000000
1.663900 -1.625217 -0.956787 20.000000
1.646708 -1.644328 -0.953793 10.000000
1.644706 -1.680363 -0.960639 17.000000
1.645308 -1.719974 -0.969240 10.000000
1.640012 -1.752407 -0.973542 10.000000
1.626984 -1.778613 -0.974445 23.000000
1.619750 -1.811804 -0.978982 19.000000
1.612053 -1.844971 -0.983393 20.000000
1.606905 -1.881717 -0.989615 22.000000
1.581511 -1.892887 -0.982337 18.000000
1.587222 -1.944003 -0.995773 28.000000
1.568946 -1.966425 -0.994315 19.000000
1.559008 -1.999675 -0.998341 22.000000
1.531579 -2.010731 -0.991280 34.000000
1.523607 -2.047558 -0.996979 29.000000
1.487666 -2.046772 -0.984403 35.000000
1.473557 -2.075743 -0.986259 31.000000
1.453720 -2.097073 -0.984560 29.000000
1.423169 -2.102754 -0.975508 31.000000
1.413380 -2.139086 -0.980788 22.000000
1.388752 -2.156594 -0.977437 20.000000
1.368034 -2.177055 -0.975441 29.000000
1.342175 -2.189265 -0.969898 25.000000
1.323439 -2.213299 -0.969564 29.000000
1.313713 -2.253293 -0.976297 29.000000
1.291720 -2.273091 -0.974048 25.000000
0.613075 1.116403 -0.462308 11.000000
0.642018 1.137223 -0.475988 22.000000
0.698858 1.206698 -0.510559 27.000000
0.740533 1.246684 -0.533263 26.000000
0.753829 1.237773 -0.535337 35.000000
0.754619 1.208884 -0.528716 27.000000
0.773405 1.207266 -0.534062 30.000000
0.752932 1.147080 -0.513251 19.000000
0.767838 1.141977 -0.516931 25.000000
0.777387 1.128928 -0.517051 31.000000
0.794892 1.127271 -0.522426 28.000000
0.809781 1.121562 -0.526049 30.000000
0.827394 1.119410 -0.531467 33.000000
0.836627 1.105774 -0.531497 26.000000
0.854260 1.103183 -0.536855 28.000000
0.851683 1.074686 -0.529627 17.000000
0.854448 1.053685 -0.525954 32.000000
0.871811 1.050644 -0.531268 35.000000
0.889240 1.047327 -0.536560 37.000000
0.897531 1.033235 -0.536401 49.000000
0.918019 1.032947 -0.543551 34.000000
0.935470 1.028907 -0.548854 30.000000
0.942982 1.014735 -0.548792 49.000000
0.960434 1.010193 -0.554077 19.000000
1.023278 1.052015 -0.585267 64.000000
1.116617 1.122028 -0.633287 103.000000
1.821724 1.710364 -1.009391 76.000000
1.867041 1.714299 -1.027294 68.000000
1.903143 1.707480 -1.039296 28.000000
1.910643 1.676253 -1.036495 21.000000
1.925726 1.650372 -1.037032 18.000000
1.918298 1.607249 -1.026510 25.000000
1.921814 1.572587 -1.021132 26.000000
1.855501 1.483742 -0.979907 22.000000
1.104625 0.803639 -0.569453 32.000000
1.098253 0.780036 -0.563005 76.000000
1.114209 0.772414 -0.568073 81.000000
1.114916 0.754194 -0.565411 86.000000
1.123070 0.741139 -0.566525 98.000000
1.119469 0.720471 -0.561807 73.000000
1.123418 0.704883 -0.560918 84.000000
1.123210 0.686896 -0.558070 71.000000
1.118812 0.666649 -0.553166 43.000000
1.133807 0.658358 -0.558206 95.000000
1.141026 0.645007 -0.559119 98.000000
1.140015 0.627138 -0.556059 95.000000
1.150717 0.616136 -0.559064 100.000000
1.145078 0.596422 -0.554145 95.000000
1.118852 0.566320 -0.539077 95.000000
1.120772 0.551338 -0.538015 98.000000
1.114280 0.532368 -0.532902 85.000000
1.144966 0.530983 -0.545586 86.000000
1.150715 0.517639 -0.546383 76.000000
1.160501 0.506087 -0.549086 91.000000
1.153302 0.487173 -0.543826 91.000000
1.149939 0.470454 -0.540668 94.000000
1.150804 0.455328 -0.539250 91.000000
1.147064 0.438747 -0.535992 95.000000
1.160321 0.428632 -0.540692 95.000000
1.130379 0.402899 -0.525311 98.000000
1.130365 0.388298 -0.523904 95.000000
1.134547 0.375195 -0.524461 100.000000
1.134207 0.360626 -0.522928 98.000000
1.138095 0.347455 -0.523404 98.000000
1.133002 0.331751 -0.519968 98.000000
1.136505 0.318681 -0.520480 100.000000
1.135551 0.304270 -0.518776 91.000000
1.134375 0.290000 -0.517187 98.000000
1.128497 0.274789 -0.513690 100.000000
1.131443 0.261689 -0.514038 98.000000
1.125225 0.246709 -0.510414 98.000000
1.132393 0.234562 -0.512709 95.000000
1.130378 0.220600 -0.510991 98.000000
1.132646 0.207603 -0.511452 98.000000
1.130373 0.193719 -0.509652 95.000000
1.136953 0.181340 -0.511875 98.000000
1.161433 0.171566 -0.522306 100.000000
1.136080 0.154500 -0.510342 100.000000
1.160313 0.144219 -0.520859 98.000000
1.134605 0.127754 -0.508766 98.000000
1.135902 0.114670 -0.508957 100.000000
1.137085 0.101547 -0.509109 105.000000
1.138115 0.088425 -0.509224 95.000000
1.157294 0.076507 -0.517410 95.000000
1.148912 0.062639 -0.513490 98.000000
1.149527 0.049411 -0.513567 98.000000
1.131735 0.035571 -0.505415 103.000000
1.132037 0.022516 -0.505529 100.000000
1.132189 0.009460 -0.505566 100.000000
1.127661 -0.003580 -0.503528 98.000000
1.127586 -0.016583 -0.503452 95.000000
1.131924 -0.029668 -0.505377 95.000000
1.131545 -0.042723 -0.505339 95.000000
1.140137 -0.056229 -0.509300 98.000000
1.144046 -0.069629 -0.511184 61.000000
1.451651 -0.122030 -0.649429 105.000000
1.345676 -0.128768 -0.602424 110.000000
1.303359 -0.139874 -0.583845 98.000000
1.292667 -0.153859 -0.579602 95.000000
1.290971 -0.168688 -0.579211 86.000000
1.289101 -0.183561 -0.578906 75.000000
1.287057 -0.198434 -0.578558 95.000000
1.262213 -0.209564 -0.568195 56.000000
1.250864 -0.222532 -0.563839 84.000000
1.257428 -0.238574 -0.567383 95.000000
1.922036 -0.457405 -0.872952 23.000000
1.930405 -0.482751 -0.878018 23.000000
1.925095 -0.505053 -0.877288 10.000000
1.928145 -0.529780 -0.880721 19.000000
1.944339 -0.558300 -0.889854 23.000000
1.933883 -0.579378 -0.886831 24.000000
1.927423 -0.601718 -0.886024 20.000000
1.933760 -0.628304 -0.891171 23.000000
1.935529 -0.653593 -0.894164 24.000000
1.932639 -0.677430 -0.895146 24.000000
1.925205 -0.699733 -0.893986 10.000000
1.900339 -0.715441 -0.884837 18.000000
1.901109 -0.740603 -0.887542 21.000000
1.901332 -0.766167 -0.890508 24.000000
1.888844 -0.786230 -0.887155 24.000000
1.901211 -0.817203 -0.895930 21.000000
1.892196 -0.839225 -0.894623 19.000000
1.887081 -0.863087 -0.895365 19.000000
1.865170 -0.879008 -0.888052 10.000000
1.867907 -0.906607 -0.892537 18.000000
1.857975 -0.928126 -0.891020 20.000000
1.872086 -0.962530 -0.901590 18.000000
1.869803 -0.988422 -0.903912 23.000000
1.863105 -1.012095 -0.904119 23.000000
1.855867 -1.036144 -0.904670 19.000000
1.836322 -1.053278 -0.899210 15.000000
1.825021 -1.074265 -0.897314 10.000000
1.828855 -1.105129 -0.903489 16.000000
1.824508 -1.131296 -0.905677 15.000000
1.804287 -1.147610 -0.900090 16.000000
1.810920 -1.181231 -0.907929 20.000000
1.794133 -1.199707 -0.904136 18.000000
1.803827 -1.236207 -0.913775 16.000000
1.797856 -1.262486 -0.915597 17.000000
1.776560 -1.277940 -0.909725 9.000000
1.781267 -1.312178 -0.917201 15.000000
1.763325 -1.330006 -0.913098 18.000000
1.759933 -1.358904 -0.916554 19.000000
1.751922 -1.385485 -0.918375 23.000000
1.744153 -1.411500 -0.919810 14.000000
1.728390 -1.432221 -0.917738 18.000000
1.720061 -1.458042 -0.919070 16.000000
1.714282 -1.487585 -0.922488 10.000000
1.722695 -1.528782 -0.933012 17.000000
1.715927 -1.558456 -0.936356 19.000000
1.712966 -1.590765 -0.941001 21.000000
1.705446 -1.620580 -0.944127 23.000000
1.687499 -1.640772 -0.941651 18.000000
1.673464 -1.663309 -0.940485 20.000000
1.664867 -1.693015 -0.943466 18.000000
1.659118 -1.725992 -0.948101 10.000000
1.671947 -1.779453 -0.963707 20.000000
1.669109 -1.815567 -0.969569 22.000000
1.652326 -1.838763 -0.968482 25.000000
1.638380 -1.865126 -0.969120 27.000000
1.627073 -1.895089 -0.971549 28.000000
1.621365 -1.932084 -0.977475 53.000000
1.594399 -1.943940 -0.970654 37.000000
1.579100 -1.969974 -0.971036 35.000000
1.551878 -1.981197 -0.964157 32.000000
1.521813 -1.988326 -0.955519 35.000000
1.511499 -2.021210 -0.959354 35.000000
1.489581 -2.039008 -0.955893 36.000000
1.464781 -2.052750 -0.950751 32.000000
1.447928 -2.077620 -0.950811 37.000000
1.433462 -2.106240 -0.952515 33.000000
1.413311 -2.127077 -0.950690 30.000000
1.387891 -2.139776 -0.945376 27.000000
1.360897 -2.152910 -0.940324 31.000000
1.342708 -2.176890 -0.940128 31.000000
1.314498 -2.184726 -0.932950 31.000000
1.295805 -2.208324 -0.932644 28.000000
1.281441 -2.240030 -0.935719 34.000000
1.257927 -2.260139 -0.933899 29.000000
0.627369 1.134686 -0.457760 13.000000
0.662707 1.168119 -0.476319 17.000000
0.706850 1.212671 -0.499865 22.000000
0.736624 1.232500 -0.513608 27.000000
0.754665 1.231776 -0.518990 25.000000
0.760278 1.210832 -0.515913 34.000000
0.781647 1.213178 -0.522831 27.000000
0.758341 1.149002 -0.500867 18.000000
0.762746 1.128299 -0.497552 25.000000
0.782841 1.130806 -0.504533 28.000000
0.794957 1.121551 -0.506366 34.000000
0.806984 1.112073 -0.508154 28.000000
0.827306 1.113794 -0.515164 32.000000
0.844946 1.111452 -0.520418 33.000000
0.856859 1.101403 -0.522191 26.000000
0.851904 1.068890 -0.513192 23.000000
0.863400 1.058776 -0.514841 33.000000
0.877802 1.052119 -0.518303 32.000000
0.885544 1.038592 -0.518361 54.000000
0.896772 1.028077 -0.519965 37.000000
0.917239 1.027882 -0.526927 37.000000
0.928402 1.017033 -0.528503 42.000000
0.945799 1.012825 -0.533627 34.000000
0.976141 1.021867 -0.545979 26.000000
1.832498 1.713078 -0.984882 57.000000
1.877892 1.717137 -1.002421 71.000000
1.910710 1.707162 -1.012274 39.000000
1.918953 1.675290 -1.009188 26.000000
1.940131 1.656232 -1.013794 32.000000
1.940557 1.618237 -1.006802 21.000000
1.957656 1.595825 -1.009458 25.000000
1.946288 1.549375 -0.996821 28.000000
1.893153 1.472759 -0.963853 23.000000
1.823932 1.386209 -0.923235 38.000000
1.131787 0.781474 -0.559911 87.000000
1.121020 0.755352 -0.551644 87.000000
1.129174 0.742297 -0.552758 61.000000
1.141089 0.731606 -0.555768 95.000000
1.137238 0.710928 -0.551096 68.000000
1.144937 0.697653 -0.552113 86.000000
1.148530 0.681930 -0.551224 38.000000
1.155938 0.668480 -0.552150 52.000000
1.159189 0.652676 -0.551162 95.000000
1.170138 0.641580 -0.554134 95.000000
1.169047 0.623521 -0.551131 95.000000
1.167467 0.605825 -0.548291 95.000000
1.165881 0.587971 -0.545221 98.000000
1.143149 0.560288 -0.532619 95.000000
1.136639 0.541118 -0.527663 67.000000
1.146614 0.529888 -0.530390 41.000000
1.173327 0.526020 -0.540835 95.000000
1.179032 0.512439 -0.541601 93.000000
1.180278 0.496944 -0.540339 74.000000
1.185666 0.483242 -0.541017 95.000000
1.177906 0.464558 -0.535976 77.000000
1.170078 0.445959 -0.530710 88.000000
1.170490 0.430881 -0.529462 76.000000
1.166367 0.414320 -0.526212 78.000000
1.140333 0.390425 -0.513078 95.000000
1.140162 0.375793 -0.511677 95.000000
1.152953 0.365389 -0.516120 100.000000
1.143689 0.348050 -0.510709 98.000000
1.147458 0.334799 -0.511105 95.000000
1.150989 0.321588 -0.511661 100.000000
1.149921 0.307151 -0.510167 95.000000
1.166559 0.297317 -0.516516 84.000000
1.142930 0.277344 -0.505117 95.000000
1.150375 0.265212 -0.507404 98.000000
1.148672 0.251016 -0.505898 98.000000
1.151367 0.237734 -0.506133 100.000000
1.149360 0.223615 -0.504506 98.000000
1.151733 0.210347 -0.504817 95.000000
1.153912 0.197157 -0.505206 81.000000
1.169614 0.186012 -0.511347 95.000000
1.176083 0.173217 -0.513645 103.000000
1.173354 0.159085 -0.511898 100.000000
1.175007 0.145582 -0.512095 100.000000
1.176542 0.132039 -0.512213 100.000000
1.177881 0.118497 -0.512410 100.000000
1.160821 0.103327 -0.504659 103.000000
1.152757 0.089286 -0.500762 95.000000
1.162758 0.076662 -0.504930 95.000000
1.168153 0.063501 -0.506918 100.000000
1.168776 0.050077 -0.506996 98.000000
1.164658 0.036509 -0.505047 98.000000
1.164968 0.023138 -0.505163 100.000000
1.165161 0.009728 -0.505202 98.000000
1.160613 -0.003629 -0.503174 98.000000
1.160497 -0.016986 -0.503136 95.000000
1.151132 -0.030065 -0.499043 95.000000
1.150710 -0.043317 -0.498967 95.000000
1.755879 -0.147070 -0.762656 43.000000
1.644543 -0.156830 -0.714770 98.000000
1.460254 -0.156152 -0.635059 105.000000
1.339948 -0.158897 -0.583281 103.000000
1.315352 -0.171320 -0.573096 89.000000
1.308911 -0.185801 -0.570850 89.000000
1.315921 -0.202225 -0.574460 86.000000
1.263750 -0.209114 -0.552415 34.000000
1.293144 -0.229198 -0.565794 95.000000
1.828569 -0.389574 -0.803678 32.000000
1.918411 -0.431683 -0.844362 25.000000
1.958288 -0.464359 -0.863422 25.000000
1.962061 -0.489105 -0.866693 21.000000
1.965516 -0.513990 -0.869823 14.000000
1.950983 -0.534155 -0.865015 16.000000
1.984928 -0.567896 -0.881749 19.000000
1.978625 -0.590779 -0.880995 23.000000
1.967656 -0.612227 -0.878145 18.000000
1.965197 -0.636339 -0.879214 18.000000
1.962570 -0.660416 -0.880211 22.000000
1.942256 -0.678385 -0.873251 16.000000
1.947807 -0.705391 -0.878014 12.000000
1.961674 -0.735862 -0.886520 22.000000
1.944894 -0.755230 -0.881655 17.000000
1.919637 -0.770622 -0.872568 23.000000
1.928098 -0.799814 -0.879167 19.000000
1.931960 -0.827516 -0.883806 22.000000
1.918559 -0.847987 -0.880618 22.000000
1.909256 -0.870065 -0.879299 14.000000
1.908095 -0.895995 -0.881839 11.000000
1.919102 -0.928004 -0.890007 21.000000
1.900687 -0.945956 -0.884610 19.000000
1.898306 -0.972275 -0.887187 22.000000
1.871457 -0.985452 -0.877899 15.000000
1.876734 -1.016053 -0.884156 18.000000
1.873884 -1.041975 -0.886213 18.000000
1.858259 -1.061419 -0.882820 14.000000
1.862485 -1.092394 -0.888879 10.000000
1.866220 -1.123526 -0.894840 17.000000
1.861730 -1.150094 -0.896979 18.000000
1.856918 -1.176628 -0.898960 24.000000
1.836253 -1.193037 -0.893371 16.000000
1.834753 -1.222031 -0.897148 18.000000
1.825215 -1.245851 -0.897141 18.000000
1.811604 -1.266886 -0.895103 11.000000
1.824231 -1.306747 -0.906171 10.000000
1.791353 -1.314005 -0.894690 11.000000
1.795134 -1.349064 -0.902183 20.000000
1.780511 -1.369743 -0.899967 23.000000
1.769463 -1.393072 -0.899532 18.000000
1.771928 -1.428444 -0.906787 20.000000
1.774525 -1.463564 -0.913623 18.000000
1.765315 -1.490484 -0.915191 14.000000
1.759949 -1.519775 -0.918121 17.000000
1.739601 -1.537370 -0.914001 12.000000
1.736277 -1.570340 -0.919025 18.000000
1.733374 -1.602710 -0.923626 23.000000
1.708813 -1.616653 -0.917516 14.000000
1.704330 -1.649730 -0.922298 19.000000
1.716839 -1.698581 -0.935682 22.000000
1.698186 -1.718736 -0.932994 14.000000
1.705150 -1.765426 -0.944675 22.000000
1.689012 -1.788886 -0.943737 19.000000
1.697900 -1.839556 -0.956991 30.000000
1.680911 -1.862817 -0.955827 47.000000
1.657416 -1.879059 -0.951102 40.000000
1.618645 -1.877191 -0.937463 80.000000
1.602253 -1.898963 -0.935829 47.000000
1.578694 -1.914068 -0.930994 52.000000
1.566647 -1.943446 -0.933173 51.000000
1.541547 -1.958795 -0.928662 26.000000
1.523136 -1.980532 -0.927155 35.000000
1.496111 -1.990845 -0.920516 35.000000
1.480113 -2.015910 -0.920648 32.000000
1.455662 -2.029419 -0.915674 32.000000
1.436439 -2.050231 -0.913979 34.000000
1.422360 -2.078701 -0.915770 33.000000
1.397338 -2.091395 -0.910633 32.000000
1.387738 -2.127420 -0.915601 23.000000
1.363513 -2.144394 -0.912387 30.000000
1.343007 -2.164380 -0.910527 31.000000
1.322250 -2.184094 -0.908571 27.000000
1.301324 -2.203618 -0.906602 32.000000
1.278486 -2.223779 -0.904951 28.000000
1.261499 -2.251150 -0.906186 29.000000
0.641731 1.152893 -0.452796 10.000000
0.675088 1.182217 -0.469292 10.000000
0.725859 1.239407 -0.497358 16.000000
0.735001 1.222267 -0.495837 22.000000
0.750426 1.217622 -0.499467 24.000000
0.755814 1.196777 -0.496445 24.000000
0.773663 1.195724 -0.501644 22.000000
0.750718 1.131152 -0.480015 10.000000
0.773353 1.137907 -0.488508 24.000000
0.785516 1.128773 -0.490290 21.000000
0.797591 1.119506 -0.492073 16.000000
0.806759 1.106303 -0.492119 26.000000
0.824241 1.104338 -0.497245 14.000000
0.842471 1.101659 -0.502170 21.000000
0.860056 1.099112 -0.507296 19.000000
0.868904 1.085339 -0.507260 10.000000
0.862752 1.053339 -0.498614 31.000000
0.865038 1.032370 -0.495077 19.000000
0.885319 1.032851 -0.501845 25.000000
0.896471 1.022452 -0.503394 32.000000
0.920006 1.025833 -0.511907 24.000000
0.931132 1.014976 -0.513477 32.000000
0.942122 1.004030 -0.514958 18.000000
0.985393 1.026677 -0.534050 9.000000
1.335073 1.330584 -0.712211 35.000000
1.800419 1.714697 -0.945303 35.000000
1.843108 1.715710 -0.960209 40.000000
1.878301 1.710376 -0.972022 29.000000
1.907522 1.697439 -0.979802 36.000000
1.922614 1.671842 -0.980344 24.000000
1.940193 1.649764 -0.983093 30.000000
1.958355 1.626853 -0.985343 32.000000
1.968281 1.598481 -0.984307 14.000000
1.971359 1.563574 -0.979211 15.000000
1.973196 1.529419 -0.974412 17.000000
1.938145 1.466771 -0.950952 10.000000
1.142875 0.748503 -0.542592 43.000000
1.143120 0.730223 -0.539970 34.000000
1.147065 0.714490 -0.539187 60.000000
1.154791 0.701169 -0.540163 34.000000
1.162384 0.687715 -0.541140 30.000000
1.165823 0.671899 -0.540254 56.000000
1.165034 0.653774 -0.537407 38.000000
1.188433 0.649087 -0.545762 98.000000
1.187108 0.631145 -0.543042 88.000000
1.185776 0.613037 -0.540088 78.000000
1.179861 0.593170 -0.535419 92.000000
1.182178 0.577352 -0.534277 59.000000
1.179963 0.559774 -0.531375 46.000000
1.156506 0.532619 -0.518982 40.000000
1.174891 0.524940 -0.525407 48.000000
1.189026 0.515088 -0.529956 83.000000
1.186047 0.497750 -0.526849 63.000000
1.187149 0.482307 -0.525630 42.000000
1.192348 0.468570 -0.526264 90.000000
1.197293 0.454918 -0.526983 65.000000
1.193558 0.437870 -0.523724 59.000000
1.176430 0.416437 -0.514861 52.000000
1.158971 0.395462 -0.505933 95.000000
1.158787 0.380717 -0.504587 98.000000
1.189284 0.375691 -0.516591 95.000000
1.184482 0.359332 -0.513255 91.000000
1.166196 0.339224 -0.504081 98.000000
1.160872 0.323383 -0.500805 87.000000
1.159915 0.308774 -0.499243 95.000000
1.176589 0.298893 -0.505445 52.000000
1.179760 0.285369 -0.505846 95.000000
1.182810 0.271805 -0.506208 95.000000
1.163118 0.253370 -0.497056 94.000000
1.161316 0.239016 -0.495365 85.000000
1.163825 0.225722 -0.495718 98.000000
1.166217 0.212350 -0.496032 86.000000
1.163906 0.198203 -0.494375 76.000000
1.184155 0.187772 -0.502457 62.000000
1.190741 0.174794 -0.504548 100.000000
1.178865 0.159321 -0.498985 98.000000
1.189670 0.146909 -0.503052 100.000000
1.191177 0.133301 -0.503329 100.000000
1.187979 0.119154 -0.501473 98.000000
1.189204 0.105559 -0.501631 95.000000
1.185676 0.091569 -0.499812 98.000000
1.181982 0.077685 -0.498071 52.000000
1.182805 0.064117 -0.498071 95.000000
1.178828 0.050391 -0.496211 95.000000
1.174690 0.036731 -0.494312 98.000000
1.175002 0.023268 -0.494389 100.000000
1.170549 0.009767 -0.492528 98.000000
1.179805 -0.003672 -0.496367 100.000000
1.170510 -0.017053 -0.492451 98.000000
1.852905 -0.133317 -0.780530 30.000000
1.901838 -0.158750 -0.801582 15.000000
1.863353 -0.177055 -0.785782 35.000000
1.333328 -0.188604 -0.564164 89.000000
1.322028 -0.202534 -0.560078 57.000000
1.900177 -0.380740 -0.808969 25.000000
1.945537 -0.413072 -0.829630 24.000000
1.972524 -0.442371 -0.842303 21.000000
1.990039 -0.470268 -0.851309 18.000000
1.975873 -0.490890 -0.846726 16.000000
1.970490 -0.513500 -0.845918 14.000000
1.969158 -0.537393 -0.847230 10.000000
2.003267 -0.571251 -0.863517 18.000000
1.983584 -0.590352 -0.857022 14.000000
1.981434 -0.614484 -0.858044 17.000000
1.992243 -0.642907 -0.864789 21.000000
1.967664 -0.659839 -0.856125 13.000000
1.964767 -0.683899 -0.857002 16.000000
1.957283 -0.706352 -0.855835 11.000000
1.958050 -0.732183 -0.858742 9.000000
1.971691 -0.762875 -0.866986 19.000000
1.958958 -0.783820 -0.863976 12.000000
1.954537 -0.808132 -0.864755 16.000000
1.937096 -0.827020 -0.859790 14.000000
1.928071 -0.849237 -0.858540 10.000000
1.935566 -0.879045 -0.864757 14.000000
1.913383 -0.895287 -0.857714 10.000000
1.899467 -0.915193 -0.854444 9.000000
1.934864 -0.959930 -0.873892 18.000000
1.899704 -0.969330 -0.861026 10.000000
1.893001 -0.993525 -0.861632 10.000000
1.898641 -1.023857 -0.867405 11.000000
1.891347 -1.048102 -0.867848 10.000000
1.883791 -1.072299 -0.868214 10.000000
1.875970 -1.096375 -0.868502 10.000000
1.851954 -1.110917 -0.861303 9.000000
1.891111 -1.163929 -0.883705 14.000000
1.862701 -1.175815 -0.874574 10.000000
1.853657 -1.199821 -0.874607 10.000000
1.844485 -1.223701 -0.874560 10.000000
1.827274 -1.242294 -0.870838 10.000000
1.836704 -1.279271 -0.879857 13.000000
1.815253 -1.294928 -0.874152 10.000000
1.808227 -1.321693 -0.876040 9.000000
1.805104 -1.350837 -0.879362 12.000000
1.808455 -1.386132 -0.886581 10.000000
1.800943 -1.412554 -0.887960 10.000000
1.788770 -1.436602 -0.887741 10.000000
1.787798 -1.468867 -0.892612 10.000000
1.792879 -1.507777 -0.901265 14.000000
1.769791 -1.522064 -0.895157 9.000000
1.749348 -1.539730 -0.891158 8.000000
1.756593 -1.582022 -0.901343 13.000000
1.757108 -1.617772 -0.907521 10.000000
1.762999 -1.660720 -0.917502 14.000000
1.744740 -1.681350 -0.915052 19.000000
1.732910 -1.708234 -0.915967 13.000000
1.733883 -1.748411 -0.923967 22.000000
1.728711 -1.781358 -0.927920 22.000000
1.705996 -1.798096 -0.923425 12.000000
1.692676 -1.824826 -0.924162 37.000000
1.660143 -1.830621 -0.914385 36.000000
1.646425 -1.856940 -0.914950 36.000000
1.610875 -1.858339 -0.903423 32.000000
1.605824 -1.894959 -0.909138 32.000000
1.576250 -1.902753 -0.901013 37.000000
1.552746 -1.917400 -0.896255 27.000000
1.540752 -1.946484 -0.898315 10.000000
1.513968 -1.956929 -0.891863 30.000000
1.494410 -1.979064 -0.890744 23.000000
1.484282 -2.011506 -0.894264 29.000000
1.454385 -2.017302 -0.885989 25.000000
1.435345 -2.038074 -0.884438 25.000000
1.416142 -2.058586 -0.882875 27.000000
1.386173 -2.063258 -0.874500 20.000000
1.380793 -2.107774 -0.883101 10.000000
1.360684 -2.127804 -0.881326 26.000000
1.347993 -2.159586 -0.884379 24.000000
1.320048 -2.167141 -0.877574 27.000000
1.297797 -2.187349 -0.876007 22.000000
1.279138 -2.210642 -0.875720 19.000000
1.255490 -2.225638 -0.872095 21.000000
1.239141 -2.257647 -0.875234 18.000000
0.626913 1.149930 -0.434703 10.000000
0.653020 1.167355 -0.446004 15.000000
0.687493 1.196219 -0.461925 18.000000
0.700148 1.188137 -0.463790 29.000000
0.717657 1.187988 -0.468855 27.000000
0.731025 1.179135 -0.470510 34.000000
0.740961 1.166556 -0.470731 31.000000
0.761087 1.169764 -0.477412 28.000000
0.765689 1.149046 -0.474340 24.000000
0.765322 1.120086 -0.467750 18.000000
0.790774 1.130511 -0.477681 31.000000
0.797350 1.113564 -0.476135 30.000000
0.811999 1.108034 -0.479464 28.000000
0.830187 1.105635 -0.484280 36.000000
0.836243 1.088453 -0.482661 28.000000
0.859531 1.093466 -0.490961 31.000000
0.847652 1.054047 -0.479224 19.000000
0.858950 1.044106 -0.480800 22.000000
0.879257 1.044887 -0.487419 50.000000
0.881285 1.023874 -0.483910 30.000000
0.898539 1.020602 -0.488825 34.000000
0.918961 1.020592 -0.495414 52.000000
0.920411 0.999435 -0.491824 32.000000
0.992437 1.053674 -0.525709 24.000000
1.351318 1.371463 -0.703874 98.000000
1.758213 1.705485 -0.901090 61.000000
1.817536 1.723587 -0.924331 32.000000
1.852730 1.718918 -0.935782 36.000000
1.874954 1.700272 -0.939908 56.000000
1.893494 1.678272 -0.942297 29.000000
1.915409 1.659091 -0.946354 32.000000
1.943545 1.646294 -0.954258 33.000000
1.968853 1.629352 -0.959932 32.000000
1.997597 1.615016 -0.967468 45.000000
2.011017 1.589247 -0.968215 29.000000
2.047001 1.579867 -0.979074 23.000000
2.041401 1.539523 -0.970872 21.000000
2.050818 1.509943 -0.969318 12.000000
2.044196 1.469963 -0.960867 12.000000
2.021607 1.419686 -0.945219 19.000000
1.172566 0.746319 -0.536833 95.000000
1.156843 0.718014 -0.527049 36.000000
1.160563 0.702190 -0.526221 77.000000
1.156113 0.681680 -0.521763 24.000000
1.187736 0.682199 -0.533575 47.000000
1.182942 0.661606 -0.529018 78.000000
1.186046 0.645703 -0.528085 68.000000
1.188923 0.629762 -0.527102 61.000000
1.183171 0.609784 -0.522591 88.000000
1.181484 0.591869 -0.519673 72.000000
1.179403 0.574275 -0.516917 98.000000
1.185686 0.560592 -0.517605 33.000000
1.183215 0.543115 -0.514746 38.000000
1.189026 0.529529 -0.515515 95.000000
1.181908 0.510330 -0.510710 59.000000
1.191647 0.498513 -0.513275 87.000000
1.188422 0.481324 -0.510256 85.000000
1.189278 0.465942 -0.508995 70.000000
1.189970 0.450576 -0.507729 92.000000
1.181655 0.432204 -0.502873 33.000000
1.177573 0.415469 -0.499655 76.000000
1.177612 0.400511 -0.498411 98.000000
1.177455 0.385572 -0.497121 65.000000
1.185995 0.373481 -0.499515 95.000000
1.181081 0.357178 -0.496274 95.000000
1.180482 0.342329 -0.494853 82.000000
1.188631 0.329984 -0.497126 95.000000
1.187640 0.315237 -0.495743 80.000000
1.181967 0.299374 -0.492443 59.000000
1.189724 0.286857 -0.494597 86.000000
1.188187 0.272246 -0.493245 71.000000
1.195605 0.259625 -0.495443 83.000000
1.198385 0.245889 -0.495725 95.000000
1.200963 0.232233 -0.496088 95.000000
1.198862 0.217668 -0.494530 95.000000
1.178314 0.200067 -0.485403 35.000000
1.203316 0.190179 -0.495011 75.000000
1.182369 0.173100 -0.485915 98.000000
1.202539 0.162071 -0.493689 83.000000
1.199622 0.147752 -0.492003 95.000000
1.173562 0.130932 -0.480849 98.000000
1.179492 0.118008 -0.482930 98.000000
1.171518 0.103676 -0.479234 100.000000
1.172603 0.090266 -0.479312 54.000000
1.187315 0.077803 -0.485169 74.000000
1.178892 0.063734 -0.481393 82.000000
1.174890 0.050074 -0.479622 89.000000
1.156845 0.036049 -0.472069 90.000000
1.157150 0.022850 -0.472183 95.000000
1.161932 0.009690 -0.474110 100.000000
2.072725 -0.077451 -0.845811 29.000000
2.085641 -0.101781 -0.851268 28.000000
2.084402 -0.125660 -0.851199 26.000000
2.032153 -0.145758 -0.830103 9.000000
2.081237 -0.173213 -0.850580 26.000000
2.069883 -0.196081 -0.846739 24.000000
2.076901 -0.220697 -0.850029 27.000000
2.065224 -0.243354 -0.845986 26.000000
1.527402 -0.215442 -0.626814 105.000000
1.906393 -0.313374 -0.784038 10.000000
2.035229 -0.358441 -0.838019 21.000000
2.040322 -0.383428 -0.841230 19.000000
2.040629 -0.407578 -0.842423 24.000000
2.031504 -0.429980 -0.840068 22.000000
2.017671 -0.451199 -0.835706 21.000000
2.017284 -0.475128 -0.836693 20.000000
2.016397 -0.499434 -0.838086 21.000000
2.001882 -0.520070 -0.833528 9.000000
2.023089 -0.550171 -0.843845 19.000000
2.012488 -0.572077 -0.841221 20.000000
2.019433 -0.599089 -0.846054 20.000000
2.021719 -0.624968 -0.848877 20.000000
2.010342 -0.646648 -0.846113 18.000000
2.016469 -0.673973 -0.850643 23.000000
2.009131 -0.696966 -0.849595 21.000000
1.953238 -0.702734 -0.828303 9.000000
1.993477 -0.742810 -0.847498 19.000000
1.980965 -0.763991 -0.844602 16.000000
1.989723 -0.793610 -0.850940 19.000000
1.985297 -0.818172 -0.851657 21.000000
1.971996 -0.839122 -0.848618 15.000000
1.979812 -0.869108 -0.854704 20.000000
1.961830 -0.887906 -0.849686 16.000000
1.926853 -0.898505 -0.837350 9.000000
1.958755 -0.940898 -0.854461 19.000000
1.948565 -0.963202 -0.852965 14.000000
1.946175 -0.989869 -0.855330 16.000000
1.935512 -1.011983 -0.853684 14.000000
1.940689 -1.043132 -0.859593 14.000000
1.933219 -1.067758 -0.859964 22.000000
1.909269 -1.083064 -0.853012 11.000000
1.893310 -1.102710 -0.849623 9.000000
1.905206 -1.138795 -0.858871 13.000000
1.896689 -1.163168 -0.859002 10.000000
1.895801 -1.192383 -0.862646 16.000000
1.910295 -1.231768 -0.873443 18.000000
1.892950 -1.251115 -0.869722 11.000000
1.871571 -1.267531 -0.864296 15.000000
1.849716 -1.284063 -0.859033 10.000000
1.870094 -1.329542 -0.873050 9.000000
1.829253 -1.331561 -0.858536 10.000000
1.851822 -1.380933 -0.874465 10.000000
1.855565 -1.416153 -0.881108 14.000000
1.843491 -1.440659 -0.880890 14.000000
1.817111 -1.452870 -0.873329 12.000000
1.815452 -1.485891 -0.878294 17.000000
1.802531 -1.509998 -0.877979 10.000000
1.790080 -1.533422 -0.877195 9.000000
1.808369 -1.585199 -0.892443 16.000000
1.783853 -1.599916 -0.886702 10.000000
1.790347 -1.642857 -0.896478 19.000000
1.776460 -1.666223 -0.895437 28.000000
1.775104 -1.703064 -0.901584 33.000000
1.753043 -1.720403 -0.897390 36.000000
1.730893 -1.737424 -0.893125 31.000000
1.724974 -1.770884 -0.897321 24.000000
1.699146 -1.784059 -0.891270 33.000000
1.666894 -1.790039 -0.881769 30.000000
1.660048 -1.823238 -0.885833 37.000000
1.633958 -1.835395 -0.879664 32.000000
1.614045 -1.854272 -0.876876 33.000000
1.593894 -1.872911 -0.874009 35.000000
1.570648 -1.887687 -0.869473 31.000000
1.571045 -1.931418 -0.878174 29.000000
1.535498 -1.931084 -0.866905 28.000000
1.526254 -1.963705 -0.870480 26.000000
1.505105 -1.981316 -0.867424 29.000000
1.491029 -2.010791 -0.869531 28.000000
1.466664 -2.024190 -0.864823 25.000000
1.444951 -2.041060 -0.861595 28.000000
1.420386 -2.053799 -0.856743 23.000000
1.420834 -2.106260 -0.868397 23.000000
1.387885 -2.106837 -0.858594 20.000000
1.370480 -2.130824 -0.858469 20.000000
1.340228 -2.134624 -0.850326 25.000000
1.320985 -2.158864 -0.850427 22.000000
1.315022 -2.202683 -0.858108 23.000000
1.286803 -2.209673 -0.851399 25.000000
1.263977 -2.229428 -0.849765 17.000000
1.256240 -2.273185 -0.857191 19.000000
0.631166 1.151867 -0.423248 10.000000
0.655850 1.164759 -0.432545 21.000000
0.696733 1.206497 -0.452895 18.000000
0.712704 1.202001 -0.456100 29.000000
0.722932 1.189642 -0.456382 32.000000
0.730475 1.173174 -0.455043 31.000000
0.743707 1.164204 -0.456641 43.000000
0.756007 1.155546 -0.458417 35.000000
0.760342 1.134888 -0.455405 23.000000
0.773130 1.125615 -0.456943 34.000000
0.787809 1.120484 -0.460206 30.000000
0.796948 1.107510 -0.460283 34.000000
0.814342 1.105864 -0.465117 38.000000
0.823308 1.092569 -0.465189 34.000000
0.838502 1.086349 -0.468214 34.000000
0.858890 1.087707 -0.474712 35.000000
0.852688 1.055667 -0.466524 23.000000
0.854955 1.034796 -0.463207 35.000000
0.872148 1.032089 -0.467997 50.000000
0.886321 1.025494 -0.471122 60.000000
0.900439 1.018740 -0.474258 65.000000
0.911953 1.007842 -0.475532 44.000000
0.942033 1.017982 -0.486920 45.000000
1.046980 1.106370 -0.536575 29.000000
1.362516 1.376564 -0.686714 100.000000
1.794379 1.734614 -0.890881 66.000000
1.833749 1.733069 -0.903339 89.000000
1.852560 1.711640 -0.905710 43.000000
1.881680 1.699508 -0.913165 64.000000
1.900185 1.677466 -0.915468 62.000000
1.911407 1.649118 -0.914365 29.000000
1.946655 1.642557 -0.925443 46.000000
1.971851 1.625791 -0.931016 48.000000
1.993272 1.605661 -0.934889 38.000000
2.010236 1.582958 -0.937301 46.000000
2.035058 1.565146 -0.942827 43.000000
2.062920 1.550400 -0.950348 35.000000
2.068611 1.517905 -0.947084 21.000000
2.065664 1.480543 -0.940660 10.000000
2.081956 1.456311 -0.942479 25.000000
2.051065 1.400777 -0.923715 22.000000
1.973011 1.314414 -0.883431 32.000000
1.186285 0.715294 -0.520990 57.000000
1.185941 0.696868 -0.518457 46.000000
1.197492 0.685555 -0.521165 72.000000
1.192666 0.664904 -0.516757 75.000000
1.203948 0.653366 -0.519376 85.000000
1.202790 0.635097 -0.516674 95.000000
1.209673 0.621199 -0.517473 95.000000
1.178629 0.588647 -0.502373 95.000000
1.210254 0.587285 -0.513765 95.000000
1.199772 0.565305 -0.507322 60.000000
1.201506 0.549668 -0.506356 55.000000
1.203113 0.534043 -0.505342 90.000000
1.208793 0.520273 -0.506073 74.000000
1.201595 0.500902 -0.501243 69.000000
1.202633 0.485363 -0.500083 88.000000
1.207851 0.471577 -0.500719 81.000000
1.204089 0.454581 -0.497875 83.000000
1.208974 0.440768 -0.498422 95.000000
1.222571 0.429963 -0.502543 67.000000
1.205039 0.408567 -0.494129 95.000000
1.204941 0.393374 -0.492900 100.000000
1.204688 0.378199 -0.491626 98.000000
1.204239 0.363084 -0.490306 95.000000
1.203678 0.348030 -0.488942 98.000000
1.211902 0.335481 -0.491171 98.000000
1.206482 0.319215 -0.487901 95.000000
1.200807 0.303195 -0.484747 62.000000
1.199487 0.288428 -0.483329 95.000000
1.198022 0.273684 -0.481868 91.000000
1.205472 0.260973 -0.484016 69.000000
1.212821 0.248117 -0.486168 95.000000
1.210850 0.233436 -0.484704 98.000000
1.208738 0.218818 -0.483197 95.000000
1.211034 0.205041 -0.483479 77.000000
1.217805 0.191949 -0.485513 65.000000
1.224430 0.178711 -0.487548 93.000000
1.226297 0.164748 -0.487791 98.000000
1.223385 0.150219 -0.486160 95.000000
1.224962 0.136269 -0.486321 98.000000
1.193943 0.119087 -0.473711 95.000000
1.195163 0.105505 -0.473869 98.000000
1.200863 0.092240 -0.475824 95.000000
1.192531 0.077920 -0.472228 35.000000
1.193315 0.064352 -0.472267 91.000000
1.193943 0.050744 -0.472346 92.000000
1.194452 0.037137 -0.472346 95.000000
1.222659 0.024078 -0.483494 110.000000
2.040664 -0.052718 -0.806780 24.000000
2.100335 -0.078212 -0.830602 30.000000
2.099438 -0.102144 -0.830396 24.000000
2.102770 -0.126356 -0.832164 25.000000
2.101249 -0.150272 -0.832025 21.000000
2.104156 -0.174573 -0.833585 19.000000
2.097517 -0.198105 -0.831403 22.000000
2.095304 -0.221952 -0.830988 26.000000
2.097367 -0.246342 -0.832546 27.000000
2.076141 -0.267860 -0.824799 28.000000
1.999475 -0.281051 -0.795009 34.000000
1.996230 -0.303898 -0.794678 34.000000
2.066254 -0.338654 -0.823563 23.000000
2.085393 -0.366230 -0.832158 15.000000
2.072218 -0.388191 -0.827947 22.000000
2.063367 -0.410853 -0.825430 25.000000
2.058746 -0.434371 -0.824878 20.000000
2.058462 -0.458834 -0.826150 25.000000
2.062413 -0.484396 -0.829103 23.000000
2.070630 -0.511211 -0.833801 23.000000
2.065039 -0.534692 -0.832962 18.000000
2.036551 -0.552218 -0.823178 12.000000
2.007988 -0.569092 -0.813408 18.000000
2.041912 -0.603885 -0.828912 21.000000
2.044124 -0.629920 -0.831629 20.000000
2.037261 -0.653173 -0.830719 17.000000
2.034470 -0.677759 -0.831476 21.000000
2.040320 -0.705422 -0.835839 21.000000
2.041258 -0.731955 -0.838527 18.000000
2.002492 -0.743928 -0.824995 14.000000
2.020583 -0.776614 -0.834458 22.000000
2.012087 -0.799624 -0.833396 22.000000
2.003237 -0.822634 -0.832263 19.000000
1.994033 -0.845715 -0.831343 18.000000
1.997591 -0.873986 -0.835435 21.000000
1.988042 -0.896718 -0.834081 17.000000
1.969808 -0.915369 -0.829161 16.000000
1.968090 -0.942038 -0.831587 13.000000
1.982766 -0.977093 -0.841044 21.000000
1.972157 -0.999467 -0.839457 19.000000
1.965260 -1.024290 -0.839857 14.000000
1.974589 -1.057899 -0.847328 21.000000
1.962894 -1.080557 -0.845866 16.000000
1.942835 -1.098462 -0.840878 16.000000
1.934873 -1.123011 -0.841037 11.000000
1.934613 -1.152298 -0.844700 13.000000
1.945964 -1.189113 -0.853528 18.000000
1.940898 -1.216232 -0.855317 21.000000
1.927691 -1.238393 -0.853526 18.000000
1.918100 -1.262907 -0.853403 18.000000
1.903969 -1.285263 -0.851833 15.000000
1.886205 -1.304204 -0.848154 12.000000
1.890717 -1.339701 -0.855093 13.000000
1.861127 -1.350162 -0.846150 10.000000
1.872395 -1.391366 -0.856418 18.000000
1.861193 -1.415443 -0.855937 18.000000
1.860286 -1.448566 -0.860898 14.000000
