x y z intensity
1.530638 1.224130 -1.053154 10.000000
1.533066 1.197466 -1.048684 9.000000
1.546285 1.178446 -1.050843 11.000000
1.541129 1.146512 -1.041422 10.000000
1.543198 1.119635 -1.036260 10.000000
1.576550 1.116046 -1.052936 16.000000
1.574060 1.086873 -1.045626 10.000000
1.574726 1.060366 -1.040611 10.000000
1.594013 1.045550 -1.047144 13.000000
1.575774 1.007232 -1.029840 9.000000
1.590371 0.990325 -1.034211 10.000000
1.585665 0.962178 -1.026810 10.000000
1.577260 0.931651 -1.016428 13.000000
1.602644 0.921053 -1.027810 17.000000
1.608901 0.899300 -1.027054 12.000000
1.618366 0.879853 -1.028986 15.000000
1.624232 0.857983 -1.027961 17.000000
1.621651 0.832415 -1.022421 10.000000
1.642219 0.818604 -1.031429 12.000000
1.647034 0.796857 -1.030646 10.000000
1.651679 0.775012 -1.029726 13.000000
1.659991 0.755000 -1.031133 19.000000
1.648268 0.726092 -1.020218 13.000000
1.656164 0.706067 -1.021418 19.000000
1.655833 0.682601 -1.017678 23.000000
1.622636 0.646588 -0.994449 10.000000
0.972287 0.334655 -0.588920 58.000000
0.984139 0.325664 -0.594510 98.000000
0.995942 0.316364 -0.600036 95.000000
1.003361 0.305713 -0.603227 95.000000
0.985921 0.287498 -0.591198 98.000000
0.980613 0.273311 -0.586783 94.000000
0.987667 0.262626 -0.589820 62.000000
0.990475 0.250743 -0.590288 95.000000
0.993176 0.238823 -0.590720 83.000000
0.995625 0.226940 -0.591260 98.000000
0.993880 0.214001 -0.589078 95.000000
1.000342 0.202957 -0.592017 95.000000
0.998219 0.190120 -0.589902 98.000000
0.970468 0.172802 -0.572644 95.000000
0.989370 0.163975 -0.582974 77.000000
0.995412 0.152736 -0.585700 98.000000
0.992698 0.140186 -0.583540 98.000000
0.998399 0.128844 -0.586340 95.000000
0.995459 0.116361 -0.584036 98.000000
1.000994 0.104881 -0.586731 100.000000
1.002096 0.092864 -0.586837 100.000000
1.003021 0.080847 -0.587051 98.000000
0.990878 0.067944 -0.579668 85.000000
0.995856 0.056291 -0.582294 95.000000
0.996455 0.044342 -0.582364 100.000000
0.992598 0.032253 -0.579808 91.000000
1.001477 0.020568 -0.584991 98.000000
1.036157 0.008826 -0.605200 103.000000
0.997337 -0.003454 -0.582505 98.000000
1.031803 -0.015937 -0.602606 103.000000
1.035937 -0.028418 -0.604980 103.000000
1.035535 -0.040833 -0.604980 103.000000
1.035022 -0.053247 -0.604907 100.000000
1.025743 -0.065078 -0.599721 58.000000
1.025017 -0.077389 -0.599539 98.000000
1.032788 -0.090381 -0.604285 103.000000
1.031689 -0.102795 -0.604175 100.000000
1.026224 -0.114657 -0.601475 100.000000
1.020622 -0.126452 -0.598704 100.000000
1.014924 -0.138072 -0.595863 98.000000
1.017681 -0.150856 -0.598014 98.000000
1.011669 -0.162373 -0.595248 45.000000
1.018347 -0.175997 -0.599980 98.000000
1.016377 -0.188214 -0.599652 98.000000
1.010055 -0.199556 -0.596707 98.000000
1.007876 -0.211649 -0.596235 98.000000
1.013892 -0.225659 -0.600915 98.000000
1.007260 -0.236754 -0.597828 100.000000
1.008801 -0.249902 -0.599890 95.000000
1.014401 -0.264207 -0.604372 91.000000
0.998945 -0.272930 -0.596333 94.000000
1.008493 -0.288468 -0.603191 62.000000
1.163430 -0.363041 -0.699027 103.000000
1.295557 -0.421343 -0.780352 100.000000
1.311416 -0.443872 -0.791951 100.000000
1.195919 -0.420739 -0.724119 98.000000
1.170930 -0.427636 -0.710844 62.000000
1.182498 -0.447849 -0.719818 47.000000
1.177436 -0.462192 -0.719063 69.000000
1.184550 -0.481177 -0.725400 95.000000
1.179167 -0.495533 -0.724547 60.000000
1.181633 -0.513221 -0.728528 88.000000
1.167997 -0.523930 -0.722618 54.000000
1.166163 -0.539891 -0.724041 51.000000
1.172020 -0.559568 -0.730313 36.000000
1.615951 -0.867737 -1.022571 29.000000
1.625786 -0.897652 -1.032799 18.000000
1.665223 -0.945494 -1.062653 16.000000
1.688664 -0.985588 -1.082646 24.000000
1.673997 -1.003868 -1.078319 13.000000
1.697016 -1.044467 -1.097649 10.000000
1.704083 -1.076721 -1.107605 10.000000
1.681255 -1.090270 -1.098220 10.000000
1.676075 -1.115913 -1.101135 10.000000
1.692961 -1.155956 -1.117975 10.000000
1.684089 -1.178926 -1.117870 10.000000
1.678520 -1.204332 -1.120137 10.000000
1.668436 -1.227664 -1.120292 10.000000
1.662385 -1.253086 -1.122379 9.000000
1.641342 -1.268127 -1.115262 9.000000
1.645111 -1.301562 -1.124268 10.000000
1.647786 -1.335638 -1.133509 12.000000
1.657470 -1.375106 -1.146952 10.000000
1.645644 -1.398369 -1.146541 10.000000
1.646868 -1.433095 -1.155476 10.000000
1.637642 -1.459180 -1.157278 10.000000
1.644559 -1.500189 -1.170617 9.000000
1.615187 -1.508208 -1.158262 9.000000
1.627498 -1.555641 -1.175975 10.000000
1.626452 -1.591070 -1.184262 10.000000
1.615426 -1.617233 -1.185578 10.000000
1.601005 -1.640215 -1.184416 10.000000
1.595642 -1.672607 -1.190106 10.000000
1.580665 -1.695381 -1.188818 9.000000
1.601446 -1.757484 -1.214733 9.000000
1.579660 -1.773712 -1.208717 9.000000
1.580054 -1.817194 -1.221130 9.000000
1.560690 -1.836475 -1.217175 10.000000
1.555515 -1.872689 -1.224370 9.000000
1.554100 -1.916704 -1.236475 10.000000
1.553252 -1.960202 -1.247890 10.000000
1.539463 -1.990531 -1.250642 9.000000
1.537453 -2.034338 -1.261792 10.000000
1.538576 -2.086272 -1.277604 9.000000
1.521951 -2.112341 -1.277423 9.000000
1.500993 -2.135398 -1.275282 10.000000
1.489858 -2.173000 -1.281964 9.000000
1.489770 -2.224804 -1.296660 10.000000
1.472553 -2.255092 -1.298635 9.000000
1.471004 -2.307278 -1.312993 9.000000
1.462016 -2.352905 -1.323357 9.000000
1.447570 -2.390955 -1.329316 8.000000
1.441690 -2.444597 -1.343565 9.000000
0.515788 0.902114 -0.480776 16.000000
0.537190 0.914955 -0.493094 25.000000
0.533262 0.884676 -0.482225 23.000000
0.557292 0.900887 -0.496700 17.000000
0.525348 0.829081 -0.462436 24.000000
0.531991 0.818503 -0.461920 24.000000
0.543493 0.815439 -0.465681 27.000000
0.537223 0.786099 -0.454351 26.000000
0.545337 0.779498 -0.456057 24.000000
0.569718 0.794479 -0.470549 33.000000
0.711034 0.945477 -0.574189 10.000000
1.243542 1.539691 -0.972090 25.000000
1.265405 1.531330 -0.979743 31.000000
1.310421 1.549999 -1.005177 26.000000
1.324770 1.529955 -1.005785 26.000000
1.361676 1.537190 -1.024583 29.000000
1.374992 1.517139 -1.025496 10.000000
1.398053 1.506216 -1.032712 32.000000
1.420204 1.495564 -1.040304 32.000000
1.442424 1.484480 -1.047852 28.000000
1.470784 1.479424 -1.059955 34.000000
1.480284 1.455112 -1.058341 19.000000
1.486297 1.427659 -1.054424 16.000000
1.514672 1.421537 -1.066384 22.000000
1.526716 1.399863 -1.066874 9.000000
1.522009 1.363309 -1.055804 14.000000
1.530138 1.338722 -1.053800 14.000000
1.531183 1.308326 -1.047159 10.000000
1.555666 1.297934 -1.056520 16.000000
1.559586 1.270363 -1.052009 14.000000
1.545103 1.229603 -1.036125 11.000000
1.558577 1.210548 -1.038371 15.000000
1.557818 1.180605 -1.031149 9.000000
1.573848 1.164416 -1.035983 16.000000
1.572364 1.134677 -1.028638 11.000000
1.588031 1.118195 -1.033264 13.000000
1.599915 1.098993 -1.035547 18.000000
1.600608 1.072296 -1.030687 16.000000
1.608987 1.050017 -1.029992 16.000000
1.616515 1.028160 -1.029687 18.000000
1.597667 0.990031 -1.012639 9.000000
1.630952 0.984253 -1.028785 19.000000
1.626490 0.955523 -1.021048 17.000000
1.636374 0.936081 -1.023143 16.000000
1.612106 0.896960 -1.003281 23.000000
1.637358 0.885641 -1.014388 17.000000
1.642791 0.863995 -1.013868 19.000000
1.648437 0.841927 -1.012887 21.000000
1.633760 0.810405 -1.000137 10.000000
1.666081 0.802197 -1.016172 16.000000
1.682646 0.785813 -1.022540 19.000000
1.683080 0.761887 -1.019198 15.000000
1.671283 0.732817 -1.008458 22.000000
1.675210 0.710874 -1.007310 21.000000
1.686936 0.692285 -1.010940 17.000000
1.682317 0.667090 -1.004804 23.000000
1.693410 0.648501 -1.008624 10.000000
1.614272 0.596447 -0.958788 27.000000
0.953291 0.313962 -0.561383 95.000000
0.948202 0.299994 -0.557232 100.000000
0.955611 0.289849 -0.560165 98.000000
0.962978 0.279533 -0.563033 98.000000
0.965926 0.268022 -0.563594 98.000000
0.968733 0.256476 -0.564120 80.000000
1.009485 0.254441 -0.586669 98.000000
1.007985 0.241356 -0.584650 100.000000
1.010563 0.229262 -0.585013 98.000000
1.017216 0.218118 -0.587982 100.000000
1.015320 0.205040 -0.585776 103.000000
1.013188 0.192100 -0.583748 95.000000
1.015213 0.179985 -0.584074 98.000000
1.021421 0.168542 -0.586793 74.000000
1.010232 0.154369 -0.579826 98.000000
1.007611 0.141680 -0.577538 100.000000
1.013387 0.130201 -0.580292 100.000000
1.010396 0.117614 -0.578037 103.000000
1.011646 0.105510 -0.578216 100.000000
1.021445 0.094240 -0.583266 103.000000
1.009349 0.081025 -0.576065 100.000000
1.023137 0.069861 -0.583662 95.000000
0.997827 0.056187 -0.568964 98.000000
1.011411 0.044832 -0.576420 98.000000
0.998845 0.032358 -0.568999 98.000000
1.007778 0.020603 -0.574053 98.000000
1.012264 0.008604 -0.576563 98.000000
1.007955 -0.003434 -0.574088 98.000000
1.012229 -0.015537 -0.576492 100.000000
1.029425 -0.028099 -0.586244 88.000000
1.046395 -0.041039 -0.596138 100.000000
1.045880 -0.053542 -0.596065 95.000000
1.045255 -0.066009 -0.595917 95.000000
1.035815 -0.077824 -0.590790 98.000000
1.039307 -0.090527 -0.592969 98.000000
1.033882 -0.102513 -0.590389 95.000000
1.041357 -0.115837 -0.595145 100.000000
1.040033 -0.128230 -0.594888 98.000000
1.038636 -0.140623 -0.594557 98.000000
1.036981 -0.153052 -0.594373 100.000000
1.031030 -0.164722 -0.591467 95.000000
1.033451 -0.177764 -0.593638 67.000000
1.031465 -0.190083 -0.593270 86.000000
1.029369 -0.202402 -0.592829 95.000000
1.022754 -0.213831 -0.590112 98.000000
1.016195 -0.225047 -0.587106 95.000000
1.017920 -0.238220 -0.589160 95.000000
1.019477 -0.251422 -0.591174 95.000000
1.722408 -0.512800 -1.006928 24.000000
1.745855 -0.542483 -1.023141 19.000000
1.744189 -0.564542 -1.024173 19.000000
1.174356 -0.427019 -0.695275 98.000000
1.145190 -0.431775 -0.679791 28.000000
1.164973 -0.454992 -0.693354 95.000000
1.151757 -0.465721 -0.687726 92.000000
1.158668 -0.484654 -0.694115 95.000000
1.161318 -0.502055 -0.698070 90.000000
1.167759 -0.521346 -0.704336 88.000000
1.709550 -0.836994 -1.042021 19.000000
1.731823 -0.873196 -1.059408 10.000000
1.733732 -0.900307 -1.065037 22.000000
1.735645 -0.927158 -1.070234 19.000000
1.740727 -0.956679 -1.078135 16.000000
1.745347 -0.986367 -1.085867 23.000000
1.723565 -1.000476 -1.076442 16.000000
1.727627 -1.030300 -1.083994 13.000000
1.723841 -1.055750 -1.086707 12.000000
1.723406 -1.083517 -1.091695 10.000000
1.730157 -1.116265 -1.101301 18.000000
1.706370 -1.130193 -1.092385 15.000000
1.712377 -1.163054 -1.101795 13.000000
1.714351 -1.193687 -1.108738 16.000000
1.697906 -1.211689 -1.103801 10.000000
1.705705 -1.248171 -1.115644 13.000000
1.681808 -1.260559 -1.105961 10.000000
1.660725 -1.275749 -1.098995 9.000000
1.681317 -1.323504 -1.119723 19.000000
1.653506 -1.332423 -1.107527 10.000000
1.679796 -1.386482 -1.132650 12.000000
1.688243 -1.427069 -1.146063 18.000000
1.665796 -1.441848 -1.138660 11.000000
1.656631 -1.468027 -1.140440 13.000000
1.640598 -1.488240 -1.137476 10.000000
1.624336 -1.508225 -1.134436 9.000000
1.636981 -1.555596 -1.151844 18.000000
1.639289 -1.594123 -1.162266 10.000000
1.637799 -1.629816 -1.170274 12.000000
1.620252 -1.649655 -1.166875 14.000000
1.614842 -1.682227 -1.172381 10.000000
1.624372 -1.731162 -1.189030 14.000000
1.607787 -1.754798 -1.188022 9.000000
1.595009 -1.780951 -1.188740 9.000000
1.602586 -1.830603 -1.204881 17.000000
1.587781 -1.857554 -1.205909 10.000000
1.585336 -1.897425 -1.215149 15.000000
1.576689 -1.930508 -1.219821 11.000000
1.569104 -1.967896 -1.227051 10.000000
1.570459 -2.015249 -1.240247 16.000000
1.556100 -2.045758 -1.242876 9.000000
1.557440 -2.097827 -1.258307 9.000000
1.538228 -2.120327 -1.255866 13.000000
1.530198 -2.161839 -1.264626 10.000000
1.523128 -2.202577 -1.272757 10.000000
1.496169 -2.218103 -1.266184 10.000000
1.511372 -2.297441 -1.295859 10.000000
1.498172 -2.335603 -1.301839 10.000000
1.500586 -2.395891 -1.319963 9.000000
1.481203 -2.426640 -1.321430 9.000000
1.461278 -2.457188 -1.322850 10.000000
1.456738 -2.515136 -1.338769 9.000000
0.528068 0.915666 -0.477764 27.000000
0.540441 0.912787 -0.481636 25.000000
0.543344 0.894191 -0.477190 30.000000
0.538057 0.864370 -0.466587 20.000000
0.530414 0.830703 -0.453629 22.000000
0.537001 0.820151 -0.453153 29.000000
0.543471 0.809531 -0.452630 25.000000
0.546670 0.795435 -0.450109 36.000000
0.563269 0.799585 -0.457998 28.000000
0.687734 0.930937 -0.546602 73.000000
0.757993 1.001438 -0.595484 11.000000
1.202700 1.516189 -0.925018 42.000000
1.253636 1.542921 -0.953719 33.000000
1.275545 1.534642 -0.961289 29.000000
1.298415 1.525342 -0.968413 35.000000
1.323301 1.519697 -0.978154 31.000000
1.361195 1.526502 -0.996215 29.000000
1.377302 1.509978 -0.999270 31.000000
1.390209 1.489895 -1.000122 29.000000
1.422398 1.488584 -1.013798 36.000000
1.450690 1.484107 -1.025671 37.000000
1.469683 1.469541 -1.030789 45.000000
1.498206 1.464142 -1.042603 53.000000
1.523549 1.455130 -1.052233 29.000000
1.516340 1.415166 -1.039355 16.000000
1.534863 1.399626 -1.044363 13.000000
1.536643 1.369016 -1.037982 12.000000
1.551486 1.350234 -1.040584 21.000000
1.566117 1.331242 -1.043117 19.000000
1.570252 1.303500 -1.038774 17.000000
1.563751 1.267457 -1.027511 22.000000
1.577545 1.248283 -1.029856 17.000000
1.572985 1.215854 -1.021056 17.000000
1.579256 1.191198 -1.018592 11.000000
1.592361 1.171778 -1.020697 14.000000
1.608325 1.155288 -1.025373 21.000000
1.606580 1.125368 -1.018132 17.000000
1.614788 1.103577 -1.018049 19.000000
1.622876 1.081671 -1.017889 21.000000
1.627529 1.056905 -1.015000 18.000000
1.642566 1.039624 -1.019327 21.000000
1.634851 1.008247 -1.009704 10.000000
1.657087 0.995346 -1.018551 17.000000
1.660256 0.970811 -1.015681 24.000000
1.659221 0.944209 -1.010391 25.000000
1.646317 0.911269 -0.997982 24.000000
1.655872 0.891703 -0.999933 23.000000
1.677352 0.877756 -1.008415 22.000000
1.655131 0.841730 -0.991408 18.000000
1.692120 0.835284 -1.009199 10.000000
1.701002 0.815104 -1.010831 21.000000
1.701699 0.791015 -1.007668 22.000000
1.694091 0.763368 -0.999687 19.000000
1.690168 0.737738 -0.993923 21.000000
1.698160 0.717407 -0.995266 24.000000
1.697817 0.693685 -0.991660 21.000000
1.688967 0.666802 -0.983282 21.000000
1.667217 0.635738 -0.967979 16.000000
1.645351 0.605051 -0.952203 30.000000
0.966777 0.304506 -0.553708 98.000000
0.970090 0.292909 -0.554201 100.000000
0.998397 0.288692 -0.569247 98.000000
0.980449 0.270884 -0.557627 95.000000
1.017187 0.268140 -0.577405 95.000000
1.020044 0.256018 -0.577881 95.000000
1.022754 0.243860 -0.578320 100.000000
1.029663 0.232594 -0.581134 98.000000
1.023598 0.218483 -0.576604 100.000000
1.025859 0.206302 -0.577078 100.000000
1.023709 0.193310 -0.575063 98.000000
1.025743 0.181107 -0.575426 98.000000
1.023350 0.168196 -0.573297 98.000000
1.020832 0.155314 -0.571094 100.000000
1.031081 0.144428 -0.576261 103.000000
1.028340 0.131562 -0.573984 103.000000
1.034023 0.119843 -0.576624 103.000000
1.022244 0.106176 -0.569535 105.000000
1.031957 0.094856 -0.574671 103.000000
1.028647 0.082213 -0.572319 103.000000
1.016353 0.069115 -0.565221 95.000000
1.012664 0.056782 -0.562902 98.000000
1.013230 0.044746 -0.562937 105.000000
1.013726 0.032710 -0.562937 100.000000
1.022714 0.020852 -0.567897 100.000000
1.018486 0.008639 -0.565541 100.000000
1.018522 -0.003449 -0.565541 98.000000
1.018451 -0.015537 -0.565470 95.000000
1.053235 -0.028610 -0.584738 95.000000
1.057199 -0.041284 -0.587128 98.000000
1.052316 -0.053616 -0.584628 100.000000
1.064745 -0.066942 -0.591794 95.000000
1.050918 -0.078585 -0.584297 98.000000
1.049962 -0.091088 -0.584223 100.000000
1.048969 -0.103555 -0.583892 98.000000
1.052140 -0.116502 -0.586131 98.000000
1.050811 -0.128983 -0.585872 98.000000
1.049297 -0.141501 -0.585724 98.000000
1.047746 -0.153946 -0.585355 98.000000
1.050296 -0.167114 -0.587514 69.000000
1.048405 -0.179573 -0.587218 74.000000
1.046402 -0.192031 -0.586847 95.000000
1.048586 -0.205294 -0.588815 95.000000
1.042064 -0.216837 -0.585920 98.000000
1.043895 -0.230202 -0.587959 95.000000
1.751288 -0.496650 -0.995960 16.000000
1.779626 -0.527395 -1.013932 23.000000
1.769495 -0.547333 -1.010634 19.000000
1.780157 -0.573777 -1.019173 24.000000
1.752968 -0.588048 -1.006119 23.000000
1.671869 -0.582830 -0.961995 26.000000
1.177149 -0.441900 -0.681135 75.000000
1.176491 -0.457459 -0.682553 95.000000
1.171368 -0.471560 -0.681721 89.000000
1.174239 -0.488957 -0.685634 95.000000
1.705900 -0.806549 -1.009525 26.000000
1.736802 -0.846179 -1.031375 10.000000
1.746962 -0.877064 -1.041729 13.000000
1.768945 -0.913960 -1.058614 22.000000
1.774289 -0.943589 -1.066406 21.000000
1.764222 -0.964556 -1.064254 23.000000
1.753530 -0.985801 -1.062518 21.000000
1.758020 -1.015689 -1.069968 17.000000
1.758231 -1.043546 -1.074987 19.000000
1.731687 -1.055407 -1.063723 9.000000
1.738935 -1.087912 -1.073217 14.000000
1.749518 -1.123121 -1.084906 19.000000
1.747889 -1.151767 -1.089973 19.000000
1.750137 -1.182591 -1.096813 22.000000
1.733776 -1.200909 -1.092045 18.000000
1.723917 -1.224573 -1.092237 15.000000
1.718031 -1.250359 -1.094201 16.000000
1.714795 -1.279198 -1.098793 9.000000
1.707628 -1.305447 -1.101004 16.000000
1.697279 -1.328459 -1.100403 16.000000
1.713870 -1.374150 -1.118307 18.000000
1.702195 -1.397742 -1.118013 20.000000
1.697062 -1.427009 -1.122072 14.000000
1.698279 -1.462124 -1.130526 17.000000
1.692323 -1.491590 -1.134431 17.000000
1.692659 -1.527058 -1.142706 10.000000
1.672797 -1.544413 -1.137359 12.000000
1.652690 -1.561610 -1.132101 16.000000
1.668071 -1.612664 -1.151146 14.000000
1.669802 -1.651732 -1.161122 19.000000
1.633056 -1.652658 -1.144507 10.000000
1.655891 -1.714309 -1.169746 19.000000
1.639608 -1.738157 -1.168783 13.000000
1.642348 -1.781095 -1.180543 9.000000
1.635396 -1.814198 -1.185575 11.000000
1.629885 -1.851390 -1.193064 13.000000
1.625011 -1.888027 -1.199984 18.000000
1.603832 -1.908279 -1.196440 19.000000
1.612388 -1.962373 -1.213951 13.000000
1.604520 -2.000082 -1.221006 20.000000
1.591910 -2.029988 -1.223186 17.000000
1.585834 -2.071393 -1.232077 10.000000
1.573601 -2.105700 -1.236540 10.000000
1.570309 -2.150180 -1.246862 11.000000
1.567483 -2.199260 -1.259643 15.000000
1.550878 -2.230072 -1.261596 17.000000
1.535405 -2.259980 -1.263138 13.000000
1.538112 -2.320824 -1.281635 16.000000
1.519979 -2.351451 -1.283302 12.000000
1.515865 -2.405262 -1.297283 10.000000
1.500709 -2.438891 -1.300307 9.000000
1.487894 -2.481244 -1.307769 10.000000
1.483472 -2.539412 -1.323344 15.000000
0.543699 0.959903 -0.484751 17.000000
0.541962 0.933506 -0.476674 18.000000
0.547509 0.918704 -0.474384 26.000000
0.550394 0.900053 -0.470065 21.000000
0.552953 0.881475 -0.465665 18.000000
0.535414 0.832292 -0.444788 12.000000
0.546996 0.829309 -0.448434 21.000000
0.550975 0.814845 -0.445869 30.000000
0.564493 0.815704 -0.451727 23.000000
0.581366 0.819679 -0.459461 35.000000
0.670510 0.922636 -0.523593 59.000000
1.160288 1.487192 -0.876484 61.000000
1.223759 1.533432 -0.915474 29.000000
1.249269 1.528555 -0.924677 32.000000
1.269138 1.516390 -0.929532 34.000000
1.299643 1.518229 -0.943270 31.000000
1.328418 1.515567 -0.954528 37.000000
1.356400 1.512955 -0.966179 28.000000
1.378429 1.503195 -0.973508 17.000000
1.392102 1.482665 -0.973969 49.000000
1.423330 1.482125 -0.987759 34.000000
1.451678 1.477719 -0.999371 52.000000
1.474627 1.465886 -1.006254 45.000000
1.490277 1.448050 -1.009074 34.000000
1.528530 1.451670 -1.027226 55.000000
1.547351 1.436191 -1.032213 29.000000
1.552795 1.408354 -1.028332 10.000000
1.567902 1.389542 -1.030969 22.000000
1.572769 1.361641 -1.026965 15.000000
1.587495 1.342524 -1.029443 21.000000
1.598557 1.320344 -1.029697 21.000000
1.591997 1.284057 -1.018724 14.000000
1.609527 1.267439 -1.023260 22.000000
1.602098 1.231523 -1.012062 10.000000
1.601250 1.201279 -1.005225 10.000000
1.621033 1.187485 -1.012184 22.000000
1.619554 1.157330 -1.005161 18.000000
1.635462 1.140554 -1.009733 23.000000
1.636952 1.113049 -1.004786 20.000000
1.637667 1.086148 -1.000217 16.000000
1.656721 1.071336 -1.006849 25.000000
1.653551 1.041634 -0.999365 13.000000
1.645711 1.010168 -0.989904 10.000000
1.690925 1.010972 -1.012324 23.000000
1.678759 0.977209 -1.000414 19.000000
1.681629 0.952624 -0.997561 25.000000
1.695807 0.934590 -1.001517 19.000000
1.686422 0.903682 -0.991610 18.000000
1.676218 0.873438 -0.981992 20.000000
1.673902 0.847213 -0.976432 10.000000
1.682809 0.827334 -0.978110 10.000000
1.731974 0.826080 -1.002555 22.000000
1.720660 0.796165 -0.992480 18.000000
1.725110 0.773846 -0.991660 22.000000
1.725266 0.749729 -0.988441 21.000000
1.733307 0.729107 -0.989738 19.000000
1.733025 0.705022 -0.986307 20.000000
1.736526 0.682685 -0.985070 17.000000
1.686138 0.639928 -0.953448 13.000000
1.663817 0.609308 -0.938314 25.000000
1.653823 0.583481 -0.929863 30.000000
1.547105 0.525450 -0.867639 74.000000
1.347068 0.439896 -0.753519 98.000000
1.082297 0.339367 -0.603912 95.000000
1.014111 0.304871 -0.564441 98.000000
0.983352 0.283132 -0.546299 98.000000
1.016195 0.279568 -0.563183 95.000000
1.027677 0.269772 -0.568448 71.000000
1.039061 0.259737 -0.573647 98.000000
1.033267 0.245354 -0.569367 98.000000
1.035878 0.233072 -0.569771 98.000000
1.038378 0.220752 -0.570102 100.000000
1.036487 0.207532 -0.567993 100.000000
1.038647 0.195264 -0.568396 98.000000
1.040662 0.182959 -0.568762 95.000000
1.033914 0.169196 -0.564313 91.000000
1.035730 0.156921 -0.564567 100.000000
1.041686 0.145291 -0.567268 100.000000
1.038889 0.132372 -0.565039 100.000000
1.044640 0.120565 -0.567632 100.000000
1.045880 0.108202 -0.567815 103.000000
1.046938 0.095839 -0.568143 103.000000
1.047959 0.083440 -0.568179 98.000000
1.026821 0.069554 -0.556471 83.000000
1.031890 0.057624 -0.558957 100.000000
1.036893 0.045626 -0.561407 100.000000
1.028570 0.033063 -0.556650 100.000000
1.033217 0.020977 -0.559136 100.000000
1.028963 0.008712 -0.556793 95.000000
1.033396 -0.003478 -0.559172 100.000000
1.033324 -0.015706 -0.559100 98.000000
1.072712 -0.029003 -0.580364 95.000000
1.067908 -0.041491 -0.577985 98.000000
1.071782 -0.054358 -0.580289 95.000000
1.071111 -0.067054 -0.580140 76.000000
1.052820 -0.078406 -0.570447 95.000000
1.060633 -0.091614 -0.575127 98.000000
1.064015 -0.104562 -0.577169 100.000000
1.058455 -0.116687 -0.574573 95.000000
1.061531 -0.129739 -0.576687 100.000000
1.064335 -0.142894 -0.578912 100.000000
1.067127 -0.156116 -0.580911 95.000000
1.069719 -0.169440 -0.583019 95.000000
1.063464 -0.181350 -0.580312 76.000000
1.057112 -0.193120 -0.577571 83.000000
1.089580 -0.212371 -0.596047 100.000000
1.173440 -0.243171 -0.643020 105.000000
1.537374 -0.375894 -0.846884 95.000000
1.640039 -0.421523 -0.905039 31.000000
1.707811 -0.460438 -0.944127 17.000000
1.791774 -0.505929 -0.992797 20.000000
1.790599 -0.528298 -0.993988 19.000000
1.805755 -0.556029 -1.004758 22.000000
1.791207 -0.574752 -0.999087 18.000000
1.789092 -0.597341 -1.000260 20.000000
1.770052 -0.614171 -0.992068 24.000000
1.217747 -0.454979 -0.686281 34.000000
1.196179 -0.463081 -0.676192 91.000000
1.244392 -0.498728 -0.705672 95.000000
1.749615 -0.798519 -1.005069 25.000000
1.760997 -0.828685 -1.015040 16.000000
1.751619 -0.849852 -1.013700 10.000000
1.782202 -0.890381 -1.034942 21.000000
1.791934 -0.921910 -1.044943 15.000000
1.797868 -0.951278 -1.052122 22.000000
1.795120 -0.977051 -1.055032 19.000000
1.784311 -0.998529 -1.053207 20.000000
1.773291 -1.019797 -1.051382 21.000000
1.758300 -1.038731 -1.047136 12.000000
1.785014 -1.082759 -1.067874 15.000000
1.769425 -1.101660 -1.063526 18.000000
1.756999 -1.123154 -1.061741 18.000000
1.767230 -1.158673 -1.073038 21.000000
1.773227 -1.192091 -1.081945 16.000000
1.763525 -1.216113 -1.082153 20.000000
1.757782 -1.242141 -1.084162 17.000000
1.740337 -1.260775 -1.079710 13.000000
1.748521 -1.297235 -1.090429 11.000000
1.734105 -1.318413 -1.088126 15.000000
1.747787 -1.361295 -1.103508 19.000000
1.732757 -1.382444 -1.101015 20.000000
1.721045 -1.406126 -1.100591 16.000000
1.715922 -1.435493 -1.104583 16.000000
1.713789 -1.467800 -1.110674 16.000000
1.711326 -1.500282 -1.116644 13.000000
1.708375 -1.532860 -1.122491 16.000000
1.711553 -1.571606 -1.132673 16.000000
1.707703 -1.604434 -1.138257 18.000000
1.700106 -1.634302 -1.141613 21.000000
1.692148 -1.664084 -1.144852 15.000000
1.676506 -1.688188 -1.144043 18.000000
1.677305 -1.727661 -1.153621 16.000000
1.674341 -1.764070 -1.160886 13.000000
1.676007 -1.807975 -1.172714 17.000000
1.647742 -1.817926 -1.162542 10.000000
1.661425 -1.874788 -1.182288 18.000000
1.646383 -1.902172 -1.183078 21.000000
1.646837 -1.945965 -1.194021 10.000000
1.630875 -1.973310 -1.194642 16.000000
1.628824 -2.018182 -1.205690 15.000000
1.616135 -2.048244 -1.207714 16.000000
1.607266 -2.086233 -1.214322 16.000000
1.599163 -2.123499 -1.220327 10.000000
1.605315 -2.183527 -1.239181 17.000000
1.583777 -2.207140 -1.237070 14.000000
1.567200 -2.238007 -1.239075 10.000000
1.572437 -2.297962 -1.256850 14.000000
1.564897 -2.344092 -1.266817 13.000000
1.541644 -2.367342 -1.264239 10.000000
1.535258 -2.417360 -1.275890 11.000000
1.532820 -2.475354 -1.291476 9.000000
1.517423 -2.514082 -1.296715 10.000000
1.512903 -2.572543 -1.311939 11.000000
1.495759 -2.606443 -1.314382 10.000000
0.550866 0.965917 -0.477124 16.000000
0.556750 0.950976 -0.474976 10.000000
0.576529 0.959678 -0.484716 13.000000
0.562934 0.913384 -0.466600 14.000000
0.570412 0.902441 -0.466313 10.000000
0.557813 0.860713 -0.449907 17.000000
0.551387 0.831138 -0.439586 10.000000
0.568181 0.835562 -0.447220 17.000000
0.579932 0.832195 -0.450768 16.000000
0.642074 0.899265 -0.493076 17.000000
0.711200 0.972275 -0.539674 21.000000
1.161431 1.515307 -0.862474 14.000000
1.206170 1.536678 -0.885873 23.000000
1.227774 1.529308 -0.893094 25.000000
1.250385 1.521076 -0.900013 20.000000
1.278873 1.519391 -0.911061 29.000000
1.309557 1.521263 -0.924520 25.000000
1.338354 1.518629 -0.935541 22.000000
1.357315 1.505938 -0.940708 25.000000
1.367878 1.482428 -0.939079 19.000000
1.389713 1.472584 -0.946233 24.000000
1.412374 1.461840 -0.952933 31.000000
1.443689 1.461008 -0.966454 26.000000
1.465635 1.449979 -0.973495 31.000000
1.491596 1.441239 -0.982351 29.000000
1.523350 1.438743 -0.995813 29.000000
1.551978 1.432650 -1.007111 31.000000
1.560562 1.407898 -1.005509 13.000000
1.565564 1.380183 -1.001650 13.000000
1.597467 1.375950 -1.015038 16.000000
1.588205 1.336377 -1.002318 10.000000
1.599149 1.314316 -1.002530 11.000000
1.606382 1.289383 -1.000547 10.000000
1.606208 1.258864 -0.994095 10.000000
1.637765 1.253047 -1.007214 13.000000
1.629835 1.217106 -0.996191 9.000000
1.632225 1.189407 -0.991653 10.000000
1.652032 1.175313 -0.998475 16.000000
1.635461 1.134796 -0.982700 10.000000
1.651163 1.117932 -0.987086 14.000000
1.663522 1.097901 -0.988919 11.000000
1.656311 1.065961 -0.979889 10.000000
1.679501 1.053017 -0.988192 12.000000
1.664073 1.016686 -0.974507 8.000000
1.686442 1.003652 -0.983088 12.000000
1.708825 0.990278 -0.991559 21.000000
1.700030 0.958871 -0.982076 10.000000
1.698690 0.932091 -0.976990 14.000000
1.700881 0.907559 -0.974070 12.000000
1.714729 0.889244 -0.977844 13.000000
1.712100 0.862939 -0.972841 19.000000
1.693523 0.828689 -0.958295 9.000000
1.730800 0.821735 -0.975465 10.000000
1.747617 0.804990 -0.981519 18.000000
1.739860 0.777030 -0.973932 10.000000
1.739985 0.752793 -0.970746 17.000000
1.744007 0.730404 -0.969830 13.000000
1.747732 0.707982 -0.968777 11.000000
1.763646 0.690456 -0.974517 19.000000
1.733703 0.655317 -0.954946 9.000000
1.707433 0.622462 -0.937624 21.000000
1.693032 0.594941 -0.927333 30.000000
1.653051 0.559253 -0.903164 31.000000
1.019112 0.292186 -0.551404 63.000000
1.030840 0.282422 -0.556423 95.000000
1.042361 0.272530 -0.561596 33.000000
1.036760 0.258004 -0.557305 98.000000
1.043795 0.246741 -0.560061 98.000000
1.046417 0.234408 -0.560467 98.000000
1.053151 0.223029 -0.563302 100.000000
1.051217 0.209667 -0.561279 98.000000
1.049043 0.196482 -0.559364 95.000000
1.051102 0.184089 -0.559732 90.000000
1.053051 0.171696 -0.560026 71.000000
1.059230 0.159891 -0.562609 98.000000
1.060966 0.147373 -0.562793 100.000000
1.053662 0.133777 -0.558435 100.000000
1.063846 0.122337 -0.563347 103.000000
1.060700 0.109365 -0.561203 103.000000
1.061840 0.096825 -0.561313 100.000000
1.062906 0.084285 -0.561387 98.000000
1.063715 0.071782 -0.561571 44.000000
1.046748 0.058259 -0.552359 98.000000
1.051745 0.046121 -0.554762 100.000000
1.043375 0.033418 -0.550100 100.000000
1.052508 0.021317 -0.554871 100.000000
1.057076 0.008935 -0.557239 103.000000
1.052689 -0.003486 -0.554907 103.000000
1.052617 -0.015906 -0.554835 98.000000
1.078930 -0.029003 -0.568710 98.000000
1.078558 -0.041736 -0.568673 95.000000
1.086835 -0.054879 -0.573259 98.000000
1.081782 -0.067403 -0.570779 90.000000
1.072209 -0.079497 -0.565935 78.000000
1.071245 -0.092141 -0.565823 100.000000
1.074574 -0.105216 -0.568003 100.000000
1.068946 -0.117392 -0.565453 95.000000
1.076436 -0.131031 -0.569845 95.000000
1.066203 -0.142531 -0.564859 95.000000
1.077714 -0.157016 -0.571645 100.000000
1.071539 -0.169051 -0.569060 83.000000
1.135159 -0.192810 -0.603543 32.000000
1.654294 -0.382088 -0.885793 35.000000
1.697417 -0.413142 -0.910452 27.000000
1.748580 -0.447516 -0.939871 28.000000
1.782231 -0.478423 -0.959702 20.000000
1.798256 -0.505565 -0.970466 10.000000
1.818347 -0.534141 -0.983124 19.000000
1.803928 -0.553040 -0.977547 12.000000
1.818983 -0.581067 -0.987997 16.000000
1.825001 -0.606924 -0.994098 17.000000
1.805795 -0.624043 -0.985963 20.000000
1.786486 -0.640800 -0.977782 14.000000
1.770985 -0.658875 -0.972164 10.000000
1.390176 -0.535910 -0.765425 39.000000
1.557737 -0.621622 -0.860353 60.000000
1.641394 -0.677440 -0.909342 27.000000
1.724060 -0.735285 -0.958132 25.000000
1.764943 -0.777188 -0.983989 21.000000
1.764599 -0.801686 -0.987007 13.000000
1.800306 -0.843260 -1.010333 16.000000
1.774785 -0.857009 -0.999923 10.000000
1.789170 -0.890107 -1.012061 9.000000
1.815420 -0.929397 -1.030439 17.000000
1.793250 -0.944771 -1.022082 10.000000
1.814204 -0.983132 -1.038330 14.000000
1.799445 -1.002529 -1.034324 11.000000
1.780712 -1.019471 -1.028015 10.000000
1.788852 -1.051887 -1.037231 13.000000
1.777383 -1.073127 -1.035249 10.000000
1.773383 -1.098871 -1.037578 9.000000
1.806285 -1.149123 -1.062546 16.000000
1.786453 -1.165523 -1.055776 10.000000
1.777104 -1.189516 -1.056029 10.000000
1.771765 -1.215553 -1.058045 10.000000
1.754500 -1.234240 -1.053721 10.000000
1.766872 -1.273258 -1.066562 10.000000
1.767268 -1.305099 -1.073120 10.000000
1.759961 -1.331789 -1.075111 9.000000
1.766604 -1.369450 -1.085822 13.000000
1.741015 -1.382214 -1.076781 10.000000
1.743256 -1.417295 -1.085090 10.000000
1.734725 -1.443922 -1.086764 10.000000
1.729270 -1.473409 -1.090503 9.000000
1.730193 -1.508919 -1.098525 10.000000
1.727273 -1.541599 -1.104184 10.000000
1.704009 -1.556095 -1.096916 8.000000
1.723486 -1.610302 -1.117422 12.000000
1.709390 -1.633976 -1.116371 10.000000
1.710355 -1.673870 -1.126353 10.000000
1.708432 -1.710224 -1.133658 10.000000
1.693345 -1.733754 -1.132352 10.000000
1.689560 -1.770969 -1.139886 10.000000
1.689254 -1.810891 -1.148969 9.000000
1.684293 -1.848409 -1.156212 8.000000
1.682916 -1.888680 -1.164978 13.000000
1.667805 -1.916189 -1.165749 10.000000
1.662327 -1.953208 -1.172217 10.000000
1.655184 -1.991101 -1.178963 10.000000
1.644612 -2.025557 -1.183579 10.000000
1.634698 -2.059243 -1.187615 10.000000
1.645508 -2.122561 -1.208449 10.000000
1.630313 -2.153696 -1.210630 8.000000
1.632355 -2.205971 -1.224449 10.000000
1.621431 -2.244575 -1.230475 9.000000
1.604647 -2.275665 -1.232292 10.000000
1.595119 -2.318074 -1.240116 10.000000
1.592659 -2.371992 -1.253789 10.000000
1.573406 -2.398317 -1.252841 10.000000
1.564535 -2.444742 -1.262117 9.000000
1.578979 -2.530235 -1.291252 8.000000
1.551308 -2.549774 -1.286392 9.000000
1.532812 -2.584825 -1.289319 9.000000
1.520574 -2.631755 -1.298076 9.000000
0.538348 0.962659 -0.459831 26.000000
0.553407 0.963875 -0.465481 20.000000
0.547509 0.929130 -0.453711 35.000000
0.550465 0.910415 -0.449586 25.000000
0.562725 0.907454 -0.453196 29.000000
0.547886 0.861632 -0.435287 19.000000
0.544685 0.835570 -0.427040 10.000000
0.553758 0.828783 -0.428563 32.000000
0.549797 0.802958 -0.420144 26.000000
0.584911 0.833686 -0.441487 71.000000
0.666232 0.926949 -0.496891 46.000000
1.154000 1.496381 -0.832667 21.000000
1.218561 1.543082 -0.869698 24.000000
1.240181 1.535757 -0.876841 26.000000
1.254146 1.516878 -0.877442 33.000000
1.285593 1.518842 -0.890349 23.000000
1.307330 1.510437 -0.897440 32.000000
1.330084 1.501154 -0.904089 32.000000
1.349728 1.488079 -0.908768 22.000000
1.359081 1.465321 -0.907527 29.000000
1.381557 1.455173 -0.914152 25.000000
1.403234 1.445212 -0.921069 29.000000
1.428049 1.438189 -0.930097 35.000000
1.473182 1.449229 -0.951295 29.000000
1.504953 1.447327 -0.964487 35.000000
1.504563 1.413266 -0.956294 35.000000
1.546277 1.419817 -0.975793 28.000000
1.547976 1.389200 -0.969954 25.000000
1.593468 1.397516 -0.991544 24.000000
1.605027 1.375504 -0.991990 21.000000
1.626715 1.362072 -0.998743 17.000000
1.637886 1.339673 -0.999042 15.000000
1.645321 1.314322 -0.997119 24.000000
1.659542 1.294555 -0.999394 21.000000
1.652072 1.258163 -0.988702 10.000000
1.651274 1.227532 -0.982262 14.000000
1.653682 1.199687 -0.977804 12.000000
1.659388 1.174571 -0.975483 15.000000
1.667999 1.152466 -0.975655 19.000000
1.669497 1.124798 -0.970924 10.000000
1.693130 1.112091 -0.979294 19.000000
1.701152 1.089614 -0.979173 17.000000
1.693590 1.057630 -0.970302 10.000000
1.705311 1.037102 -0.971860 12.000000
1.716421 1.016913 -0.973757 10.000000
1.715591 0.989787 -0.968927 17.000000
1.710565 0.960605 -0.961872 24.000000
1.728777 0.944571 -0.967949 16.000000
1.711296 0.909272 -0.954031 19.000000
1.733070 0.895077 -0.962183 20.000000
1.710776 0.858287 -0.945921 11.000000
1.752319 0.853592 -0.964970 13.000000
1.749199 0.827270 -0.959963 11.000000
1.754160 0.804442 -0.958925 16.000000
1.762709 0.783792 -0.960438 18.000000
1.758734 0.757699 -0.955124 14.000000
1.775088 0.740309 -0.960965 18.000000
1.783028 0.719313 -0.962212 17.000000
1.765782 0.688444 -0.949950 10.000000
1.769041 0.665972 -0.948742 17.000000
1.776270 0.644995 -0.949775 22.000000
1.766186 0.618181 -0.942008 21.000000
1.789889 0.602912 -0.951840 27.000000
1.783475 0.577744 -0.946179 21.000000
1.747017 0.543468 -0.924590 26.000000
0.998114 0.272371 -0.524563 44.000000
1.044090 0.271888 -0.547727 95.000000
1.038428 0.257373 -0.543530 95.000000
1.041138 0.245178 -0.544006 87.000000
1.043738 0.232910 -0.544409 95.000000
1.046228 0.220605 -0.544739 95.000000
1.048499 0.208337 -0.545215 98.000000
1.046354 0.195179 -0.543162 95.000000
1.048397 0.182890 -0.543527 79.000000
1.063513 0.172704 -0.550645 95.000000
1.065323 0.160186 -0.550903 98.000000
1.067021 0.147631 -0.551088 98.000000
1.072951 0.135672 -0.553699 98.000000
1.069939 0.122558 -0.551642 98.000000
1.066768 0.109549 -0.549546 95.000000
1.072339 0.097411 -0.551974 98.000000
1.068937 0.084469 -0.549766 95.000000
1.065307 0.071631 -0.547668 98.000000
1.061598 0.058860 -0.545496 95.000000
1.062182 0.046388 -0.545569 98.000000
1.067102 0.034058 -0.547852 98.000000
1.062911 0.021443 -0.545678 92.000000
1.067505 0.009009 -0.548035 98.000000
1.071990 -0.003530 -0.550281 100.000000
1.071916 -0.016107 -0.550208 100.000000
1.076179 -0.028802 -0.552380 100.000000
1.075773 -0.041431 -0.552343 98.000000
1.079699 -0.054283 -0.554551 98.000000
1.079069 -0.066964 -0.554403 51.000000
1.069415 -0.078953 -0.549656 95.000000
1.064026 -0.091150 -0.547266 95.000000
1.071822 -0.104501 -0.551678 100.000000
1.070640 -0.117093 -0.551457 98.000000
1.069348 -0.129648 -0.551198 95.000000
1.072320 -0.142754 -0.553142 98.000000
1.839902 -0.311168 -0.952366 10.000000
1.871513 -0.339067 -0.969898 19.000000
1.867604 -0.361154 -0.969442 19.000000
1.868059 -0.383878 -0.970798 20.000000
1.872458 -0.407718 -0.974678 18.000000
1.872275 -0.430697 -0.976221 21.000000
1.871872 -0.453713 -0.977629 22.000000
1.875373 -0.477999 -0.981559 23.000000
1.814188 -0.485008 -0.951130 9.000000
1.855986 -0.519565 -0.975190 20.000000
1.845903 -0.540197 -0.972012 18.000000
1.848456 -0.564507 -0.975532 21.000000
1.846500 -0.587598 -0.976725 20.000000
1.848556 -0.612061 -0.980095 18.000000
1.850085 -0.636790 -0.983655 20.000000
1.855826 -0.662953 -0.989047 16.000000
1.810766 -0.670913 -0.967808 9.000000
1.832471 -0.703488 -0.982351 15.000000
1.828857 -0.726776 -0.983380 13.000000
1.825006 -0.750028 -0.984269 17.000000
1.845635 -0.783740 -0.998457 18.000000
1.837090 -0.805410 -0.996953 14.000000
1.840652 -0.832481 -1.002046 15.000000
1.831293 -0.854365 -1.000739 12.000000
1.805911 -0.868000 -0.990158 9.000000
1.824424 -0.903414 -1.004209 18.000000
1.830365 -0.933178 -1.011519 13.000000
1.831943 -0.961097 -1.016457 17.000000
1.833245 -0.989158 -1.021372 17.000000
1.818485 -1.008644 -1.017405 13.000000
1.830815 -1.043471 -1.028728 16.000000
1.823387 -1.067354 -1.028914 12.000000
1.780930 -1.070264 -1.009427 8.000000
1.799506 -1.110527 -1.025185 16.000000
1.806545 -1.143723 -1.033916 11.000000
1.805556 -1.172317 -1.038185 10.000000
1.792500 -1.193906 -1.036216 10.000000
1.794041 -1.225520 -1.042902 10.000000
1.803193 -1.261997 -1.053352 14.000000
1.789194 -1.283517 -1.051193 10.000000
1.774972 -1.304888 -1.048959 8.000000
1.764208 -1.328827 -1.048720 11.000000
1.771051 -1.366431 -1.059171 10.000000
1.784477 -1.409929 -1.073833 14.000000
1.776084 -1.436880 -1.075483 13.000000
1.767336 -1.463767 -1.077112 10.000000
1.765217 -1.496446 -1.082803 15.000000
1.752422 -1.520391 -1.082109 10.000000
1.746188 -1.550202 -1.085542 9.000000
1.756315 -1.595271 -1.099452 11.000000
1.745808 -1.622280 -1.100533 10.000000
1.743915 -1.659161 -1.108264 12.000000
1.719690 -1.673445 -1.100940 10.000000
1.713722 -1.707228 -1.106358 10.000000
1.740158 -1.772900 -1.132057 17.000000
1.715024 -1.786826 -1.124424 10.000000
1.726178 -1.840975 -1.141881 9.000000
1.706820 -1.861263 -1.138246 13.000000
1.686024 -1.882058 -1.134949 10.000000
1.692110 -1.933508 -1.150037 12.000000
1.689740 -1.974170 -1.158299 10.000000
1.682429 -2.012276 -1.164886 10.000000
1.674644 -2.050478 -1.171411 14.000000
1.667540 -2.087967 -1.177339 10.000000
1.678342 -2.151606 -1.197620 10.000000
1.646277 -2.161134 -1.187701 10.000000
1.647104 -2.214327 -1.201685 10.000000
1.635024 -2.248458 -1.205046 12.000000
1.639565 -2.309608 -1.222684 10.000000
1.627321 -2.348445 -1.228321 11.000000
1.611900 -2.383606 -1.231826 13.000000
1.601023 -2.426318 -1.239100 10.000000
1.619446 -2.515556 -1.269730 10.000000
1.584625 -2.523691 -1.259130 9.000000
1.588467 -2.594238 -1.279495 10.000000
1.569523 -2.629617 -1.282386 16.000000
1.550132 -2.664926 -1.285117 10.000000
1.550580 -2.736220 -1.304931 18.000000
0.550681 0.976294 -0.455707 31.000000
0.556604 0.961414 -0.453699 29.000000
0.552829 0.930630 -0.444034 27.000000
0.560493 0.919827 -0.443843 33.000000
0.570412 0.912894 -0.445479 29.000000
0.562827 0.878640 -0.433716 25.000000
0.554584 0.844675 -0.421820 27.000000
0.556018 0.826348 -0.417524 30.000000
0.570214 0.827080 -0.422887 35.000000
0.623753 0.884370 -0.457622 71.000000
1.116026 1.472843 -0.790800 34.000000
1.199685 1.546213 -0.840742 24.000000
1.216521 1.531522 -0.843407 32.000000
1.238102 1.524280 -0.850370 29.000000
1.260684 1.516115 -0.856969 35.000000
1.289166 1.514656 -0.867589 36.000000
1.304927 1.499424 -0.870503 31.000000
1.330484 1.493719 -0.879054 49.000000
1.350037 1.480763 -0.883606 30.000000
1.365475 1.464790 -0.886413 24.000000
1.384803 1.451387 -0.890848 42.000000
1.409644 1.444782 -0.899701 36.000000
1.425628 1.427516 -0.902061 37.000000
1.456965 1.426545 -0.914994 42.000000
1.482674 1.418198 -0.923401 33.000000
1.511024 1.413069 -0.934241 42.000000
1.542863 1.410422 -0.947192 32.000000
1.545039 1.379385 -0.941090 18.000000
1.580256 1.379005 -0.956032 36.000000
1.598488 1.363103 -0.960573 32.000000
1.627046 1.355706 -0.971307 32.000000
1.655714 1.347764 -0.982083 27.000000
1.670273 1.327971 -0.984378 24.000000
1.677447 1.302468 -0.982474 28.000000
1.691515 1.282401 -0.984688 21.000000
1.672644 1.237919 -0.967853 10.000000
1.678744 1.212581 -0.965728 25.000000
1.691924 1.192498 -0.967680 21.000000
1.686310 1.159381 -0.959024 21.000000
1.705964 1.144629 -0.965484 24.000000
1.711001 1.119241 -0.963024 18.000000
1.727090 1.101118 -0.966883 25.000000
1.719512 1.068867 -0.958193 16.000000
1.715880 1.038864 -0.951196 9.000000
1.734702 1.023263 -0.957386 18.000000
1.737830 0.998282 -0.954855 19.000000
1.736653 0.971147 -0.950153 19.000000
1.743121 0.948401 -0.949609 23.000000
1.745424 0.923572 -0.946897 23.000000
1.759389 0.904982 -0.950532 27.000000
1.757079 0.878041 -0.945500 21.000000
1.734178 0.841489 -0.929458 10.000000
1.775974 0.836194 -0.948162 18.000000
1.772475 0.809827 -0.943157 16.000000
1.781394 0.788750 -0.944346 17.000000
1.793852 0.769579 -0.947918 20.000000
1.785455 0.741556 -0.940494 17.000000
1.801736 0.723911 -0.946186 20.000000
1.796948 0.697806 -0.940729 14.000000
1.783380 0.668711 -0.930864 10.000000
1.807519 0.653795 -0.940691 25.000000
1.793438 0.625051 -0.930605 22.000000
1.795766 0.602646 -0.929564 22.000000
1.798064 0.580018 -0.928132 25.000000
1.799945 0.557620 -0.926953 26.000000
1.754246 0.521144 -0.901340 37.000000
1.168190 0.317519 -0.597505 28.000000
1.041321 0.270117 -0.531665 31.000000
1.052953 0.259998 -0.536465 95.000000
1.055685 0.247664 -0.536908 98.000000
1.053934 0.234322 -0.535094 98.000000
1.056434 0.221966 -0.535462 95.000000
1.063181 0.210406 -0.537979 100.000000
1.056555 0.196362 -0.533935 100.000000
1.071838 0.186284 -0.540981 95.000000
1.073878 0.173677 -0.541129 71.000000
1.075621 0.161145 -0.541537 100.000000
1.081760 0.149149 -0.543989 98.000000
1.074481 0.135372 -0.539677 100.000000
1.084775 0.123795 -0.544361 100.000000
1.086041 0.111099 -0.544584 98.000000
1.082740 0.097999 -0.542464 103.000000
1.088238 0.085670 -0.544771 98.000000
1.080130 0.072339 -0.540490 62.000000
1.080832 0.059710 -0.540637 95.000000
1.076954 0.046886 -0.538477 100.000000
1.077432 0.034273 -0.538477 95.000000
1.086670 0.021877 -0.543057 100.000000
1.077873 0.009083 -0.538624 99.000000
1.077910 -0.003530 -0.538624 98.000000
1.082309 -0.016211 -0.540785 103.000000
1.082087 -0.028839 -0.540637 100.000000
1.086188 -0.041677 -0.542872 98.000000
1.081201 -0.054134 -0.540527 100.000000
1.089504 -0.067352 -0.544845 100.000000
1.075336 -0.079063 -0.537962 95.000000
1.083296 -0.092401 -0.542315 98.000000
1.077767 -0.104649 -0.539936 100.000000
1.085483 -0.118210 -0.544175 100.000000
1.836821 -0.309512 -0.925615 22.000000
1.895094 -0.342105 -0.956110 20.000000
1.891354 -0.364151 -0.955257 20.000000
1.887221 -0.386328 -0.954732 20.000000
1.887335 -0.409389 -0.956294 18.000000
1.895902 -0.434424 -0.962156 23.000000
1.891134 -0.456542 -0.961295 23.000000
1.881557 -0.477690 -0.958486 20.000000
1.885071 -0.501933 -0.961851 16.000000
1.875174 -0.522832 -0.958779 17.000000
1.877962 -0.547262 -0.962332 20.000000
1.854734 -0.564060 -0.952515 21.000000
1.861441 -0.589815 -0.958067 18.000000
1.854737 -0.611719 -0.957204 21.000000
1.877839 -0.643549 -0.971394 19.000000
1.883387 -0.670121 -0.976900 19.000000
1.880133 -0.693881 -0.978007 14.000000
1.851452 -0.707904 -0.965899 12.000000
1.881271 -0.744530 -0.984375 21.000000
1.856519 -0.759757 -0.974264 19.000000
1.852360 -0.783219 -0.975016 15.000000
1.868583 -0.815643 -0.986583 21.000000
1.867599 -0.841461 -0.989689 21.000000
1.866743 -0.867056 -0.992365 18.000000
1.877368 -0.898819 -1.001813 20.000000
1.851260 -0.912981 -0.991672 15.000000
1.865247 -0.947102 -1.003105 22.000000
1.842846 -0.962785 -0.995002 16.000000
1.852168 -0.995128 -1.004087 16.000000
1.857094 -1.025615 -1.010913 18.000000
1.849833 -1.049645 -1.011124 20.000000
1.850116 -1.078174 -1.015611 14.000000
1.838471 -1.099872 -1.013586 12.000000
1.829956 -1.124153 -1.014057 12.000000
1.833160 -1.155181 -1.020404 15.000000
1.824097 -1.179419 -1.020630 15.000000
1.833549 -1.216186 -1.031460 19.000000
1.824318 -1.240090 -1.031130 16.000000
1.818081 -1.266896 -1.033275 13.000000
1.822499 -1.301710 -1.041654 12.000000
1.815498 -1.328701 -1.043601 11.000000
1.793630 -1.344751 -1.037056 10.000000
1.811263 -1.390894 -1.053571 18.000000
1.799637 -1.415193 -1.053127 16.000000
1.794800 -1.445046 -1.056843 14.000000
1.807168 -1.489379 -1.070847 21.000000
1.794457 -1.513608 -1.070171 14.000000
1.781526 -1.537763 -1.069484 13.000000
1.782029 -1.573822 -1.076880 16.000000
1.764267 -1.595407 -1.074331 9.000000
1.777265 -1.644061 -1.089775 14.000000
1.762915 -1.668020 -1.088743 14.000000
1.754081 -1.698896 -1.092107 12.000000
1.752182 -1.735538 -1.099017 19.000000
1.751989 -1.776316 -1.108229 12.000000
1.755380 -1.819847 -1.118978 16.000000
1.744542 -1.851099 -1.121909 12.000000
1.721926 -1.868095 -1.116250 10.000000
1.722634 -1.912752 -1.127070 20.000000
1.713563 -1.947352 -1.131724 18.000000
1.717025 -1.995109 -1.143778 19.000000
1.703900 -2.026402 -1.146235 22.000000
1.701937 -2.071838 -1.156487 16.000000
1.697636 -2.113110 -1.164227 17.000000
1.685761 -2.148102 -1.168314 12.000000
1.670500 -2.179447 -1.170297 9.000000
1.676973 -2.240200 -1.187871 16.000000
1.663259 -2.275389 -1.191577 14.000000
1.667772 -2.336820 -1.208812 15.000000
1.651732 -2.367464 -1.209857 18.000000
1.633734 -2.398965 -1.211336 15.000000
1.633089 -2.457190 -1.226109 21.000000
1.618942 -2.496365 -1.231182 17.000000
1.614067 -2.551180 -1.243705 13.000000
1.613090 -2.614115 -1.259792 26.000000
1.582233 -2.629703 -1.253140 26.000000
1.560734 -2.661012 -1.253831 28.000000
1.531772 -2.680117 -1.248953 29.000000
0.551564 0.997107 -0.449618 26.000000
0.562331 0.990266 -0.451412 21.000000
0.568345 0.975285 -0.449470 28.000000
0.571728 0.956287 -0.445642 26.000000
0.586832 0.957203 -0.451054 24.000000
0.577395 0.918597 -0.437786 34.000000
0.587321 0.911492 -0.439428 10.000000
0.566517 0.857940 -0.418418 25.000000
0.573205 0.847162 -0.418017 26.000000
0.595554 0.859156 -0.428992 35.000000
0.690509 0.972500 -0.491466 40.000000
1.147182 1.504655 -0.788957 32.000000
1.183375 1.516092 -0.805036 32.000000
1.210401 1.516695 -0.815713 29.000000
1.235718 1.512622 -0.824114 39.000000
1.266982 1.515273 -0.836451 33.000000
1.283544 1.499824 -0.839003 32.000000
1.305114 1.491690 -0.845743 36.000000
1.327622 1.482689 -0.852178 32.000000
1.359393 1.483436 -0.864491 32.000000
1.365481 1.457478 -0.861291 29.000000
1.384654 1.444130 -0.865667 34.000000
1.403833 1.430572 -0.869986 61.000000
1.431823 1.426978 -0.880641 34.000000
1.457417 1.419139 -0.888935 37.000000
1.485654 1.414629 -0.899541 44.000000
1.508011 1.402748 -0.905754 35.000000
1.526295 1.388042 -0.910313 48.000000
1.547856 1.376087 -0.916838 21.000000
1.573553 1.366205 -0.924998 27.000000
1.605509 1.362404 -0.937602 57.000000
1.620070 1.343411 -0.939923 32.000000
1.641581 1.329952 -0.946403 31.000000
1.698769 1.344418 -0.973251 32.000000
1.706051 1.318692 -0.971391 21.000000
1.716632 1.295666 -0.971570 23.000000
1.708605 1.259002 -0.961353 13.000000
1.718562 1.236008 -0.961347 21.000000
1.709624 1.199888 -0.950904 26.000000
1.726474 1.182077 -0.954871 22.000000
1.739389 1.161511 -0.956766 23.000000
1.736788 1.130885 -0.950186 22.000000
1.733416 1.100826 -0.943920 18.000000
1.745486 1.080135 -0.945575 22.000000
1.749092 1.055031 -0.943314 10.000000
1.752939 1.029492 -0.940625 17.000000
1.759940 1.006664 -0.940367 23.000000
1.758832 0.979380 -0.935750 17.000000
1.773250 0.960876 -0.939555 24.000000
1.771952 0.933288 -0.934435 21.000000
1.790065 0.916577 -0.940153 20.000000
1.779686 0.885355 -0.931040 23.000000
1.805230 0.872535 -0.941213 9.000000
1.802405 0.845477 -0.936182 17.000000
1.803368 0.820448 -0.933129 19.000000
1.795442 0.792095 -0.926131 14.000000
1.799960 0.769061 -0.925054 17.000000
1.812329 0.749712 -0.928515 21.000000
1.824536 0.730199 -0.931915 18.000000
1.832302 0.708760 -0.933110 18.000000
1.810327 0.676195 -0.919205 9.000000
1.804836 0.650379 -0.913799 18.000000
1.816168 0.630654 -0.916859 21.000000
1.810156 0.604977 -0.911306 17.000000
1.816545 0.583871 -0.912404 23.000000
1.826986 0.563966 -0.915596 27.000000
1.815903 0.537305 -0.907535 26.000000
1.169188 0.302122 -0.580729 33.000000
1.067463 0.262593 -0.529096 71.000000
