x y z intensity
3.009624 -0.502229 2.136578 33.000000
2.995536 -0.538521 2.130048 34.000000
2.949627 -0.568071 2.099702 25.000000
2.926968 -0.601679 2.087132 30.000000
2.900154 -0.634008 2.071491 35.000000
2.876990 -0.666541 2.058618 33.000000
2.853796 -0.698563 2.045542 32.000000
2.837544 -0.732456 2.038630 33.000000
2.813847 -0.763562 2.025151 32.000000
2.793220 -0.795504 2.015192 30.000000
2.757339 -0.822021 1.992783 21.000000
2.752079 -0.857852 1.993704 31.000000
2.719086 -0.884657 1.974731 32.000000
2.693103 -0.913728 1.961889 34.000000
2.656011 -0.937870 1.939718 30.000000
2.638150 -0.968116 1.931549 32.000000
2.619415 -0.998480 1.923913 31.000000
2.600435 -1.028545 1.916186 26.000000
2.589572 -1.060823 1.913186 19.000000
2.562570 -1.086961 1.899533 29.000000
2.554424 -1.120811 1.899776 33.000000
2.533814 -1.149941 1.892196 33.000000
2.510046 -1.176405 1.880899 31.000000
2.489914 -1.204288 1.872226 30.000000
2.468842 -1.232185 1.864182 33.000000
2.422447 -1.246010 1.835782 26.000000
2.397514 -1.270857 1.824705 14.000000
2.394276 -1.307263 1.830269 33.000000
2.379740 -1.337539 1.827261 34.000000
2.372102 -1.371777 1.829706 38.000000
2.346389 -1.395361 1.818074 35.000000
2.327621 -1.422918 1.811904 32.000000
2.301539 -1.445551 1.800123 33.000000
2.279007 -1.469978 1.790932 30.000000
2.227441 -1.476172 1.760449 18.000000
2.215174 -1.506549 1.759385 31.000000
2.211873 -1.544492 1.767018 28.000000
2.198939 -1.574684 1.765618 33.000000
2.167886 -1.592853 1.751256 29.000000
2.153504 -1.623198 1.750354 29.000000
2.135550 -1.650670 1.746528 34.000000
2.104227 -1.667605 1.731860 19.000000
2.074001 -1.683134 1.716368 9.000000
2.064232 -1.718344 1.721070 25.000000
2.032716 -1.733787 1.706119 26.000000
2.023478 -1.767943 1.709916 32.000000
1.991840 -1.782534 1.694832 28.000000
1.978949 -1.813552 1.695633 27.000000
1.970647 -1.851009 1.702414 31.000000
1.935685 -1.861388 1.684353 24.000000
1.906884 -1.877036 1.671665 14.000000
1.897752 -1.914030 1.677998 31.000000
1.873287 -1.935782 1.671099 26.000000
1.858817 -1.965665 1.671227 29.000000
1.831108 -1.983765 1.661425 27.000000
1.816214 -2.013217 1.661426 27.000000
1.793893 -2.036993 1.656767 29.000000
1.768594 -2.057239 1.649318 25.000000
1.748670 -2.083672 1.646966 15.000000
1.723054 -2.103263 1.639435 28.000000
1.710702 -2.139230 1.644692 26.000000
1.679379 -2.151604 1.631827 27.000000
1.661101 -2.180469 1.631701 25.000000
1.639914 -2.205728 1.628896 26.000000
1.628671 -2.244704 1.636139 28.000000
1.594434 -2.252051 1.620508 21.000000
1.580029 -2.287253 1.625035 13.000000
1.562609 -2.318739 1.626879 23.000000
1.537731 -2.339372 1.621054 16.000000
1.493951 -2.330533 1.595257 9.000000
1.427916 -2.288652 1.547692 14.000000
1.004550 1.648285 1.126503 29.000000
1.017641 1.627262 1.125605 27.000000
1.035092 1.613342 1.129679 27.000000
1.045245 1.588505 1.126110 32.000000
1.067115 1.581398 1.135203 19.000000
1.086562 1.570428 1.141698 24.000000
1.098442 1.548769 1.140487 35.000000
1.112621 1.530503 1.141689 30.000000
1.129212 1.515463 1.145466 53.000000
1.143077 1.496827 1.146576 34.000000
1.161990 1.484776 1.152818 30.000000
1.175511 1.465805 1.153776 53.000000
1.196930 1.456635 1.162591 26.000000
1.218359 1.447051 1.171303 32.000000
1.227686 1.424798 1.169891 49.000000
1.243369 1.408372 1.173271 35.000000
1.264600 1.397958 1.181828 62.000000
1.279063 1.381594 1.185494 58.000000
1.294408 1.364483 1.188686 51.000000
1.308668 1.347711 1.192216 59.000000
1.323742 1.330193 1.195272 30.000000
1.334723 1.310063 1.195974 29.000000
1.346386 1.289334 1.196119 42.000000
1.360040 1.271894 1.199431 35.000000
1.382861 1.262746 1.210752 53.000000
1.399467 1.247570 1.216604 35.000000
1.412835 1.229359 1.219674 42.000000
1.419687 1.205593 1.217204 52.000000
1.448822 1.200462 1.233765 33.000000
1.478042 1.194708 1.250320 33.000000
1.477917 1.165143 1.242149 47.000000
1.493953 1.148484 1.247593 36.000000
1.503242 1.126536 1.247379 66.000000
1.528377 1.117158 1.261497 60.000000
1.530576 1.090067 1.255594 42.000000
1.552190 1.077584 1.266774 64.000000
1.584828 1.071324 1.285800 32.000000
1.603149 1.055625 1.294063 34.000000
1.631744 1.046316 1.310751 58.000000
1.639445 1.023201 1.310445 44.000000
1.661021 1.008618 1.321373 78.000000
1.675480 0.989419 1.326556 46.000000
1.682608 0.965875 1.325963 36.000000
1.700355 0.948235 1.333766 61.000000
1.717975 0.930338 1.341515 32.000000
1.750122 0.919702 1.360474 33.000000
1.763383 0.899453 1.365730 36.000000
1.776463 0.878891 1.370923 36.000000
1.797511 0.861346 1.381158 46.000000
1.817788 0.843665 1.391786 42.000000
1.830541 0.822263 1.396652 37.000000
1.850706 0.803884 1.407098 62.000000
1.851856 0.777139 1.403172 29.000000
1.890677 0.765815 1.427753 41.000000
1.902392 0.743520 1.432752 53.000000
1.918349 0.722114 1.439947 40.000000
1.945061 0.704845 1.456171 78.000000
1.975625 0.688281 1.475234 49.000000
1.998461 0.668463 1.488413 50.000000
2.021173 0.648175 1.501459 71.000000
2.039856 0.626138 1.511557 36.000000
2.050633 0.601429 1.515727 35.000000
2.076900 0.580854 1.531320 57.000000
2.114372 0.563090 1.556035 49.000000
2.124138 0.537458 1.560410 54.000000
2.149596 0.515442 1.576155 73.000000
2.163002 0.490064 1.583125 46.000000
2.184238 0.466184 1.595749 57.000000
2.213276 0.443333 1.614120 28.000000
2.237659 0.419299 1.629944 35.000000
2.258375 0.393809 1.642103 60.000000
2.282477 0.368562 1.657702 62.000000
2.306387 0.342897 1.673145 60.000000
2.358360 0.320379 1.708839 70.000000
2.357817 0.290197 1.706458 37.000000
2.380670 0.262788 1.722034 37.000000
2.412013 0.235572 1.742556 34.000000
2.458774 0.209019 1.775312 35.000000
2.485193 0.179883 1.793394 60.000000
2.499125 0.149317 1.802439 50.000000
2.536725 0.119687 1.829495 52.000000
2.550322 0.088204 1.838166 48.000000
2.595508 0.057129 1.870703 51.000000
2.632403 0.024856 1.897307 59.000000
2.628446 -0.008207 1.894384 34.000000
2.652584 -0.041613 1.911725 29.000000
2.700747 -0.076319 1.946396 32.000000
2.723848 -0.111255 1.964033 32.000000
2.767392 -0.147780 1.995453 31.000000
2.806007 -0.185262 2.024352 32.000000
2.824016 -0.222066 2.038425 26.000000
2.870075 -0.261960 2.072711 24.000000
2.902945 -0.301814 2.098875 31.000000
2.952193 -0.344354 2.135596 33.000000
3.000417 -0.388324 2.172955 35.000000
3.032061 -0.431097 2.198400 37.000000
3.019199 -0.468049 2.191421 34.000000
2.993995 -0.502552 2.175596 34.000000
2.975841 -0.538110 2.166178 29.000000
2.914274 -0.564632 2.123746 21.000000
2.915669 -0.603038 2.128447 32.000000
2.876954 -0.632683 2.103860 33.000000
2.854028 -0.665222 2.090808 30.000000
2.838760 -0.699200 2.083357 31.000000
2.811376 -0.729689 2.066999 30.000000
2.799611 -0.763866 2.061928 30.000000
2.775132 -0.794793 2.048939 27.000000
2.730895 -0.819354 2.021293 22.000000
2.725616 -0.855026 2.022263 31.000000
2.704470 -0.885608 2.011575 31.000000
2.679221 -0.914363 1.997916 31.000000
2.653769 -0.942623 1.984071 31.000000
2.612980 -0.964618 1.958540 30.000000
2.609503 -1.000801 1.962312 29.000000
2.602678 -1.034934 1.962367 32.000000
2.556999 -1.053967 1.934280 25.000000
2.537613 -1.083089 1.926187 33.000000
2.510689 -1.108603 1.912187 33.000000
2.513378 -1.147168 1.920950 32.000000
2.485986 -1.171893 1.906572 30.000000
2.468815 -1.201841 1.901480 30.000000
2.452194 -1.231084 1.895478 31.000000
2.435408 -1.260132 1.889283 28.000000
2.395733 -1.277657 1.866811 28.000000
2.377840 -1.306241 1.861067 30.000000
2.370364 -1.340625 1.863803 35.000000
2.341284 -1.362529 1.849304 30.000000
2.319177 -1.388014 1.840473 33.000000
2.300486 -1.415385 1.834271 33.000000
2.278043 -1.440155 1.825176 32.000000
2.265923 -1.471318 1.824299 29.000000
2.219045 -1.479363 1.795388 24.000000
2.222817 -1.522084 1.808973 30.000000
2.203176 -1.547820 1.802131 33.000000
2.182401 -1.573864 1.795895 32.000000
2.152425 -1.591409 1.780573 32.000000
2.128027 -1.614139 1.771416 32.000000
2.123296 -1.651868 1.778632 32.000000
2.091935 -1.668814 1.763689 24.000000
2.070410 -1.693066 1.756933 10.000000
2.035728 -1.706291 1.739138 23.000000
2.020301 -1.735181 1.737704 32.000000
2.007768 -1.766630 1.738885 34.000000
1.988688 -1.792428 1.734407 33.000000
1.966325 -1.815084 1.727120 33.000000
1.956055 -1.849023 1.730664 31.000000
1.916821 -1.857228 1.710376 29.000000
1.891101 -1.875864 1.700159 25.000000
1.881720 -1.912775 1.706649 30.000000
1.870315 -1.945978 1.709629 34.000000
1.839796 -1.961492 1.697139 32.000000
1.819222 -1.984977 1.691898 32.000000
1.794270 -2.005885 1.684587 29.000000
1.777469 -2.035919 1.685130 30.000000
1.753716 -2.055432 1.676953 29.000000
1.722746 -2.068821 1.664117 21.000000
1.713379 -2.108040 1.672297 32.000000
1.703357 -2.147421 1.680202 36.000000
1.664135 -2.149739 1.659275 29.000000
1.658642 -2.195669 1.672203 35.000000
1.632127 -2.214237 1.664112 32.000000
1.602989 -2.228966 1.653458 30.000000
1.583854 -2.257309 1.653025 31.000000
1.561751 -2.281947 1.649896 19.000000
1.544246 -2.313408 1.651856 28.000000
1.531010 -2.352079 1.658652 29.000000
1.471002 -2.317989 1.614661 10.000000
1.411971 -2.282672 1.570945 22.000000
1.004808 1.623392 1.142512 22.000000
1.029150 1.620391 1.154385 33.000000
1.034901 1.588246 1.145557 28.000000
1.063945 1.591816 1.162588 25.000000
1.066625 1.556064 1.150997 29.000000
1.088388 1.548472 1.160134 29.000000
1.105122 1.533635 1.163996 31.000000
1.121721 1.518527 1.167858 32.000000
1.138319 1.503283 1.171584 32.000000
1.157315 1.491119 1.177957 42.000000
1.170974 1.472118 1.178901 32.000000
1.187166 1.456198 1.182491 33.000000
1.202071 1.440683 1.186489 36.000000
1.217992 1.424356 1.189876 32.000000
1.239267 1.414234 1.198639 73.000000
1.248276 1.391768 1.197057 43.000000
1.269483 1.381024 1.205716 37.000000
1.283842 1.364419 1.209391 63.000000
1.296242 1.344112 1.209803 36.000000
1.316254 1.333102 1.218719 39.000000
1.321377 1.307014 1.213995 29.000000
1.336146 1.289196 1.216908 35.000000
1.346791 1.268853 1.217412 48.000000
1.369523 1.259683 1.228923 46.000000
1.382997 1.241785 1.232053 36.000000
1.405728 1.231845 1.243424 50.000000
1.415928 1.210713 1.243662 35.000000
1.422605 1.186865 1.241036 36.000000
1.464503 1.191723 1.268996 31.000000
1.474308 1.169984 1.268978 36.000000
1.483088 1.148536 1.269362 39.000000
1.502341 1.134029 1.277605 44.000000
1.524896 1.121658 1.288614 47.000000
1.523147 1.092465 1.280339 64.000000
1.559012 1.088980 1.302471 54.000000
1.570549 1.068933 1.305285 43.000000
1.588737 1.053223 1.313632 31.000000
1.617248 1.043888 1.330532 61.000000
1.638826 1.029594 1.341577 51.000000
1.649966 1.008392 1.344092 43.000000
1.664416 0.989143 1.349322 46.000000
1.682246 0.971709 1.357354 61.000000
1.685735 0.945930 1.353788 48.000000
1.699772 0.926066 1.358749 52.000000
1.741896 0.921622 1.387103 33.000000
1.759463 0.902773 1.394779 35.000000
1.768990 0.880322 1.397068 46.000000
1.785643 0.861268 1.405140 36.000000
1.802225 0.841877 1.413008 35.000000
1.814947 0.820472 1.417918 44.000000
1.831285 0.800452 1.425590 36.000000
1.847546 0.780092 1.433203 33.000000
1.874871 0.764067 1.449410 36.000000
1.894116 0.744742 1.460282 35.000000
1.910043 0.723308 1.467493 65.000000
1.948063 0.710173 1.492782 42.000000
1.963280 0.688060 1.500347 53.000000
1.982162 0.666888 1.510774 62.000000
2.000893 0.645345 1.521141 37.000000
2.015600 0.622233 1.528355 35.000000
2.045727 0.603345 1.547162 35.000000
2.083068 0.586217 1.572444 36.000000
2.101316 0.562743 1.582247 37.000000
2.115061 0.538138 1.589529 41.000000
2.128601 0.513170 1.596740 36.000000
2.153746 0.490611 1.612638 37.000000
2.174792 0.466705 1.625440 36.000000
2.191367 0.441604 1.635727 34.000000
2.224020 0.418935 1.657080 35.000000
2.252046 0.395038 1.676014 55.000000
2.264071 0.367780 1.682881 41.000000
2.307837 0.345089 1.713340 77.000000
2.339404 0.319664 1.734769 52.000000
2.346889 0.290473 1.738178 37.000000
2.373683 0.263491 1.756940 37.000000
2.392792 0.235025 1.768973 34.000000
2.435187 0.208212 1.799253 33.000000
2.465331 0.179414 1.820470 42.000000
2.487297 0.149423 1.835578 35.000000
2.512550 0.119209 1.854229 49.000000
2.562152 0.089034 1.889733 50.000000
2.578926 0.057023 1.901991 40.000000
2.615433 0.024796 1.928894 44.000000
2.631628 -0.008283 1.940764 29.000000
2.663718 -0.042021 1.964403 35.000000
2.679304 -0.076218 1.975866 31.000000
2.702109 -0.111050 1.993770 28.000000
2.753337 -0.147900 2.031503 34.000000
2.767523 -0.183773 2.043156 27.000000
2.797529 -0.221322 2.066347 27.000000
2.851117 -0.261786 2.107092 20.000000
2.899822 -0.303361 2.145508 29.000000
2.940628 -0.345092 2.176872 35.000000
2.972435 -0.386895 2.202960 36.000000
3.007785 -0.430292 2.231765 32.000000
3.010803 -0.469501 2.236646 35.000000
2.973807 -0.502197 2.211608 34.000000
2.952455 -0.536862 2.198306 29.000000
2.898580 -0.564950 2.161956 16.000000
2.892660 -0.601474 2.160168 27.000000
2.854197 -0.631136 2.135234 29.000000
2.839151 -0.665417 2.127794 29.000000
2.820004 -0.698418 2.117307 31.000000
2.800699 -0.731011 2.106615 31.000000
2.776470 -0.762454 2.093651 29.000000
2.756657 -0.794077 2.082558 24.000000
2.693316 -0.812756 2.039738 18.000000
2.695676 -0.850560 2.046839 28.000000
2.686197 -0.884855 2.044815 30.000000
2.657226 -0.912248 2.027947 30.000000
2.632006 -0.940520 2.013929 27.000000
2.618003 -0.972329 2.008486 32.000000
2.584036 -0.997046 1.989097 28.000000
2.588515 -1.035762 1.997833 24.000000
2.531717 -1.050040 1.960725 20.000000
2.534844 -1.088756 1.969982 31.000000
2.519019 -1.119484 1.964494 32.000000
2.499321 -1.148106 1.955910 34.000000
2.479387 -1.176436 1.947239 33.000000
2.459221 -1.204270 1.938381 32.000000
2.442572 -1.233656 1.932323 31.000000
2.410442 -1.255703 1.915365 25.000000
2.379025 -1.276474 1.897540 24.000000
2.368207 -1.309070 1.897591 31.000000
2.346461 -1.335376 1.888833 32.000000
2.331578 -1.365543 1.885716 35.000000
2.295404 -1.382703 1.865259 32.000000
2.283651 -1.414259 1.864722 34.000000
2.254311 -1.434669 1.849846 30.000000
2.252516 -1.472538 1.857537 29.000000
2.222969 -1.492096 1.842308 25.000000
2.200111 -1.515784 1.832783 28.000000
2.182906 -1.544458 1.829421 32.000000
2.159806 -1.567390 1.819635 34.000000
2.135530 -1.590543 1.810464 32.000000
2.117743 -1.618254 1.806730 33.000000
2.097579 -1.642625 1.799411 31.000000
2.079330 -1.669802 1.795486 20.000000
2.044859 -1.683687 1.777533 10.000000
2.016834 -1.702125 1.765105 24.000000
2.007671 -1.736451 1.769161 30.000000
1.988688 -1.762444 1.764878 33.000000
1.972694 -1.791045 1.763159 32.000000
1.953291 -1.816591 1.758576 33.000000
1.930764 -1.838962 1.751151 32.000000
1.912729 -1.867585 1.749801 26.000000
1.883952 -1.883370 1.736636 25.000000
1.869725 -1.913727 1.737132 30.000000
1.845216 -1.935611 1.730036 32.000000
1.821940 -1.956348 1.722079 33.000000
1.799910 -1.980610 1.717518 29.000000
1.779239 -2.003803 1.712084 30.000000
1.765109 -2.037046 1.715382 31.000000
1.745117 -2.063867 1.713184 25.000000
1.715748 -2.076548 1.699515 24.000000
1.698026 -2.106079 1.699684 29.000000
1.682585 -2.138792 1.702472 33.000000
1.651224 -2.151223 1.689251 32.000000
1.630176 -2.176758 1.686523 27.000000
1.626427 -2.226017 1.702068 32.000000
1.589741 -2.230524 1.683342 30.000000
1.589754 -2.286835 1.703743 22.000000
1.560151 -2.301188 1.692763 25.000000
1.532761 -2.318680 1.684311 26.000000
1.509888 -2.343008 1.680942 27.000000
1.445790 -2.301655 1.631242 10.000000
1.016162 1.616426 1.171270 25.000000
1.033662 1.602275 1.175439 22.000000
1.046333 1.580763 1.174275 26.000000
1.089712 1.604897 1.207421 11.000000
1.082919 1.555046 1.184956 26.000000
1.094913 1.533218 1.183593 28.000000
1.116613 1.524899 1.192800 27.000000
1.128185 1.502798 1.191266 32.000000
1.144617 1.487317 1.195068 29.000000
1.160982 1.471564 1.198735 31.000000
1.178699 1.459490 1.205512 29.000000
1.202865 1.453070 1.217183 20.000000
1.208105 1.423829 1.209803 32.000000
1.220092 1.404641 1.210946 29.000000
1.241309 1.394226 1.219735 31.000000
1.255804 1.377825 1.223547 37.000000
1.262769 1.351591 1.218493 29.000000
1.291309 1.349961 1.235869 35.000000
1.299699 1.326989 1.233891 32.000000
1.329478 1.323904 1.250751 25.000000
1.328622 1.291873 1.240288 32.000000
1.342437 1.274315 1.243622 33.000000
1.353007 1.253803 1.244093 32.000000
1.381805 1.249763 1.261230 33.000000
1.401534 1.236972 1.270009 33.000000
1.418044 1.221184 1.275860 35.000000
1.437635 1.207691 1.284478 32.000000
1.450826 1.188668 1.287394 24.000000
1.463045 1.169992 1.290726 30.000000
1.482447 1.155679 1.299119 35.000000
1.495208 1.136015 1.301769 34.000000
1.520253 1.126473 1.316329 37.000000
1.532845 1.106285 1.318791 37.000000
1.547801 1.088805 1.324612 35.000000
1.559363 1.068713 1.327432 31.000000
1.577512 1.053020 1.335940 24.000000
1.595689 1.036938 1.344329 31.000000
1.613677 1.020608 1.352670 33.000000
1.638633 1.008085 1.366680 33.000000
1.653075 0.988857 1.372029 34.000000
1.670937 0.971367 1.380077 32.000000
1.678051 0.947624 1.379414 34.000000
1.695009 0.929978 1.387849 31.000000
1.705395 0.907898 1.389810 27.000000
1.729321 0.893408 1.403906 27.000000
1.764127 0.883847 1.426758 30.000000
1.777802 0.862578 1.431326 30.000000
1.790697 0.841364 1.436423 30.000000
1.803406 0.819981 1.441379 30.000000
1.819775 0.799980 1.449139 32.000000
1.846459 0.784677 1.466217 26.000000
1.870035 0.766912 1.479699 23.000000
1.889231 0.747510 1.490713 31.000000
1.905144 0.725923 1.498018 28.000000
1.924128 0.705684 1.508841 30.000000
1.954353 0.689092 1.528356 29.000000
1.961740 0.664024 1.530006 25.000000
1.991830 0.646242 1.549342 32.000000
1.995068 0.619531 1.547717 24.000000
2.028358 0.602139 1.570401 13.000000
2.058202 0.582562 1.589419 24.000000
2.064220 0.556374 1.590965 22.000000
2.097263 0.536984 1.613342 25.000000
2.114631 0.513040 1.623631 24.000000
2.127908 0.487736 1.630692 20.000000
2.172372 0.468993 1.661629 21.000000
2.181462 0.442010 1.665472 18.000000
2.166300 0.410543 1.651756 9.000000
2.213750 0.390611 1.685931 24.000000
2.249872 0.367470 1.710278 19.000000
2.280936 0.343104 1.732778 18.000000
2.292552 0.315050 1.739403 20.000000
2.303929 0.286794 1.745943 17.000000
2.354319 0.262858 1.782999 14.000000
2.381156 0.235173 1.801223 16.000000
2.403337 0.206630 1.816903 9.000000
2.433334 0.178072 1.838426 13.000000
2.463098 0.148804 1.859771 16.000000
2.476192 0.118162 1.869557 14.000000
2.497466 0.087305 1.884514 15.000000
2.526069 0.056214 1.905974 13.000000
2.562279 0.024392 1.933367 10.000000
2.594307 -0.008232 1.957458 21.000000
2.622045 -0.041704 1.978338 22.000000
2.649576 -0.075786 1.999011 21.000000
2.700108 -0.111669 2.038355 24.000000
2.722996 -0.147259 2.055587 23.000000
2.749008 -0.183723 2.076338 21.000000
2.810491 -0.223641 2.123946 24.000000
2.815968 -0.260142 2.129315 10.000000
2.876070 -0.302698 2.177214 24.000000
2.936355 -0.346649 2.224200 26.000000
2.951990 -0.386619 2.238660 26.000000
2.975137 -0.428232 2.258892 25.000000
2.970891 -0.465869 2.256941 26.000000
2.961096 -0.503065 2.253481 28.000000
2.916240 -0.533566 2.222005 22.000000
2.890947 -0.566689 2.205327 11.000000
2.868534 -0.600245 2.192336 20.000000
2.857700 -0.636011 2.188003 24.000000
2.842762 -0.670534 2.180571 26.000000
2.819641 -0.702808 2.166946 24.000000
2.784858 -0.731629 2.144162 24.000000
2.769125 -0.764880 2.136113 23.000000
2.733181 -0.792454 2.113823 22.000000
2.674889 -0.811908 2.072622 9.000000
2.673309 -0.848536 2.076767 22.000000
2.659907 -0.881460 2.071771 25.000000
2.638822 -0.911447 2.060736 24.000000
2.617399 -0.941036 2.049508 22.000000
2.588306 -0.967304 2.032166 24.000000
2.588376 -1.004967 2.039161 26.000000
2.573911 -1.036367 2.033262 21.000000
2.513638 -1.049332 1.992680 10.000000
2.506428 -1.082759 1.992434 26.000000
2.494256 -1.114942 1.989855 27.000000
2.478310 -1.145119 1.984234 28.000000
2.458335 -1.173458 1.975479 25.000000
2.430147 -1.198128 1.961492 25.000000
2.409957 -1.225588 1.952473 26.000000
2.396828 -1.256325 1.949115 24.000000
2.343186 -1.266135 1.914268 12.000000
2.347530 -1.305842 1.925227 29.000000
2.325847 -1.332158 1.916385 28.000000
2.303851 -1.358090 1.907461 29.000000
2.278362 -1.381527 1.895458 28.000000
2.252713 -1.404493 1.883386 25.000000
2.254499 -1.444609 1.894348 29.000000
2.221720 -1.462406 1.876234 24.000000
2.185497 -1.477272 1.855103 13.000000
2.176280 -1.510088 1.857005 27.000000
2.143494 -1.526141 1.838540 23.000000
2.142714 -1.566361 1.849502 28.000000
2.112983 -1.583953 1.833751 28.000000
2.091868 -1.609114 1.827177 25.000000
2.089995 -1.649289 1.837557 27.000000
2.053594 -1.660403 1.815919 16.000000
2.038381 -1.689933 1.814637 8.000000
2.003941 -1.703209 1.796422 20.000000
1.988396 -1.732168 1.794959 25.000000
1.972499 -1.760916 1.793385 24.000000
1.956445 -1.789453 1.791699 28.000000
1.930958 -1.809367 1.781427 25.000000
1.905399 -1.828830 1.771185 25.000000
1.891726 -1.859405 1.771887 21.000000
1.849885 -1.864231 1.748306 13.000000
1.847452 -1.906257 1.759876 26.000000
1.824366 -1.927331 1.752067 26.000000
1.805267 -1.954856 1.750253 28.000000
1.784759 -1.978378 1.744907 26.000000
1.754103 -1.992956 1.731949 24.000000
1.741505 -2.025422 1.734701 24.000000
1.721556 -2.052063 1.732460 18.000000
1.693257 -2.068727 1.721982 13.000000
1.685051 -2.107291 1.729749 27.000000
1.661674 -2.129983 1.724468 24.000000
1.645769 -2.162553 1.727134 23.000000
1.616951 -2.177976 1.716382 26.000000
1.602876 -2.213626 1.721457 21.000000
1.573740 -2.228392 1.710527 24.000000
1.556686 -2.260195 1.712670 15.000000
1.534274 -2.284948 1.709583 15.000000
1.513916 -2.313026 1.708908 26.000000
1.497885 -2.348017 1.713437 18.000000
1.011493 1.583972 1.181611 31.000000
1.044919 1.594424 1.204369 10.000000
1.050553 1.562252 1.195100 29.000000
1.065240 1.544083 1.196426 29.000000
1.079648 1.525776 1.197735 26.000000
1.093845 1.507333 1.198958 32.000000
1.112913 1.495492 1.205458 26.000000
1.131852 1.483379 1.211976 29.000000
1.139329 1.458338 1.207919 33.000000
1.165973 1.455611 1.222526 15.000000
1.186240 1.446484 1.232041 35.000000
1.194321 1.420502 1.227322 34.000000
1.215581 1.410312 1.236316 33.000000
1.232998 1.397197 1.242910 41.000000
1.247627 1.380723 1.246738 34.000000
1.257574 1.357477 1.244371 35.000000
1.283272 1.352692 1.259239 37.000000
1.288904 1.326690 1.254391 24.000000
1.303977 1.308956 1.257460 35.000000
1.315011 1.288674 1.258050 32.000000
1.337696 1.279735 1.269869 33.000000
1.348457 1.259043 1.270322 36.000000
1.352940 1.232754 1.265007 33.000000
1.384670 1.231070 1.285229 39.000000
1.401189 1.215316 1.291113 41.000000
1.432368 1.212998 1.311816 28.000000
1.433021 1.183423 1.303269 37.000000
1.446044 1.164303 1.306109 35.000000
1.467733 1.153030 1.318017 36.000000
1.487043 1.138395 1.326447 52.000000
1.502216 1.121432 1.332425 37.000000
1.518073 1.103752 1.337854 36.000000
1.523183 1.079213 1.334991 43.000000
1.554659 1.073099 1.355280 31.000000
1.566154 1.052735 1.358047 36.000000
1.594397 1.043329 1.375375 47.000000
1.612489 1.026738 1.383821 47.000000
1.630532 1.009897 1.392143 56.000000
1.641598 0.988488 1.394530 37.000000
1.652375 0.966935 1.396845 50.000000
1.676457 0.953578 1.411404 53.000000
1.683504 0.929603 1.410562 31.000000
1.707456 0.915380 1.424960 32.000000
1.732016 0.900346 1.438660 37.000000
1.748744 0.881543 1.446970 36.000000
1.772623 0.865933 1.461103 55.000000
1.774655 0.839499 1.457240 36.000000
1.801996 0.824791 1.474176 46.000000
1.818298 0.804592 1.482036 42.000000
1.830230 0.782857 1.487451 26.000000
1.857376 0.766604 1.504024 36.000000
1.880205 0.748623 1.518170 53.000000
1.896086 0.727010 1.525643 42.000000
1.918828 0.708125 1.539531 65.000000
1.926328 0.683359 1.541250 44.000000
1.952555 0.664946 1.557958 61.000000
1.971185 0.643414 1.568506 76.000000
2.000431 0.625315 1.588610 33.000000
2.018863 0.602890 1.598882 34.000000
2.036562 0.580251 1.609654 37.000000
2.058500 0.558033 1.622738 36.000000
2.060455 0.530624 1.621180 42.000000
2.112514 0.515483 1.658795 54.000000
2.125767 0.490059 1.665949 57.000000
2.150030 0.467133 1.682812 54.000000
2.159077 0.440199 1.686697 30.000000
2.210258 0.421512 1.724464 46.000000
2.238544 0.397207 1.743236 56.000000
2.242740 0.368529 1.744198 44.000000
2.266191 0.342729 1.760300 52.000000
2.292923 0.317058 1.779910 61.000000
2.312128 0.289622 1.792549 37.000000
2.354826 0.264344 1.823400 55.000000
2.353438 0.233841 1.821171 28.000000
2.410959 0.208558 1.864531 34.000000
2.432850 0.179153 1.880259 36.000000
2.450540 0.148907 1.892752 35.000000
2.475306 0.118731 1.911833 35.000000
2.500477 0.087949 1.930061 36.000000
2.516885 0.056287 1.942665 34.000000
2.564769 0.024521 1.979517 34.000000
2.604450 -0.008333 2.010165 37.000000
2.620080 -0.041920 2.022183 37.000000
2.655189 -0.076483 2.049265 46.000000
2.677588 -0.111463 2.067796 37.000000
2.732010 -0.148668 2.109608 42.000000
2.757769 -0.185428 2.130766 46.000000
2.802905 -0.224475 2.166856 31.000000
2.831858 -0.263268 2.190614 32.000000
2.868411 -0.303593 2.220124 36.000000
2.915675 -0.346326 2.259430 36.000000
2.958641 -0.389966 2.295446 42.000000
2.974354 -0.430493 2.308953 35.000000
2.973298 -0.469163 2.310957 42.000000
2.948534 -0.503810 2.294467 36.000000
2.934517 -0.540225 2.287808 32.000000
2.889719 -0.570064 2.255686 28.000000
2.871383 -0.604745 2.245439 32.000000
2.841807 -0.636073 2.225194 34.000000
2.811334 -0.667031 2.205538 34.000000
2.807759 -0.704050 2.206794 39.000000
2.776906 -0.733832 2.186734 34.000000
2.745198 -0.763241 2.167360 32.000000
2.717782 -0.792736 2.149946 29.000000
2.678192 -0.818465 2.124254 24.000000
2.669611 -0.852576 2.121572 31.000000
2.652389 -0.884379 2.113611 30.000000
2.612391 -0.908019 2.087269 29.000000
2.598590 -0.940181 2.081934 30.000000
2.580867 -0.970734 2.073390 32.000000
2.550981 -0.996833 2.056484 30.000000
2.547737 -1.032555 2.059658 28.000000
2.513744 -1.056165 2.039384 27.000000
2.498950 -1.086676 2.033276 29.000000
2.490363 -1.120591 2.033669 31.000000
2.448785 -1.139261 2.007108 30.000000
2.450737 -1.177746 2.016042 32.000000
2.419819 -1.200425 1.998179 31.000000
2.392471 -1.224266 1.983125 29.000000
2.381863 -1.257437 1.983440 29.000000
2.340168 -1.272558 1.956292 24.000000
2.336199 -1.309033 1.962334 29.000000
2.315424 -1.334990 1.952585 32.000000
2.293423 -1.360968 1.943564 30.000000
2.264509 -1.382449 1.928481 32.000000
2.245766 -1.409725 1.922143 32.000000
2.230174 -1.438909 1.918545 28.000000
2.228006 -1.476857 1.926541 29.000000
2.181709 -1.485252 1.896461 23.000000
2.162310 -1.511191 1.889583 26.000000
2.149376 -1.541588 1.888428 31.000000
2.128541 -1.567538 1.881957 28.000000
2.111805 -1.595069 1.877699 29.000000
2.074425 -1.607991 1.856611 28.000000
2.073549 -1.647488 1.866401 26.000000
2.058329 -1.677461 1.865320 23.000000
2.014471 -1.683583 1.838219 9.000000
1.990830 -1.704169 1.827609 16.000000
1.978184 -1.735911 1.829025 28.000000
1.965224 -1.767426 1.830317 27.000000
1.945993 -1.793328 1.825706 28.000000
1.917383 -1.810547 1.812598 26.000000
1.897851 -1.835742 1.807812 25.000000
1.889765 -1.872372 1.814198 22.000000
1.856640 -1.886230 1.798633 20.000000
1.830687 -1.904674 1.787950 22.000000
1.818853 -1.937789 1.791173 28.000000
1.788437 -1.953349 1.778215 23.000000
1.773340 -1.983105 1.778418 24.000000
1.755180 -2.009483 1.775622 26.000000
1.735191 -2.036520 1.773494 27.000000
1.714935 -2.063436 1.771252 21.000000
1.680377 -2.069781 1.751735 13.000000
1.667597 -2.105779 1.757526 19.000000
1.640723 -2.121094 1.746094 25.000000
1.622241 -2.150155 1.746162 22.000000
1.610885 -2.189312 1.754233 26.000000
1.584344 -2.207909 1.745903 24.000000
1.557582 -2.226144 1.737492 20.000000
1.537829 -2.254568 1.737055 19.000000
1.520065 -2.286247 1.739258 10.000000
1.499572 -2.314373 1.738640 16.000000
0.996101 1.576281 1.195375 29.000000
1.020269 1.572664 1.207622 30.000000
1.032902 1.551182 1.206271 29.000000
1.052203 1.540008 1.213062 32.000000
1.069179 1.525138 1.217068 37.000000
1.085950 1.510064 1.221007 36.000000
1.098821 1.492037 1.222599 36.000000
1.120308 1.483241 1.231917 37.000000
1.131680 1.460940 1.230119 34.000000
1.149303 1.448884 1.237031 36.000000
1.173320 1.442451 1.248994 33.000000
1.185639 1.423407 1.250230 37.000000
1.204287 1.410049 1.256514 36.000000
1.221774 1.396890 1.263224 36.000000
1.240288 1.382973 1.269402 43.000000
1.246479 1.357110 1.264690 59.000000
1.263623 1.343330 1.271211 36.000000
1.287500 1.334640 1.282889 48.000000
1.287313 1.302762 1.272205 29.000000
1.309949 1.294054 1.284188 35.000000
1.320908 1.273535 1.284746 38.000000
1.340607 1.261368 1.293777 34.000000
1.354271 1.243378 1.297005 43.000000
1.367798 1.225113 1.300163 54.000000
1.386429 1.212557 1.309528 35.000000
1.405865 1.199149 1.318371 36.000000
1.425348 1.185436 1.327101 29.000000
1.443899 1.171836 1.336346 39.000000
1.456968 1.152408 1.339071 62.000000
1.468988 1.133189 1.342286 45.000000
1.481707 1.113412 1.344872 46.000000
1.496709 1.096302 1.350820 52.000000
1.528052 1.090624 1.371458 37.000000
1.523132 1.058963 1.359589 42.000000
1.557783 1.054698 1.383057 27.000000
1.572544 1.036318 1.388732 37.000000
1.593908 1.022048 1.400222 42.000000
1.615271 1.007293 1.411672 42.000000
1.633199 0.990117 1.420025 37.000000
1.651075 0.972542 1.428252 61.000000
1.664616 0.953088 1.434018 42.000000
1.675214 0.931015 1.436138 37.000000
1.695561 0.914856 1.447706 25.000000
1.705269 0.892791 1.450133 33.000000
1.739660 0.883149 1.473581 37.000000
1.756290 0.863910 1.481856 34.000000
1.769176 0.842622 1.487051 34.000000
1.781949 0.821165 1.492029 35.000000
1.805508 0.804318 1.506031 30.000000
1.825333 0.785370 1.516953 32.000000
1.840753 0.764766 1.525242 31.000000
1.856085 0.743895 1.533472 36.000000
1.879343 0.725227 1.547037 37.000000
1.894446 0.703569 1.555073 41.000000
1.924371 0.686966 1.575101 47.000000
1.943003 0.665777 1.585921 50.000000
1.972195 0.648239 1.606339 55.000000
1.994486 0.627267 1.619949 37.000000
1.997644 0.600139 1.618176 28.000000
2.026618 0.580885 1.638276 36.000000
2.055569 0.560962 1.658249 35.000000
2.072872 0.537316 1.668870 40.000000
2.086328 0.512351 1.676347 37.000000
2.111092 0.489861 1.692818 45.000000
2.131855 0.465865 1.706143 36.000000
2.148074 0.440766 1.716827 33.000000
2.199475 0.421871 1.754509 35.000000
2.211475 0.394863 1.761809 42.000000
2.231178 0.368938 1.775116 38.000000
2.246700 0.341935 1.785259 36.000000
2.273765 0.316167 1.804415 37.000000
2.296198 0.289395 1.821032 42.000000
2.338564 0.264146 1.852315 37.000000
2.356757 0.235639 1.865513 33.000000
2.390355 0.207999 1.890915 30.000000
2.419909 0.179263 1.912956 37.000000
2.441389 0.149248 1.928718 35.000000
2.458786 0.118634 1.941197 36.000000
2.483184 0.087799 1.960353 35.000000
2.515154 0.056534 1.985617 32.000000
2.558614 0.024573 2.019891 36.000000
2.570487 -0.008395 2.029185 30.000000
2.617377 -0.042237 2.066157 35.000000
2.636587 -0.076392 2.081235 35.000000
2.659404 -0.111317 2.099197 35.000000
2.716548 -0.148781 2.145639 35.000000
2.742065 -0.185532 2.167099 32.000000
2.786791 -0.224564 2.203706 32.000000
2.803845 -0.262245 2.218525 24.000000
2.843861 -0.302926 2.251561 31.000000
2.914093 -0.348446 2.309983 35.000000
2.941730 -0.389965 2.333224 37.000000
2.960464 -0.431267 2.350953 35.000000
2.955471 -0.469355 2.349908 36.000000
2.934738 -0.504774 2.336286 36.000000
2.905977 -0.538131 2.316278 33.000000
2.868445 -0.569585 2.290811 25.000000
2.850879 -0.603983 2.279642 27.000000
2.824663 -0.636463 2.263005 32.000000
2.790541 -0.666504 2.240008 31.000000
2.771629 -0.699600 2.229118 32.000000
2.752449 -0.732290 2.218021 32.000000
2.729202 -0.763401 2.203652 33.000000
2.698247 -0.791896 2.183064 26.000000
2.658799 -0.817588 2.156924 20.000000
2.645689 -0.850860 2.152036 26.000000
2.621783 -0.879723 2.137018 32.000000
2.611971 -0.913640 2.134885 31.000000
2.579505 -0.939213 2.114234 31.000000
2.572955 -0.973925 2.114743 30.000000
2.543063 -1.000341 2.097615 29.000000
2.528559 -1.031538 2.091736 26.000000
2.484707 -1.050162 2.061265 18.000000
2.465509 -1.079403 2.052921 28.000000
2.464190 -1.116351 2.059424 29.000000
2.433609 -1.139969 2.041603 32.000000
2.421043 -1.171692 2.038719 28.000000
2.390331 -1.194194 2.020550 30.000000
2.363052 -1.217856 2.005337 28.000000
2.356999 -1.252194 2.007996 22.000000
2.322495 -1.271251 1.986424 16.000000
2.321894 -1.309623 1.995581 31.000000
2.297677 -1.333567 1.982748 29.000000
2.282603 -1.363715 1.979612 35.000000
2.257068 -1.387354 1.967331 34.000000
2.231470 -1.410521 1.954980 30.000000
2.215831 -1.439794 1.951371 31.000000
2.196643 -1.466531 1.944697 25.000000
2.160683 -1.481682 1.923042 16.000000
2.151214 -1.514495 1.924980 28.000000
2.118526 -1.530820 1.906170 31.000000
2.095640 -1.553645 1.896046 32.000000
2.087589 -1.588953 1.901305 29.000000
2.077072 -1.621132 1.902611 30.000000
2.065157 -1.653877 1.904585 33.000000
2.019481 -1.657538 1.873585 15.000000
2.007161 -1.689661 1.875279 9.000000
1.972949 -1.703027 1.856543 23.000000
1.964537 -1.736716 1.860144 27.000000
1.945503 -1.762913 1.855630 29.000000
1.935063 -1.797062 1.859754 32.000000
1.912482 -1.819968 1.852151 30.000000
1.889765 -1.842597 1.844464 32.000000
1.866913 -1.864755 1.836694 21.000000
1.829567 -1.871946 1.814501 17.000000
1.816504 -1.905957 1.818652 26.000000
1.801805 -1.936110 1.819144 27.000000
1.786683 -1.966118 1.819406 32.000000
1.761539 -1.987594 1.811871 27.000000
1.743250 -2.014072 1.809088 29.000000
1.717682 -2.034885 1.801275 29.000000
1.701668 -2.064146 1.801170 21.000000
1.675839 -2.084333 1.793169 19.000000
1.654122 -2.106639 1.787273 28.000000
1.630538 -2.129437 1.781868 26.000000
1.624321 -2.175331 1.795674 31.000000
1.589667 -2.180013 1.775672 26.000000
1.565517 -2.202094 1.770053 26.000000
1.553098 -2.240991 1.777893 27.000000
1.530712 -2.266022 1.774754 20.000000
1.510160 -2.294429 1.774210 19.000000
1.480371 -2.308404 1.762816 25.000000
1.007066 1.568513 1.224023 25.000000
1.028945 1.560986 1.233682 15.000000
1.041502 1.539318 1.232257 35.000000
1.056142 1.520996 1.233501 31.000000
1.078848 1.516621 1.246260 33.000000
1.090773 1.494538 1.244643 36.000000
1.107310 1.479090 1.248522 34.000000
1.130105 1.473829 1.261168 42.000000
1.136333 1.444810 1.253667 28.000000
1.159102 1.438897 1.266221 23.000000
1.175303 1.422559 1.269844 55.000000
1.184824 1.400215 1.268122 34.000000
1.208688 1.392848 1.280146 36.000000
1.228868 1.382536 1.289702 53.000000
1.240700 1.362785 1.290619 36.000000
1.249609 1.339912 1.288643 56.000000
1.264922 1.322344 1.291787 30.000000
1.299058 1.325579 1.315581 26.000000
1.295972 1.290628 1.301727 43.000000
1.309880 1.273021 1.305084 33.000000
1.329547 1.260799 1.314270 44.000000
1.336326 1.237737 1.312210 41.000000
1.352898 1.222298 1.318291 36.000000
1.366287 1.203896 1.321381 56.000000
1.394868 1.198527 1.339117 24.000000
1.413411 1.185246 1.348490 22.000000
1.423469 1.163448 1.348392 38.000000
1.438724 1.147102 1.354696 36.000000
1.448448 1.125110 1.354376 36.000000
1.469884 1.113111 1.366438 42.000000
1.504318 1.110248 1.390335 34.000000
1.509614 1.085588 1.387341 58.000000
1.537618 1.076962 1.405225 30.000000
1.552515 1.058748 1.411018 25.000000
1.563989 1.038094 1.413743 37.000000
1.575249 1.017224 1.416325 33.000000
1.596563 1.002570 1.427892 37.000000
1.614403 0.985428 1.436321 40.000000
1.638230 0.972384 1.451340 36.000000
1.649047 0.950530 1.453533 45.000000
1.659061 0.928896 1.456164 26.000000
1.686275 0.916584 1.473949 21.000000
1.696688 0.893985 1.475869 35.000000
1.716791 0.877084 1.487321 35.000000
1.740407 0.861513 1.501859 35.000000
1.753336 0.840295 1.507020 35.000000
1.776143 0.824119 1.521921 34.000000
1.792423 0.803961 1.529958 33.000000
1.819399 0.788087 1.547084 24.000000
1.827612 0.764370 1.549387 28.000000
1.839243 0.741973 1.554543 36.000000
1.862367 0.723367 1.568276 37.000000
1.881084 0.703155 1.579487 39.000000
1.907128 0.685234 1.596674 37.000000
1.943652 0.670751 1.623667 37.000000
1.962178 0.649020 1.634491 42.000000
1.969334 0.623287 1.635858 29.000000
2.005760 0.606708 1.662569 29.000000
2.020141 0.582591 1.669849 35.000000
2.048844 0.562587 1.690081 41.000000
2.058594 0.536895 1.694687 36.000000
2.071994 0.511958 1.702168 40.000000
2.092209 0.488686 1.716400 32.000000
2.120463 0.466444 1.736143 34.000000
2.121899 0.437997 1.733782 26.000000
2.168446 0.418610 1.769441 30.000000
2.195797 0.394594 1.789420 39.000000
2.211437 0.368061 1.799770 35.000000
2.230797 0.341643 1.813086 36.000000
2.265381 0.316985 1.838853 43.000000
2.279930 0.289166 1.849422 37.000000
2.314221 0.263067 1.874772 32.000000
2.320650 0.233436 1.878730 24.000000
2.365686 0.207100 1.913882 28.000000
2.383260 0.177634 1.926901 34.000000
2.412421 0.148390 1.949058 34.000000
2.429581 0.117874 1.961708 32.000000
2.461549 0.087509 1.987494 35.000000
2.497135 0.056524 2.016144 31.000000
2.520769 0.024324 2.035184 29.000000
2.559770 -0.008434 2.066692 31.000000
2.598571 -0.042198 2.097897 32.000000
2.617507 -0.076403 2.113189 32.000000
2.659559 -0.112094 2.147102 32.000000
2.689081 -0.148250 2.172109 31.000000
2.718140 -0.185104 2.197006 32.000000
2.766335 -0.224444 2.237264 28.000000
2.794843 -0.263158 2.261706 20.000000
2.830706 -0.303505 2.292071 32.000000
2.884694 -0.347183 2.338877 33.000000
2.923649 -0.390074 2.371862 37.000000
2.934453 -0.430222 2.383583 35.000000
2.933309 -0.468925 2.385668 34.000000
2.908748 -0.503619 2.368744 34.000000
2.876358 -0.536270 2.345352 27.000000
2.832361 -0.565817 2.312387 16.000000
2.825586 -0.602628 2.311371 29.000000
2.788002 -0.632413 2.285154 29.000000
2.770124 -0.665640 2.273453 32.000000
2.751192 -0.698793 2.262435 32.000000
2.713207 -0.726370 2.235752 29.000000
2.712854 -0.763660 2.239892 30.000000
2.688715 -0.794597 2.226028 29.000000
2.627894 -0.813230 2.180146 13.000000
2.625928 -0.849922 2.184531 26.000000
2.619976 -0.885445 2.185698 29.000000
2.599722 -0.915312 2.173398 29.000000
2.563725 -0.939696 2.149393 29.000000
2.557006 -0.974396 2.149936 30.000000
2.523592 -0.999266 2.129507 29.000000
2.505569 -1.029123 2.120500 27.000000
2.461914 -1.047676 2.089757 18.000000
2.467936 -1.087954 2.102745 29.000000
2.452030 -1.118671 2.097065 31.000000
2.433316 -1.146985 2.087391 30.000000
2.406317 -1.171961 2.072238 29.000000
2.368657 -1.190922 2.047745 33.000000
2.352055 -1.220076 2.041524 32.000000
2.334371 -1.249442 2.035924 25.000000
2.307019 -1.272153 2.020187 19.000000
2.307156 -1.310090 2.028687 32.000000
2.275117 -1.330633 2.010568 30.000000
2.257645 -1.358122 2.003495 32.000000
2.235617 -1.383829 1.994220 32.000000
2.210016 -1.406912 1.981647 29.000000
2.194478 -1.436185 1.978037 31.000000
2.175322 -1.462927 1.971323 27.000000
2.132875 -1.473464 1.943426 19.000000
2.133190 -1.513131 1.954436 30.000000
2.100641 -1.529429 1.935319 27.000000
2.100209 -1.569129 1.945967 32.000000
2.080280 -1.594284 1.938610 32.000000
2.055748 -1.617264 1.928894 29.000000
2.048098 -1.651830 1.933113 31.000000
2.010719 -1.663900 1.911304 20.000000
1.977939 -1.677198 1.891733 9.000000
1.962280 -1.706399 1.890461 23.000000
1.946268 -1.735487 1.888979 26.000000
1.941969 -1.775303 1.899089 32.000000
1.909025 -1.786782 1.879152 31.000000
1.883602 -1.806801 1.868614 27.000000
1.878330 -1.846343 1.878231 31.000000
1.855417 -1.868625 1.870399 28.000000
1.815323 -1.873045 1.845062 16.000000
1.802098 -1.907015 1.849218 26.000000
1.789851 -1.940236 1.852643 29.000000
1.766440 -1.961205 1.844366 26.000000
1.745510 -1.984985 1.838863 29.000000
1.714882 -1.999799 1.825406 25.000000
1.701683 -2.032252 1.828250 27.000000
1.686410 -2.065511 1.831633 27.000000
1.651924 -2.072080 1.811601 16.000000
1.636121 -2.104793 1.814751 26.000000
1.616774 -2.130136 1.811454 26.000000
1.600416 -2.162607 1.814221 28.000000
1.573825 -2.181720 1.805790 28.000000
1.558562 -2.213078 1.807792 24.000000
1.531570 -2.231499 1.799164 28.000000
1.513630 -2.263519 1.801589 23.000000
1.486241 -2.281343 1.792761 18.000000
1.013416 1.553205 1.247229 23.000000
1.032910 1.541914 1.254189 23.000000
1.046292 1.524149 1.255892 27.000000
1.068033 1.515759 1.265553 30.000000
1.080054 1.493729 1.263872 28.000000
1.097920 1.482031 1.271006 29.000000
1.111907 1.463035 1.272056 31.000000
1.134682 1.457405 1.284851 26.000000
1.145977 1.434727 1.282764 27.000000
1.160947 1.418936 1.286934 28.000000
1.181099 1.409203 1.296661 33.000000
1.194438 1.389286 1.297274 34.000000
1.211861 1.375900 1.304077 31.000000
1.226486 1.359215 1.307922 32.000000
1.243663 1.345306 1.314545 33.000000
1.263694 1.334061 1.324107 29.000000
1.262098 1.298794 1.309639 24.000000
1.298988 1.304404 1.336618 25.000000
1.294739 1.270075 1.322966 29.000000
1.328979 1.271854 1.347001 32.000000
1.345840 1.256304 1.353232 30.000000
1.353628 1.232477 1.350573 31.000000
1.376250 1.221874 1.362623 33.000000
1.388830 1.203494 1.366257 28.000000
1.405239 1.187001 1.372181 24.000000
1.423743 1.173322 1.381607 27.000000
1.443201 1.158842 1.390427 36.000000
1.452209 1.137024 1.390737 32.000000
1.470603 1.122405 1.399873 32.000000
1.482498 1.102722 1.402988 33.000000
1.503983 1.089828 1.415052 35.000000
1.518915 1.071881 1.421010 30.000000
1.540294 1.058198 1.432922 23.000000
1.551793 1.037571 1.435653 29.000000
1.569786 1.020974 1.444348 32.000000
1.581045 0.999900 1.446874 32.000000
1.591294 0.979041 1.449905 30.000000
1.612354 0.963679 1.461352 33.000000
1.636084 0.950317 1.476489 32.000000
1.650208 0.930205 1.481620 28.000000
1.673848 0.915887 1.496532 18.000000
1.687088 0.895528 1.502064 26.000000
1.700145 0.875004 1.507533 26.000000
1.720189 0.857665 1.519063 29.000000
1.743654 0.841600 1.533649 30.000000
1.749301 0.816802 1.532501 26.000000
1.779043 0.803520 1.553664 28.000000
1.805944 0.787654 1.571078 24.000000
1.828570 0.770030 1.585795 20.000000
1.825786 0.741595 1.578587 26.000000
1.855431 0.726079 1.599370 30.000000
1.882090 0.708224 1.616279 25.000000
1.892758 0.684984 1.621778 27.000000
1.911200 0.663885 1.632855 27.000000
1.929568 0.642338 1.643712 22.000000
1.939814 0.618300 1.648854 21.000000
1.972857 0.600632 1.672096 14.000000
1.990196 0.578033 1.683254 20.000000
2.011261 0.556093 1.697422 19.000000
2.020921 0.530644 1.701975 19.000000
2.041718 0.507903 1.715932 17.000000
2.062351 0.484685 1.729657 20.000000
2.093561 0.463667 1.753398 12.000000
2.095098 0.435322 1.750992 10.000000
2.129858 0.413885 1.777693 11.000000
2.172180 0.392946 1.810513 14.000000
2.180087 0.365181 1.814644 14.000000
2.210742 0.340848 1.837735 17.000000
2.225926 0.313486 1.847878 14.000000
2.248005 0.286979 1.864918 13.000000
2.274421 0.260143 1.884252 12.000000
2.276955 0.230555 1.885066 9.000000
2.325339 0.204848 1.923859 10.000000
2.350545 0.176300 1.943404 10.000000
2.375510 0.147057 1.962677 10.000000
2.408028 0.117588 1.988220 11.000000
2.420353 0.086626 1.998339 10.000000
2.447912 0.055714 2.021097 10.000000
2.517601 0.024412 2.078588 17.000000
2.548545 -0.008472 2.104053 20.000000
2.586999 -0.042286 2.135679 24.000000
2.617428 -0.076877 2.160728 24.000000
2.635972 -0.111780 2.176013 21.000000
2.668964 -0.148147 2.204644 23.000000
2.713135 -0.186104 2.242605 23.000000
2.745483 -0.224214 2.270689 19.000000
2.781394 -0.263590 2.301829 22.000000
2.832251 -0.305623 2.345325 25.000000
2.874184 -0.348244 2.383232 27.000000
2.882118 -0.387094 2.391271 27.000000
2.927201 -0.432114 2.431737 24.000000
2.918243 -0.469720 2.427511 29.000000
2.893951 -0.504456 2.410370 25.000000
2.888385 -0.542145 2.408862 20.000000
2.810409 -0.565225 2.347058 16.000000
2.796058 -0.600460 2.339708 20.000000
2.782193 -0.635046 2.331239 23.000000
2.759823 -0.667838 2.317133 24.000000
2.740953 -0.700972 2.305978 25.000000
2.699459 -0.727755 2.275678 25.000000
2.683962 -0.760844 2.267391 25.000000
2.672013 -0.794734 2.261937 10.000000
2.625615 -0.818344 2.228921 19.000000
2.609472 -0.850074 2.219931 24.000000
2.592412 -0.881934 2.211709 21.000000
2.571417 -0.911976 2.200145 23.000000
2.562111 -0.945349 2.196936 25.000000
2.539857 -0.975172 2.185830 24.000000
2.518336 -1.004068 2.173784 24.000000
2.492981 -1.030975 2.158321 10.000000
2.460464 -1.054320 2.136549 23.000000
2.441191 -1.083654 2.127913 24.000000
2.422613 -1.112278 2.118357 24.000000
2.395987 -1.137562 2.103229 23.000000
2.383281 -1.169172 2.100336 25.000000
2.363262 -1.197029 2.091042 26.000000
2.353560 -1.229954 2.090942 26.000000
2.302071 -1.240381 2.053569 10.000000
2.288677 -1.270721 2.050017 23.000000
2.274065 -1.301263 2.047176 26.000000
2.249968 -1.325091 2.034102 26.000000
2.228165 -1.350998 2.024835 27.000000
2.227383 -1.388568 2.032953 30.000000
2.195125 -1.407575 2.014125 29.000000
2.186052 -1.441197 2.016707 26.000000
2.147135 -1.454675 1.991559 10.000000
2.124551 -1.478779 1.981588 24.000000
2.108434 -1.507034 1.977609 23.000000
2.098436 -1.539698 1.979484 27.000000
2.072222 -1.560449 1.966132 23.000000
2.058591 -1.590305 1.964775 23.000000
2.047941 -1.622626 1.966211 28.000000
2.010762 -1.635227 1.944218 23.000000
1.993557 -1.661825 1.939373 9.000000
1.977818 -1.691424 1.938305 9.000000
1.951130 -1.709629 1.924220 17.000000
1.932007 -1.736145 1.919883 25.000000
1.900941 -1.751354 1.903489 24.000000
1.893268 -1.788191 1.910617 25.000000
1.879354 -1.819534 1.911786 24.000000
1.846506 -1.830023 1.891442 22.000000
1.826490 -1.855042 1.886438 10.000000
1.799291 -1.874702 1.876169 18.000000
1.787273 -1.907944 1.879742 19.000000
1.774965 -1.941217 1.883167 25.000000
1.745903 -1.956193 1.869031 25.000000
1.727749 -1.982950 1.866323 19.000000
1.707657 -2.010273 1.864288 25.000000
1.694098 -2.042880 1.867202 20.000000
1.677763 -2.072321 1.866996 11.000000
1.646499 -2.086205 1.853152 20.000000
1.622239 -2.105396 1.844171 21.000000
1.601016 -2.131490 1.841484 24.000000
1.578768 -2.153243 1.835255 22.000000
1.561840 -2.185662 1.837990 21.000000
1.534943 -2.204422 1.829414 22.000000
1.509903 -2.222025 1.820064 17.000000
1.498876 -2.264155 1.830894 10.000000
1.031780 1.558685 1.287820 27.000000
1.046857 1.540183 1.289131 30.000000
1.062686 1.525460 1.293693 24.000000
1.084596 1.516574 1.303432 30.000000
1.089432 1.484322 1.293091 32.000000
1.107337 1.472343 1.300300 26.000000
1.126345 1.459537 1.307045 27.000000
1.136536 1.437424 1.305450 25.000000
1.151642 1.421562 1.309639 28.000000
1.173037 1.411190 1.319046 40.000000
1.187935 1.394844 1.323046 30.000000
1.202763 1.378360 1.326977 36.000000
1.220147 1.364613 1.333784 38.000000
1.242909 1.356533 1.346444 35.000000
1.254763 1.336340 1.347240 32.000000
1.260836 1.310218 1.342013 21.000000
1.277795 1.295559 1.348576 31.000000
1.297600 1.283506 1.358002 50.000000
1.305859 1.259961 1.355419 32.000000
1.337162 1.258300 1.376734 36.000000
1.352991 1.242932 1.383524 36.000000
1.372690 1.229514 1.392782 36.000000
1.386366 1.210551 1.395883 33.000000
1.386803 1.181480 1.387362 24.000000
1.417502 1.177983 1.409006 38.000000
1.424575 1.153379 1.405753 47.000000
1.439881 1.136588 1.412045 37.000000
1.458163 1.121915 1.421409 43.000000
1.476477 1.106930 1.430587 54.000000
1.491564 1.089234 1.436720 60.000000
1.512984 1.075877 1.448805 45.000000
1.521390 1.053154 1.448598 24.000000
1.549171 1.043556 1.466763 40.000000
1.567194 1.026843 1.475559 54.000000
1.581858 1.007698 1.481205 46.000000
1.592288 0.986692 1.484195 40.000000
1.613364 0.971086 1.495859 56.000000
1.620190 0.947607 1.495532 37.000000
1.640340 0.931788 1.507606 50.000000
1.663956 0.917435 1.522692 22.000000
1.680564 0.898893 1.531483 36.000000
1.697178 0.879943 1.540069 47.000000
1.717196 0.862480 1.551740 37.000000
1.737103 0.844588 1.563363 56.000000
1.753459 0.824611 1.571634 52.000000
1.768973 0.804676 1.580456 52.000000
1.792189 0.787213 1.594846 45.000000
1.811130 0.768015 1.606646 26.000000
1.829934 0.748457 1.618317 63.000000
1.845081 0.726964 1.626687 91.000000
1.867356 0.707940 1.641264 58.000000
1.882262 0.685812 1.649355 71.000000
1.907991 0.667153 1.666844 77.000000
1.930049 0.646707 1.681099 72.000000
1.936575 0.621328 1.683113 37.000000
1.983500 0.608201 1.720069 32.000000
1.994183 0.582880 1.724249 56.000000
2.018885 0.561749 1.741794 79.000000
2.036019 0.537999 1.752888 70.000000
2.056102 0.515057 1.767620 61.000000
2.076686 0.491387 1.781531 60.000000
2.093435 0.466487 1.792082 62.000000
2.116893 0.442863 1.809574 42.000000
2.155220 0.421689 1.839850 37.000000
2.167831 0.394558 1.846710 62.000000
2.186446 0.368766 1.861235 69.000000
2.213120 0.343488 1.881326 67.000000
2.247185 0.318596 1.907687 66.000000
