x y z intensity
3.010535 -0.403682 0.275885 9.000000
3.005974 -0.436353 0.275699 10.000000
2.966602 -0.463733 0.272443 9.000000
2.936803 -0.491824 0.270002 8.000000
2.901917 -0.518506 0.267112 10.000000
2.881459 -0.547334 0.265578 9.000000
2.865584 -0.576646 0.264498 9.000000
2.878618 -0.611958 0.266120 27.000000
2.876714 -0.644248 0.266389 75.000000
2.864640 -0.674452 0.265759 85.000000
2.847486 -0.703176 0.264590 59.000000
2.791544 -0.721630 0.259833 26.000000
2.677741 -0.723447 0.249790 100.000000
2.784786 -0.784850 0.260287 50.000000
2.771319 -0.813766 0.259573 50.000000
2.843347 -0.868499 0.266908 18.000000
2.995074 -0.950698 0.281820 23.000000
3.008229 -0.991130 0.283762 7.000000
3.176447 -1.084801 0.300305 2.000000
3.244229 -1.147590 0.307563 2.000000
3.540352 -1.295549 0.336478 1.000000
3.600555 -1.362328 0.343118 1.000000
3.553106 -1.388796 0.339660 1.000000
3.223734 -1.300762 0.309081 1.000000
3.374993 -1.404474 0.324463 1.000000
3.341229 -1.433356 0.322249 1.000000
3.407408 -1.505907 0.329738 1.000000
3.392124 -1.587971 0.330469 1.000000
3.379055 -1.627080 0.330449 1.000000
3.370058 -1.668382 0.330750 1.000000
3.298468 -1.677917 0.325040 1.000000
3.372694 -1.762297 0.333644 1.000000
3.239448 -1.737345 0.321726 1.000000
2.940593 -1.660756 0.294535 3.000000
2.965383 -1.717795 0.298249 6.000000
2.950769 -1.752673 0.298157 3.000000
2.922916 -1.779663 0.296768 1.000000
2.899505 -1.808266 0.295708 1.000000
3.013943 -1.925703 0.308844 1.000000
2.955284 -1.934020 0.304324 1.000000
2.821070 -1.981412 0.295232 1.000000
2.920566 -2.099480 0.307370 1.000000
2.849274 -2.095895 0.301503 1.000000
2.830178 -2.129984 0.301277 1.000000
2.664660 -2.242504 0.292565 1.000000
2.617361 -2.252123 0.289314 1.000000
2.555205 -2.247764 0.284410 1.000000
2.511981 -2.258931 0.281603 1.000000
2.435795 -2.239136 0.274978 2.000000
2.425699 -2.279330 0.275921 4.000000
2.404321 -2.309181 0.275517 6.000000
2.371791 -2.328434 0.273981 8.000000
2.350782 -2.356796 0.273475 8.000000
2.258864 -2.314617 0.264904 10.000000
2.133710 -2.234653 0.252310 11.000000
2.003747 -2.144939 0.238976 10.000000
1.916409 -2.096883 0.230484 10.000000
1.807080 -2.021074 0.219307 11.000000
1.709531 -1.954386 0.209398 10.000000
1.610457 -1.882026 0.199070 9.000000
1.554642 -1.857502 0.194071 14.000000
1.502825 -1.835770 0.189424 23.000000
1.479664 -1.848221 0.188374 31.000000
1.447224 -1.848540 0.186140 34.000000
1.433088 -1.872123 0.186281 31.000000
1.406690 -1.879659 0.184847 32.000000
1.389150 -1.898918 0.184591 27.000000
1.382904 -1.934246 0.185819 17.000000
1.356087 -1.940994 0.184387 27.000000
1.340616 -1.963942 0.184509 28.000000
1.323077 -1.981844 0.184093 30.000000
1.306934 -2.004492 0.184131 24.000000
1.282430 -2.014422 0.183089 26.000000
1.273661 -2.049482 0.184262 27.000000
1.256528 -2.071744 0.184282 25.000000
1.264377 -2.136880 0.188072 9.000000
0.970630 1.666138 0.160679 8.000000
0.973371 1.629784 0.158828 15.000000
0.993645 1.623278 0.159944 28.000000
1.005954 1.603879 0.159744 25.000000
1.025984 1.596995 0.160862 27.000000
1.040570 1.581497 0.161078 27.000000
1.065149 1.583054 0.163051 26.000000
1.085098 1.575410 0.164121 32.000000
1.096408 1.555314 0.163966 27.000000
1.107425 1.535110 0.163687 22.000000
1.129982 1.530949 0.165190 32.000000
1.143593 1.514500 0.165397 31.000000
1.159987 1.501943 0.166036 30.000000
1.176265 1.489153 0.166618 29.000000
1.201758 1.487813 0.168516 32.000000
1.214700 1.470730 0.168720 33.000000
1.224228 1.449737 0.168420 28.000000
1.243179 1.440019 0.169445 30.000000
1.262095 1.430055 0.170473 34.000000
1.284254 1.423541 0.171951 32.000000
1.299704 1.409383 0.172479 39.000000
1.310977 1.392012 0.172676 33.000000
1.339907 1.391888 0.175067 36.000000
1.358497 1.380696 0.176052 36.000000
1.373514 1.365679 0.176586 29.000000
1.388353 1.350543 0.177120 33.000000
1.403014 1.335229 0.177655 43.000000
1.424785 1.326522 0.179105 42.000000
1.446585 1.317536 0.180561 53.000000
1.460857 1.301585 0.181040 38.000000
1.482516 1.291995 0.182504 53.000000
1.496559 1.275661 0.182986 57.000000
1.513823 1.262818 0.184054 37.000000
1.546826 1.261814 0.186867 28.000000
1.560532 1.244803 0.187357 33.000000
1.577980 1.230610 0.188253 37.000000
1.599269 1.219225 0.189683 51.000000
1.608532 1.198620 0.189706 33.000000
1.613459 1.175049 0.189192 37.000000
1.654574 1.177507 0.192931 53.000000
1.658915 1.154017 0.192543 32.000000
1.696130 1.152463 0.195828 32.000000
1.708641 1.133792 0.196268 50.000000
1.720900 1.114995 0.196708 50.000000
1.737176 1.098733 0.197564 65.000000
1.770262 1.092709 0.200402 35.000000
1.777608 1.071006 0.200368 65.000000
1.819222 1.069122 0.204185 76.000000
1.835121 1.051605 0.205055 32.000000
1.863848 1.041145 0.207378 36.000000
1.892591 1.030172 0.209708 62.000000
1.921077 1.019018 0.212112 41.000000
1.945343 1.004797 0.213904 59.000000
1.960665 0.985682 0.214794 52.000000
1.975767 0.966335 0.215685 52.000000
1.995141 0.948961 0.217000 75.000000
2.018784 0.933614 0.218876 33.000000
2.042427 0.917564 0.220688 32.000000
2.070558 0.903137 0.222996 37.000000
2.089350 0.884571 0.224396 33.000000
2.126500 0.873018 0.227701 45.000000
2.177484 0.866308 0.232424 42.000000
2.191326 0.844452 0.233350 36.000000
2.223710 0.829160 0.236113 50.000000
2.227836 0.803308 0.235981 31.000000
2.264597 0.788722 0.239250 36.000000
2.282486 0.767106 0.240538 65.000000
2.309616 0.748427 0.242898 49.000000
2.327081 0.726147 0.244118 43.000000
2.353842 0.706522 0.246412 44.000000
2.380500 0.686407 0.248787 49.000000
2.430948 0.672354 0.253515 40.000000
2.457378 0.650914 0.255827 30.000000
2.493175 0.631498 0.259068 35.000000
2.514386 0.607867 0.260889 69.000000
2.559675 0.589263 0.265063 58.000000
2.595037 0.567766 0.268320 72.000000
2.562099 0.531329 0.264541 12.000000
2.631178 0.515922 0.271326 9.000000
2.656173 0.490834 0.273588 10.000000
2.715222 0.471191 0.279299 23.000000
2.774221 0.450372 0.285104 63.000000
2.808474 0.424573 0.288306 75.000000
2.872033 0.402271 0.294542 81.000000
2.895948 0.373503 0.296742 62.000000
2.924500 0.344797 0.299451 50.000000
2.952843 0.315553 0.302162 17.000000
2.970886 0.284729 0.303772 8.000000
3.023380 0.256525 0.309021 6.000000
3.125198 0.230905 0.319249 9.000000
3.167220 0.199278 0.323400 10.000000
3.184167 0.165590 0.325019 27.000000
3.265250 0.134135 0.333232 11.000000
3.336161 0.100544 0.340435 16.000000
3.391685 0.065249 0.346016 92.000000
3.412100 0.028472 0.348045 98.000000
3.392309 -0.008741 0.346120 36.000000
3.347234 -0.045082 0.341552 69.000000
3.321755 -0.081033 0.339015 52.000000
3.305720 -0.116692 0.337492 36.000000
3.249642 -0.150188 0.331810 10.000000
3.212984 -0.183627 0.328259 16.000000
3.205850 -0.218336 0.327653 24.000000
3.153700 -0.249311 0.322484 31.000000
3.150789 -0.283665 0.322386 58.000000
3.127790 -0.316019 0.320262 77.000000
3.104353 -0.347845 0.318140 53.000000
3.041180 -0.374379 0.311967 21.000000
3.012300 -0.404157 0.309341 9.000000
2.988041 -0.434114 0.307131 9.000000
2.978218 -0.465855 0.306440 9.000000
2.904265 -0.486709 0.299180 9.000000
2.884155 -0.515788 0.297484 9.000000
2.883290 -0.548083 0.297809 9.000000
2.852785 -0.574503 0.295107 9.000000
2.851224 -0.606512 0.295343 24.000000
2.863934 -0.641891 0.297179 78.000000
2.837364 -0.668567 0.294896 52.000000
2.844431 -0.702996 0.296136 68.000000
2.807805 -0.726437 0.292852 39.000000
2.766094 -0.747773 0.289072 55.000000
2.772196 -0.781972 0.290313 64.000000
2.753992 -0.809293 0.289046 37.000000
2.783159 -0.850774 0.292696 21.000000
2.934904 -0.932335 0.309424 20.000000
2.990852 -0.985875 0.316036 8.000000
3.083505 -1.053921 0.326620 2.000000
3.062432 -1.084182 0.325324 1.000000
3.573797 -1.309007 0.380539 1.000000
3.601197 -1.363736 0.384543 1.000000
3.674353 -1.437143 0.393499 1.000000
3.238673 -1.307681 0.347808 1.000000
3.384964 -1.409989 0.364699 1.000000
3.433565 -1.473902 0.371054 1.000000
3.531051 -1.561686 0.382932 1.000000
3.445959 -1.569237 0.374949 1.000000
3.442407 -1.612728 0.375728 1.000000
3.339404 -1.609225 0.365816 1.000000
3.281543 -1.625835 0.360835 1.000000
3.183868 -1.620912 0.351462 1.000000
3.152781 -1.648724 0.349448 1.000000
3.165580 -1.699128 0.352209 1.000000
3.194796 -1.760135 0.356904 1.000000
2.906752 -1.643201 0.326203 4.000000
2.936088 -1.702398 0.330927 6.000000
2.960027 -1.759882 0.335145 4.000000
3.043022 -1.853694 0.346004 1.000000
2.925497 -1.826400 0.334255 2.000000
2.905406 -1.858335 0.333620 1.000000
2.918302 -1.911876 0.336830 1.000000
2.866768 -2.014697 0.336016 1.000000
2.848572 -2.048971 0.335740 2.000000
2.878201 -2.118416 0.341164 1.000000
2.743533 -2.066020 0.327122 1.000000
2.799655 -2.156781 0.335846 1.000000
2.658249 -2.190798 0.325009 1.000000
2.566375 -2.161272 0.315629 2.000000
2.474614 -2.130879 0.306399 3.000000
2.492294 -2.194090 0.310723 4.000000
2.434869 -2.191292 0.305727 7.000000
2.418201 -2.224640 0.305850 8.000000
2.400982 -2.257847 0.305868 9.000000
2.387002 -2.294359 0.306442 9.000000
2.379494 -2.337884 0.307826 9.000000
2.350320 -2.360324 0.306550 9.000000
2.261951 -2.321651 0.297408 9.000000
2.160940 -2.266995 0.286494 15.000000
2.038513 -2.184082 0.272369 14.000000
1.923960 -2.107044 0.259238 10.000000
1.831212 -2.049954 0.248979 15.000000
1.726887 -1.976089 0.236980 10.000000
1.640540 -1.919121 0.227212 9.000000
1.571658 -1.879684 0.219739 15.000000
1.497494 -1.831188 0.211494 26.000000
1.471268 -1.839717 0.209882 30.000000
1.448136 -1.851744 0.208718 32.000000
1.415869 -1.851619 0.206235 36.000000
1.395659 -1.866973 0.205450 34.000000
1.386990 -1.898198 0.206486 33.000000
1.360530 -1.905144 0.204893 27.000000
1.359686 -1.948512 0.207144 31.000000
1.335627 -1.959098 0.205984 30.000000
1.318199 -1.976971 0.205543 29.000000
1.304736 -2.003760 0.206030 32.000000
1.274892 -2.005357 0.203942 29.000000
1.266191 -2.040277 0.205271 32.000000
1.246487 -2.058292 0.204886 29.000000
1.264632 -2.140410 0.210835 9.000000
0.976309 1.678400 0.179361 8.000000
0.971510 1.629087 0.175978 18.000000
0.986588 1.614142 0.176270 24.000000
1.001456 1.598964 0.176557 24.000000
1.023252 1.596879 0.178245 24.000000
1.040576 1.585601 0.179001 27.000000
1.063278 1.582353 0.180642 27.000000
1.074818 1.562405 0.180396 25.000000
1.091736 1.550545 0.181094 30.000000
1.099808 1.526339 0.180360 22.000000
1.119315 1.518232 0.181531 26.000000
1.138794 1.509830 0.182706 32.000000
1.152105 1.493365 0.182919 30.000000
1.168240 1.480642 0.183555 27.000000
1.190567 1.475491 0.185221 28.000000
1.206554 1.462353 0.185861 30.000000
1.225634 1.452843 0.186990 31.000000
1.238122 1.435552 0.187140 27.000000
1.256352 1.426205 0.188389 33.000000
1.278457 1.419726 0.189961 35.000000
1.293926 1.405605 0.190605 35.000000
1.312569 1.394932 0.191748 40.000000
1.331175 1.384007 0.192835 34.000000
1.342706 1.365794 0.192923 32.000000
1.371674 1.364966 0.195521 40.000000
1.379384 1.342890 0.195106 24.000000
1.393970 1.327655 0.195697 37.000000
1.418761 1.322951 0.197868 62.000000
1.436837 1.310592 0.198972 37.000000
1.462229 1.304656 0.201040 69.000000
1.476418 1.288484 0.201641 52.000000
1.490426 1.272191 0.202182 36.000000
1.508071 1.258906 0.203238 50.000000
1.537163 1.254851 0.205844 23.000000
1.554688 1.240967 0.206848 35.000000
1.571730 1.227304 0.207977 48.000000
1.592974 1.215961 0.209568 48.000000
1.610181 1.201348 0.210581 62.000000
1.615214 1.177673 0.210029 48.000000
1.632022 1.162770 0.211044 43.000000
1.656871 1.153274 0.213110 41.000000
1.697916 1.154946 0.217352 22.000000
1.702111 1.130727 0.216801 66.000000
1.722745 1.117386 0.218297 81.000000
1.726443 1.093036 0.217679 63.000000
1.750984 1.081873 0.219773 57.000000
1.788025 1.078326 0.223471 48.000000
1.803974 1.061172 0.224453 35.000000
1.824097 1.046269 0.225971 42.000000
1.878782 1.050456 0.231709 29.000000
1.885781 1.027397 0.231636 56.000000
1.918676 1.018618 0.234783 84.000000
1.934095 0.999762 0.235722 52.000000
1.953803 0.982977 0.237201 68.000000
1.973137 0.966201 0.238819 70.000000
1.983591 0.944484 0.239156 41.000000
2.016329 0.933137 0.242270 47.000000
2.044351 0.919397 0.244920 25.000000
2.072480 0.904918 0.247440 42.000000
2.095999 0.888032 0.249420 37.000000
2.119224 0.870917 0.251476 50.000000
2.137814 0.851311 0.252921 38.000000
2.174678 0.838798 0.256628 62.000000
2.202320 0.821918 0.259177 41.000000
2.229751 0.804705 0.261733 33.000000
2.224334 0.775342 0.260448 32.000000
2.260840 0.760620 0.264111 47.000000
2.292605 0.743529 0.267159 64.000000
2.319497 0.724442 0.269735 61.000000
2.346293 0.704941 0.272242 46.000000
2.372914 0.684725 0.274754 47.000000
2.428086 0.672122 0.280592 56.000000
2.444809 0.648211 0.282010 35.000000
2.480622 0.628819 0.285648 34.000000
2.511450 0.607629 0.288739 65.000000
2.532403 0.583523 0.290644 62.000000
2.582232 0.565477 0.295889 73.000000
2.544454 0.528139 0.291123 10.000000
2.593922 0.509059 0.296457 9.000000
2.643252 0.488861 0.301638 10.000000
2.731591 0.474508 0.311372 41.000000
2.770945 0.450200 0.315536 45.000000
2.785512 0.421512 0.316826 53.000000
2.848970 0.399335 0.323797 72.000000
2.877761 0.371416 0.326771 66.000000
2.916133 0.344035 0.330868 58.000000
2.934561 0.313877 0.332639 16.000000
2.972353 0.285112 0.336742 8.000000
3.000040 0.254750 0.339728 7.000000
3.121545 0.230809 0.353279 8.000000
3.148645 0.198341 0.356180 8.000000
3.190275 0.166009 0.360765 9.000000
3.261441 0.134035 0.368720 33.000000
3.307338 0.099794 0.373873 28.000000
3.367861 0.064866 0.380713 91.000000
3.393219 0.028347 0.383521 98.000000
3.383386 -0.008729 0.382397 84.000000
3.328429 -0.044881 0.376221 52.000000
3.283012 -0.080083 0.371167 28.000000
3.247247 -0.114662 0.367236 24.000000
3.235825 -0.149629 0.366113 61.000000
3.219153 -0.184096 0.364330 67.000000
3.207061 -0.218576 0.363108 59.000000
3.150013 -0.249214 0.356935 23.000000
3.137205 -0.282676 0.355716 62.000000
3.109296 -0.314327 0.352718 65.000000
3.090837 -0.346547 0.350941 67.000000
3.022815 -0.372368 0.343466 21.000000
2.993984 -0.401987 0.340571 9.000000
2.974688 -0.432499 0.338706 9.000000
2.959978 -0.463365 0.337402 9.000000
2.886132 -0.484153 0.329389 7.000000
2.866067 -0.512893 0.327533 9.000000
2.855463 -0.543260 0.326795 9.000000
2.825040 -0.569327 0.323737 9.000000
2.823527 -0.601160 0.324029 21.000000
2.845968 -0.638448 0.327106 75.000000
2.824294 -0.666018 0.325167 58.000000
2.826634 -0.699148 0.326013 56.000000
2.775562 -0.718697 0.320741 28.000000
2.753248 -0.744914 0.318723 59.000000
2.745015 -0.774868 0.318461 76.000000
2.712509 -0.797812 0.315339 68.000000
2.751257 -0.841783 0.320528 24.000000
2.836695 -0.901754 0.331234 21.000000
2.902238 -0.957653 0.339800 9.000000
3.009277 -1.029395 0.353125 3.000000
3.508821 -1.286304 0.413889 1.000000
3.513180 -1.331675 0.415629 1.000000
3.438370 -1.346075 0.407915 1.000000
3.211564 -1.297941 0.382129 1.000000
3.146958 -1.311686 0.375575 1.000000
3.351585 -1.440202 0.401294 1.000000
3.335681 -1.476825 0.400734 1.000000
3.307477 -1.551176 0.400047 1.000000
3.299272 -1.591720 0.400460 1.000000
3.175078 -1.574266 0.386767 1.000000
3.104526 -1.581892 0.379616 1.000000
3.126726 -1.636545 0.383839 1.000000
3.047655 -1.637303 0.375527 1.000000
3.190657 -1.759352 0.394820 1.000000
2.872781 -1.625349 0.357046 3.000000
2.927938 -1.699279 0.365564 7.000000
2.917778 -1.736368 0.366012 5.000000
2.882041 -1.757281 0.363040 2.000000
2.917475 -1.823131 0.369251 2.000000
2.876372 -1.841616 0.365849 2.000000
2.964124 -1.943952 0.378934 2.000000
3.107780 -2.087364 0.399388 1.000000
2.883017 -2.028465 0.374428 2.000000
2.909150 -2.094922 0.379885 2.000000
2.765961 -2.038226 0.363235 2.000000
2.779236 -2.095535 0.367218 1.000000
2.787663 -2.150165 0.370551 1.000000
2.737211 -2.158322 0.365817 1.000000
2.527665 -2.038433 0.339971 1.000000
2.486063 -2.050313 0.336577 3.000000
2.482528 -2.093534 0.338277 7.000000
2.455645 -2.117488 0.336964 8.000000
2.469671 -2.177238 0.341223 10.000000
2.427259 -2.187561 0.337743 9.000000
2.410514 -2.220867 0.337866 9.000000
2.397851 -2.256533 0.338293 10.000000
2.380171 -2.289694 0.338403 9.000000
2.372778 -2.333068 0.339931 9.000000
2.347155 -2.358997 0.339012 10.000000
2.283060 -2.345410 0.332434 8.000000
2.188744 -2.298264 0.321356 17.000000
2.051623 -2.202006 0.303811 10.000000
1.953801 -2.143550 0.291874 15.000000
1.837608 -2.060841 0.277009 14.000000
1.740754 -1.993863 0.264555 10.000000
1.644604 -1.925759 0.252263 9.000000
1.582090 -1.894058 0.245063 16.000000
1.520430 -1.861145 0.237830 18.000000
1.475243 -1.846626 0.233093 33.000000
1.448967 -1.854802 0.231318 35.000000
1.413583 -1.850762 0.228087 35.000000
1.396423 -1.870103 0.227716 36.000000
1.375956 -1.885275 0.226929 29.000000
1.361125 -1.908335 0.227106 23.000000
1.354511 -1.943555 0.228645 31.000000
1.330574 -1.954113 0.227295 29.000000
1.314705 -1.976898 0.227379 30.000000
1.295872 -1.995338 0.226980 30.000000
1.272636 -2.004483 0.225559 30.000000
1.258594 -2.031006 0.226099 29.000000
1.241627 -2.053148 0.226158 24.000000
1.247019 -2.113770 0.230341 9.000000
0.984339 1.694772 0.198816 6.000000
0.967105 1.624057 0.192563 9.000000
0.996632 1.635146 0.196037 16.000000
0.995988 1.594572 0.193222 23.000000
1.018652 1.591876 0.195056 12.000000
1.041384 1.588946 0.196899 22.000000
1.055808 1.573276 0.197139 17.000000
1.086980 1.582084 0.200551 18.000000
1.086957 1.545663 0.198187 22.000000
1.106619 1.537639 0.199465 9.000000
1.117407 1.517423 0.199169 24.000000
1.133889 1.505047 0.199921 21.000000
1.156267 1.500432 0.201732 18.000000
1.169467 1.483737 0.201898 27.000000
1.178597 1.463643 0.201643 18.000000
1.210258 1.469795 0.205012 18.000000
1.216608 1.445004 0.204160 24.000000
1.258206 1.461690 0.209168 10.000000
1.247803 1.417926 0.205551 29.000000
1.269875 1.411516 0.207274 27.000000
1.288569 1.401127 0.208518 24.000000
1.303822 1.386867 0.209161 32.000000
1.332615 1.386766 0.212054 24.000000
1.340180 1.365500 0.211663 27.000000
1.365602 1.361161 0.213964 29.000000
1.383960 1.349534 0.215168 15.000000
1.398622 1.334220 0.215821 32.000000
1.409531 1.315338 0.215917 29.000000
1.427469 1.303057 0.217067 28.000000
1.449067 1.293887 0.218780 36.000000
1.462730 1.278315 0.219496 29.000000
1.484184 1.268603 0.221218 32.000000
1.501788 1.255358 0.222383 33.000000
1.538513 1.257568 0.226318 21.000000
1.548305 1.237438 0.226361 34.000000
1.573564 1.229506 0.228615 29.000000
1.582560 1.209559 0.228720 31.000000
1.595715 1.191998 0.229270 36.000000
1.620722 1.183162 0.231541 31.000000
1.633606 1.165223 0.232034 33.000000
1.646243 1.147161 0.232588 30.000000
1.678974 1.143323 0.236091 21.000000
1.691394 1.124787 0.236590 40.000000
1.716059 1.114241 0.238829 29.000000
1.749165 1.108547 0.242236 35.000000
1.748521 1.081368 0.240999 36.000000
1.776959 1.072745 0.243901 29.000000
1.797189 1.058139 0.245517 32.000000
1.821580 1.045753 0.247722 35.000000
1.845679 1.033279 0.250064 23.000000
1.878654 1.024822 0.253460 36.000000
1.898537 1.008765 0.255098 34.000000
1.918259 0.992450 0.256741 31.000000
1.946549 0.980542 0.259571 43.000000
1.966049 0.963476 0.261225 34.000000
1.980758 0.944214 0.262289 34.000000
2.008960 0.930777 0.265071 39.000000
2.023559 0.910697 0.266075 18.000000
2.051439 0.896687 0.268937 33.000000
2.083993 0.883806 0.272336 34.000000
2.111749 0.868677 0.275217 33.000000
2.139529 0.852795 0.277964 36.000000
2.185636 0.843804 0.283188 34.000000
2.199361 0.821557 0.284149 31.000000
2.226840 0.804341 0.286989 31.000000
2.226055 0.776615 0.286148 10.000000
2.262541 0.761838 0.290130 37.000000
2.289571 0.743307 0.292912 35.000000
2.302226 0.719775 0.293887 31.000000
2.338456 0.703061 0.297816 35.000000
2.369729 0.684422 0.301221 31.000000
2.410488 0.667837 0.305848 34.000000
2.432031 0.645354 0.307978 34.000000
2.448459 0.621183 0.309504 10.000000
2.488824 0.602640 0.314075 35.000000
2.543559 0.586710 0.320483 36.000000
2.554667 0.559921 0.321414 31.000000
2.560537 0.531937 0.321655 14.000000
2.575905 0.505947 0.323118 8.000000
2.620268 0.485083 0.328332 9.000000
2.684015 0.466603 0.335921 35.000000
2.723243 0.442859 0.340374 14.000000
2.767159 0.419110 0.345529 34.000000
2.835432 0.397779 0.353670 51.000000
2.864176 0.369966 0.357001 32.000000
2.902489 0.342780 0.361474 37.000000
2.896217 0.309999 0.360426 9.000000
2.933926 0.281700 0.364905 7.000000
2.976380 0.252977 0.369912 7.000000
3.112560 0.230347 0.386694 7.000000
3.159432 0.199180 0.392325 7.000000
3.196065 0.166427 0.396728 8.000000
3.227484 0.132811 0.400518 25.000000
3.298110 0.099644 0.409232 42.000000
3.353594 0.064675 0.416002 50.000000
3.368994 0.028181 0.417951 60.000000
3.364136 -0.008587 0.417336 81.000000
3.299328 -0.044546 0.409334 18.000000
3.234133 -0.078993 0.401332 9.000000
3.218262 -0.113785 0.399485 9.000000
3.241659 -0.149988 0.402463 35.000000
3.210040 -0.183713 0.398771 58.000000
3.173212 -0.216451 0.394365 35.000000
3.145937 -0.249117 0.391192 26.000000
3.128200 -0.282134 0.389250 62.000000
3.090455 -0.312733 0.384850 34.000000
3.067101 -0.344237 0.382201 36.000000
3.018886 -0.372181 0.376484 21.000000
2.970416 -0.399158 0.370772 8.000000
2.946259 -0.428741 0.368225 9.000000
2.931602 -0.459340 0.366815 8.000000
2.877464 -0.483061 0.360412 7.000000
2.867196 -0.513589 0.359620 9.000000
2.817591 -0.536495 0.353842 8.000000
2.811594 -0.567099 0.353577 9.000000
2.805244 -0.597791 0.353312 12.000000
2.827681 -0.634918 0.356713 35.000000
2.820641 -0.665662 0.356445 64.000000
2.789159 -0.690443 0.353040 34.000000
2.752649 -0.713365 0.349119 20.000000
2.749570 -0.744564 0.349378 79.000000
2.736561 -0.773169 0.348420 32.000000
2.713710 -0.798779 0.346248 50.000000
2.714329 -0.831345 0.347114 18.000000
2.795022 -0.889440 0.358283 10.000000
2.903103 -0.958740 0.372969 13.000000
2.953620 -1.011126 0.380360 6.000000
3.138862 -1.113146 0.405348 2.000000
3.597311 -1.319807 0.465655 1.000000
3.643034 -1.382039 0.473017 1.000000
3.452208 -1.352752 0.449436 1.000000
3.276226 -1.325439 0.427834 1.000000
3.170153 -1.322631 0.415183 1.000000
3.328753 -1.431796 0.437425 1.000000
3.235364 -1.519080 0.429565 1.000000
3.343949 -1.614450 0.445472 1.000000
3.521799 -1.748210 0.470951 1.000000
3.272842 -1.668997 0.439127 1.000000
3.200601 -1.721656 0.433039 1.000000
2.907611 -1.646661 0.396595 1.000000
2.940955 -1.708424 0.402935 6.000000
2.905078 -1.730452 0.399855 4.000000
2.928758 -1.787600 0.404883 2.000000
2.930090 -1.832820 0.407069 2.000000
3.051951 -1.956105 0.426064 1.000000
2.972226 -1.951367 0.417128 1.000000
2.909492 -1.956323 0.410440 1.000000
2.927412 -2.062027 0.417290 1.000000
3.154414 -2.274232 0.452098 1.000000
2.857556 -2.108364 0.411963 1.000000
2.636114 -1.990048 0.382343 1.000000
2.516504 -1.942285 0.366895 2.000000
2.580786 -2.037638 0.378698 6.000000
2.542902 -2.053439 0.375507 7.000000
2.520312 -2.081351 0.374603 6.000000
2.497320 -2.108961 0.373599 9.000000
2.462846 -2.126631 0.370996 8.000000
2.443884 -2.156003 0.370461 9.000000
2.423850 -2.186157 0.370024 9.000000
2.414401 -2.226195 0.371268 8.000000
2.382661 -2.245805 0.369139 9.000000
2.383072 -2.295980 0.372044 8.000000
2.343607 -2.308151 0.368698 8.000000
2.332260 -2.347910 0.369910 10.000000
2.300535 -2.365378 0.367583 7.000000
2.202660 -2.314902 0.354878 9.000000
2.082438 -2.237089 0.338393 9.000000
1.967596 -2.160588 0.322549 9.000000
1.854563 -2.081921 0.306711 10.000000
1.756693 -2.015940 0.293234 9.000000
1.673351 -1.963277 0.281927 8.000000
1.600964 -1.920404 0.272392 10.000000
1.513972 -1.856997 0.260137 10.000000
1.488354 -1.864966 0.258105 20.000000
1.434352 -1.838043 0.251260 26.000000
1.417258 -1.857667 0.250935 26.000000
1.397034 -1.873086 0.250075 34.000000
1.358950 -1.864184 0.245962 24.000000
1.358825 -1.907329 0.248810 11.000000
1.332302 -1.913972 0.246823 28.000000
1.328182 -1.953098 0.249039 22.000000
1.306873 -1.967522 0.248096 25.000000
1.290759 -1.990144 0.248195 23.000000
1.274317 -2.012595 0.248285 21.000000
1.247088 -2.018021 0.246302 24.000000
1.236629 -2.047861 0.247267 17.000000
1.252109 -2.125574 0.253918 9.000000
0.956250 1.651465 0.210996 8.000000
0.961495 1.619436 0.209116 20.000000
0.973967 1.600248 0.208933 25.000000
0.993969 1.593649 0.210295 24.000000
1.011330 1.582575 0.211160 30.000000
1.028460 1.571386 0.212025 25.000000
1.051065 1.568219 0.214017 26.000000
1.068112 1.556564 0.214828 29.000000
1.087841 1.548801 0.216208 23.000000
1.095944 1.524608 0.215370 24.000000
1.108692 1.509070 0.215664 28.000000
1.131055 1.504700 0.217617 27.000000
1.147421 1.492208 0.218427 32.000000
1.157473 1.471678 0.218080 24.000000
1.179691 1.466589 0.219988 30.000000
1.198749 1.457355 0.221381 31.000000
1.220971 1.451677 0.223304 26.000000
1.226996 1.426860 0.222302 32.000000
1.238582 1.410059 0.222523 31.000000
1.270511 1.414802 0.226226 32.000000
1.285881 1.400718 0.226985 37.000000
1.297737 1.382838 0.227092 29.000000
1.316212 1.372023 0.228388 35.000000
1.348492 1.375134 0.232080 35.000000
1.356442 1.353203 0.231591 30.000000
1.371167 1.338125 0.232297 34.000000
1.385185 1.323459 0.233063 33.000000
1.395989 1.304697 0.233164 35.000000
1.421194 1.299293 0.235632 38.000000
1.442743 1.290102 0.237502 35.000000
1.464258 1.280627 0.239377 51.000000
1.485315 1.271350 0.241320 47.000000
1.499143 1.254877 0.241981 33.000000
1.520530 1.244509 0.243814 32.000000
1.537939 1.230751 0.245096 34.000000
1.559142 1.219843 0.246940 35.000000
1.576355 1.205566 0.248169 36.000000
1.585139 1.185566 0.248218 32.000000
1.610061 1.176753 0.250637 39.000000
1.626918 1.161786 0.251875 51.000000
1.643592 1.146606 0.253055 32.000000
1.676291 1.142823 0.256873 33.000000
1.692839 1.126974 0.258002 33.000000
1.709260 1.110909 0.259195 37.000000
1.729677 1.097346 0.261024 39.000000
1.749768 1.083790 0.262921 34.000000
1.770036 1.069606 0.264697 40.000000
1.785889 1.052526 0.265842 38.000000
1.822910 1.047966 0.270240 32.000000
1.825580 1.022997 0.269481 37.000000
1.867121 1.019477 0.274409 34.000000
1.895498 1.008501 0.277562 38.000000
1.924011 0.996679 0.280593 62.000000
1.939107 0.977975 0.281837 37.000000
1.949667 0.956588 0.282305 37.000000
1.977926 0.943607 0.285287 52.000000
1.992472 0.924178 0.286474 32.000000
2.025010 0.912393 0.290117 32.000000
2.052953 0.898262 0.293259 35.000000
2.062609 0.875640 0.293673 35.000000
2.090255 0.860706 0.296759 36.000000
2.117996 0.845023 0.299783 32.000000
2.136228 0.825504 0.301510 32.000000
2.163612 0.809186 0.304618 35.000000
2.172287 0.785365 0.304973 26.000000
2.204075 0.769788 0.308677 32.000000
2.249844 0.758378 0.314358 51.000000
2.272099 0.738415 0.316695 35.000000
2.298889 0.719478 0.319768 36.000000
2.325511 0.700053 0.322774 41.000000
2.342510 0.677236 0.324391 34.000000
2.383148 0.661059 0.329387 64.000000
2.390153 0.634943 0.329768 26.000000
2.468982 0.627049 0.339995 36.000000
2.490098 0.603572 0.342295 48.000000
2.520632 0.581929 0.346003 41.000000
2.546127 0.558618 0.348896 41.000000
2.556918 0.531777 0.349881 47.000000
2.591722 0.509610 0.354189 42.000000
2.640943 0.489352 0.360418 28.000000
2.680245 0.466436 0.365324 18.000000
2.724316 0.443485 0.370903 41.000000
2.753402 0.417367 0.374489 52.000000
2.762682 0.387956 0.375413 35.000000
2.810948 0.363435 0.381589 49.000000
2.863909 0.338529 0.388527 39.000000
2.852681 0.305685 0.386701 12.000000
2.890388 0.277817 0.391555 9.000000
2.972155 0.252885 0.402338 5.000000
3.053789 0.226224 0.413220 8.000000
3.070888 0.193778 0.415320 8.000000
3.112463 0.162298 0.420767 9.000000
3.208063 0.132100 0.433575 42.000000
3.239064 0.097896 0.437690 37.000000
3.324079 0.064196 0.449169 64.000000
3.334501 0.027932 0.450611 95.000000
3.324694 -0.008498 0.449272 58.000000
3.294660 -0.044444 0.445255 33.000000
3.244517 -0.079256 0.438559 9.000000
3.208755 -0.113511 0.433773 13.000000
3.222219 -0.149300 0.435781 95.000000
3.195598 -0.183048 0.432336 80.000000
3.178600 -0.216930 0.430230 81.000000
3.126654 -0.247749 0.423442 76.000000
3.109048 -0.280605 0.421339 75.000000
3.090991 -0.313041 0.419237 95.000000
3.047963 -0.342388 0.413699 73.000000
3.019502 -0.372601 0.410170 32.000000
2.961266 -0.398313 0.402638 10.000000
2.927337 -0.426324 0.398449 9.000000
2.927404 -0.459066 0.398934 9.000000
2.853879 -0.479597 0.389327 9.000000
2.872921 -0.515069 0.392481 9.000000
2.852476 -0.543652 0.390214 9.000000
2.812483 -0.567903 0.385199 9.000000
2.791582 -0.595459 0.382939 15.000000
2.833341 -0.636824 0.389319 91.000000
2.802162 -0.661976 0.385643 72.000000
2.775562 -0.687794 0.382636 74.000000
2.748714 -0.713102 0.379721 59.000000
2.731192 -0.740498 0.378047 70.000000
2.727858 -0.771470 0.378185 95.000000
2.705042 -0.797117 0.375941 50.000000
2.715140 -0.832448 0.378147 28.000000
2.795686 -0.890584 0.390234 18.000000
2.894167 -0.956809 0.404926 13.000000
2.958583 -1.013956 0.414980 10.000000
2.956852 -1.049430 0.415812 2.000000
3.424394 -1.257925 0.482910 1.000000
3.540331 -1.344368 0.500582 1.000000
3.548716 -1.391888 0.503154 1.000000
3.308093 -1.339563 0.470544 1.000000
3.096787 -1.293341 0.441719 2.000000
3.278320 -1.411633 0.469226 1.000000
3.253766 -1.443099 0.467156 1.000000
3.215223 -1.468517 0.463250 1.000000
3.235127 -1.520199 0.467567 1.000000
3.155803 -1.525418 0.457841 1.000000
3.214451 -1.597559 0.468187 1.000000
3.183859 -1.625594 0.465367 1.000000
3.135081 -1.644348 0.460086 1.000000
2.999335 -1.614769 0.441849 1.000000
2.933775 -1.621302 0.434053 1.000000
2.898574 -1.643701 0.430767 1.000000
2.932278 -1.704886 0.437520 5.000000
2.896350 -1.726977 0.434235 7.000000
2.868796 -1.753555 0.432130 3.000000
2.984370 -1.868712 0.451442 2.000000
2.884368 -1.850546 0.438518 2.000000
2.847335 -1.871387 0.435141 2.000000
2.851371 -1.919349 0.438095 2.000000
2.789903 -1.921771 0.430731 2.000000
2.675409 -1.886664 0.415320 3.000000
2.630430 -1.898652 0.410646 6.000000
2.597503 -1.918749 0.407868 7.000000
2.592775 -1.958524 0.409275 9.000000
2.559311 -1.977907 0.406505 10.000000
2.541415 -2.009039 0.406132 9.000000
2.561632 -2.071352 0.412062 9.000000
2.496776 -2.064738 0.404239 9.000000
2.481536 -2.098547 0.404478 9.000000
2.455394 -2.121688 0.402663 9.000000
2.428324 -2.145346 0.400951 9.000000
2.419339 -2.185355 0.402404 9.000000
2.387987 -2.205188 0.400080 9.000000
2.356483 -2.224560 0.397762 9.000000
2.379413 -2.294354 0.404360 9.000000
2.318762 -2.285530 0.397188 9.000000
2.304127 -2.321523 0.397898 9.000000
2.257840 -2.325396 0.393079 9.000000
2.187891 -2.303418 0.384082 11.000000
2.111912 -2.272797 0.373936 19.000000
2.030161 -2.233428 0.362651 26.000000
1.956187 -2.200043 0.352619 32.000000
1.864656 -2.141945 0.338909 29.000000
1.712424 -2.011073 0.314235 9.000000
1.617342 -1.942069 0.299640 10.000000
1.536484 -1.886548 0.287483 13.000000
1.469444 -1.845104 0.277740 17.000000
1.443121 -1.853286 0.275633 22.000000
1.407799 -1.849263 0.271791 27.000000
1.387590 -1.864616 0.270791 28.000000
1.382855 -1.899116 0.272601 27.000000
1.344791 -1.889919 0.268146 18.000000
1.335468 -1.920912 0.269437 22.000000
1.311691 -1.931392 0.267932 23.000000
1.301591 -1.962222 0.269127 21.000000
1.293686 -1.997246 0.270943 22.000000
1.266522 -2.003027 0.268793 21.000000
1.257660 -2.037997 0.270507 19.000000
1.235375 -2.051677 0.269478 17.000000
1.235591 -2.103697 0.273385 8.000000
0.959169 1.658947 0.229294 8.000000
0.956939 1.614125 0.225522 30.000000
0.974474 1.603455 0.226445 27.000000
0.989326 1.588340 0.226766 32.000000
1.011924 1.585721 0.228894 31.000000
1.025461 1.570924 0.229271 28.000000
1.042534 1.559504 0.230194 36.000000
1.065097 1.556100 0.232339 34.000000
1.082028 1.544214 0.233209 33.000000
1.087219 1.516083 0.231615 28.000000
1.100750 1.499977 0.231857 29.000000
1.125994 1.499691 0.234577 35.000000
1.145281 1.491110 0.236065 32.000000
1.158467 1.474486 0.236308 35.000000
1.183009 1.473805 0.239113 35.000000
1.199055 1.460667 0.239985 31.000000
1.211737 1.443555 0.240167 32.000000
1.217760 1.418812 0.239077 26.000000
1.242990 1.416476 0.241791 37.000000
1.261725 1.406309 0.243183 40.000000
1.277015 1.392357 0.243997 35.000000
1.294939 1.382313 0.245511 56.000000
1.320265 1.378659 0.248203 56.000000
1.338773 1.367515 0.249614 44.000000
1.357181 1.356118 0.251028 43.000000
1.368399 1.337595 0.251145 32.000000
1.379364 1.318973 0.251199 53.000000
1.400466 1.310944 0.253331 75.000000
1.422068 1.302048 0.255352 44.000000
1.439946 1.289506 0.256723 75.000000
1.457718 1.276824 0.258097 55.000000
1.482971 1.270268 0.260799 44.000000
1.496377 1.254276 0.261580 72.000000
1.510025 1.237623 0.262242 21.000000
1.531285 1.227046 0.264238 34.000000
1.548540 1.213062 0.265571 62.000000
1.569248 1.202370 0.267640 35.000000
1.590269 1.190836 0.269593 68.000000
1.603241 1.173153 0.270205 35.000000
1.616029 1.155408 0.270878 34.000000
1.648632 1.152035 0.274937 65.000000
1.661146 1.133759 0.275557 23.000000
1.685839 1.123539 0.278154 52.000000
1.701973 1.107956 0.279523 49.000000
1.718165 1.091719 0.280769 35.000000
1.742646 1.080483 0.283387 42.000000
1.762617 1.066660 0.285454 36.000000
1.769969 1.044656 0.285275 32.000000
1.819934 1.047255 0.292043 62.000000
1.831062 1.027457 0.292626 22.000000
1.837910 1.004832 0.292452 40.000000
1.887956 1.005710 0.299333 63.000000
1.907624 0.989374 0.301183 35.000000
1.931612 0.975008 0.303798 48.000000
1.946459 0.956120 0.305095 36.000000
1.961285 0.936733 0.306260 33.000000
1.980247 0.919535 0.308194 35.000000
2.003677 0.903772 0.310765 20.000000
2.040573 0.893806 0.315514 33.000000
2.059229 0.875364 0.317399 36.000000
2.068678 0.852673 0.317881 30.000000
2.105363 0.841069 0.322590 32.000000
2.142007 0.828794 0.327312 36.000000
2.150928 0.805146 0.327666 32.000000
2.164149 0.783325 0.328869 31.000000
2.191210 0.766161 0.332127 23.000000
2.232194 0.753265 0.337520 32.000000
2.259082 0.734985 0.340796 36.000000
2.281087 0.714668 0.343368 35.000000
2.317109 0.698252 0.348007 35.000000
2.329324 0.674258 0.349167 36.000000
2.360344 0.655307 0.353032 37.000000
2.386422 0.634638 0.356342 33.000000
2.455547 0.624375 0.365938 28.000000
2.471805 0.599756 0.367759 36.000000
2.511908 0.580497 0.373085 59.000000
2.542194 0.558377 0.377067 42.000000
2.562586 0.533553 0.379541 42.000000
2.587656 0.509366 0.382736 62.000000
2.612483 0.484591 0.385854 21.000000
2.627395 0.457693 0.387538 9.000000
2.656582 0.432969 0.391465 12.000000
2.719849 0.412741 0.400355 32.000000
2.773172 0.389850 0.407728 62.000000
2.801765 0.362713 0.411591 52.000000
2.864471 0.339022 0.420508 45.000000
2.818748 0.302343 0.413470 10.000000
2.880993 0.277164 0.422308 8.000000
2.933146 0.249854 0.429708 8.000000
3.034367 0.225032 0.444340 8.000000
3.056369 0.193060 0.447324 8.000000
3.112605 0.162460 0.455466 9.000000
3.173460 0.130876 0.464239 34.000000
3.224185 0.097597 0.471470 37.000000
3.279491 0.063330 0.479526 70.000000
3.309680 0.027766 0.483967 95.000000
3.289992 -0.008422 0.481074 62.000000
3.274847 -0.044244 0.478904 32.000000
3.244465 -0.079377 0.474563 9.000000
3.223588 -0.114112 0.471570 10.000000
3.202427 -0.148513 0.468677 76.000000
3.185829 -0.182666 0.466409 95.000000
3.144176 -0.214809 0.460526 62.000000
3.141649 -0.249217 0.460429 30.000000
3.084532 -0.278632 0.452287 61.000000
3.051752 -0.309451 0.447858 79.000000
3.023669 -0.339988 0.444058 90.000000
2.985449 -0.368774 0.438818 32.000000
2.942047 -0.396149 0.432861 9.000000
2.917977 -0.425428 0.429703 10.000000
2.913157 -0.457349 0.429521 9.000000
2.844634 -0.478509 0.419885 7.000000
2.853817 -0.512178 0.421778 9.000000
2.833514 -0.540602 0.419351 9.000000
2.803215 -0.566658 0.415490 9.000000
2.792114 -0.596229 0.414507 13.000000
2.785423 -0.626692 0.414155 52.000000
2.783371 -0.658205 0.414432 36.000000
2.761555 -0.685059 0.412018 21.000000
2.739640 -0.711509 0.409519 22.000000
2.722234 -0.738679 0.407652 64.000000
2.704535 -0.765729 0.405789 66.000000
2.696041 -0.795283 0.405442 75.000000
2.663632 -0.817405 0.401443 26.000000
2.729965 -0.870585 0.412410 15.000000
2.842584 -0.940789 0.430376 17.000000
2.935236 -1.007050 0.445452 10.000000
2.947456 -1.047290 0.448522 3.000000
3.414358 -1.255318 0.520947 1.000000
3.548498 -1.349178 0.542925 1.000000
3.390928 -1.331709 0.520308 1.000000
3.413027 -1.383420 0.525168 1.000000
3.078025 -1.287198 0.475140 2.000000
3.286685 -1.416633 0.508911 1.000000
3.144446 -1.396130 0.488460 1.000000
3.250520 -1.486283 0.506775 1.000000
3.144732 -1.479389 0.491880 1.000000
3.101605 -1.500941 0.486932 1.000000
3.040922 -1.512558 0.479099 1.000000
3.068258 -1.568485 0.485339 1.000000
2.932592 -1.540101 0.465797 2.000000
2.880982 -1.553051 0.459319 2.000000
2.855070 -1.579927 0.457125 4.000000
2.837976 -1.610797 0.456220 5.000000
2.824457 -1.644562 0.456107 8.000000
2.865755 -1.711122 0.464959 7.000000
2.872589 -1.757587 0.468060 5.000000
2.890844 -1.812914 0.473414 2.000000
2.829201 -1.817995 0.465611 3.000000
2.747450 -1.807621 0.454312 5.000000
2.690421 -1.813003 0.447254 6.000000
2.658201 -1.834148 0.444310 7.000000
2.634356 -1.859844 0.442536 9.000000
2.633870 -1.903357 0.444934 10.000000
2.612849 -1.932385 0.443933 15.000000
2.583627 -1.955234 0.441582 10.000000
2.550816 -1.973781 0.438463 10.000000
2.513522 -1.989592 0.434683 10.000000
2.510761 -2.032824 0.437048 9.000000
2.473011 -2.047841 0.433279 9.000000
2.451160 -2.074340 0.432092 9.000000
2.435715 -2.107719 0.432335 10.000000
2.412506 -2.134499 0.431145 10.000000
2.377974 -2.151105 0.428069 9.000000
2.372374 -2.194093 0.430183 10.000000
2.349094 -2.219363 0.428890 10.000000
2.342447 -2.262347 0.430976 9.000000
2.292892 -2.263733 0.425194 10.000000
2.264508 -2.285404 0.423252 22.000000
2.229004 -2.299581 0.420113 37.000000
2.196848 -2.316832 0.417535 83.000000
2.148767 -2.314588 0.411636 35.000000
2.053396 -2.261029 0.396843 32.000000
1.933080 -2.176081 0.376907 29.000000
1.824602 -2.099983 0.359100 21.000000
1.702023 -2.002785 0.338205 10.000000
1.613459 -1.941370 0.323717 14.000000
1.551589 -1.908967 0.314390 17.000000
1.479114 -1.859253 0.302445 21.000000
1.443568 -1.855830 0.298275 28.000000
1.408231 -1.851926 0.294127 31.000000
1.384947 -1.863331 0.292429 31.000000
1.370427 -1.886497 0.292674 26.000000
1.341157 -1.889349 0.289737 23.000000
1.326147 -1.912183 0.289905 26.000000
1.310817 -1.934854 0.290063 26.000000
1.289616 -1.949228 0.288985 25.000000
1.274883 -1.970930 0.288985 24.000000
1.255952 -1.989055 0.288439 27.000000
1.252408 -2.032375 0.291597 26.000000
1.235285 -2.054607 0.291631 21.000000
1.222850 -2.085221 0.292857 9.000000
0.952031 1.649180 0.245156 8.000000
0.951244 1.609280 0.241780 22.000000
0.968789 1.598637 0.242816 27.000000
0.988835 1.591977 0.244440 25.000000
1.006139 1.580960 0.245421 31.000000
1.020620 1.565560 0.245750 31.000000
1.034895 1.550048 0.246073 32.000000
1.057357 1.546699 0.248362 32.000000
1.079883 1.542996 0.250604 31.000000
1.084236 1.515509 0.248999 25.000000
1.103629 1.507402 0.250639 34.000000
1.122995 1.499057 0.252227 30.000000
1.136304 1.482608 0.252480 33.000000
1.158525 1.477751 0.254687 35.000000
1.171502 1.460989 0.254938 32.000000
1.196787 1.459446 0.257833 37.000000
1.211961 1.446714 0.258821 29.000000
1.211604 1.414418 0.256285 26.000000
1.240091 1.415781 0.259882 36.000000
1.255457 1.401981 0.260751 35.000000
1.274108 1.391659 0.262251 39.000000
1.285840 1.373859 0.262433 35.000000
1.307063 1.367275 0.264688 32.000000
1.328906 1.359785 0.266895 61.000000
1.347230 1.348463 0.268412 33.000000
1.361916 1.333483 0.269234 31.000000
1.372910 1.314844 0.269297 42.000000
1.390350 1.303464 0.270879 47.000000
1.415511 1.297991 0.273760 69.000000
1.429661 1.282242 0.274529 44.000000
1.451134 1.272844 0.276659 58.000000
1.468278 1.260357 0.278203 71.000000
1.485851 1.247191 0.279633 35.000000
1.510964 1.240041 0.282496 29.000000
1.532184 1.229418 0.284653 36.000000
1.541316 1.209765 0.284722 36.000000
1.558414 1.195555 0.286168 40.000000
1.575457 1.181198 0.287556 34.000000
1.595947 1.169922 0.289734 38.000000
1.624791 1.163682 0.293309 37.000000
1.633436 1.142784 0.293260 49.000000
1.666340 1.138535 0.297521 33.000000
1.678418 1.120419 0.298268 39.000000
1.694764 1.104442 0.299623 35.000000
1.714841 1.091342 0.301778 52.000000
1.735160 1.077495 0.303877 36.000000
1.751111 1.060774 0.305181 40.000000
1.779447 1.051761 0.308831 45.000000
1.786579 1.029520 0.308665 35.000000
1.810519 1.017316 0.311526 32.000000
1.821542 0.997192 0.312103 37.000000
1.871442 0.998268 0.319380 35.000000
1.904246 0.988910 0.323699 61.000000
1.923600 0.972511 0.325789 42.000000
1.938547 0.953404 0.327070 48.000000
1.962128 0.938599 0.329919 50.000000
1.976748 0.918929 0.331140 34.000000
2.004591 0.905468 0.334755 31.000000
2.027881 0.889492 0.337559 35.000000
2.046547 0.870941 0.339546 35.000000
2.069591 0.854214 0.342363 42.000000
2.097070 0.838884 0.345874 38.000000
2.124429 0.823013 0.349464 34.000000
2.151874 0.806456 0.352851 34.000000
2.155813 0.781216 0.352588 31.000000
2.187488 0.765732 0.356888 32.000000
2.200328 0.743339 0.358080 41.000000
2.250575 0.732943 0.365375 36.000000
2.267825 0.711269 0.367341 38.000000
2.303694 0.695099 0.372443 51.000000
2.315871 0.671134 0.373655 32.000000
2.356341 0.655005 0.379392 43.000000
2.382387 0.634334 0.382915 31.000000
2.432255 0.619110 0.390131 30.000000
2.458047 0.597109 0.393594 37.000000
2.497988 0.578031 0.399371 67.000000
2.528290 0.555934 0.403618 37.000000
2.558308 0.533310 0.407792 58.000000
2.573652 0.507130 0.409658 36.000000
2.603284 0.483444 0.413761 21.000000
2.584023 0.450656 0.410225 8.000000
2.652183 0.432720 0.420601 8.000000
2.681083 0.407377 0.424718 9.000000
2.739160 0.385547 0.433484 15.000000
2.787263 0.361268 0.440711 33.000000
2.825420 0.334775 0.446396 53.000000
2.819025 0.302695 0.445022 10.000000
2.895929 0.278970 0.456831 9.000000
2.913479 0.248413 0.459338 7.000000
3.039150 0.225670 0.478924 8.000000
3.066057 0.193900 0.482995 9.000000
3.097645 0.161849 0.487750 9.000000
3.163333 0.130575 0.497945 45.000000
3.218912 0.097597 0.506589 51.000000
3.254275 0.062948 0.512028 55.000000
3.299228 0.027725 0.519123 95.000000
3.309209 -0.008485 0.520677 89.000000
3.264454 -0.044177 0.513683 34.000000
3.219409 -0.078794 0.506689 9.000000
3.188699 -0.113062 0.502026 10.000000
3.187318 -0.147956 0.501927 85.000000
3.160790 -0.181435 0.497945 89.000000
3.148783 -0.215386 0.496294 75.000000
3.087164 -0.245209 0.486878 29.000000
3.069631 -0.277646 0.484453 67.000000
3.027081 -0.307267 0.478054 75.000000
3.003876 -0.338143 0.474763 80.000000
2.960831 -0.366164 0.468373 33.000000
2.946894 -0.397285 0.466546 10.000000
2.913066 -0.425247 0.461714 9.000000
2.883939 -0.453242 0.457570 9.000000
2.820346 -0.474961 0.448015 8.000000
2.829630 -0.508415 0.450070 11.000000
2.833651 -0.541173 0.451349 22.000000
2.827591 -0.572184 0.450992 28.000000
2.801941 -0.598975 0.447549 55.000000
2.771118 -0.624168 0.443340 19.000000
2.720921 -0.644195 0.436056 10.000000
2.728224 -0.677476 0.437933 10.000000
2.715889 -0.706100 0.436816 30.000000
2.717624 -0.738332 0.437920 88.000000
2.690434 -0.762687 0.434415 67.000000
2.691448 -0.794936 0.435516 85.000000
2.659079 -0.816889 0.431167 32.000000
2.720664 -0.868464 0.442214 18.000000
2.814240 -0.932465 0.458496 18.000000
2.916145 -1.001660 0.476265 13.000000
2.909756 -1.035213 0.476456 3.000000
3.311140 -1.218799 0.543540 2.000000
3.514585 -1.337927 0.578739 1.000000
3.417170 -1.343694 0.564256 1.000000
3.329162 -1.351255 0.551329 1.000000
3.013412 -1.261564 0.500571 2.000000
3.121909 -1.347634 0.520388 1.000000
3.251733 -1.445801 0.543713 1.000000
3.276362 -1.499691 0.549620 1.000000
3.098810 -1.459999 0.521738 1.000000
2.993872 -1.450520 0.505756 2.000000
2.977750 -1.483484 0.505038 3.000000
2.922021 -1.495560 0.497372 5.000000
2.866025 -1.507072 0.489831 7.000000
2.845283 -1.535806 0.488185 9.000000
2.849841 -1.579223 0.491113 10.000000
2.811254 -1.597877 0.486389 9.000000
2.806305 -1.636284 0.487818 10.000000
2.822516 -1.687056 0.492743 8.000000
2.778547 -1.702604 0.487392 7.000000
2.734517 -1.717493 0.482058 7.000000
2.703506 -1.739059 0.478752 9.000000
2.696654 -1.777077 0.479965 10.000000
2.693824 -1.817236 0.481803 11.000000
2.657396 -1.835666 0.477873 9.000000
2.661300 -1.882196 0.481258 13.000000
2.632471 -1.905757 0.478795 11.000000
2.599993 -1.925296 0.475411 10.000000
2.586623 -1.959912 0.475764 15.000000
2.537533 -1.967321 0.469598 10.000000
2.500930 -1.982261 0.465523 9.000000
2.498199 -2.025398 0.467941 10.000000
2.479692 -2.056129 0.467568 9.000000
2.456945 -2.083546 0.466376 9.000000
2.427115 -2.103288 0.463656 10.000000
2.392830 -2.120279 0.460330 9.000000
2.380472 -2.156566 0.461181 10.000000
2.327557 -2.155902 0.454322 10.000000
2.301074 -2.177344 0.452246 15.000000
2.266377 -2.192312 0.448863 27.000000
2.245694 -2.220773 0.448302 30.000000
2.249112 -2.273657 0.452543 75.000000
2.220632 -2.294840 0.450563 53.000000
2.192918 -2.314768 0.448391 30.000000
2.154004 -2.324414 0.444238 26.000000
2.048696 -2.259995 0.426263 24.000000
1.945029 -2.193623 0.408391 21.000000
1.823567 -2.102698 0.386409 17.000000
1.726731 -2.035890 0.369444 10.000000
1.651641 -1.989281 0.356438 18.000000
1.564249 -1.926605 0.340952 17.000000
1.472306 -1.854569 0.324205 16.000000
1.439807 -1.855034 0.320407 24.000000
1.401515 -1.847192 0.315280 30.000000
1.381234 -1.862545 0.314138 30.000000
1.346343 -1.857624 0.309722 31.000000
1.332788 -1.879768 0.309782 23.000000
1.317856 -1.902532 0.309975 25.000000
1.294199 -1.912821 0.308173 25.000000
1.278759 -1.935313 0.308282 21.000000
1.268298 -1.965970 0.309764 25.000000
1.252047 -1.988260 0.309847 25.000000
1.232872 -2.006226 0.309341 24.000000
1.233780 -2.058048 0.313947 26.000000
1.235208 -2.109332 0.318356 9.000000
0.963574 1.674174 0.266364 8.000000
0.959127 1.625017 0.261321 15.000000
0.969167 1.601551 0.260359 22.000000
0.983976 1.586442 0.260706 16.000000
0.997603 1.571849 0.261162 29.000000
1.020155 1.569021 0.263589 18.000000
1.039971 1.561663 0.265328 29.000000
1.054242 1.545949 0.265666 30.000000
1.068194 1.530124 0.265941 17.000000
1.087696 1.522244 0.267685 22.000000
1.095543 1.498089 0.266533 18.000000
1.116918 1.494343 0.269047 23.000000
1.142273 1.493652 0.272174 33.000000
1.149362 1.469205 0.271003 22.000000
1.165354 1.456376 0.271924 29.000000
1.190573 1.454861 0.275073 28.000000
1.203286 1.437790 0.275275 19.000000
1.211835 1.417374 0.274857 27.000000
1.227252 1.403856 0.275778 20.000000
1.242554 1.390164 0.276641 27.000000
1.267691 1.387253 0.279770 35.000000
1.289576 1.380332 0.282117 25.000000
1.300676 1.362882 0.282366 32.000000
1.318954 1.351887 0.283982 31.000000
1.333701 1.337140 0.284798 24.000000
1.355391 1.329199 0.287168 35.000000
1.372902 1.317974 0.288856 27.000000
1.380147 1.295874 0.288173 34.000000
1.408851 1.293819 0.292010 35.000000
1.419287 1.274808 0.292021 28.000000
1.440140 1.265961 0.294422 35.000000
1.472731 1.265964 0.298996 32.000000
1.482800 1.246354 0.299012 33.000000
1.504013 1.236060 0.301320 28.000000
1.517119 1.219707 0.302161 23.000000
1.530465 1.202753 0.302943 32.000000
1.551407 1.191698 0.305206 29.000000
1.571995 1.180773 0.307537 27.000000
1.588852 1.166145 0.309040 35.000000
1.605591 1.151306 0.310486 28.000000
1.613814 1.130955 0.310501 26.000000
1.654703 1.132458 0.316630 30.000000
1.666721 1.114431 0.317435 25.000000
1.682999 1.098545 0.318838 33.000000
1.707478 1.087749 0.321814 36.000000
1.714859 1.066498 0.321778 28.000000
1.743415 1.057644 0.325555 33.000000
1.767441 1.046157 0.328682 32.000000
1.774528 1.024012 0.328461 30.000000
1.798390 1.011833 0.331537 33.000000
1.831003 1.003734 0.336084 28.000000
1.859134 0.992963 0.339914 32.000000
1.896225 0.985971 0.345285 35.000000
1.911134 0.967454 0.346744 30.000000
1.930319 0.950889 0.349008 32.000000
1.949600 0.933731 0.351076 32.000000
1.959558 0.912344 0.351745 26.000000
2.000789 0.905061 0.357977 31.000000
2.019603 0.886825 0.360064 29.000000
2.047241 0.872464 0.363836 31.000000
2.061160 0.851845 0.365264 30.000000
2.093165 0.838396 0.369862 29.000000
2.115891 0.820737 0.372781 32.000000
2.147758 0.806172 0.377401 31.000000
2.165690 0.785982 0.379523 21.000000
2.174098 0.762181 0.380022 29.000000
2.200913 0.744562 0.383780 30.000000
2.232339 0.728061 0.388290 31.000000
2.268348 0.712380 0.393625 35.000000
2.285367 0.690447 0.395776 29.000000
2.311701 0.670762 0.399493 32.000000
2.337856 0.650585 0.403143 29.000000
2.363826 0.630066 0.406875 13.000000
