x y z intensity
1.193325 1.921271 0.619169 31.000000
1.210919 1.903749 0.620420 35.000000
1.234689 1.893361 0.624036 32.000000
1.249305 1.871392 0.623869 30.000000
1.259233 1.840668 0.620786 31.000000
1.286804 1.838302 0.627226 31.000000
1.295004 1.808071 0.624239 37.000000
1.309473 1.784943 0.623712 35.000000
1.331171 1.774051 0.627389 36.000000
1.342076 1.746852 0.625403 36.000000
1.357625 1.727906 0.626339 33.000000
1.385910 1.723105 0.632486 36.000000
1.407212 1.711164 0.636112 35.000000
1.416085 1.684165 0.634139 37.000000
1.425416 1.656540 0.631929 63.000000
1.449393 1.647643 0.636868 42.000000
1.470106 1.634756 0.640359 49.000000
1.488346 1.617424 0.642245 66.000000
1.502320 1.597087 0.642935 43.000000
1.519405 1.580003 0.644957 43.000000
1.539712 1.566128 0.648395 39.000000
1.556414 1.548657 0.650352 56.000000
1.573746 1.530347 0.652029 71.000000
1.597113 1.519061 0.656842 69.000000
1.609960 1.497549 0.657305 91.000000
1.629611 1.482492 0.660562 87.000000
1.638460 1.457527 0.659507 61.000000
1.657796 1.441939 0.662768 81.000000
1.684281 1.432330 0.668862 32.000000
1.696111 1.410026 0.669173 46.000000
1.703951 1.384648 0.667951 56.000000
1.741409 1.382952 0.678385 68.000000
1.752673 1.360154 0.678555 69.000000
1.767400 1.340117 0.680112 60.000000
1.785825 1.322713 0.683210 36.000000
1.776930 1.285474 0.675865 63.000000
1.810447 1.278875 0.684714 31.000000
1.836190 1.266264 0.690638 48.000000
1.833745 1.235072 0.686418 70.000000
1.859136 1.221885 0.692216 36.000000
1.880541 1.205706 0.696544 62.000000
1.885232 1.179506 0.695132 65.000000
1.914395 1.167828 0.702389 40.000000
1.918603 1.141436 0.700972 50.000000
1.959984 1.136112 0.712616 30.000000
1.972160 1.114006 0.714066 35.000000
1.992692 1.095988 0.718237 58.000000
2.017016 1.080249 0.724145 53.000000
2.032815 1.059674 0.726975 53.000000
2.048441 1.038856 0.729737 54.000000
2.059620 1.015615 0.730987 35.000000
2.074801 0.994360 0.733757 53.000000
2.102759 0.978890 0.740948 27.000000
2.117650 0.956997 0.743586 33.000000
2.141082 0.938756 0.749281 51.000000
2.155578 0.916269 0.751859 37.000000
2.174290 0.895420 0.755895 36.000000
2.188209 0.872761 0.758558 52.000000
2.206529 0.851337 0.762533 33.000000
2.233385 0.833114 0.769740 35.000000
2.233302 0.804738 0.767733 29.000000
2.268863 0.788908 0.777966 36.000000
2.281771 0.764760 0.780433 52.000000
2.308058 0.744814 0.787459 56.000000
2.320615 0.720153 0.789860 35.000000
2.342003 0.697950 0.795204 52.000000
2.372230 0.678210 0.803889 49.000000
2.402359 0.657798 0.812513 36.000000
2.427707 0.635508 0.819521 30.000000
2.448307 0.611570 0.824907 33.000000
2.473281 0.588340 0.831856 36.000000
2.498106 0.564611 0.838651 38.000000
2.499382 0.535488 0.837916 35.000000
2.532984 0.512988 0.847925 53.000000
2.543045 0.485407 0.850066 33.000000
2.594957 0.465097 0.866171 33.000000
2.576447 0.431870 0.858871 33.000000
2.613827 0.408044 0.870397 35.000000
2.655679 0.383989 0.883330 56.000000
2.678474 0.356580 0.890018 56.000000
2.696349 0.328174 0.895234 42.000000
2.718633 0.299883 0.901758 46.000000
2.731159 0.270232 0.905418 37.000000
2.743353 0.240280 0.908728 32.000000
2.821487 0.215261 0.934160 35.000000
2.823670 0.183431 0.934433 33.000000
2.872896 0.154237 0.950296 45.000000
2.879119 0.122074 0.952050 45.000000
2.904049 0.090396 0.960079 37.000000
2.952355 0.058654 0.975766 37.000000
2.957482 0.025477 0.977525 52.000000
3.009797 -0.007933 0.994785 53.000000
3.066469 -0.042583 1.013515 71.000000
3.089607 -0.077680 1.021360 71.000000
3.121725 -0.113656 1.032241 93.000000
3.115577 -0.148471 1.030472 82.000000
3.085336 -0.181882 1.020962 53.000000
3.064207 -0.215219 1.014393 35.000000
3.071203 -0.250446 1.017231 22.000000
3.016228 -0.280176 0.999795 30.000000
3.017836 -0.314547 1.000778 30.000000
3.018847 -0.349121 1.002148 30.000000
3.024363 -0.384205 1.004692 25.000000
3.048179 -0.422106 1.013687 28.000000
3.062219 -0.459233 1.019446 29.000000
3.099244 -0.500369 1.032812 28.000000
3.149758 -0.544985 1.051152 20.000000
3.157610 -0.583000 1.055218 30.000000
3.197725 -0.627633 1.070095 35.000000
3.246526 -0.675250 1.087962 41.000000
3.248352 -0.713715 1.090118 33.000000
3.286632 -0.760962 1.104933 34.000000
3.278181 -0.797905 1.104175 32.000000
3.264693 -0.833672 1.101646 28.000000
3.223356 -0.861754 1.089698 21.000000
3.190932 -0.891457 1.080873 29.000000
3.167455 -0.923201 1.074950 29.000000
3.143535 -0.954743 1.069355 33.000000
3.105683 -0.981573 1.059024 29.000000
3.090295 -1.015104 1.056330 33.000000
3.056515 -1.042185 1.047469 30.000000
3.022592 -1.068552 1.038418 26.000000
2.984065 -1.092676 1.027849 18.000000
2.954342 -1.119365 1.020276 29.000000
2.946310 -1.154536 1.020696 32.000000
2.920493 -1.182157 1.014576 35.000000
2.876619 -1.202239 1.002549 28.000000
2.850112 -1.229066 0.996664 31.000000
2.836582 -1.261300 0.995271 33.000000
2.805337 -1.285302 0.987682 26.000000
2.760948 -1.302716 0.975545 17.000000
2.750953 -1.335900 0.975500 29.000000
2.723472 -1.360469 0.969381 29.000000
2.678883 -1.375846 0.957123 36.000000
2.672269 -1.410383 0.958410 32.000000
2.640124 -1.431285 0.950633 31.000000
2.607410 -1.452095 0.943165 33.000000
2.599929 -1.485961 0.944261 29.000000
2.558670 -1.501186 0.933721 21.000000
2.534170 -1.524835 0.928732 31.000000
2.517236 -1.553689 0.927124 29.000000
2.476199 -1.566479 0.916091 33.000000
2.458867 -1.594586 0.914404 32.000000
2.425256 -1.612028 0.906586 30.000000
2.411891 -1.641615 0.905928 35.000000
2.381958 -1.660830 0.899624 25.000000
2.371364 -1.693379 0.900629 23.000000
2.352655 -1.720372 0.898674 17.000000
2.314538 -1.732765 0.889369 22.000000
2.284139 -1.750261 0.882846 32.000000
2.249800 -1.764271 0.874973 32.000000
2.241645 -1.798800 0.877253 32.000000
2.214443 -1.818040 0.872140 32.000000
2.190854 -1.840007 0.868494 25.000000
2.167149 -1.861708 0.864765 25.000000
2.143148 -1.882962 0.861042 32.000000
2.112001 -1.897553 0.854356 29.000000
2.105387 -1.934311 0.857750 34.000000
2.073870 -1.948156 0.851083 28.000000
2.066575 -1.984817 0.854351 32.000000
2.044128 -2.008815 0.852161 33.000000
2.008792 -2.018219 0.843923 24.000000
1.980349 -2.033916 0.838552 24.000000
1.965015 -2.063084 0.838757 30.000000
1.949259 -2.092129 0.838943 32.000000
1.925705 -2.114774 0.836579 34.000000
1.893391 -2.125574 0.829653 27.000000
1.880052 -2.157517 0.831122 35.000000
1.855770 -2.179434 0.828576 32.000000
1.841713 -2.211152 0.829913 26.000000
1.802865 -2.213089 0.820176 18.000000
1.792997 -2.252922 0.824429 26.000000
1.774865 -2.280436 0.824247 26.000000
1.749279 -2.301070 0.821588 53.000000
1.785156 -2.401594 0.847164 98.000000
1.792025 -2.469210 0.860605 98.000000
1.662848 -2.343874 0.807284 105.000000
1.503538 -2.168386 0.738181 63.000000
1.086781 -1.643714 0.546885 13.000000
1.065758 -1.652395 0.543556 19.000000
1.027771 -1.631592 0.530762 23.000000
1.009521 -1.643555 0.528748 22.000000
0.997210 -1.663059 0.529183 30.000000
0.978562 -1.674714 0.527220 26.000000
0.975300 -1.710729 0.532786 17.000000
0.956063 -1.722184 0.530731 9.000000
1.100692 2.022981 0.638782 9.000000
1.121917 2.010363 0.641554 18.000000
1.137199 1.984264 0.640064 32.000000
1.149615 1.954043 0.637118 26.000000
1.165057 1.932721 0.637132 29.000000
1.182783 1.915389 0.638416 35.000000
1.204206 1.901250 0.640772 27.000000
1.218969 1.879473 0.640665 35.000000
1.239946 1.864896 0.643011 28.000000
1.264977 1.858760 0.648270 24.000000
1.266456 1.816116 0.640825 35.000000
1.291237 1.809512 0.646078 32.000000
1.300042 1.778611 0.642737 32.000000
1.321686 1.767746 0.646524 38.000000
1.337513 1.748915 0.647500 29.000000
1.354097 1.729241 0.648186 36.000000
1.366414 1.706312 0.647721 30.000000
1.387540 1.694504 0.651443 29.000000
1.406438 1.678047 0.653465 49.000000
1.421173 1.658372 0.654261 35.000000
1.435691 1.638628 0.655048 51.000000
1.465962 1.636504 0.662978 50.000000
1.481008 1.615607 0.663421 46.000000
1.498340 1.598765 0.665587 54.000000
1.512083 1.578190 0.666226 31.000000
1.522336 1.554065 0.665324 32.000000
1.543147 1.539459 0.668595 76.000000
1.563058 1.525123 0.672014 51.000000
1.582971 1.510570 0.675441 77.000000
1.592201 1.485952 0.674440 63.000000
1.615328 1.474159 0.679285 59.000000
1.638385 1.461996 0.684146 95.000000
1.639794 1.430706 0.680006 37.000000
1.673390 1.427401 0.689291 32.000000
1.681538 1.402087 0.688052 47.000000
1.704130 1.388782 0.692808 35.000000
1.726642 1.375167 0.697510 64.000000
1.749143 1.361169 0.702226 51.000000
1.760107 1.338206 0.702344 36.000000
1.766549 1.312769 0.701220 77.000000
1.788569 1.298061 0.705813 34.000000
1.806615 1.280212 0.708824 33.000000
1.808847 1.251297 0.705732 49.000000
1.849707 1.249646 0.718213 54.000000
1.847484 1.217844 0.713507 92.000000
1.860823 1.196558 0.714855 69.000000
1.869495 1.173027 0.714946 65.000000
1.890423 1.156467 0.719308 67.000000
1.927295 1.149751 0.730082 35.000000
1.947757 1.132708 0.734694 31.000000
1.972603 1.117241 0.740582 75.000000
1.980452 1.092601 0.740409 36.000000
2.008887 1.079150 0.748022 55.000000
2.024668 1.058573 0.750975 55.000000
2.040277 1.037680 0.753860 66.000000
2.064225 1.020827 0.759811 78.000000
2.062341 0.991198 0.756288 33.000000
2.081681 0.971678 0.760607 27.000000
2.105137 0.953921 0.766436 48.000000
2.132841 0.937557 0.773855 48.000000
2.147095 0.915368 0.776708 57.000000
2.161388 0.892705 0.779264 37.000000
2.179674 0.871854 0.783634 38.000000
2.198036 0.850427 0.787710 37.000000
2.215942 0.828875 0.791946 31.000000
2.233768 0.807046 0.796191 30.000000
2.264708 0.789544 0.805140 66.000000
2.273201 0.763833 0.806067 42.000000
2.290403 0.741040 0.810106 51.000000
2.311804 0.719451 0.815903 61.000000
2.342219 0.699957 0.824674 51.000000
2.354174 0.674807 0.827219 65.000000
2.375055 0.651984 0.832892 31.000000
2.414023 0.633580 0.844908 32.000000
2.439152 0.610841 0.852050 46.000000
2.464138 0.587605 0.859122 35.000000
2.493347 0.565082 0.867975 37.000000
2.504073 0.537814 0.870160 56.000000
2.537604 0.515150 0.880478 35.000000
2.561625 0.490079 0.887505 50.000000
2.562012 0.460403 0.886650 31.000000
2.580965 0.433719 0.891908 33.000000
2.599463 0.406802 0.897341 46.000000
2.617839 0.379485 0.902609 47.000000
2.663973 0.355520 0.917574 45.000000
2.686487 0.327737 0.924560 54.000000
2.703911 0.299011 0.929848 38.000000
2.711777 0.268945 0.931816 36.000000
2.719126 0.238773 0.933874 29.000000
2.806585 0.214536 0.963098 34.000000
2.818114 0.183556 0.966609 36.000000
2.848277 0.153289 0.976599 46.000000
2.868653 0.121982 0.983356 35.000000
2.898131 0.090450 0.993263 40.000000
2.922619 0.058277 1.001364 52.000000
2.970294 0.025681 1.017663 52.000000
3.027148 -0.008008 1.037207 64.000000
3.060060 -0.042550 1.048453 71.000000
3.068826 -0.077342 1.051694 54.000000
3.110279 -0.113455 1.066178 58.000000
3.146773 -0.150403 1.078937 57.000000
3.182720 -0.188102 1.091486 54.000000
3.199333 -0.225221 1.097757 35.000000
3.177784 -0.259887 1.091177 26.000000
3.203064 -0.298309 1.100476 37.000000
3.241988 -0.338844 1.114621 34.000000
3.247498 -0.376414 1.117434 34.000000
3.285522 -0.418381 1.131348 37.000000
3.341643 -0.463903 1.151923 41.000000
3.411292 -0.512801 1.177217 54.000000
3.466237 -0.561119 1.197530 36.000000
3.455234 -0.599371 1.195351 21.000000
3.415985 -0.632237 1.183163 34.000000
3.390352 -0.667110 1.175935 33.000000
3.359718 -0.700375 1.166996 32.000000
3.351753 -0.738430 1.166332 37.000000
3.316006 -0.769621 1.155692 36.000000
3.279739 -0.800406 1.145178 32.000000
3.275405 -0.838571 1.145803 35.000000
3.197528 -0.857111 1.120772 17.000000
3.183475 -0.891778 1.117997 32.000000
3.160036 -0.923577 1.112025 32.000000
3.122452 -0.951034 1.101479 29.000000
3.103010 -0.983285 1.096919 34.000000
3.069603 -1.010887 1.087791 32.000000
3.045015 -1.040941 1.081763 32.000000
3.024579 -1.072068 1.077337 32.000000
2.945948 -1.081649 1.052153 17.000000
2.956291 -1.123201 1.058675 33.000000
2.908364 -1.142913 1.044871 33.000000
2.891501 -1.173810 1.041679 31.000000
2.882823 -1.208475 1.042056 37.000000
2.847878 -1.231339 1.032453 34.000000
2.816872 -1.255844 1.024750 32.000000
2.785737 -1.279856 1.016965 33.000000
2.745898 -1.299219 1.006055 23.000000
2.744347 -1.336509 1.009201 34.000000
2.699914 -1.352626 0.996564 35.000000
2.685066 -1.383098 0.994914 35.000000
2.644643 -1.400043 0.983798 37.000000
2.625184 -1.427574 0.980413 34.000000
2.588892 -1.445552 0.970811 33.000000
2.589101 -1.484620 0.975500 35.000000
2.540225 -1.494467 0.961182 22.000000
2.528024 -1.525399 0.960742 33.000000
2.507019 -1.551797 0.957492 35.000000
2.474114 -1.569702 0.949247 30.000000
2.444667 -1.590212 0.942847 32.000000
2.415111 -1.610167 0.936371 29.000000
2.397798 -1.637160 0.934230 29.000000
2.403054 -1.680897 0.941445 36.000000
2.361218 -1.691611 0.930321 19.000000
2.342510 -1.718603 0.928273 17.000000
2.308933 -1.733133 0.919782 20.000000
2.263342 -1.739071 0.907146 28.000000
2.247894 -1.767792 0.906464 32.000000
2.224771 -1.790346 0.902851 31.000000
2.205029 -1.815664 0.900566 31.000000
2.203343 -1.856072 0.905871 35.000000
2.139605 -1.843677 0.885525 20.000000
2.130201 -1.877442 0.887743 29.000000
2.113228 -1.904788 0.886779 34.000000
2.095913 -1.931942 0.885899 31.000000
2.081821 -1.962178 0.886307 36.000000
2.057085 -1.982444 0.882364 29.000000
2.028743 -1.998914 0.876776 28.000000
1.999366 -2.015862 0.871658 30.000000
1.964206 -2.024704 0.863087 19.000000
1.962082 -2.067666 0.869227 32.000000
1.933201 -2.082752 0.863591 29.000000
1.919280 -2.115954 0.865493 29.000000
1.899683 -2.141124 0.864114 34.000000
1.882965 -2.169708 0.864166 36.000000
1.853512 -2.183554 0.858366 31.000000
1.822758 -2.197805 0.852949 28.000000
1.793167 -2.210823 0.847186 13.000000
1.784496 -2.249632 0.851301 26.000000
1.762115 -2.274353 0.849976 28.000000
1.769715 -2.336094 0.862389 58.000000
1.770523 -2.390561 0.871875 100.000000
1.768967 -2.446282 0.881652 67.000000
1.645972 -2.328923 0.829421 41.000000
1.477979 -2.142577 0.754248 30.000000
1.082494 -1.646168 0.566302 14.000000
1.065102 -1.658305 0.564050 23.000000
1.043906 -1.666742 0.560615 22.000000
1.011251 -1.653790 0.550116 26.000000
0.986450 -1.652649 0.543762 29.000000
0.992093 -1.705852 0.555229 26.000000
0.970514 -1.713361 0.551753 20.000000
0.950087 -1.720005 0.548101 8.000000
1.091330 2.016056 0.657607 8.000000
1.107918 1.995064 0.657749 14.000000
1.123175 1.969067 0.656116 25.000000
1.151043 1.968681 0.663113 19.000000
1.160728 1.934189 0.658643 29.000000
1.183537 1.925008 0.662847 21.000000
1.202539 1.906721 0.663878 26.000000
1.219947 1.888924 0.665185 28.000000
1.233119 1.862265 0.663276 17.000000
1.250127 1.844220 0.664478 19.000000
1.261378 1.818082 0.662729 21.000000
1.290003 1.814703 0.669374 26.000000
1.303601 1.792203 0.669038 30.000000
1.325391 1.781135 0.672961 26.000000
1.327960 1.742449 0.666426 27.000000
1.340530 1.719741 0.665951 32.000000
1.376709 1.726860 0.677110 22.000000
1.383938 1.695626 0.673414 31.000000
1.401968 1.679762 0.675721 28.000000
1.419859 1.663758 0.678027 30.000000
1.437610 1.647475 0.680333 33.000000
1.443412 1.616114 0.676331 29.000000
1.463879 1.603081 0.680042 33.000000
1.490862 1.596808 0.686692 34.000000
1.511276 1.583135 0.690363 28.000000
1.518237 1.555532 0.687938 36.000000
1.535006 1.538068 0.690026 35.000000
1.555666 1.523170 0.693282 35.000000
1.572123 1.505319 0.695304 62.000000
1.588371 1.487258 0.697327 33.000000
1.607920 1.472203 0.700809 78.000000
1.620308 1.450509 0.701162 35.000000
1.639578 1.435024 0.704583 29.000000
1.658776 1.419177 0.707942 32.000000
1.670537 1.397006 0.708217 29.000000
1.696111 1.387375 0.714966 33.000000
1.714947 1.370717 0.718209 34.000000
1.733636 1.353831 0.721459 32.000000
1.752178 1.336719 0.724717 36.000000
1.762955 1.313632 0.724780 32.000000
1.772964 1.290986 0.725118 27.000000
1.790932 1.273222 0.728242 32.000000
1.812646 1.257932 0.732877 33.000000
1.833839 1.242749 0.737811 35.000000
1.855433 1.226745 0.742402 37.000000
1.860489 1.200635 0.740946 32.000000
1.877684 1.181640 0.743890 35.000000
1.902442 1.167726 0.750239 35.000000
1.911168 1.143301 0.750009 30.000000
1.939801 1.131117 0.757911 32.000000
1.951880 1.109057 0.759358 35.000000
1.972100 1.091439 0.764014 35.000000
1.987961 1.071241 0.767075 35.000000
2.003726 1.050731 0.769996 34.000000
2.019246 1.030052 0.772923 35.000000
2.047311 1.015364 0.780630 35.000000
2.058292 0.992001 0.781883 32.000000
2.081829 0.974506 0.787926 32.000000
2.092434 0.950702 0.789038 28.000000
2.115423 0.932768 0.795326 34.000000
2.138612 0.914167 0.801257 34.000000
2.144004 0.888109 0.800827 29.000000
2.175601 0.872405 0.809966 35.000000
2.198049 0.852859 0.816007 31.000000
2.202762 0.826226 0.815435 26.000000
2.229341 0.807661 0.823058 31.000000
2.242531 0.783865 0.825695 31.000000
2.255372 0.759891 0.828259 29.000000
2.281334 0.740187 0.835918 35.000000
2.298331 0.717032 0.840065 32.000000
2.315000 0.693750 0.844297 35.000000
2.354095 0.676705 0.856790 31.000000
2.356751 0.648765 0.856009 21.000000
2.404695 0.632776 0.871686 32.000000
2.420601 0.607814 0.875720 26.000000
2.436316 0.582483 0.879679 29.000000
2.465472 0.560160 0.888780 32.000000
2.494415 0.537236 0.897814 28.000000
2.523217 0.513625 0.906779 31.000000
2.537895 0.486825 0.910685 29.000000
2.515153 0.453128 0.901459 10.000000
2.566443 0.432429 0.918512 32.000000
2.603594 0.408486 0.930757 27.000000
2.612524 0.379651 0.932849 29.000000
2.658505 0.355799 0.948449 35.000000
2.662152 0.325671 0.948970 27.000000
2.679592 0.297102 0.954410 27.000000
2.706096 0.269148 0.963105 28.000000
2.685439 0.236442 0.954933 9.000000
2.786474 0.213634 0.990354 29.000000
2.812159 0.183590 0.998887 29.000000
2.813892 0.151836 0.999252 24.000000
2.843692 0.121194 1.009278 31.000000
2.906027 0.090946 1.031189 31.000000
2.916203 0.058277 1.034815 28.000000
2.940234 0.025518 1.043269 31.000000
2.992162 -0.007945 1.061660 32.000000
3.029564 -0.042287 1.074937 45.000000
3.047818 -0.077005 1.081427 32.000000
3.093923 -0.113183 1.098041 33.000000
3.130074 -0.149974 1.111411 37.000000
3.142462 -0.186122 1.116119 31.000000
3.168425 -0.223686 1.125939 30.000000
3.212721 -0.263326 1.142226 32.000000
3.237849 -0.302275 1.152035 31.000000
3.285830 -0.344317 1.170080 37.000000
3.295918 -0.383066 1.174658 35.000000
3.347728 -0.427507 1.194134 31.000000
3.394279 -0.472457 1.211704 33.000000
3.444893 -0.519158 1.231140 31.000000
3.471605 -0.563461 1.242119 31.000000
3.451295 -0.600309 1.236557 21.000000
3.402881 -0.631453 1.220683 22.000000
3.377319 -0.666330 1.213251 29.000000
3.342159 -0.698746 1.202505 27.000000
3.315893 -0.732349 1.194873 26.000000
3.298685 -0.767674 1.190568 31.000000
3.271701 -0.800548 1.183064 26.000000
3.235349 -0.830552 1.172150 27.000000
3.194162 -0.858494 1.159598 22.000000
3.180099 -0.893372 1.156769 22.000000
3.138570 -0.919968 1.144038 28.000000
3.105952 -0.948394 1.134524 26.000000
3.081852 -0.979378 1.128532 24.000000
3.057636 -1.009638 1.122132 28.000000
3.010765 -1.031939 1.107735 24.000000
2.999246 -1.066083 1.106501 19.000000
2.956495 -1.088496 1.093686 24.000000
2.931242 -1.116934 1.087349 23.000000
2.905794 -1.144768 1.080923 27.000000
2.884231 -1.174286 1.076446 27.000000
2.849674 -1.197709 1.066682 26.000000
2.836302 -1.230142 1.065385 31.000000
2.797031 -1.250398 1.053831 25.000000
2.766008 -1.274321 1.045851 16.000000
2.743312 -1.301613 1.041036 27.000000
2.707658 -1.322385 1.031373 24.000000
2.693079 -1.353197 1.029818 30.000000
2.674003 -1.381545 1.026454 31.000000
2.642045 -1.402944 1.018263 28.000000
2.614147 -1.426038 1.011606 29.000000
2.582073 -1.446342 1.003265 26.000000
2.553924 -1.468442 0.996646 15.000000
2.550125 -1.504421 0.999451 25.000000
2.525234 -1.528791 0.994541 24.000000
2.496518 -1.549811 0.987671 27.000000
2.447122 -1.558108 0.973246 24.000000
2.442226 -1.593336 0.975764 21.000000
2.412663 -1.613485 0.969230 28.000000
2.379546 -1.629844 0.960576 24.000000
2.392527 -1.678923 0.971241 15.000000
2.362355 -1.697966 0.964547 24.000000
2.324995 -1.710371 0.954268 10.000000
2.287105 -1.722620 0.944304 10.000000
2.256775 -1.740143 0.937500 26.000000
2.252466 -1.777734 0.941538 23.000000
2.221745 -1.794490 0.934661 28.000000
2.188101 -1.807051 0.925798 24.000000
2.175506 -1.838148 0.926615 14.000000
2.155307 -1.862918 0.924238 26.000000
2.113449 -1.868598 0.912537 19.000000
2.103588 -1.902242 0.914698 27.000000
2.075773 -1.919696 0.909182 25.000000
2.065214 -1.953076 0.911223 25.000000
2.047413 -1.979890 0.910194 26.000000
2.014716 -1.993835 0.903358 23.000000
2.019814 -2.043829 0.912744 15.000000
1.957886 -2.025611 0.891965 21.000000
1.945800 -2.058190 0.893683 19.000000
1.939694 -2.097725 0.898372 29.000000
1.897824 -2.098429 0.886568 25.000000
1.912042 -2.163602 0.901924 32.000000
1.929270 -2.232159 0.918287 105.000000
1.865238 -2.206529 0.896016 31.000000
1.859776 -2.249669 0.901825 20.000000
1.789291 -2.215720 0.876957 18.000000
1.771480 -2.243412 0.876798 18.000000
1.744651 -2.259611 0.872234 24.000000
1.733542 -2.299203 0.876692 28.000000
1.743083 -2.364897 0.890888 35.000000
1.720679 -2.388455 0.889055 13.000000
1.635911 -2.326385 0.855797 10.000000
1.521658 -2.214519 0.805171 10.000000
1.081802 -1.651935 0.586982 9.000000
1.048763 -1.639835 0.576141 18.000000
1.040453 -1.668503 0.579691 20.000000
1.020316 -1.676104 0.575905 18.000000
0.989287 -1.667511 0.566707 24.000000
0.983682 -1.699382 0.571349 19.000000
0.964522 -1.711052 0.569165 12.000000
0.971878 -1.768286 0.581973 6.000000
1.079651 2.004776 0.674927 9.000000
1.105450 2.000625 0.680680 20.000000
1.120846 1.974662 0.679075 20.000000
1.144012 1.965855 0.683334 24.000000
1.154933 1.936220 0.680455 21.000000
1.184060 1.934449 0.687393 26.000000
1.199374 1.912747 0.687301 26.000000
1.218178 1.894177 0.688360 24.000000
1.238229 1.880162 0.691091 20.000000
1.250123 1.853976 0.689403 23.000000
1.249109 1.807474 0.679935 27.000000
1.268271 1.793155 0.682602 29.000000
1.284494 1.774689 0.683639 24.000000
1.312910 1.770709 0.690434 30.000000
1.323085 1.744222 0.688472 30.000000
1.344498 1.732791 0.692429 26.000000
1.360975 1.712915 0.693164 30.000000
1.373245 1.689832 0.692515 26.000000
1.397325 1.681398 0.697997 33.000000
1.409158 1.658033 0.697327 35.000000
1.430901 1.644749 0.700879 32.000000
1.445349 1.624701 0.701650 36.000000
1.478716 1.625699 0.711653 36.000000
1.483245 1.594712 0.707728 34.000000
1.503642 1.581034 0.711444 33.000000
1.517349 1.560258 0.712061 32.000000
1.540820 1.549524 0.717346 72.000000
1.557526 1.531695 0.719452 63.000000
1.570669 1.510366 0.719989 42.000000
1.590515 1.495477 0.723593 62.000000
1.606659 1.477087 0.725558 60.000000
1.626260 1.461658 0.729105 48.000000
1.642087 1.442806 0.731075 53.000000
1.654178 1.420725 0.731384 27.000000
1.669620 1.401562 0.733209 51.000000
1.681258 1.379185 0.733436 56.000000
1.711099 1.371564 0.741594 40.000000
1.732965 1.358118 0.746855 72.000000
1.747794 1.337968 0.748558 52.000000
1.762411 1.317675 0.750261 43.000000
1.772498 1.294946 0.750559 39.000000
1.794430 1.279836 0.755430 32.000000
1.789034 1.245494 0.748801 71.000000
1.821806 1.238452 0.758772 62.000000
1.847274 1.225171 0.765088 52.000000
1.856332 1.201564 0.765170 77.000000
1.877174 1.185471 0.770161 56.000000
1.890227 1.163597 0.771524 42.000000
1.906754 1.144512 0.774747 64.000000
1.919043 1.122736 0.776256 27.000000
1.943345 1.107827 0.782719 71.000000
1.959404 1.087841 0.785820 71.000000
1.975295 1.067688 0.788927 57.000000
2.011814 1.058273 0.800269 75.000000
2.035881 1.041622 0.806582 79.000000
2.047130 1.018311 0.807840 65.000000
2.058156 0.994777 0.809098 48.000000
2.090291 0.981181 0.818636 28.000000
2.096396 0.955526 0.818457 60.000000
2.115385 0.935309 0.822854 59.000000
2.134006 0.914972 0.827559 41.000000
2.161331 0.897673 0.835260 48.000000
2.179698 0.876615 0.839839 54.000000
2.197838 0.855207 0.844352 47.000000
2.215745 0.833447 0.848874 39.000000
2.211456 0.803375 0.844803 32.000000
2.251158 0.789016 0.857636 76.000000
2.259514 0.763564 0.858874 73.000000
2.281132 0.742090 0.864812 71.000000
2.297969 0.719063 0.869219 62.000000
2.323638 0.698383 0.877033 81.000000
2.331039 0.671927 0.877978 41.000000
2.374455 0.655400 0.892469 51.000000
2.395126 0.631972 0.898303 32.000000
2.420111 0.609302 0.905850 66.000000
2.431081 0.582930 0.908449 70.000000
2.450995 0.558462 0.914388 60.000000
2.470814 0.533518 0.920008 62.000000
2.517739 0.513981 0.936317 68.000000
2.509326 0.482690 0.931763 66.000000
2.555988 0.461733 0.947937 41.000000
2.565598 0.433404 0.949990 34.000000
2.593273 0.407974 0.959161 81.000000
2.630065 0.383287 0.971862 68.000000
2.652740 0.355902 0.979079 81.000000
2.675035 0.328095 0.986475 82.000000
2.692450 0.299347 0.992071 71.000000
2.718889 0.271036 1.000934 72.000000
2.749700 0.242697 1.011702 55.000000
2.798928 0.215162 1.029272 40.000000
2.815170 0.184328 1.034711 67.000000
2.845035 0.153936 1.045411 70.000000
2.860678 0.122212 1.050578 76.000000
2.880655 0.090316 1.057561 73.000000
2.932930 0.058746 1.076794 61.000000
2.961567 0.025708 1.087227 77.000000
2.980438 -0.007945 1.094216 49.000000
2.989534 -0.041795 1.097468 43.000000
3.059334 -0.077501 1.123112 52.000000
3.072411 -0.112738 1.128180 47.000000
3.089666 -0.148420 1.135170 34.000000
3.134815 -0.186196 1.151987 36.000000
3.170028 -0.224372 1.165556 34.000000
3.186057 -0.261859 1.172131 29.000000
3.211088 -0.300542 1.181934 35.000000
3.240312 -0.340456 1.193660 41.000000
3.297017 -0.384267 1.215588 37.000000
3.334618 -0.426960 1.230516 36.000000
3.380856 -0.471902 1.248977 36.000000
3.412788 -0.515787 1.261823 34.000000
3.453310 -0.561910 1.278309 32.000000
3.446830 -0.601243 1.277854 28.000000
3.380094 -0.629062 1.254662 31.000000
3.354625 -0.663727 1.247029 30.000000
3.342696 -0.700643 1.244207 33.000000
3.293536 -0.729547 1.228146 32.000000
3.276277 -0.764661 1.223742 34.000000
3.240480 -0.794980 1.212296 32.000000
3.213282 -0.827128 1.204604 28.000000
3.181433 -0.857424 1.195003 24.000000
3.149290 -0.887205 1.185418 32.000000
3.116859 -0.916258 1.175742 30.000000
3.097745 -0.948721 1.170972 33.000000
3.060452 -0.975163 1.159420 31.000000
3.031753 -1.004057 1.151594 30.000000
3.002975 -1.032131 1.143265 31.000000
2.969383 -1.058325 1.133467 27.000000
2.948797 -1.088802 1.128759 20.000000
2.919184 -1.115515 1.120581 33.000000
2.893791 -1.143456 1.114106 34.000000
2.863849 -1.169018 1.105760 32.000000
2.842038 -1.198141 1.101095 31.000000
2.815988 -1.224589 1.094360 31.000000
2.789464 -1.251040 1.087939 32.000000
2.763066 -1.276505 1.081037 28.000000
2.710574 -1.289824 1.064518 15.000000
2.713217 -1.329026 1.069540 34.000000
2.677496 -1.349326 1.059547 31.000000
2.658365 -1.377629 1.056234 35.000000
2.630665 -1.401208 1.049412 33.000000
2.615236 -1.431200 1.047579 33.000000
2.591290 -1.456279 1.042342 35.000000
2.554989 -1.473904 1.032162 26.000000
2.502312 -1.481160 1.015325 12.000000
2.498253 -1.516898 1.018192 35.000000
2.465124 -1.535717 1.009923 30.000000
2.448514 -1.563588 1.007764 34.000000
2.415714 -1.580921 0.998972 32.000000
2.394075 -1.606071 0.995476 32.000000
2.376762 -1.633064 0.993149 34.000000
2.362385 -1.663151 0.992819 29.000000
2.320908 -1.673775 0.981039 13.000000
2.329552 -1.719476 0.989868 25.000000
2.287850 -1.729156 0.978037 13.000000
2.276103 -1.761304 0.979131 32.000000
2.231374 -1.766153 0.965198 29.000000
2.211841 -1.791739 0.962998 27.000000
2.195680 -1.820164 0.962212 36.000000
2.164812 -1.836137 0.955040 28.000000
2.126711 -1.845374 0.944712 10.000000
2.120593 -1.882346 0.948610 33.000000
2.096369 -1.903429 0.944473 29.000000
2.082461 -1.933844 0.945077 31.000000
2.061347 -1.957700 0.942427 34.000000
2.026337 -1.968050 0.933501 25.000000
2.004820 -1.991111 0.930868 30.000000
1.989787 -2.020760 0.931264 28.000000
1.951353 -2.026328 0.920664 10.000000
1.948865 -2.069312 0.927166 35.000000
1.923288 -2.087988 0.922701 29.000000
1.910248 -2.120453 0.924408 34.000000
1.902995 -2.160002 0.929157 75.000000
1.928212 -2.240247 0.950982 108.000000
1.848859 -2.196567 0.920289 41.000000
1.798061 -2.184357 0.903472 27.000000
1.765623 -2.193615 0.895843 10.000000
1.752515 -2.229525 0.899091 26.000000
1.743164 -2.268311 0.903442 26.000000
1.727497 -2.299434 0.904739 29.000000
1.704372 -2.323708 0.903290 29.000000
1.721197 -2.401251 0.922323 24.000000
1.638076 -2.338584 0.887656 18.000000
1.525460 -2.231751 0.837306 30.000000
1.507017 -2.256971 0.836971 20.000000
1.078315 -1.653487 0.606241 11.000000
1.041639 -1.638038 0.593797 16.000000
1.024293 -1.649809 0.591443 25.000000
1.005707 -1.662013 0.589213 26.000000
0.988113 -1.673350 0.586797 26.000000
0.965615 -1.676265 0.581502 29.000000
0.956063 -1.704503 0.585018 23.000000
0.947205 -1.732153 0.588239 9.000000
1.070953 2.002602 0.695076 9.000000
1.093639 1.989338 0.697830 18.000000
1.117005 1.980743 0.702277 29.000000
1.134516 1.958750 0.702003 26.000000
1.152692 1.941483 0.703481 26.000000
1.173117 1.928130 0.706368 28.000000
1.192244 1.909794 0.707467 26.000000
1.197069 1.871864 0.701318 28.000000
1.218116 1.857288 0.703807 24.000000
1.235085 1.839253 0.705064 26.000000
1.249201 1.817072 0.704786 34.000000
1.261392 1.790277 0.702606 30.000000
1.280414 1.775677 0.705203 35.000000
1.296470 1.757039 0.706332 32.000000
1.320901 1.749642 0.712012 34.000000
1.340527 1.733674 0.714263 37.000000
1.350183 1.706947 0.712131 25.000000
1.368423 1.691363 0.714647 34.000000
1.392508 1.682816 0.720224 59.000000
1.404414 1.659425 0.719539 36.000000
1.413752 1.631754 0.716908 51.000000
1.437539 1.622540 0.722430 42.000000
1.454972 1.605873 0.724732 37.000000
1.478709 1.595952 0.730214 71.000000
1.489350 1.571914 0.729264 36.000000
1.516183 1.564825 0.736298 36.000000
1.529766 1.543914 0.736868 71.000000
1.549805 1.529449 0.740649 56.000000
1.562964 1.508195 0.741140 74.000000
1.582724 1.493231 0.744861 70.000000
1.598938 1.474841 0.746896 71.000000
1.615012 1.456241 0.748932 78.000000
1.637895 1.443750 0.754162 35.000000
1.624358 1.400531 0.743320 34.000000
1.646891 1.387705 0.748473 62.000000
1.658345 1.365500 0.748637 52.000000
1.691660 1.360992 0.758688 87.000000
1.709757 1.344748 0.762378 78.000000
1.720718 1.321896 0.762479 53.000000
1.739020 1.304652 0.765824 74.000000
1.771818 1.298821 0.776121 36.000000
1.766946 1.264416 0.769342 36.000000
1.803554 1.260492 0.781279 72.000000
1.821341 1.242054 0.784523 47.000000
1.826712 1.216054 0.782948 81.000000
1.855516 1.205408 0.791389 53.000000
1.864807 1.181231 0.791137 62.000000
1.885481 1.164779 0.796164 80.000000
1.897986 1.143147 0.797745 36.000000
1.926498 1.130894 0.806114 40.000000
1.934666 1.106453 0.805936 71.000000
1.950634 1.086536 0.809158 57.000000
1.970638 1.068548 0.814021 71.000000
1.994678 1.052490 0.820532 69.000000
2.022821 1.038071 0.828699 56.000000
2.046654 1.021098 0.835173 80.000000
2.045051 0.991323 0.831284 33.000000
2.064106 0.972133 0.836202 34.000000
2.078905 0.950280 0.839038 64.000000
2.093301 0.928478 0.842175 37.000000
2.124753 0.913919 0.852083 48.000000
2.147749 0.894731 0.858328 45.000000
2.170333 0.875473 0.864737 46.000000
2.184143 0.852356 0.867615 50.000000
2.193298 0.827408 0.868759 29.000000
2.215208 0.807351 0.875276 44.000000
2.232723 0.785056 0.879758 67.000000
2.250075 0.762480 0.884094 63.000000
2.262575 0.738327 0.887000 60.000000
2.297298 0.721009 0.898574 76.000000
2.318359 0.698868 0.904766 60.000000
2.325853 0.672362 0.905712 49.000000
2.364620 0.654600 0.918855 35.000000
2.385235 0.631168 0.924839 35.000000
2.405444 0.607507 0.931075 56.000000
2.425648 0.583213 0.936995 42.000000
2.436391 0.556603 0.939568 41.000000
2.460552 0.532861 0.947345 76.000000
2.502889 0.512292 0.962098 55.000000
2.522002 0.486540 0.968139 43.000000
2.522509 0.456973 0.967128 28.000000
2.554946 0.432982 0.978393 33.000000
2.587231 0.408191 0.989502 71.000000
2.614729 0.382092 0.998768 48.000000
2.637234 0.354844 1.006447 52.000000
2.659445 0.327174 1.014046 79.000000
2.681444 0.298907 1.021477 38.000000
2.703136 0.270305 1.028913 51.000000
2.729170 0.241603 1.038215 26.000000
2.787522 0.214888 1.059749 47.000000
2.803707 0.184053 1.065341 50.000000
2.833549 0.153658 1.076347 71.000000
2.863148 0.122626 1.086893 48.000000
2.873616 0.090369 1.090627 79.000000
2.921104 0.058651 1.108646 71.000000
2.940183 0.025626 1.115838 50.000000
2.935605 -0.007858 1.114064 35.000000
2.958784 -0.041533 1.122837 33.000000
3.023631 -0.076808 1.147473 36.000000
3.055247 -0.112366 1.159788 39.000000
3.086435 -0.148669 1.172303 36.000000
3.117388 -0.185714 1.184310 35.000000
3.171106 -0.225159 1.205377 34.000000
3.145214 -0.259243 1.196205 26.000000
3.188779 -0.299353 1.213509 35.000000
3.236375 -0.341012 1.232677 33.000000
3.269600 -0.382207 1.246416 34.000000
3.320961 -0.426414 1.267006 33.000000
3.353206 -0.469292 1.280500 33.000000
3.384785 -0.513124 1.294091 34.000000
3.434484 -0.560588 1.314624 34.000000
3.405088 -0.595611 1.305000 21.000000
3.357046 -0.626564 1.288216 29.000000
3.350140 -0.664548 1.287213 31.000000
3.310624 -0.695905 1.273987 30.000000
3.275492 -0.727437 1.262540 33.000000
3.244611 -0.759303 1.252649 29.000000
3.226938 -0.794113 1.248372 32.000000
3.195499 -0.824881 1.238397 32.000000
3.150092 -0.851468 1.223281 21.000000
3.127109 -0.883490 1.216957 28.000000
3.108383 -0.916423 1.212288 30.000000
3.066905 -0.942063 1.198771 26.000000
3.043171 -0.972591 1.192168 32.000000
3.005774 -0.998280 1.180236 27.000000
2.985774 -1.029471 1.175510 31.000000
2.974358 -1.063615 1.174276 29.000000
2.914383 -1.079236 1.153391 23.000000
2.911201 -1.115775 1.155450 29.000000
2.881486 -1.141944 1.146987 33.000000
2.855958 -1.169392 1.140175 32.000000
2.825424 -1.194915 1.132046 32.000000
2.790850 -1.217568 1.121708 28.000000
2.773301 -1.247234 1.118199 29.000000
2.755101 -1.277098 1.114993 31.000000
2.694673 -1.285955 1.094095 24.000000
2.701480 -1.327168 1.101132 35.000000
2.661562 -1.345461 1.089081 32.000000
2.634233 -1.369385 1.082200 30.000000
2.610805 -1.395044 1.077045 35.000000
2.603663 -1.429368 1.078632 35.000000
2.571565 -1.449835 1.069792 29.000000
2.539284 -1.469831 1.061074 35.000000
2.515106 -1.493878 1.055680 25.000000
2.490747 -1.517645 1.050110 32.000000
2.458229 -1.535958 1.041267 35.000000
2.425084 -1.554280 1.032731 30.000000
2.412116 -1.584413 1.032174 35.000000
2.383185 -1.603838 1.024796 34.000000
2.357558 -1.626133 1.019487 30.000000
2.363023 -1.669069 1.027112 33.000000
2.332924 -1.688137 1.020043 26.000000
2.314837 -1.714428 1.017432 27.000000
2.280696 -1.729787 1.008641 19.000000
2.261431 -1.756184 1.006418 29.000000
2.235332 -1.775692 1.000425 36.000000
2.208344 -1.795493 0.994725 35.000000
2.181211 -1.814940 0.989042 30.000000
2.164723 -1.843221 0.988299 31.000000
2.120214 -1.845666 0.973993 24.000000
2.117615 -1.885712 0.979614 36.000000
2.096832 -1.910156 0.977051 38.000000
2.072407 -1.931011 0.972772 34.000000
2.047778 -1.951512 0.968502 36.000000
2.026426 -1.975053 0.965764 35.000000
1.998095 -1.991638 0.959806 31.000000
1.979676 -2.017936 0.958592 31.000000
1.944605 -2.026946 0.949365 24.000000
1.932344 -2.059572 0.951257 35.000000
1.922699 -2.095642 0.954620 61.000000
1.893661 -2.110556 0.948518 32.000000
1.873977 -2.135747 0.946997 57.000000
1.858929 -2.168765 0.949076 57.000000
1.829407 -2.182709 0.942719 42.000000
1.799858 -2.196238 0.936474 40.000000
1.764344 -2.201940 0.926947 18.000000
1.752409 -2.237025 0.929995 30.000000
1.729931 -2.261605 0.928625 29.000000
1.711405 -2.288965 0.928425 30.000000
1.700954 -2.327611 0.932727 36.000000
1.698112 -2.378013 0.941574 23.000000
1.624952 -2.331849 0.912407 16.000000
1.516910 -2.228297 0.861747 32.000000
1.501161 -2.257385 0.863016 20.000000
1.086564 -1.675527 0.633269 20.000000
1.038118 -1.639526 0.612711 28.000000
1.024622 -1.660065 0.613475 28.000000
0.992250 -1.647211 0.602016 29.000000
0.982042 -1.670810 0.604019 32.000000
0.960713 -1.678498 0.600245 29.000000
0.947572 -1.697841 0.600663 29.000000
0.923696 -1.700869 0.595425 9.000000
1.087153 1.991129 0.719418 23.000000
1.107410 1.973465 0.720734 21.000000
1.128284 1.960491 0.723778 25.000000
1.140631 1.930183 0.720414 26.000000
1.168437 1.929097 0.727968 26.000000
1.168769 1.883170 0.718597 30.000000
1.189958 1.868807 0.721228 24.000000
1.225374 1.878824 0.733395 24.000000
1.216301 1.821110 0.719117 29.000000
1.236841 1.806198 0.721579 24.000000
1.258770 1.795664 0.725893 33.000000
1.269506 1.769506 0.723911 30.000000
1.291223 1.758481 0.728155 29.000000
1.312812 1.747250 0.732412 35.000000
1.323836 1.720016 0.729951 29.000000
1.330494 1.689753 0.726140 30.000000
1.363427 1.692674 0.736658 32.000000
1.378556 1.673123 0.737569 32.000000
1.399496 1.660737 0.741701 42.000000
1.414268 1.640836 0.742531 34.000000
1.431879 1.624343 0.744977 37.000000
1.456592 1.614029 0.750265 58.000000
1.467590 1.590099 0.749380 35.000000
1.484712 1.573047 0.751686 36.000000
1.501694 1.555716 0.753992 35.000000
1.515221 1.534816 0.754577 37.000000
1.538521 1.523813 0.760051 71.000000
1.557736 1.509726 0.764233 56.000000
1.567317 1.484992 0.763007 52.000000
1.590375 1.473086 0.768445 87.000000
1.602886 1.451324 0.768805 52.000000
1.625768 1.438796 0.774195 73.000000
1.634403 1.413644 0.772797 29.000000
1.631216 1.379887 0.766596 42.000000
1.657197 1.369759 0.773475 82.000000
1.694214 1.368032 0.785537 52.000000
1.719697 1.357484 0.792760 63.000000
1.708573 1.317272 0.782603 65.000000
1.726263 1.300558 0.786343 36.000000
1.740582 1.280273 0.787958 69.000000
1.773267 1.274039 0.798509 31.000000
1.791159 1.255944 0.801862 54.000000
1.796853 1.230093 0.800261 93.000000
1.810447 1.208994 0.801748 62.000000
1.843052 1.200982 0.812177 62.000000
1.840105 1.169737 0.806953 74.000000
1.876569 1.163414 0.819090 48.000000
1.877042 1.134509 0.815444 78.000000
1.913474 1.127066 0.827489 34.000000
1.921563 1.102675 0.827331 51.000000
1.937631 1.082802 0.830599 95.000000
1.957573 1.064855 0.835557 72.000000
1.981532 1.048836 0.842211 65.000000
2.005416 1.032311 0.848810 77.000000
2.024667 1.013700 0.853957 40.000000
2.035745 0.990215 0.855212 62.000000
2.050756 0.968653 0.858163 29.000000
2.069542 0.949091 0.863188 38.000000
2.092459 0.931162 0.869926 63.000000
2.119566 0.914566 0.878309 54.000000
2.138213 0.893596 0.882925 59.000000
2.160815 0.874331 0.889483 68.000000
2.178879 0.852914 0.894195 37.000000
2.187900 0.828145 0.895571 36.000000
2.192459 0.801392 0.894852 36.000000
2.214287 0.780795 0.901219 39.000000
2.240250 0.761552 0.909546 81.000000
2.266034 0.741751 0.917891 66.000000
2.282888 0.718667 0.922501 71.000000
2.303954 0.696572 0.928920 78.000000
2.333752 0.676689 0.938795 42.000000
2.345479 0.651146 0.941473 37.000000
2.375022 0.630284 0.951215 35.000000
2.390735 0.605473 0.955794 43.000000
2.415237 0.582562 0.963915 65.000000
2.439590 0.559075 0.971969 63.000000
2.445490 0.531133 0.972706 54.000000
2.464920 0.506003 0.978799 68.000000
2.511363 0.485870 0.995867 45.000000
2.525557 0.458886 1.000251 35.000000
2.548803 0.433170 1.008105 36.000000
2.571779 0.406950 1.015883 62.000000
2.612910 0.382926 1.030854 62.000000
2.626121 0.354323 1.035098 68.000000
2.639098 0.325509 1.039259 50.000000
2.661007 0.297432 1.046890 61.000000
2.696421 0.270415 1.060257 67.000000
2.712998 0.240834 1.066168 34.000000
2.771200 0.214255 1.088312 38.000000
2.787323 0.183472 1.094055 47.000000
2.812397 0.152967 1.103172 44.000000
2.837129 0.121840 1.112569 74.000000
2.852298 0.089982 1.118134 61.000000
2.876318 0.057900 1.127537 53.000000
2.932553 0.025571 1.149623 66.000000
2.927994 -0.007870 1.147798 32.000000
2.955730 -0.041567 1.158650 42.000000
3.010994 -0.076709 1.180250 41.000000
3.033169 -0.111923 1.189371 35.000000
3.059676 -0.147793 1.200015 43.000000
3.104341 -0.185510 1.218252 34.000000
3.148433 -0.224186 1.236282 33.000000
3.108728 -0.257016 1.221388 17.000000
3.175295 -0.299039 1.248315 36.000000
3.218256 -0.339992 1.265902 35.000000
3.260582 -0.382104 1.283686 37.000000
3.288502 -0.423489 1.295889 34.000000
3.353012 -0.470571 1.322413 44.000000
3.365995 -0.511642 1.329243 32.000000
3.419952 -0.559907 1.352201 32.000000
3.409007 -0.598042 1.349590 24.000000
3.338321 -0.624816 1.323270 29.000000
3.335882 -0.663768 1.324083 32.000000
3.296503 -0.695133 1.310504 32.000000
3.270586 -0.728589 1.302376 32.000000
3.244317 -0.761629 1.294148 35.000000
3.208653 -0.791913 1.282098 28.000000
3.190972 -0.826034 1.277295 27.000000
3.123191 -0.846639 1.252856 15.000000
3.118146 -0.883597 1.253600 29.000000
3.090500 -0.913939 1.245120 32.000000
3.062546 -0.943661 1.236655 32.000000
3.025408 -0.970022 1.224503 29.000000
3.005955 -1.001467 1.219456 34.000000
2.977329 -1.029556 1.210728 31.000000
2.952612 -1.058921 1.204116 24.000000
2.901434 -1.078022 1.186674 21.000000
2.894159 -1.112577 1.186641 31.000000
2.855858 -1.135255 1.174412 30.000000
2.838987 -1.166111 1.171023 35.000000
2.808649 -1.191593 1.162698 30.000000
2.791216 -1.221704 1.159127 33.000000
2.773624 -1.251518 1.155561 35.000000
2.738817 -1.273252 1.144813 27.000000
2.682348 -1.284596 1.125538 25.000000
2.684863 -1.323730 1.131055 36.000000
2.649644 -1.343523 1.120087 33.000000
2.643021 -1.378275 1.121865 47.000000
2.607135 -1.397544 1.111323 32.000000
2.583504 -1.423018 1.105884 35.000000
2.559587 -1.448014 1.100456 35.000000
2.543680 -1.477337 1.098444 28.000000
2.499313 -1.489676 1.084116 26.000000
2.470925 -1.510958 1.076804 33.000000
2.442508 -1.531682 1.069418 33.000000
2.425804 -1.559553 1.067166 35.000000
2.393152 -1.576912 1.057988 29.000000
2.379326 -1.607322 1.057758 34.000000
2.361863 -1.634403 1.055330 37.000000
2.347295 -1.664667 1.054997 26.000000
2.325536 -1.688472 1.050754 29.000000
2.291597 -1.704341 1.041753 26.000000
2.265842 -1.724626 1.035737 15.000000
2.242902 -1.747997 1.031720 33.000000
2.216809 -1.767522 1.025549 32.000000
2.200855 -1.796166 1.024946 35.000000
2.180855 -1.821696 1.022457 44.000000
2.136450 -1.824814 1.007784 26.000000
2.119863 -1.852690 1.006917 26.000000
2.102843 -1.880375 1.006041 33.000000
2.082187 -1.904688 1.003391 33.000000
2.068047 -1.935166 1.004081 38.000000
2.039960 -1.952581 0.997998 32.000000
2.006001 -1.962149 0.988156 33.000000
1.991245 -1.991883 0.988654 32.000000
1.979370 -2.024963 0.990784 24.000000
1.944166 -2.034108 0.981268 28.000000
1.918751 -2.053030 0.976626 29.000000
1.905979 -2.085554 0.978539 35.000000
1.875869 -2.101315 0.972629 39.000000
1.853042 -2.122868 0.969446 31.000000
1.842407 -2.158539 0.972839 46.000000
1.809966 -2.168789 0.964787 33.000000
1.789456 -2.193226 0.963118 29.000000
1.756964 -2.202651 0.955018 21.000000
1.739094 -2.230278 0.954949 26.000000
1.719419 -2.258589 0.955131 32.000000
1.695107 -2.278331 0.951750 32.000000
1.679071 -2.309216 0.953026 34.000000
1.668101 -2.347753 0.957422 28.000000
1.615843 -2.327932 0.938096 12.000000
1.533516 -2.264766 0.902021 22.000000
1.093125 -1.692739 0.658877 13.000000
1.033385 -1.641500 0.631772 25.000000
1.013401 -1.649276 0.627740 29.000000
0.993441 -1.656809 0.623658 27.000000
0.972269 -1.664717 0.619773 30.000000
0.952177 -1.671703 0.615715 34.000000
0.944677 -1.704125 0.620964 22.000000
1.079817 1.987861 0.739247 10.000000
1.103194 1.979227 0.743930 18.000000
1.116172 1.948989 0.740506 22.000000
1.144097 1.948131 0.748326 19.000000
1.157383 1.922501 0.746641 24.000000
1.174050 1.900142 0.746215 24.000000
1.196709 1.890348 0.750824 20.000000
1.214297 1.872329 0.752180 25.000000
1.223723 1.842247 0.748714 9.000000
1.249860 1.835037 0.754496 21.000000
1.250451 1.793197 0.746055 27.000000
1.266807 1.774684 0.747184 19.000000
1.288589 1.763659 0.751554 30.000000
1.305707 1.744085 0.752389 27.000000
1.321475 1.725070 0.753424 24.000000
1.337022 1.705842 0.754448 31.000000
1.378924 1.719682 0.770234 10.000000
1.370450 1.670677 0.757975 35.000000
1.388410 1.654603 0.760561 32.000000
1.409301 1.641897 0.764673 27.000000
1.420733 1.618286 0.763852 35.000000
1.444530 1.608699 0.769646 28.000000
1.455530 1.584814 0.768663 27.000000
1.475907 1.571160 0.772721 34.000000
1.489629 1.550436 0.773335 19.000000
1.513027 1.539642 0.779031 49.000000
1.526434 1.518607 0.779570 33.000000
1.546295 1.503922 0.783443 35.000000
1.555875 1.479309 0.782191 51.000000
1.581601 1.471191 0.789783 31.000000
1.590728 1.446275 0.788445 35.000000
1.613608 1.433780 0.793924 46.000000
1.622177 1.408677 0.792499 20.000000
1.629844 1.384087 0.791334 51.000000
1.663050 1.379849 0.801910 35.000000
1.681884 1.363173 0.805553 33.000000
1.696265 1.343928 0.807668 37.000000
1.714773 1.326773 0.811253 32.000000
1.736371 1.312708 0.816815 35.000000
1.750845 1.292274 0.818518 32.000000
1.764610 1.272123 0.820505 24.000000
1.778162 1.251759 0.822491 35.000000
1.795923 1.233475 0.825825 40.000000
1.816913 1.217917 0.831226 36.000000
1.837802 1.202037 0.836571 37.000000
1.850711 1.180809 0.838364 37.000000
1.863405 1.159366 0.840013 34.000000
1.883938 1.142693 0.845316 45.000000
1.888219 1.116121 0.843312 27.000000
1.916512 1.103488 0.852008 39.000000
1.936583 1.085846 0.857128 37.000000
1.940163 1.058862 0.855046 34.000000
1.964088 1.042928 0.861840 35.000000
1.983359 1.024716 0.867135 34.000000
2.015362 1.012149 0.877516 39.000000
2.013586 0.982903 0.873618 32.000000
2.036927 0.965474 0.880248 26.000000
2.055726 0.945956 0.885369 33.000000
2.078563 0.927993 0.892252 35.000000
2.092758 0.905965 0.895422 33.000000
2.119641 0.889013 0.904013 35.000000
2.133524 0.866341 0.907052 34.000000
2.160206 0.848519 0.915524 33.000000
2.182385 0.828573 0.922177 33.000000
2.191195 0.803601 0.923479 15.000000
2.217379 0.784525 0.931841 50.000000
2.221319 0.757623 0.931155 33.000000
2.238239 0.735017 0.936004 35.000000
2.281493 0.720525 0.951794 45.000000
2.306975 0.699671 0.960217 31.000000
2.296660 0.667953 0.953680 32.000000
2.335125 0.650270 0.967519 33.000000
2.315055 0.616340 0.957422 10.000000
2.371082 0.602460 0.978797 34.000000
2.395642 0.579485 0.986793 32.000000
2.415206 0.555218 0.993428 32.000000
2.461960 0.536405 1.010917 35.000000
2.463133 0.507215 1.009634 29.000000
2.495835 0.484316 1.021647 32.000000
2.509979 0.457382 1.026047 30.000000
2.510274 0.427817 1.024768 10.000000
2.565186 0.407080 1.045813 33.000000
2.587725 0.380383 1.054058 31.000000
2.605469 0.352645 1.060183 31.000000
2.622908 0.324504 1.066315 34.000000
2.653945 0.297598 1.077891 35.000000
2.661634 0.267739 1.080290 28.000000
2.719865 0.242121 1.102937 30.000000
2.740779 0.212458 1.110789 19.000000
2.765987 0.182678 1.120611 30.000000
2.795675 0.152530 1.131947 33.000000
2.852628 0.122944 1.154624 32.000000
2.867749 0.090674 1.160342 34.000000
2.910211 0.058741 1.177500 37.000000
2.905960 0.025449 1.175816 29.000000
2.919960 -0.007883 1.181442 30.000000
2.956844 -0.041764 1.196347 33.000000
2.965527 -0.075781 1.199902 31.000000
3.010773 -0.111382 1.218552 34.000000
3.037163 -0.147144 1.229600 29.000000
3.090886 -0.185306 1.251990 35.000000
3.116489 -0.222555 1.262722 30.000000
3.146154 -0.260820 1.275524 21.000000
3.152267 -0.297749 1.279166 31.000000
3.181206 -0.337125 1.291749 26.000000
3.237172 -0.380591 1.315658 29.000000
3.292556 -0.425322 1.339441 31.000000
3.315299 -0.466784 1.349894 30.000000
3.355968 -0.511672 1.367809 33.000000
3.395927 -0.557609 1.385815 28.000000
3.394155 -0.597248 1.386889 23.000000
3.346433 -0.628317 1.369194 29.000000
3.293992 -0.657429 1.349546 21.000000
3.272972 -0.692330 1.343184 26.000000
3.247046 -0.725687 1.334857 29.000000
3.216581 -0.757347 1.324136 27.000000
3.216900 -0.796517 1.327093 28.000000
3.181225 -0.826230 1.314752 24.000000
3.122865 -0.849128 1.292943 13.000000
3.090960 -0.878621 1.282612 28.000000
3.063330 -0.908711 1.274043 22.000000
3.035500 -0.938287 1.265383 27.000000
3.016322 -0.970197 1.260330 28.000000
2.979161 -0.995804 1.247798 24.000000
2.963837 -1.028320 1.244408 28.000000
2.934806 -1.056116 1.235805 24.000000
2.892842 -1.078129 1.221190 10.000000
2.880785 -1.111361 1.219772 30.000000
2.821005 -1.125432 1.198070 24.000000
2.821453 -1.163135 1.202073 28.000000
2.795696 -1.189999 1.194882 28.000000
2.765598 -1.214498 1.185879 25.000000
2.739605 -1.240329 1.178524 25.000000
2.713343 -1.265769 1.171187 24.000000
2.661337 -1.279009 1.153246 9.000000
2.664207 -1.317549 1.158478 29.000000
2.632799 -1.339859 1.149570 28.000000
2.614254 -1.367591 1.145535 29.000000
2.598994 -1.397823 1.143797 32.000000
