x y z intensity
1.164010 -0.070376 -0.490203 95.000000
1.144847 -0.082372 -0.482263 35.000000
1.143859 -0.095480 -0.482111 98.000000
1.156564 -0.109896 -0.487727 95.000000
1.150672 -0.122673 -0.485715 86.000000
1.153911 -0.136390 -0.487343 100.000000
1.152334 -0.149579 -0.487112 88.000000
1.150681 -0.162768 -0.486881 95.000000
1.157914 -0.177392 -0.490551 83.000000
1.105914 -0.182354 -0.468973 24.000000
1.199231 -0.211890 -0.509220 95.000000
1.251299 -0.235882 -0.531987 95.000000
1.284882 -0.257453 -0.547017 95.000000
1.318090 -0.279854 -0.562070 84.000000
1.319519 -0.295924 -0.563458 92.000000
1.320703 -0.312097 -0.564977 92.000000
1.321729 -0.328373 -0.566404 56.000000
1.322596 -0.344662 -0.567782 41.000000
1.915239 -0.593955 -0.829379 22.000000
1.952662 -0.630134 -0.847608 23.000000
1.967664 -0.659839 -0.856125 16.000000
1.977866 -0.688458 -0.862716 18.000000
1.979030 -0.714201 -0.865344 15.000000
1.945055 -0.727323 -0.853042 9.000000
1.988949 -0.769553 -0.874575 18.000000
1.967549 -0.787257 -0.867765 11.000000
1.975921 -0.816974 -0.874216 14.000000
1.958383 -0.836108 -0.869238 11.000000
1.974684 -0.869768 -0.879296 10.000000
1.981952 -0.900111 -0.885481 13.000000
1.967931 -0.920810 -0.882166 10.000000
1.953737 -0.941342 -0.878857 9.000000
1.972233 -0.978470 -0.890770 20.000000
1.969910 -1.005153 -0.892847 10.000000
1.966914 -1.032318 -0.895275 11.000000
1.955805 -1.054683 -0.893520 11.000000
1.952228 -1.081839 -0.895783 10.000000
1.948332 -1.109037 -0.897960 10.000000
1.940106 -1.133858 -0.898194 10.000000
1.935590 -1.161087 -0.900200 9.000000
1.954412 -1.202889 -0.913285 14.000000
1.925577 -1.215505 -0.904095 10.000000
1.939510 -1.255392 -0.915115 10.000000
1.941360 -1.287971 -0.920493 12.000000
1.927293 -1.310294 -0.918505 10.000000
1.935985 -1.348421 -0.927416 14.000000
1.909995 -1.362513 -0.919775 9.000000
1.905969 -1.393136 -0.923393 9.000000
1.931908 -1.445730 -0.941136 10.000000
1.912007 -1.465501 -0.937347 10.000000
1.910980 -1.498861 -0.942214 11.000000
1.912384 -1.535879 -0.949089 11.000000
1.910348 -1.569556 -0.953799 10.000000
1.903595 -1.600887 -0.956921 14.000000
1.897215 -1.631653 -0.959608 10.000000
1.893082 -1.666242 -0.964380 9.000000
1.909340 -1.719589 -0.979721 35.000000
1.874020 -1.725412 -0.967904 33.000000
1.858296 -1.750489 -0.967097 36.000000
1.842419 -1.775480 -0.966281 49.000000
1.806226 -1.780505 -0.954719 32.000000
1.789921 -1.804918 -0.953829 36.000000
1.764590 -1.818330 -0.947179 29.000000
1.731795 -1.825289 -0.937390 13.000000
1.734116 -1.869502 -0.946787 35.000000
1.710546 -1.886199 -0.942147 34.000000
1.693110 -1.909595 -0.940894 35.000000
1.660062 -1.915082 -0.931009 32.000000
1.642251 -1.937945 -0.929761 33.000000
1.627194 -1.964249 -0.930133 47.000000
1.594152 -1.968531 -0.920156 28.000000
1.569933 -1.983350 -0.915329 13.000000
1.554263 -2.009015 -0.915601 32.000000
1.542617 -2.042905 -0.919478 26.000000
1.526211 -2.068328 -0.919525 29.000000
1.495703 -2.074612 -0.911159 27.000000
1.481472 -2.103570 -0.912860 26.000000
1.456222 -2.116848 -0.907862 28.000000
1.430889 -2.129814 -0.902710 23.000000
1.414408 -2.159087 -0.904600 10.000000
1.386117 -2.167576 -0.897800 26.000000
1.370502 -2.195646 -0.899146 24.000000
1.352005 -2.219604 -0.898819 28.000000
1.326744 -2.236137 -0.895546 26.000000
1.317039 -2.276142 -0.901667 21.000000
1.292690 -2.291583 -0.897935 23.000000
1.271030 -2.315748 -0.897759 18.000000
0.458827 0.841615 -0.318152 10.000000
0.463135 0.827911 -0.316315 10.000000
0.486679 0.846808 -0.326999 20.000000
0.514885 0.873751 -0.341069 16.000000
0.546203 0.904168 -0.356842 14.000000
0.568852 0.917552 -0.366130 22.000000
0.606471 0.954818 -0.385290 18.000000
0.706908 1.086493 -0.443427 32.000000
0.747334 1.121500 -0.462968 29.000000
0.735989 1.077156 -0.449822 16.000000
0.758276 1.084051 -0.458051 31.000000
0.758857 1.059805 -0.453149 29.000000
0.778515 1.062342 -0.459693 24.000000
0.796187 1.060353 -0.464446 37.000000
0.798885 1.039828 -0.461099 26.000000
0.824567 1.048986 -0.470990 29.000000
0.815164 1.013648 -0.460856 16.000000
0.832015 1.011364 -0.465723 20.000000
0.836810 0.994444 -0.463889 40.000000
0.859790 0.998901 -0.472107 31.000000
0.876775 0.995881 -0.476985 32.000000
0.893784 0.992631 -0.481841 46.000000
0.898118 0.975227 -0.479911 32.000000
0.915104 0.971570 -0.484745 41.000000
0.919116 0.954056 -0.482751 22.000000
0.916260 0.929919 -0.477261 26.000000
0.943017 0.935676 -0.487184 66.000000
0.943103 0.914819 -0.483344 35.000000
0.973437 0.923120 -0.495054 46.000000
0.976207 0.905701 -0.493065 72.000000
1.006920 0.913109 -0.504765 36.000000
1.023889 0.907510 -0.509539 58.000000
1.756101 1.453287 -0.856203 12.000000
1.052422 0.793684 -0.500522 51.000000
1.031054 0.759127 -0.487327 56.000000
1.035372 0.744527 -0.486673 21.000000
1.039465 0.729971 -0.486011 36.000000
1.043707 0.715047 -0.485134 80.000000
1.055237 0.705608 -0.487961 51.000000
1.054976 0.688348 -0.485403 74.000000
1.066326 0.678699 -0.488194 75.000000
1.073646 0.666377 -0.489145 63.000000
1.076811 0.651517 -0.488246 98.000000
1.067799 0.629607 -0.481906 32.000000
1.082698 0.621868 -0.486388 76.000000
1.081315 0.604767 -0.483570 95.000000
1.083800 0.590039 -0.482561 78.000000
1.094303 0.579643 -0.485153 82.000000
1.083884 0.558613 -0.478737 67.000000
1.089961 0.546020 -0.479416 95.000000
1.095758 0.533547 -0.480256 95.000000
1.097390 0.518846 -0.479060 48.000000
1.098700 0.504321 -0.477978 63.000000
1.104095 0.491705 -0.478693 89.000000
1.096571 0.473483 -0.473836 75.000000
1.105917 0.462649 -0.476349 74.000000
1.106611 0.448189 -0.475130 74.000000
1.107109 0.433750 -0.473828 76.000000
1.107454 0.419332 -0.472522 86.000000
1.107529 0.405092 -0.471328 42.000000
1.111909 0.392302 -0.471793 87.000000
1.111701 0.378095 -0.470515 98.000000
1.120125 0.366799 -0.472917 95.000000
1.128465 0.355364 -0.475285 98.000000
1.127799 0.341064 -0.473886 98.000000
1.127027 0.326828 -0.472445 95.000000
1.130540 0.313857 -0.472831 98.000000
1.133860 0.300963 -0.473294 83.000000
1.132531 0.286853 -0.471846 71.000000
1.131139 0.272731 -0.470242 95.000000
1.133973 0.259824 -0.470740 95.000000
1.136731 0.246841 -0.471046 89.000000
1.143913 0.234712 -0.473192 95.000000
1.146374 0.221677 -0.473538 95.000000
1.139603 0.206909 -0.470085 98.000000
1.128076 0.191537 -0.464708 45.000000
1.130111 0.178609 -0.464896 95.000000
1.131958 0.165719 -0.465198 98.000000
1.129102 0.152173 -0.463540 91.000000
1.135274 0.139827 -0.465613 95.000000
1.136744 0.126824 -0.465763 100.000000
1.138026 0.113859 -0.465952 98.000000
1.139232 0.100819 -0.466027 98.000000
1.131054 0.087067 -0.462328 73.000000
1.141116 0.074775 -0.466291 95.000000
1.132661 0.061235 -0.462515 95.000000
1.128634 0.048103 -0.460739 95.000000
1.133708 0.035328 -0.462627 95.000000
1.138636 0.022484 -0.464628 96.000000
1.134157 0.009458 -0.462777 98.000000
1.148082 -0.003557 -0.468444 99.000000
1.157265 -0.016785 -0.472145 100.000000
1.161664 -0.030142 -0.473919 103.000000
1.161281 -0.043393 -0.473880 105.000000
1.165369 -0.056871 -0.475653 100.000000
1.155434 -0.069656 -0.471840 86.000000
1.145396 -0.082155 -0.467876 95.000000
1.149064 -0.095632 -0.469611 100.000000
1.138666 -0.107867 -0.465801 98.000000
1.142065 -0.121359 -0.467422 100.000000
1.140703 -0.134414 -0.467271 100.000000
1.139152 -0.147432 -0.467081 98.000000
1.142111 -0.161096 -0.468699 98.000000
1.172383 -0.178984 -0.481562 83.000000
1.257214 -0.206661 -0.517052 95.000000
1.305102 -0.229853 -0.537385 87.000000
1.311636 -0.246489 -0.540791 72.000000
1.304366 -0.260523 -0.538475 85.000000
1.301432 -0.275456 -0.538169 92.000000
1.298367 -0.290346 -0.537775 92.000000
1.331317 -0.313564 -0.552180 68.000000
1.341264 -0.332213 -0.557477 92.000000
1.990177 -0.565735 -0.831895 21.000000
2.023881 -0.600409 -0.847918 21.000000
2.021719 -0.624968 -0.848877 19.000000
2.032434 -0.653754 -0.855411 21.000000
2.025275 -0.676916 -0.854358 24.000000
2.009131 -0.696966 -0.849595 19.000000
2.001304 -0.720028 -0.848687 9.000000
2.010887 -0.749298 -0.854900 20.000000
2.006974 -0.774022 -0.855691 16.000000
2.011303 -0.802217 -0.860169 20.000000
2.006783 -0.827027 -0.860874 22.000000
1.993384 -0.848223 -0.857822 16.000000
2.013873 -0.884060 -0.869409 21.000000
1.995727 -0.903248 -0.864367 17.000000
1.977449 -0.922099 -0.859337 9.000000
1.992310 -0.957016 -0.869099 18.000000
1.998635 -0.987952 -0.874883 17.000000
1.987672 -1.010975 -0.873567 16.000000
1.989162 -1.040033 -0.877346 16.000000
1.977615 -1.062980 -0.875949 12.000000
1.998476 -1.103801 -0.888992 22.000000
1.974127 -1.119856 -0.881989 10.000000
1.973877 -1.149634 -0.885777 9.000000
1.969246 -1.177073 -0.887741 10.000000
1.956334 -1.199746 -0.886014 10.000000
1.970843 -1.239581 -0.896793 16.000000
1.973056 -1.272236 -0.902140 16.000000
1.966954 -1.300027 -0.903723 10.000000
1.956642 -1.325146 -0.903582 12.000000
1.953331 -1.355992 -0.907153 10.000000
1.946269 -1.383698 -0.908612 9.000000
1.942637 -1.414096 -0.911751 10.000000
1.941789 -1.448022 -0.916949 10.000000
1.955966 -1.492779 -0.928783 16.000000
1.935665 -1.512691 -0.924934 15.000000
1.930452 -1.543491 -0.927803 11.000000
1.927786 -1.577833 -0.932640 16.000000
1.913842 -1.603245 -0.932197 10.000000
1.925315 -1.649267 -0.943464 9.000000
1.942322 -1.702622 -0.958550 25.000000
1.913016 -1.715761 -0.950906 32.000000
1.876754 -1.722146 -0.939744 34.000000
1.851763 -1.736853 -0.933393 35.000000
1.832694 -1.758316 -0.930834 34.000000
1.799969 -1.766456 -0.921412 38.000000
1.783947 -1.790679 -0.920501 35.000000
1.780724 -1.828118 -0.926321 23.000000
1.738058 -1.824916 -0.911681 34.000000
1.718184 -1.845117 -0.908900 33.000000
1.698064 -1.864991 -0.906119 55.000000
1.677781 -1.884620 -0.903257 35.000000
1.669702 -1.918213 -0.907114 35.000000
1.627481 -1.912378 -0.892427 37.000000
1.618883 -1.945658 -0.896174 30.000000
1.621628 -1.993604 -0.906448 30.000000
1.579538 -1.986469 -0.891769 27.000000
1.566800 -2.015872 -0.893604 29.000000
1.545089 -2.033951 -0.890467 31.000000
1.524788 -2.056318 -0.889219 29.000000
1.502707 -2.073934 -0.886076 26.000000
1.480460 -2.091219 -0.882768 33.000000
1.460738 -2.112145 -0.881082 25.000000
1.457877 -2.161172 -0.891037 25.000000
1.421736 -2.158223 -0.879535 23.000000
1.403782 -2.182601 -0.879329 21.000000
1.383055 -2.202836 -0.877499 27.000000
1.358091 -2.219506 -0.874315 22.000000
1.341760 -2.247469 -0.875555 24.000000
1.315452 -2.258868 -0.870354 24.000000
1.287384 -2.270714 -0.865501 17.000000
1.281503 -2.318898 -0.874429 21.000000
0.459654 0.838860 -0.308235 9.000000
0.464463 0.824865 -0.306322 20.000000
0.499365 0.864725 -0.324600 18.000000
0.526044 0.887191 -0.336645 27.000000
0.552686 0.909487 -0.348906 21.000000
0.574841 0.923219 -0.358092 21.000000
0.623590 0.976171 -0.382888 30.000000
0.714439 1.092010 -0.433212 37.000000
0.733941 1.095482 -0.439593 23.000000
0.743601 1.082623 -0.439491 34.000000
0.749645 1.066204 -0.437912 29.000000
0.752673 1.045981 -0.434712 33.000000
0.772221 1.048664 -0.441059 36.000000
0.777727 1.032081 -0.439434 33.000000
0.806697 1.045143 -0.450455 34.000000
0.823714 1.043159 -0.455270 35.000000
0.820007 1.015206 -0.448643 26.000000
0.815820 0.987428 -0.442004 35.000000
0.829456 0.981567 -0.445088 41.000000
0.849262 0.982616 -0.451424 54.000000
0.862921 0.976293 -0.454497 67.000000
0.870789 0.962349 -0.454067 43.000000
0.881153 0.952194 -0.455452 60.000000
0.914082 0.965933 -0.468465 35.000000
0.924538 0.955261 -0.469842 32.000000
0.918289 0.927757 -0.462822 46.000000
0.931658 0.920374 -0.465808 65.000000
0.944588 0.913127 -0.468973 75.000000
0.964771 0.911801 -0.475264 62.000000
0.981580 0.906914 -0.479891 70.000000
0.994952 0.898627 -0.482842 86.000000
1.064668 0.939879 -0.512934 27.000000
1.799398 1.518304 -0.855437 18.000000
1.805113 1.488316 -0.852290 20.000000
1.792116 1.443622 -0.840543 21.000000
1.733598 1.365120 -0.808315 26.000000
1.063321 0.762124 -0.484214 36.000000
1.071708 0.749651 -0.485151 53.000000
1.056492 0.721532 -0.475800 81.000000
1.064490 0.709160 -0.476634 95.000000
1.072072 0.696913 -0.477675 91.000000
1.079528 0.684624 -0.478633 90.000000
1.078897 0.667286 -0.476078 83.000000
1.086092 0.654881 -0.476987 80.000000
1.093163 0.642351 -0.477897 84.000000
1.079773 0.618161 -0.469932 46.000000
1.090554 0.607977 -0.472514 95.000000
1.097113 0.595388 -0.473288 91.000000
1.099458 0.580536 -0.472286 95.000000
1.105749 0.567831 -0.473017 95.000000
1.103397 0.551074 -0.470306 98.000000
1.105197 0.536305 -0.469167 95.000000
1.111056 0.523504 -0.469809 95.000000
1.103857 0.504996 -0.465204 61.000000
1.104987 0.490486 -0.464126 93.000000
1.105917 0.475995 -0.463003 82.000000
1.115459 0.464995 -0.465312 88.000000
1.120439 0.452191 -0.465904 95.000000
1.125300 0.439347 -0.466497 89.000000
1.125561 0.424935 -0.465405 91.000000
1.130128 0.412022 -0.465916 98.000000
1.130218 0.397484 -0.464581 60.000000
1.134414 0.384622 -0.465169 95.000000
1.147352 0.374573 -0.469343 100.000000
1.142453 0.358661 -0.466228 98.000000
1.141797 0.344258 -0.464883 98.000000
1.149982 0.332505 -0.467130 100.000000
1.149063 0.318086 -0.465703 98.000000
1.156963 0.306113 -0.467875 95.000000
1.151150 0.290657 -0.464701 50.000000
1.149697 0.276456 -0.463266 88.000000
1.152643 0.263317 -0.463615 94.000000
1.155433 0.250140 -0.463925 80.000000
1.158108 0.236924 -0.464235 95.000000
1.151450 0.221984 -0.460926 95.000000
1.153795 0.208872 -0.461234 95.000000
1.155987 0.195721 -0.461503 95.000000
1.153468 0.181808 -0.459863 61.000000
1.146177 0.167289 -0.456389 98.000000
1.147924 0.154219 -0.456617 98.000000
1.154137 0.141716 -0.458641 95.000000
1.151002 0.128041 -0.456958 98.000000
1.152294 0.114933 -0.457186 100.000000
1.153472 0.101825 -0.457338 98.000000
1.159134 0.089035 -0.459290 95.000000
1.150769 0.075192 -0.455691 45.000000
1.146883 0.061848 -0.453891 98.000000
1.152131 0.048967 -0.455804 95.000000
1.143328 0.035547 -0.452129 95.000000
1.157575 0.022797 -0.457756 98.000000
1.157727 0.009613 -0.457794 98.000000
1.176363 -0.003629 -0.465148 100.000000
1.157689 -0.016756 -0.457718 98.000000
1.180703 -0.030502 -0.466793 100.000000
1.180277 -0.043951 -0.466754 105.000000
1.179773 -0.057400 -0.466638 100.000000
1.179036 -0.070848 -0.466599 100.000000
1.154991 -0.082600 -0.457338 52.000000
1.158676 -0.096130 -0.459023 103.000000
1.148309 -0.108455 -0.455161 98.000000
1.151724 -0.122000 -0.456768 98.000000
1.154938 -0.135651 -0.458450 98.000000
1.148798 -0.148216 -0.456389 98.000000
1.420817 -0.249519 -0.566965 100.000000
1.344883 -0.251938 -0.537343 95.000000
1.351232 -0.269054 -0.540547 95.000000
1.366425 -0.288300 -0.547485 98.000000
1.349588 -0.300825 -0.541648 95.000000
1.350767 -0.317253 -0.543017 72.000000
2.000585 -0.542466 -0.808640 13.000000
2.021435 -0.572903 -0.818855 23.000000
2.046380 -0.605206 -0.830726 21.000000
2.044124 -0.629920 -0.831629 21.000000
2.046138 -0.656019 -0.834339 20.000000
2.047738 -0.682179 -0.836899 22.000000
2.044727 -0.706946 -0.837644 20.000000
2.050037 -0.735103 -0.842134 17.000000
2.011236 -0.747177 -0.828598 14.000000
2.029293 -0.779961 -0.838055 20.000000
2.038106 -0.809964 -0.844173 26.000000
2.024824 -0.831499 -0.841232 18.000000
2.032711 -0.862119 -0.847468 21.000000
2.031811 -0.888958 -0.849747 22.000000
2.030613 -0.915919 -0.851942 16.000000
2.033350 -0.944897 -0.855908 16.000000
1.997590 -0.956158 -0.844052 10.000000
2.012109 -0.991553 -0.853491 18.000000
2.009681 -1.018484 -0.855429 16.000000
2.010867 -1.048061 -0.859348 16.000000
2.040545 -1.093236 -0.875631 21.000000
2.007971 -1.105371 -0.865291 12.000000
2.016149 -1.139914 -0.872610 15.000000
2.007734 -1.165300 -0.872708 13.000000
1.986900 -1.183441 -0.867530 10.000000
2.001905 -1.223297 -0.878065 19.000000
1.992496 -1.248566 -0.878056 17.000000
1.986822 -1.276381 -0.879708 16.000000
2.012048 -1.324764 -0.895202 21.000000
2.004996 -1.353461 -0.897032 18.000000
1.986494 -1.373548 -0.893250 14.000000
1.986401 -1.407499 -0.898367 14.000000
1.959880 -1.421803 -0.891048 10.000000
1.992952 -1.480951 -0.911560 21.000000
1.958364 -1.489341 -0.900625 16.000000
1.978870 -1.540905 -0.915775 17.000000
1.969761 -1.569086 -0.916752 21.000000
1.955982 -1.594874 -0.916332 19.000000
1.956414 -1.632633 -0.922631 18.000000
1.956934 -1.669896 -0.928471 17.000000
1.942032 -1.695609 -0.927827 16.000000
1.923385 -1.718102 -0.925486 32.000000
1.887111 -1.724466 -0.914556 57.000000
1.833733 -1.714097 -0.895355 36.000000
1.811540 -1.731987 -0.891158 47.000000
1.796809 -1.755494 -0.889987 42.000000
1.774280 -1.772819 -0.885801 55.000000
1.754879 -1.793276 -0.883203 37.000000
1.732135 -1.810080 -0.878869 29.000000
1.725346 -1.843797 -0.882796 60.000000
1.702076 -1.860151 -0.878457 49.000000
1.677743 -1.876919 -0.874372 63.000000
1.651192 -1.889160 -0.868336 60.000000
1.627702 -1.904526 -0.863870 41.000000
1.616177 -1.934093 -0.865832 42.000000
1.589289 -1.945309 -0.859666 34.000000
1.583153 -1.982029 -0.864817 25.000000
1.564720 -2.003835 -0.863399 30.000000
1.544895 -2.026366 -0.862297 31.000000
1.525889 -2.047897 -0.860775 32.000000
1.506720 -2.069165 -0.859241 32.000000
1.481888 -2.082522 -0.854442 29.000000
1.456892 -2.095652 -0.849737 35.000000
1.438495 -2.120993 -0.849930 28.000000
1.418458 -2.141431 -0.848202 23.000000
1.403413 -2.169575 -0.849585 31.000000
1.383829 -2.194547 -0.849709 29.000000
1.358009 -2.206328 -0.844743 29.000000
1.337090 -2.225956 -0.842878 27.000000
1.307124 -2.233906 -0.836636 27.000000
1.297539 -2.273651 -0.842339 30.000000
1.271606 -2.289429 -0.839066 24.000000
0.539551 1.005400 -0.355057 6.000000
0.472523 0.856648 -0.305736 9.000000
0.474516 0.838687 -0.302494 14.000000
0.507938 0.874092 -0.318666 18.000000
0.536673 0.900967 -0.332034 14.000000
0.565999 0.927294 -0.345500 19.000000
0.591570 0.944591 -0.355842 18.000000
0.652983 1.017884 -0.387767 30.000000
0.724581 1.101389 -0.424359 36.000000
0.722915 1.073291 -0.418276 11.000000
0.742386 1.076694 -0.424484 28.000000
0.738010 1.044378 -0.416577 34.000000
0.768585 1.062795 -0.428976 30.000000
0.765744 1.034858 -0.422735 36.000000
0.779609 1.029753 -0.425789 33.000000
0.791189 1.020374 -0.427117 31.000000
0.813858 1.026072 -0.434914 40.000000
0.815842 1.005629 -0.431645 19.000000
0.814438 0.981619 -0.426716 49.000000
0.831079 0.979406 -0.431294 42.000000
0.842120 0.969399 -0.432535 35.000000
0.852499 0.959681 -0.433899 44.000000
0.872347 0.960313 -0.440082 49.000000
0.885895 0.953663 -0.443031 67.000000
0.902651 0.950285 -0.447606 65.000000
0.919470 0.946589 -0.452157 25.000000
0.916359 0.922527 -0.446976 77.000000
0.929714 0.915227 -0.449865 65.000000
0.939611 0.904446 -0.451086 90.000000
0.963141 0.906488 -0.458905 93.000000
0.976442 0.898492 -0.461745 71.000000
1.003767 0.902914 -0.471183 57.000000
1.813289 1.559696 -0.839842 14.000000
1.823089 1.532507 -0.838533 15.000000
1.839810 1.511317 -0.840536 27.000000
1.834245 1.472193 -0.832453 18.000000
1.809002 1.419412 -0.816262 20.000000
1.775887 1.361088 -0.796257 25.000000
1.096743 0.746222 -0.477889 93.000000
1.085117 0.720692 -0.470430 84.000000
1.084919 0.703152 -0.468040 95.000000
1.088709 0.688010 -0.467133 95.000000
1.100067 0.678017 -0.469803 94.000000
1.103342 0.663008 -0.469014 95.000000
1.098291 0.643220 -0.464747 62.000000
1.101160 0.628322 -0.463857 95.000000
1.103813 0.613394 -0.462959 82.000000
1.102165 0.596244 -0.460291 95.000000
1.112754 0.585759 -0.462792 100.000000
1.106566 0.566546 -0.458340 84.000000
1.121110 0.558029 -0.462491 98.000000
1.122959 0.543072 -0.461409 95.000000
1.132965 0.532321 -0.463958 88.000000
1.117426 0.509520 -0.455829 63.000000
1.122823 0.496847 -0.456549 95.000000
1.123834 0.482206 -0.455523 86.000000
1.124765 0.467426 -0.454254 91.000000
1.125419 0.452863 -0.453139 74.000000
1.134644 0.441718 -0.455444 95.000000
1.139365 0.428744 -0.456000 62.000000
1.143887 0.415851 -0.456674 75.000000
1.148370 0.402759 -0.457150 95.000000
1.152734 0.389587 -0.457626 95.000000
1.165759 0.379391 -0.461706 100.000000
1.156363 0.361966 -0.456933 95.000000
1.164716 0.350113 -0.459174 95.000000
1.168445 0.336862 -0.459610 98.000000
1.167547 0.322288 -0.458237 95.000000
1.170985 0.308969 -0.458593 86.000000
1.165159 0.293368 -0.455522 45.000000
1.177427 0.282254 -0.459344 83.000000
1.175834 0.267818 -0.457925 84.000000
1.174139 0.253447 -0.456464 95.000000
1.181385 0.241009 -0.458555 81.000000
1.179315 0.226742 -0.457130 95.000000
1.177109 0.212500 -0.455664 95.000000
1.170122 0.197546 -0.452375 71.000000
1.167600 0.183527 -0.450826 94.000000
1.160285 0.168901 -0.447454 95.000000
1.162047 0.155726 -0.447684 95.000000
1.163656 0.142513 -0.447875 98.000000
1.165149 0.129261 -0.448028 98.000000
1.171137 0.116472 -0.449929 98.000000
1.167677 0.102796 -0.448335 95.000000
1.173367 0.089863 -0.450236 89.000000
1.169630 0.076216 -0.448526 79.000000
1.184346 0.063717 -0.454003 82.000000
1.171009 0.049636 -0.448603 83.000000
1.171507 0.036346 -0.448641 98.000000
1.167107 0.022964 -0.446968 95.000000
1.204651 0.009999 -0.461310 98.000000
1.190682 -0.003619 -0.455907 100.000000
1.190604 -0.017159 -0.455869 103.000000
1.195039 -0.030781 -0.457539 100.000000
1.189943 -0.044163 -0.455674 98.000000
1.189359 -0.057703 -0.455713 98.000000
1.193359 -0.071484 -0.457344 98.000000
1.178525 -0.084043 -0.451868 67.000000
1.177560 -0.097400 -0.451714 95.000000
1.167141 -0.109881 -0.447952 95.000000
1.175167 -0.124114 -0.451405 98.000000
1.964439 -0.321047 -0.758188 18.000000
1.372284 -0.288666 -0.532379 78.000000
1.396461 -0.310314 -0.542653 95.000000
1.829783 -0.450436 -0.713564 42.000000
1.974295 -0.509740 -0.771196 18.000000
2.054359 -0.555420 -0.804109 14.000000
2.070758 -0.585107 -0.812173 23.000000
2.068718 -0.609944 -0.813165 16.000000
2.075454 -0.637561 -0.817537 23.000000
2.063987 -0.659642 -0.814786 18.000000
2.070108 -0.687452 -0.819070 19.000000
2.071351 -0.714111 -0.821728 21.000000
2.080989 -0.744054 -0.827815 10.000000
2.042251 -0.756150 -0.814332 12.000000
2.068870 -0.792760 -0.827331 23.000000
2.055781 -0.814563 -0.824430 16.000000
2.046850 -0.837898 -0.823278 21.000000
2.037488 -0.861377 -0.822341 17.000000
2.053833 -0.895739 -0.831482 13.000000
2.065515 -0.928546 -0.838853 17.000000
2.042358 -0.946362 -0.832471 10.000000
2.049112 -0.977438 -0.837931 14.000000
2.055101 -1.009196 -0.843590 23.000000
2.052309 -1.036958 -0.845776 18.000000
2.061694 -1.071181 -0.852972 18.000000
2.058118 -1.099170 -0.855053 18.000000
2.054294 -1.127197 -0.856971 14.000000
2.054235 -1.157489 -0.860515 20.000000
2.021186 -1.169166 -0.850351 10.000000
2.020493 -1.199341 -0.853806 10.000000
2.051610 -1.249196 -0.870874 24.000000
2.026000 -1.265039 -0.863978 16.000000
2.043497 -1.308818 -0.876010 19.000000
2.029325 -1.331966 -0.874120 15.000000
2.022726 -1.360208 -0.875532 14.000000
2.026928 -1.397040 -0.882227 21.000000
2.011845 -1.419863 -0.880152 10.000000
2.011310 -1.454203 -0.885035 10.000000
2.018432 -1.493695 -0.892834 16.000000
2.001841 -1.516955 -0.890882 13.000000
2.014799 -1.563250 -0.902272 19.000000
1.998124 -1.585869 -0.899796 18.000000
1.995184 -1.620796 -0.904369 23.000000
1.995445 -1.658913 -0.910400 21.000000
1.995124 -1.697198 -0.916475 10.000000
1.987858 -1.728765 -0.918704 15.000000
1.937115 -1.723332 -0.901541 29.000000
1.893725 -1.723358 -0.887647 33.000000
1.836818 -1.709691 -0.867283 51.000000
1.804406 -1.717800 -0.858337 35.000000
1.782201 -1.735168 -0.854300 35.000000
1.766611 -1.758972 -0.853432 50.000000
1.747473 -1.779156 -0.850939 29.000000
1.744488 -1.816249 -0.856415 35.000000
1.724762 -1.836218 -0.853817 50.000000
1.688851 -1.838501 -0.843139 35.000000
1.681576 -1.871901 -0.846865 70.000000
1.652014 -1.880420 -0.839341 37.000000
1.639929 -1.910874 -0.841679 58.000000
1.619349 -1.929591 -0.838924 63.000000
1.595515 -1.944395 -0.834514 32.000000
1.574651 -1.962511 -0.831602 25.000000
1.556474 -1.984201 -0.830255 29.000000
1.545586 -2.017842 -0.833897 30.000000
1.523953 -2.035393 -0.830876 34.000000
1.499430 -2.048944 -0.826308 29.000000
1.477512 -2.065974 -0.823212 32.000000
1.456850 -2.087476 -0.821978 29.000000
1.437327 -2.107981 -0.820406 28.000000
1.422754 -2.136228 -0.821791 23.000000
1.401251 -2.157248 -0.820349 27.000000
1.383367 -2.181199 -0.820162 29.000000
1.351283 -2.185575 -0.812662 27.000000
1.333018 -2.209122 -0.812292 26.000000
1.316919 -2.236645 -0.813477 26.000000
1.289227 -2.248359 -0.808916 25.000000
1.277017 -2.283863 -0.812936 19.000000
1.269359 -2.332899 -0.821580 10.000000
0.564373 1.044472 -0.357946 6.000000
0.484901 0.874703 -0.302931 9.000000
0.497090 0.872928 -0.305534 10.000000
0.518308 0.887839 -0.314088 10.000000
0.554655 0.926988 -0.331503 10.000000
0.582536 0.948767 -0.343015 10.000000
0.615376 0.978472 -0.357705 14.000000
0.685872 1.063300 -0.393076 19.000000
0.741834 1.123120 -0.419885 22.000000
0.726982 1.075076 -0.406572 16.000000
0.736302 1.062398 -0.406442 13.000000
0.747549 1.053921 -0.407931 26.000000
0.764313 1.053035 -0.412441 24.000000
0.778945 1.047652 -0.415290 23.000000
0.775649 1.019750 -0.409189 31.000000
0.804028 1.033390 -0.419785 18.000000
0.821541 1.031184 -0.424106 25.000000
0.805480 0.988561 -0.411716 24.000000
0.819035 0.982973 -0.414648 19.000000
0.823375 0.966294 -0.412910 32.000000
0.843585 0.967181 -0.418744 27.000000
0.860251 0.964592 -0.423174 24.000000
0.867385 0.951163 -0.422941 41.000000
0.877558 0.941197 -0.424265 26.000000
0.897516 0.941373 -0.430257 35.000000
0.901008 0.924250 -0.428362 17.000000
0.910969 0.913833 -0.429607 25.000000
0.920806 0.903333 -0.430852 36.000000
0.937401 0.899272 -0.435233 32.000000
0.954056 0.894928 -0.439589 33.000000
0.970726 0.890299 -0.443962 46.000000
1.851253 1.586272 -0.828812 10.000000
1.839438 1.540588 -0.817949 10.000000
1.848903 1.513243 -0.816649 10.000000
1.865393 1.491821 -0.818575 13.000000
1.862488 1.456299 -0.812607 10.000000
1.825763 1.394536 -0.791634 10.000000
1.841039 1.373327 -0.793265 14.000000
1.771506 1.291265 -0.759268 9.000000
1.109900 0.716791 -0.462921 37.000000
1.101583 0.694085 -0.457277 71.000000
1.125281 0.691156 -0.464673 34.000000
1.112446 0.666225 -0.457298 90.000000
1.123693 0.655930 -0.459846 24.000000
1.106145 0.629146 -0.450673 33.000000
1.117023 0.618781 -0.453169 95.000000
1.111241 0.599295 -0.448929 35.000000
1.121873 0.588766 -0.451343 92.000000
1.124041 0.573777 -0.450402 82.000000
1.126040 0.558803 -0.449414 60.000000
1.136309 0.547974 -0.451751 95.000000
1.129452 0.528941 -0.447301 30.000000
1.152206 0.523954 -0.454832 41.000000
1.157912 0.510737 -0.455407 72.000000
1.159005 0.495753 -0.454409 41.000000
1.142679 0.473461 -0.446453 77.000000
1.139008 0.456957 -0.443655 74.000000
1.148249 0.445715 -0.445955 60.000000
1.157447 0.434294 -0.448219 95.000000
1.170940 0.424333 -0.452153 29.000000
1.153329 0.403235 -0.444098 55.000000
1.166479 0.393184 -0.448114 95.000000
1.170717 0.379871 -0.448553 86.000000
1.165747 0.363840 -0.445645 81.000000
1.174134 0.351937 -0.447837 94.000000
1.182390 0.339933 -0.449993 87.000000
1.181461 0.325254 -0.448673 98.000000
1.184966 0.311793 -0.449032 37.000000
1.179206 0.296046 -0.445947 54.000000
1.191418 0.284871 -0.449788 60.000000
1.176139 0.267212 -0.443287 37.000000
1.188216 0.255775 -0.446935 95.000000
1.186266 0.241403 -0.445603 69.000000
1.193433 0.228822 -0.447607 67.000000
1.195804 0.215306 -0.447923 95.000000
1.179632 0.198557 -0.441161 29.000000
1.177099 0.184485 -0.439663 78.000000
1.183601 0.171826 -0.441705 95.000000
1.176132 0.157160 -0.438395 92.000000
1.182408 0.144410 -0.440322 95.000000
1.183920 0.131000 -0.440477 95.000000
1.175944 0.116664 -0.437124 98.000000
1.181807 0.103731 -0.439013 98.000000
1.173499 0.089659 -0.435696 49.000000
1.211849 0.078764 -0.449662 94.000000
1.217322 0.065302 -0.451517 95.000000
1.213272 0.051297 -0.449780 89.000000
1.213786 0.037584 -0.449820 98.000000
1.214102 0.023831 -0.449899 92.000000
1.209572 0.010039 -0.448201 96.000000
1.204923 -0.003647 -0.446464 100.000000
1.200156 -0.017227 -0.444648 98.000000
1.199922 -0.030820 -0.444531 95.000000
1.208903 -0.044761 -0.447965 100.000000
1.212995 -0.058648 -0.449701 100.000000
1.198242 -0.071562 -0.444336 95.000000
1.188067 -0.084452 -0.440748 95.000000
1.187059 -0.097901 -0.440593 98.000000
1.181305 -0.110873 -0.438666 95.000000
1.952752 -0.295502 -0.728283 26.000000
2.014304 -0.328162 -0.752037 9.000000
1.968924 -0.343733 -0.736218 27.000000
1.854441 -0.345407 -0.694189 31.000000
1.869632 -0.436547 -0.704154 32.000000
1.983373 -0.486733 -0.748187 24.000000
1.991571 -0.512747 -0.752746 10.000000
2.081104 -0.561003 -0.788136 13.000000
2.065830 -0.582059 -0.783935 10.000000
2.086453 -0.613368 -0.793450 18.000000
2.079741 -0.636964 -0.792531 13.000000
2.081701 -0.663272 -0.794962 15.000000
2.110009 -0.698789 -0.807844 19.000000
2.106875 -0.724062 -0.808467 14.000000
2.085563 -0.743268 -0.802416 9.000000
2.064139 -0.762028 -0.796377 13.000000
2.090925 -0.798805 -0.808901 11.000000
2.099634 -0.829394 -0.814600 21.000000
2.094907 -0.854902 -0.815122 14.000000
2.085366 -0.878902 -0.814168 12.000000
2.088771 -0.908017 -0.817917 13.000000
2.078653 -0.931871 -0.816809 10.000000
2.051440 -0.947388 -0.808667 9.000000
2.079235 -0.988954 -0.822636 11.000000
2.068266 -1.012681 -0.821367 10.000000
2.095010 -1.055256 -0.835193 17.000000
2.083308 -1.079116 -0.833825 14.000000
2.063135 -1.098396 -0.829038 10.000000
2.084183 -1.139952 -0.840872 16.000000
2.067614 -1.161253 -0.837668 10.000000
2.058959 -1.187095 -0.837718 9.000000
2.062277 -1.220003 -0.842739 10.000000
2.049022 -1.243335 -0.841034 10.000000
2.071124 -1.289423 -0.854435 15.000000
2.045224 -1.305156 -0.847673 10.000000
2.046912 -1.338630 -0.852373 10.000000
2.043742 -1.370074 -0.855640 11.000000
2.052321 -1.409091 -0.863484 10.000000
2.059828 -1.449045 -0.871525 9.000000
2.036056 -1.467267 -0.866472 10.000000
2.027947 -1.495647 -0.867459 10.000000
2.037772 -1.538937 -0.876956 10.000000
2.024540 -1.565231 -0.876599 10.000000
2.026422 -1.602525 -0.882285 13.000000
2.016118 -1.631725 -0.883426 14.000000
2.020017 -1.673006 -0.890901 11.000000
2.041332 -1.729847 -0.906348 10.000000
2.015206 -1.747004 -0.900821 10.000000
1.956965 -1.735529 -0.880862 11.000000
1.902822 -1.726004 -0.862589 29.000000
1.845731 -1.712284 -0.842813 28.000000
1.809810 -1.717109 -0.832550 30.000000
1.784299 -1.731128 -0.826985 35.000000
1.768799 -1.754860 -0.826160 32.000000
1.766397 -1.791952 -0.831602 29.000000
1.743611 -1.808590 -0.827531 32.000000
1.710960 -1.814621 -0.818710 29.000000
1.694555 -1.837581 -0.817701 34.000000
1.671547 -1.853313 -0.813583 33.000000
1.651520 -1.872299 -0.810940 32.000000
1.624080 -1.884639 -0.805456 33.000000
1.600744 -1.899434 -0.801208 29.000000
1.595491 -1.935882 -0.806149 30.000000
1.574744 -1.953975 -0.803414 23.000000
1.561468 -1.983861 -0.805400 22.000000
1.543186 -2.005267 -0.804084 28.000000
1.513198 -2.011340 -0.796641 23.000000
1.496124 -2.036912 -0.796989 24.000000
1.474370 -2.053895 -0.794078 28.000000
1.446973 -2.062742 -0.788101 20.000000
1.434556 -2.095659 -0.791311 23.000000
1.412232 -2.111894 -0.788226 16.000000
1.402889 -2.147803 -0.792521 23.000000
1.381203 -2.168550 -0.791123 26.000000
1.348200 -2.167908 -0.782145 18.000000
1.336150 -2.204327 -0.786508 21.000000
1.315311 -2.223578 -0.784671 18.000000
1.284569 -2.226056 -0.777116 15.000000
1.271222 -2.262248 -0.781292 16.000000
1.258744 -2.297724 -0.785161 9.000000
0.556591 1.024897 -0.340532 7.000000
0.511343 0.917891 -0.308169 8.000000
0.497816 0.870047 -0.295246 11.000000
0.531193 0.905728 -0.310642 10.000000
0.566001 0.940376 -0.326015 10.000000
0.580919 0.942068 -0.330201 16.000000
0.640106 1.011963 -0.358658 10.000000
0.692397 1.068976 -0.383114 21.000000
0.754639 1.136417 -0.411914 27.000000
0.763909 1.123849 -0.412029 14.000000
0.737540 1.060126 -0.393201 29.000000
0.743854 1.043522 -0.391597 21.000000
0.763304 1.046602 -0.397428 28.000000
0.768671 1.030217 -0.395931 32.000000
0.774404 1.013431 -0.394210 21.000000
0.796881 1.019641 -0.401521 37.000000
0.807715 1.010544 -0.402927 28.000000
0.837137 1.023069 -0.413074 18.000000
0.823550 0.984245 -0.402498 35.000000
0.830916 0.971181 -0.402352 26.000000
0.853818 0.976047 -0.409685 34.000000
0.855237 0.955226 -0.406275 35.000000
0.862241 0.941942 -0.406032 32.000000
0.885320 0.945957 -0.413379 62.000000
0.895447 0.935830 -0.414624 27.000000
0.915478 0.935745 -0.420456 29.000000
0.905355 0.905067 -0.412473 42.000000
0.918938 0.897638 -0.415036 31.000000
0.938896 0.896948 -0.420856 62.000000
0.955509 0.892651 -0.425072 69.000000
1.000257 0.913717 -0.441747 65.000000
1.788196 1.526482 -0.773135 9.000000
1.888594 1.575831 -0.811114 10.000000
1.886647 1.539720 -0.805476 18.000000
1.899687 1.515000 -0.805859 10.000000
1.904944 1.484298 -0.802924 19.000000
1.906002 1.450904 -0.798386 10.000000
1.910382 1.420377 -0.795405 10.000000
1.925395 1.398930 -0.797397 14.000000
1.905922 1.351959 -0.784681 8.000000
1.905082 1.319202 -0.779881 12.000000
1.891638 1.279062 -0.770482 21.000000
1.101898 0.674919 -0.439851 95.000000
1.101186 0.657321 -0.437373 49.000000
1.100037 0.640074 -0.434966 73.000000
1.115121 0.632220 -0.439027 67.000000
1.117763 0.617281 -0.438231 67.000000
1.120231 0.602311 -0.437388 98.000000
1.118339 0.585162 -0.434828 95.000000
1.120402 0.570267 -0.433930 95.000000
1.135041 0.561673 -0.437888 98.000000
1.136836 0.546703 -0.436906 93.000000
1.142743 0.533707 -0.437517 95.000000
1.161433 0.526520 -0.443051 39.000000
1.149706 0.505812 -0.437218 78.000000
1.133512 0.483401 -0.429517 95.000000
1.129924 0.466971 -0.426858 95.000000
1.165658 0.466320 -0.438882 90.000000
1.135442 0.439501 -0.426273 95.000000
1.131289 0.423320 -0.423477 71.000000
1.135820 0.410508 -0.424023 81.000000
1.166919 0.406896 -0.434441 43.000000
1.180258 0.396669 -0.438201 100.000000
1.175474 0.380471 -0.435441 95.000000
1.184054 0.368479 -0.437504 98.000000
1.187946 0.355116 -0.437986 100.000000
1.182656 0.339074 -0.435093 100.000000
1.186280 0.325692 -0.435531 95.000000
1.189745 0.312231 -0.435889 98.000000
1.183948 0.296441 -0.432905 61.000000
1.187110 0.283005 -0.433182 86.000000
1.185479 0.268566 -0.431903 98.000000
1.188313 0.255181 -0.432218 95.000000
1.191030 0.241718 -0.432533 100.000000
1.193588 0.228214 -0.432769 98.000000
1.195990 0.214751 -0.433123 98.000000
1.193629 0.200428 -0.431601 95.000000
1.223663 0.191303 -0.441918 68.000000
1.197707 0.173409 -0.432033 100.000000
1.194805 0.159258 -0.430625 100.000000
1.201119 0.146311 -0.432503 105.000000
1.197969 0.132227 -0.430977 100.000000
1.199336 0.118672 -0.431094 100.000000
1.200586 0.105117 -0.431172 100.000000
1.206334 0.091920 -0.432974 100.000000
1.226066 0.079492 -0.439792 67.000000
1.179818 0.063156 -0.423095 98.000000
1.222797 0.051575 -0.438266 100.000000
1.218568 0.037623 -0.436620 100.000000
1.195353 0.023409 -0.428268 103.000000
1.219082 0.010117 -0.436738 98.000000
1.219121 -0.003675 -0.436738 100.000000
1.228455 -0.017563 -0.440031 100.000000
1.214099 -0.031061 -0.434855 103.000000
1.213666 -0.044800 -0.434816 95.000000
1.213115 -0.058500 -0.434777 98.000000
1.212406 -0.072200 -0.434619 98.000000
1.202148 -0.085195 -0.431172 32.000000
1.215248 -0.099947 -0.436067 95.000000
2.095283 -0.244043 -0.753525 24.000000
2.120574 -0.271211 -0.763202 26.000000
2.108198 -0.293811 -0.759357 19.000000
2.114201 -0.319080 -0.762370 23.000000
2.119966 -0.344421 -0.765242 20.000000
2.102079 -0.366003 -0.759862 10.000000
2.139753 -0.397384 -0.774324 22.000000
2.135312 -0.421564 -0.773830 22.000000
2.139812 -0.447603 -0.776614 22.000000
2.144058 -0.473779 -0.779321 23.000000
2.134277 -0.496886 -0.776939 16.000000
2.142405 -0.524372 -0.781381 20.000000
2.145752 -0.550925 -0.784074 17.000000
2.080474 -0.559256 -0.761690 10.000000
2.096962 -0.589132 -0.769248 18.000000
2.095001 -0.614074 -0.770065 17.000000
2.115352 -0.645934 -0.779114 21.000000
2.135094 -0.678551 -0.788357 21.000000
2.127701 -0.702469 -0.787342 18.000000
2.137798 -0.732723 -0.793095 21.000000
2.134131 -0.758423 -0.793799 14.000000
2.090352 -0.769550 -0.779561 10.000000
2.126034 -0.809904 -0.795047 21.000000
2.117134 -0.833880 -0.793944 18.000000
2.125360 -0.865124 -0.799568 21.000000
2.115942 -0.889003 -0.798382 19.000000
2.101746 -0.911225 -0.795703 10.000000
2.117707 -0.946398 -0.804123 13.000000
2.111510 -0.972424 -0.804635 13.000000
2.087965 -0.990297 -0.798535 9.000000
2.111052 -1.030614 -0.810385 21.000000
2.103901 -1.056624 -0.810648 16.000000
2.104879 -1.086993 -0.814156 18.000000
2.097131 -1.113062 -0.814402 17.000000
2.089105 -1.138995 -0.814489 10.000000
2.101442 -1.176503 -0.822651 15.000000
2.100937 -1.207266 -0.825938 12.000000
2.083735 -1.228533 -0.822687 9.000000
2.102419 -1.272079 -0.834141 22.000000
2.088560 -1.295758 -0.832320 16.000000
2.102122 -1.337553 -0.842021 15.000000
2.083706 -1.358562 -0.838577 16.000000
2.080386 -1.390334 -0.841758 11.000000
2.096776 -1.435037 -0.852467 15.000000
2.080827 -1.459082 -0.850668 10.000000
2.053078 -1.474582 -0.844117 9.000000
2.075523 -1.525613 -0.857800 17.000000
2.073869 -1.560806 -0.862199 10.000000
2.067871 -1.593201 -0.864914 16.000000
2.080154 -1.640385 -0.875451 18.000000
2.047322 -1.652211 -0.867062 13.000000
2.062798 -1.702075 -0.878657 18.000000
2.051332 -1.731744 -0.879536 10.000000
2.053948 -1.773745 -0.886611 10.000000
2.013140 -1.778298 -0.874967 17.000000
1.901995 -1.718260 -0.832483 23.000000
1.858785 -1.717294 -0.819398 35.000000
1.812364 -1.712339 -0.804838 42.000000
1.783465 -1.722966 -0.797924 35.000000
1.763988 -1.743875 -0.795857 48.000000
1.744987 -1.763908 -0.793472 32.000000
1.725908 -1.783703 -0.791088 28.000000
1.716417 -1.813643 -0.793164 72.000000
1.690351 -1.825996 -0.787668 45.000000
1.673878 -1.848727 -0.786623 57.000000
1.659290 -1.875504 -0.787388 55.000000
1.629737 -1.883425 -0.780340 34.000000
1.609505 -1.901824 -0.777711 66.000000
1.583026 -1.912628 -0.772034 30.000000
1.570452 -1.942337 -0.774094 25.000000
1.555630 -1.967548 -0.774330 35.000000
1.537564 -1.988793 -0.772996 29.000000
1.515171 -2.006932 -0.770508 37.000000
1.490902 -2.020100 -0.766239 33.000000
1.469433 -2.036842 -0.763355 26.000000
1.454787 -2.065884 -0.765139 33.000000
1.430079 -2.078295 -0.760715 25.000000
1.400030 -2.082455 -0.753506 24.000000
1.379230 -2.103012 -0.752220 33.000000
1.367380 -2.134614 -0.754965 26.000000
1.345865 -2.154823 -0.753561 30.000000
1.330629 -2.182229 -0.754736 25.000000
1.313501 -2.210378 -0.756122 24.000000
1.290192 -2.225100 -0.752932 28.000000
1.262723 -2.236214 -0.748670 17.000000
1.273788 -2.313599 -0.766388 9.000000
0.557845 1.022082 -0.328902 7.000000
0.491056 0.877222 -0.285264 9.000000
0.510432 0.887966 -0.291828 10.000000
0.539888 0.914943 -0.303936 15.000000
0.564348 0.933514 -0.313469 13.000000
0.601973 0.972032 -0.329966 18.000000
0.648842 1.021558 -0.350645 17.000000
0.704106 1.082592 -0.375777 26.000000
0.732147 1.098137 -0.385502 36.000000
0.738278 1.081903 -0.384156 24.000000
0.731118 1.045597 -0.375564 26.000000
0.747698 1.045076 -0.379819 34.000000
0.756519 1.032335 -0.379665 29.000000
0.776019 1.035242 -0.385291 33.000000
0.784063 1.022624 -0.385259 30.000000
0.798431 1.017073 -0.387886 31.000000
0.809225 1.008009 -0.389246 36.000000
0.810786 0.987724 -0.386265 21.000000
0.812593 0.967119 -0.383053 31.000000
0.838450 0.976036 -0.391580 62.000000
0.842523 0.959287 -0.389973 32.000000
0.862331 0.960384 -0.395590 52.000000
0.876276 0.953685 -0.398172 37.000000
0.883218 0.940237 -0.397939 32.000000
0.896579 0.933589 -0.400612 61.000000
0.906586 0.923375 -0.401811 26.000000
0.910157 0.905929 -0.399872 40.000000
0.930144 0.905532 -0.405493 69.000000
0.939856 0.894907 -0.406614 77.000000
0.959957 0.893909 -0.412273 95.000000
1.919498 1.633752 -0.801378 18.000000
1.922527 1.599529 -0.797321 18.000000
1.925131 1.565480 -0.793154 20.000000
1.919698 1.525606 -0.785906 21.000000
1.921240 1.491924 -0.781595 18.000000
1.960208 1.487117 -0.792508 23.000000
1.956719 1.451016 -0.786875 19.000000
1.953237 1.414565 -0.780893 14.000000
1.953177 1.381147 -0.776344 14.000000
1.956482 1.350555 -0.773239 16.000000
1.931334 1.302011 -0.759569 18.000000
1.921717 1.264134 -0.751671 26.000000
1.125124 0.652891 -0.429714 35.000000
1.124009 0.635300 -0.427241 95.000000
1.130815 0.622559 -0.428030 95.000000
1.129134 0.605251 -0.425624 95.000000
1.131396 0.590285 -0.424787 98.000000
1.133528 0.575291 -0.423903 98.000000
1.139703 0.562409 -0.424598 98.000000
1.145756 0.549487 -0.425252 98.000000
1.160280 0.540445 -0.429044 95.000000
1.170449 0.529214 -0.431253 95.000000
1.171816 0.513995 -0.430238 95.000000
1.168533 0.497102 -0.427706 87.000000
1.169551 0.481966 -0.426639 95.000000
1.170285 0.467050 -0.425650 82.000000
1.153265 0.445169 -0.418127 98.000000
1.158004 0.432146 -0.418685 98.000000
1.184896 0.427071 -0.427193 83.000000
1.189442 0.413677 -0.427720 98.000000
1.198355 0.401747 -0.429776 100.000000
1.189160 0.383778 -0.425391 98.000000
1.193188 0.370404 -0.425914 98.000000
1.197176 0.356869 -0.426277 98.000000
1.200963 0.343414 -0.426720 98.000000
1.204629 0.329839 -0.427163 100.000000
1.208133 0.316223 -0.427526 95.000000
1.197710 0.299129 -0.423026 95.000000
1.200936 0.285588 -0.423305 95.000000
1.208536 0.273130 -0.425326 98.000000
1.211454 0.259417 -0.425566 98.000000
1.209578 0.244847 -0.424260 95.000000
1.207523 0.230301 -0.422873 98.000000
1.209903 0.216693 -0.423230 98.000000
1.212204 0.203046 -0.423389 91.000000
1.233029 0.192272 -0.430144 98.000000
1.235043 0.178374 -0.430345 100.000000
1.232251 0.163813 -0.428916 98.000000
1.219861 0.148218 -0.424222 100.000000
1.240159 0.136560 -0.430909 98.000000
1.213351 0.119756 -0.421273 103.000000
1.214571 0.106096 -0.421431 103.000000
1.243945 0.094545 -0.431272 88.000000
1.230765 0.079611 -0.426451 100.000000
1.231522 0.065752 -0.426570 100.000000
1.232159 0.051893 -0.426690 100.000000
1.237400 0.038139 -0.428365 100.000000
1.237760 0.024187 -0.428325 98.000000
1.237920 0.010234 -0.428365 100.000000
1.242685 -0.003692 -0.430000 95.000000
1.223705 -0.017428 -0.423420 89.000000
1.223429 -0.031221 -0.423381 85.000000
1.218272 -0.044840 -0.421707 98.000000
1.227200 -0.058994 -0.424857 98.000000
1.235921 -0.073400 -0.427965 95.000000
2.091777 -0.219118 -0.726004 28.000000
2.131520 -0.247519 -0.740341 26.000000
2.138126 -0.272684 -0.743185 26.000000
2.135065 -0.296829 -0.742907 23.000000
2.145749 -0.322944 -0.747374 21.000000
2.132773 -0.345595 -0.743629 10.000000
2.147502 -0.372888 -0.749786 17.000000
2.152651 -0.398738 -0.752403 22.000000
2.162119 -0.425711 -0.756781 23.000000
2.162055 -0.450995 -0.757835 23.000000
2.147758 -0.473401 -0.754092 18.000000
2.160938 -0.501805 -0.759864 22.000000
2.159952 -0.527258 -0.760910 19.000000
2.158654 -0.552816 -0.761882 10.000000
2.138835 -0.573431 -0.756315 19.000000
2.137107 -0.598774 -0.757144 21.000000
2.139609 -0.625403 -0.759511 16.000000
2.155277 -0.656519 -0.766847 20.000000
2.148159 -0.680633 -0.765903 20.000000
2.145103 -0.706373 -0.766711 21.000000
2.150757 -0.735205 -0.770654 20.000000
2.142627 -0.759375 -0.769702 10.000000
2.143170 -0.786810 -0.771880 15.000000
2.143422 -0.814224 -0.774048 18.000000
2.151978 -0.845526 -0.779552 20.000000
2.160308 -0.876780 -0.784741 25.000000
2.146252 -0.899422 -0.782172 16.000000
2.140789 -0.925353 -0.782488 16.000000
2.134909 -0.951456 -0.782950 17.000000
2.141614 -0.983519 -0.788165 10.000000
2.139344 -1.011842 -0.790119 16.000000
2.132492 -1.038055 -0.790482 19.000000
2.142335 -1.072786 -0.797076 23.000000
2.126327 -1.094810 -0.794114 20.000000
2.143695 -1.134265 -0.803740 18.000000
2.122956 -1.153902 -0.799118 19.000000
2.126959 -1.187001 -0.803833 19.000000
2.138452 -1.225513 -0.811967 10.000000
2.112863 -1.242286 -0.805620 13.000000
2.111605 -1.273346 -0.808562 18.000000
2.125719 -1.315000 -0.818022 20.000000
2.119541 -1.343848 -0.819280 21.000000
2.112527 -1.373280 -0.820846 13.000000
2.132938 -1.421109 -0.833141 19.000000
2.125499 -1.450239 -0.834251 16.000000
2.105585 -1.471784 -0.830978 10.000000
2.097008 -1.501301 -0.832237 10.000000
2.099660 -1.539272 -0.838078 18.000000
2.102259 -1.576842 -0.843549 19.000000
2.111347 -1.621062 -0.852284 19.000000
2.112246 -1.659831 -0.857842 23.000000
2.094002 -1.683841 -0.855776 20.000000
2.097578 -1.725760 -0.862706 22.000000
2.089645 -1.758799 -0.865061 13.000000
2.077637 -1.788715 -0.865799 17.000000
2.050913 -1.805926 -0.860514 19.000000
1.935527 -1.742991 -0.817717 18.000000
1.856860 -1.709951 -0.790078 35.000000
1.820839 -1.714578 -0.780371 44.000000
1.791971 -1.725192 -0.773677 62.000000
1.766402 -1.738764 -0.768490 63.000000
1.750128 -1.762823 -0.767987 35.000000
1.737743 -1.789357 -0.768551 37.000000
1.724972 -1.815882 -0.769097 77.000000
1.689110 -1.817799 -0.759383 70.000000
1.675029 -1.844599 -0.760083 74.000000
1.652057 -1.859863 -0.756165 54.000000
1.635200 -1.882043 -0.755075 70.000000
1.608808 -1.893111 -0.749642 54.000000
1.590564 -1.915564 -0.748865 36.000000
1.558015 -1.918544 -0.740506 32.000000
1.546483 -1.947200 -0.742119 35.000000
1.524547 -1.965336 -0.739743 35.000000
1.500742 -1.978542 -0.735630 46.000000
1.485431 -2.003082 -0.735773 36.000000
1.474230 -2.036001 -0.738954 36.000000
1.447017 -2.044638 -0.733346 34.000000
1.426806 -2.065553 -0.732197 32.000000
1.410313 -2.089474 -0.732113 29.000000
1.381637 -2.097953 -0.726690 33.000000
1.359372 -2.113435 -0.723817 32.000000
1.338224 -2.133467 -0.722563 33.000000
1.320779 -2.156619 -0.722271 31.000000
1.308017 -2.187819 -0.724771 35.000000
1.285854 -2.207341 -0.723384 28.000000
1.277684 -2.251873 -0.730047 29.000000
1.260952 -2.278794 -0.730981 10.000000
0.542796 0.989580 -0.308103 6.000000
0.494659 0.878051 -0.276239 9.000000
0.523130 0.905833 -0.288004 10.000000
0.552887 0.932774 -0.299755 10.000000
0.577606 0.951232 -0.309017 10.000000
0.634012 1.017946 -0.334313 12.000000
0.665402 1.043278 -0.346465 17.000000
0.719158 1.099815 -0.369326 32.000000
0.736050 1.099689 -0.373459 27.000000
0.737418 1.075093 -0.369309 25.000000
0.729368 1.039226 -0.361139 24.000000
0.748697 1.042683 -0.366628 24.000000
0.760308 1.033843 -0.367850 32.000000
0.768338 1.021407 -0.367771 25.000000
0.779662 1.012315 -0.368989 32.000000
0.796320 1.011052 -0.373072 35.000000
0.813593 1.009122 -0.377010 25.000000
0.815104 0.988824 -0.374084 24.000000
0.819431 0.972279 -0.372575 30.000000
0.830228 0.962614 -0.373667 35.000000
0.843629 0.956830 -0.376295 50.000000
0.857027 0.950813 -0.378932 33.000000
0.877368 0.951320 -0.384261 73.000000
0.884216 0.937863 -0.384028 37.000000
0.900921 0.934747 -0.388041 34.000000
0.904164 0.917710 -0.386367 33.000000
0.907220 0.900701 -0.384595 36.000000
0.924154 0.896694 -0.388461 93.000000
0.937230 0.889481 -0.391017 84.000000
1.009907 0.937397 -0.418228 108.000000
1.772772 1.538720 -0.718789 54.000000
1.865859 1.583437 -0.751406 21.000000
1.945489 1.613976 -0.778293 24.000000
1.955584 1.585760 -0.777280 22.000000
1.965225 1.557472 -0.776173 24.000000
1.974577 1.529194 -0.775051 20.000000
1.968333 1.489325 -0.767895 16.000000
1.976828 1.461168 -0.766575 21.000000
1.981094 1.430156 -0.763750 16.000000
1.961543 1.382759 -0.751936 10.000000
1.988376 1.368461 -0.757965 20.000000
1.979065 1.330185 -0.750732 20.000000
1.969638 1.291835 -0.743156 22.000000
1.947593 1.246172 -0.731023 24.000000
1.879981 1.173853 -0.702367 26.000000
1.139638 0.625514 -0.416065 98.000000
1.150544 0.614928 -0.418342 95.000000
1.148662 0.597532 -0.415994 100.000000
1.150807 0.582433 -0.415167 98.000000
1.157051 0.569408 -0.415870 98.000000
1.154587 0.552194 -0.413417 98.000000
1.164853 0.541145 -0.415613 81.000000
1.188047 0.535783 -0.422355 46.000000
1.189460 0.520373 -0.421397 73.000000
1.190706 0.505061 -0.420393 95.000000
1.191745 0.489724 -0.419385 80.000000
1.188081 0.472852 -0.416906 86.000000
1.193211 0.459347 -0.417357 95.000000
1.193642 0.444268 -0.416378 95.000000
1.202857 0.432462 -0.418465 75.000000
1.193988 0.414204 -0.414286 95.000000
1.202918 0.402276 -0.416332 100.000000
1.202715 0.387213 -0.415179 100.000000
1.206855 0.373657 -0.415584 95.000000
1.210873 0.360019 -0.415990 98.000000
1.210122 0.345119 -0.414871 95.000000
1.222921 0.333994 -0.418410 100.000000
1.221872 0.319025 -0.417249 95.000000
1.216069 0.302970 -0.414434 84.000000
