x y z intensity
1.218399 1.192798 0.415399 36.000000
1.234600 1.182607 0.417871 52.000000
1.261395 1.182140 0.423923 34.000000
1.281646 1.174196 0.427397 59.000000
1.297771 1.163124 0.429851 31.000000
1.317945 1.154621 0.433293 62.000000
1.333969 1.143071 0.435708 47.000000
1.346232 1.128157 0.436923 23.000000
1.362081 1.116152 0.439293 51.000000
1.374433 1.100477 0.440290 37.000000
1.401506 1.097091 0.446318 35.000000
1.417173 1.084358 0.448657 54.000000
1.436561 1.074274 0.452225 35.000000
1.444616 1.054873 0.451903 36.000000
1.467770 1.047158 0.456656 35.000000
1.483042 1.033468 0.458965 23.000000
1.502209 1.022301 0.462456 41.000000
1.513195 1.005421 0.463428 48.000000
1.524067 0.988426 0.464458 34.000000
1.551080 0.981678 0.470396 57.000000
1.574083 0.971845 0.475052 46.000000
1.588723 0.956682 0.477231 44.000000
1.615767 0.948604 0.483159 50.000000
1.617639 0.925607 0.481602 26.000000
1.665735 0.928668 0.493702 73.000000
1.684281 0.914529 0.497115 62.000000
1.689671 0.893596 0.496884 39.000000
1.712282 0.881253 0.501447 77.000000
1.721816 0.861941 0.502237 56.000000
1.744034 0.849225 0.507002 61.000000
1.783817 0.844065 0.516599 64.000000
1.788450 0.822185 0.516202 26.000000
1.810641 0.807976 0.520758 36.000000
1.841398 0.797439 0.527932 41.000000
1.876693 0.788154 0.536400 40.000000
1.903019 0.774502 0.542339 55.000000
1.924811 0.758548 0.546951 37.000000
1.941942 0.740506 0.550229 35.000000
1.958950 0.722197 0.553513 34.000000
1.971215 0.701934 0.555521 21.000000
2.001596 0.687717 0.562538 50.000000
2.022775 0.669884 0.567063 66.000000
2.039046 0.650345 0.570379 43.000000
2.064551 0.633164 0.576074 49.000000
2.085136 0.614273 0.580627 62.000000
2.128844 0.601572 0.591579 43.000000
2.121287 0.574096 0.588259 50.000000
2.197531 0.568567 0.608226 21.000000
2.208244 0.545197 0.610023 38.000000
2.260999 0.531672 0.623635 56.000000
2.276002 0.508677 0.626818 51.000000
2.304999 0.488328 0.633828 60.000000
2.324413 0.465482 0.638174 52.000000
2.329358 0.439559 0.638624 10.000000
2.348264 0.416089 0.642903 9.000000
2.400183 0.397826 0.656378 10.000000
2.442578 0.377031 0.667188 29.000000
2.465597 0.352577 0.672872 10.000000
2.512367 0.330769 0.684849 9.000000
2.544483 0.306271 0.693081 9.000000
2.571714 0.280530 0.699852 9.000000
2.627413 0.257074 0.714549 9.000000
2.658849 0.230360 0.722724 18.000000
2.728584 0.205825 0.741194 34.000000
2.774004 0.178242 0.753223 66.000000
2.838409 0.150719 0.770402 80.000000
2.863955 0.120094 0.777033 63.000000
2.908544 0.089618 0.788990 73.000000
2.933403 0.057705 0.795532 13.000000
2.996598 0.025584 0.812732 9.000000
3.078727 -0.007983 0.834980 57.000000
3.121862 -0.042846 0.846660 78.000000
3.097050 -0.076998 0.840117 95.000000
3.057490 -0.109994 0.829552 76.000000
3.022393 -0.142457 0.820297 67.000000
3.020671 -0.176133 0.820201 86.000000
2.999309 -0.208376 0.814684 26.000000
2.943924 -0.237475 0.800112 8.000000
2.893157 -0.265745 0.786763 10.000000
2.861229 -0.294926 0.778649 9.000000
2.853069 -0.326208 0.777070 10.000000
2.825403 -0.354886 0.770180 9.000000
2.792660 -0.382466 0.762080 9.000000
2.783608 -0.412680 0.760241 10.000000
2.774215 -0.442876 0.758582 15.000000
2.793033 -0.477762 0.764562 30.000000
2.787659 -0.508842 0.764203 95.000000
2.767709 -0.537163 0.759852 92.000000
2.742822 -0.564017 0.754117 85.000000
2.736539 -0.594461 0.753497 95.000000
2.715781 -0.621585 0.748984 86.000000
2.699524 -0.649437 0.745686 95.000000
2.682965 -0.677080 0.742480 64.000000
2.638092 -0.697112 0.731510 28.000000
2.569812 -0.709625 0.714005 10.000000
2.571261 -0.740853 0.715831 10.000000
2.563061 -0.769341 0.715070 21.000000
2.591412 -0.809521 0.724710 80.000000
2.577898 -0.836672 0.722479 82.000000
2.568653 -0.865434 0.721709 95.000000
2.549943 -0.890838 0.718368 61.000000
2.485521 -0.899508 0.702112 10.000000
2.615887 -0.979679 0.741021 16.000000
2.731328 -1.057559 0.775901 14.000000
2.948560 -1.179544 0.839997 10.000000
2.993715 -1.236212 0.855391 9.000000
2.993462 -1.275020 0.857989 9.000000
2.970744 -1.304301 0.854108 9.000000
2.942988 -1.331597 0.849168 9.000000
2.932796 -1.366256 0.849010 8.000000
2.917688 -1.399024 0.847785 10.000000
2.885123 -1.422724 0.841194 10.000000
2.869294 -1.454992 0.839976 14.000000
2.840289 -1.480348 0.834874 10.000000
2.811529 -1.504711 0.829381 10.000000
2.811903 -1.545509 0.832999 13.000000
2.769513 -1.562701 0.824057 9.000000
2.769027 -1.603280 0.827561 8.000000
2.755539 -1.636616 0.827298 10.000000
2.733322 -1.664906 0.824434 10.000000
2.727389 -1.703060 0.826555 16.000000
2.667852 -1.707350 0.812510 10.000000
2.665293 -1.747712 0.815773 8.000000
2.630031 -1.766626 0.809018 10.000000
2.562769 -1.762914 0.792508 12.000000
2.511776 -1.769097 0.780891 10.000000
2.520045 -1.816897 0.787655 45.000000
2.468310 -1.822521 0.776279 38.000000
2.463884 -1.861643 0.779337 81.000000
2.451339 -1.894886 0.779834 76.000000
2.457394 -1.943146 0.786406 36.000000
2.458132 -1.989448 0.792018 46.000000
2.451492 -2.029080 0.794775 29.000000
2.418360 -2.046703 0.789048 14.000000
2.432935 -2.105158 0.798906 33.000000
2.412897 -2.136095 0.798186 29.000000
2.404192 -2.175770 0.800752 34.000000
2.376269 -2.199891 0.797518 33.000000
2.349028 -2.222710 0.793985 28.000000
2.335620 -2.258651 0.795111 30.000000
2.289685 -2.264697 0.785957 25.000000
2.275656 -2.300249 0.787074 10.000000
2.253323 -2.329554 0.786017 30.000000
2.245093 -2.371933 0.789346 29.000000
2.221939 -2.401033 0.788261 29.000000
2.209320 -2.439787 0.790364 32.000000
2.182152 -2.464889 0.787988 29.000000
2.152831 -2.484972 0.784142 18.000000
2.059068 -2.431463 0.757384 18.000000
2.039491 -2.461444 0.756990 14.000000
1.846743 -2.280388 0.692563 10.000000
1.761027 -2.225036 0.667457 11.000000
1.671889 -2.159477 0.639873 15.000000
1.609733 -2.127999 0.622955 17.000000
1.532289 -2.071088 0.599096 13.000000
1.472194 -2.037120 0.582327 17.000000
1.393411 -1.974282 0.557788 15.000000
1.336696 -1.937203 0.541031 10.000000
1.326067 -1.968629 0.543580 30.000000
1.310770 -1.991039 0.543574 29.000000
1.272872 -1.981349 0.534914 30.000000
1.263859 -2.016530 0.538441 30.000000
1.242786 -2.030156 0.536207 26.000000
1.222724 -2.048493 0.535217 26.000000
1.207403 -2.075099 0.536398 24.000000
1.202729 -2.117796 0.541670 9.000000
0.820230 1.472886 0.388205 8.000000
0.850996 1.488652 0.396548 15.000000
0.861488 1.470848 0.396004 26.000000
0.877724 1.460754 0.397552 22.000000
0.896460 1.454645 0.400242 28.000000
0.906369 1.436558 0.399665 28.000000
0.916953 1.417789 0.398910 25.000000
0.918300 1.387392 0.394780 33.000000
0.944563 1.392796 0.400876 28.000000
0.962700 1.385808 0.403464 22.000000
0.954679 1.343461 0.395766 32.000000
0.992404 1.363835 0.406535 30.000000
0.986392 1.325531 0.399838 32.000000
1.006911 1.321847 0.403599 32.000000
1.021470 1.310158 0.404956 30.000000
1.047355 1.314025 0.411223 35.000000
1.077219 1.320749 0.418505 27.000000
1.081818 1.297566 0.416468 29.000000
1.086653 1.274009 0.414194 34.000000
1.100130 1.261954 0.415615 33.000000
1.126997 1.263698 0.421712 47.000000
1.146899 1.258300 0.425575 32.000000
1.167438 1.252165 0.429292 60.000000
1.177344 1.235674 0.429473 36.000000
1.200649 1.232934 0.434541 32.000000
1.210879 1.215633 0.434506 30.000000
1.216875 1.195337 0.433394 49.000000
1.216163 1.167841 0.429637 36.000000
1.239179 1.164198 0.434626 78.000000
1.273054 1.169990 0.443363 34.000000
1.275212 1.145574 0.440771 65.000000
1.312932 1.153629 0.450754 61.000000
1.325271 1.138921 0.452021 48.000000
1.318975 1.108480 0.446956 29.000000
1.346265 1.105554 0.453021 36.000000
1.358130 1.090448 0.454230 47.000000
1.373635 1.078164 0.456648 48.000000
1.392933 1.068628 0.460341 37.000000
1.404454 1.052953 0.461449 63.000000
1.416141 1.036723 0.462391 35.000000
1.458786 1.043324 0.473713 29.000000
1.481881 1.035211 0.478628 35.000000
1.497059 1.021214 0.480938 39.000000
1.508102 1.004333 0.482025 70.000000
1.523025 0.989972 0.484343 62.000000
1.541912 0.977992 0.487900 36.000000
1.560681 0.965656 0.491467 58.000000
1.583522 0.955571 0.496341 46.000000
1.597793 0.940488 0.498750 33.000000
1.616363 0.927246 0.502231 32.000000
1.634862 0.913697 0.505781 36.000000
1.661705 0.904454 0.511832 44.000000
1.692654 0.897272 0.519451 79.000000
1.702407 0.878190 0.520239 41.000000
1.716047 0.861394 0.522581 52.000000
1.725399 0.841960 0.523371 52.000000
1.764892 0.837241 0.533503 36.000000
1.778356 0.819298 0.535564 29.000000
1.800359 0.805319 0.540395 47.000000
1.826663 0.792903 0.546562 34.000000
1.843994 0.776225 0.550032 37.000000
1.887996 0.770147 0.561474 34.000000
1.918672 0.757895 0.568895 35.000000
1.931338 0.738064 0.570944 49.000000
1.952820 0.721472 0.575662 29.000000
1.974147 0.704379 0.580389 33.000000
1.981714 0.682276 0.581053 44.000000
2.011810 0.667761 0.588538 36.000000
2.037281 0.651271 0.594633 52.000000
2.062744 0.634033 0.600537 75.000000
2.097159 0.619179 0.609273 33.000000
2.122275 0.601013 0.615270 42.000000
2.142648 0.581033 0.619863 32.000000
2.176735 0.564439 0.628643 34.000000
2.201488 0.544694 0.634602 46.000000
2.249341 0.530127 0.647314 37.000000
2.236189 0.500796 0.642501 54.000000
2.288581 0.485807 0.656518 67.000000
2.317296 0.464958 0.663722 37.000000
2.303322 0.435533 0.658761 9.000000
2.331625 0.414029 0.666050 8.000000
2.388129 0.396730 0.681325 14.000000
2.458937 0.380319 0.700762 90.000000
2.477173 0.354913 0.705145 53.000000
2.514299 0.331707 0.715040 32.000000
2.527312 0.304795 0.718076 20.000000
2.549512 0.278716 0.723912 9.000000
2.605117 0.255415 0.739019 9.000000
2.660419 0.230939 0.754301 10.000000
2.720365 0.205652 0.770956 40.000000
2.756051 0.177448 0.780562 59.000000
2.820262 0.150028 0.798419 73.000000
2.860151 0.120206 0.809482 56.000000
2.894902 0.089378 0.819189 57.000000
2.910159 0.057328 0.823363 10.000000
3.011651 0.025790 0.852039 14.000000
3.055046 -0.007945 0.864288 73.000000
3.107672 -0.042682 0.879260 92.000000
3.068506 -0.076421 0.868274 87.000000
3.043492 -0.109724 0.861373 83.000000
3.022916 -0.142719 0.855738 88.000000
2.997173 -0.175005 0.848745 67.000000
2.956680 -0.205847 0.837864 26.000000
2.901481 -0.234482 0.822533 9.000000
2.879639 -0.265028 0.816911 9.000000
2.843017 -0.293665 0.807215 9.000000
2.825322 -0.323654 0.802687 9.000000
2.821625 -0.355127 0.802327 9.000000
2.769981 -0.380058 0.788396 9.000000
2.756116 -0.409495 0.785329 9.000000
2.770531 -0.443281 0.790309 13.000000
2.779780 -0.476590 0.793929 42.000000
2.760301 -0.504841 0.789331 71.000000
2.749882 -0.534702 0.787533 89.000000
2.729700 -0.562514 0.782943 72.000000
2.718724 -0.591882 0.780974 95.000000
2.688735 -0.616751 0.773606 84.000000
2.667874 -0.643268 0.768860 58.000000
2.665323 -0.674194 0.769599 82.000000
2.629988 -0.696336 0.760736 29.000000
2.561894 -0.708951 0.742559 10.000000
2.558688 -0.738841 0.743144 12.000000
2.545891 -0.765890 0.740958 18.000000
2.578754 -0.807311 0.752440 77.000000
2.565271 -0.834497 0.750159 85.000000
2.542434 -0.858329 0.745205 71.000000
2.542010 -0.889900 0.747028 71.000000
2.504937 -0.908447 0.738166 25.000000
2.576104 -0.966856 0.761322 13.000000
2.722728 -1.056635 0.806971 20.000000
2.845289 -1.140774 0.845755 9.000000
2.952928 -1.222184 0.880446 9.000000
2.970610 -1.268314 0.888412 9.000000
2.947880 -1.297451 0.884435 9.000000
2.955568 -1.340126 0.889618 9.000000
2.896983 -1.352991 0.875286 8.000000
2.890907 -1.389239 0.876405 10.000000
2.888456 -1.428123 0.879135 15.000000
2.855658 -1.451385 0.872250 10.000000
2.852378 -1.490104 0.874766 18.000000
2.797926 -1.501123 0.861356 10.000000
2.794040 -1.539536 0.863770 10.000000
2.793799 -1.580308 0.867577 12.000000
2.738772 -1.589851 0.854233 9.000000
2.750697 -1.637267 0.861528 17.000000
2.699616 -1.647894 0.849533 20.000000
2.652869 -1.660243 0.838773 22.000000
2.634576 -1.689906 0.837092 30.000000
2.571580 -1.690184 0.821230 34.000000
2.565039 -1.726953 0.823340 64.000000
2.558028 -1.763894 0.825433 83.000000
2.511062 -1.772931 0.814603 34.000000
2.519077 -1.820800 0.821705 76.000000
2.510130 -1.858177 0.823961 49.000000
2.509095 -1.900770 0.828352 43.000000
2.503624 -1.940633 0.831443 37.000000
2.482535 -1.968418 0.829344 35.000000
2.472420 -2.005145 0.831034 32.000000
2.464722 -2.045820 0.834167 34.000000
2.442499 -2.073195 0.831945 29.000000
2.409006 -2.090748 0.825962 35.000000
2.390002 -2.120709 0.824899 35.000000
2.373305 -2.154510 0.825379 32.000000
2.367821 -2.197245 0.829272 36.000000
2.347622 -2.226735 0.828069 34.000000
2.322649 -2.253542 0.825928 30.000000
2.291509 -2.272404 0.820915 33.000000
2.252493 -2.284817 0.813762 24.000000
2.251505 -2.333987 0.819815 35.000000
2.229823 -2.362318 0.818382 34.000000
2.210024 -2.394902 0.818467 32.000000
2.194244 -2.429901 0.819443 36.000000
2.167053 -2.455032 0.816971 33.000000
2.134549 -2.471377 0.811777 18.000000
2.072588 -2.454923 0.796085 24.000000
2.031070 -2.458938 0.787265 10.000000
1.845113 -2.285644 0.722647 18.000000
1.769670 -2.240978 0.699739 18.000000
1.682503 -2.180410 0.672586 19.000000
1.614324 -2.141426 0.652603 23.000000
1.536962 -2.084715 0.627781 21.000000
1.476782 -2.051007 0.610327 19.000000
1.402029 -1.991508 0.585733 21.000000
1.344130 -1.955470 0.568524 15.000000
1.325096 -1.974848 0.567675 32.000000
1.304353 -1.989249 0.565361 33.000000
1.258594 -1.967285 0.552905 34.000000
1.240592 -1.985108 0.551782 34.000000
1.236233 -2.028369 0.557653 29.000000
1.216232 -2.046703 0.556631 31.000000
1.199779 -2.068334 0.556511 28.000000
1.200746 -2.124449 0.565628 9.000000
0.820139 1.479966 0.405529 7.000000
0.841354 1.478752 0.409515 21.000000
0.857750 1.468872 0.411118 20.000000
0.882947 1.476044 0.417653 28.000000
0.889153 1.449112 0.414536 25.000000
0.891348 1.418671 0.410351 25.000000
0.904407 1.404166 0.410684 32.000000
0.922618 1.397614 0.413404 24.000000
0.942633 1.395392 0.417495 30.000000
0.952572 1.376399 0.416615 20.000000
0.972602 1.373736 0.420672 25.000000
0.962178 1.327069 0.411205 31.000000
1.002094 1.351392 0.423796 26.000000
1.002371 1.320439 0.419150 31.000000
1.016252 1.309271 0.420716 31.000000
1.045829 1.316393 0.428243 26.000000
1.053593 1.297224 0.427354 35.000000
1.067912 1.285011 0.428723 16.000000
1.081494 1.273061 0.430250 32.000000
1.092427 1.256826 0.430315 37.000000
1.125046 1.266357 0.439316 29.000000
1.145547 1.260435 0.443169 35.000000
1.155629 1.244107 0.443410 37.000000
1.176110 1.237676 0.447175 33.000000
1.195991 1.231471 0.451171 37.000000
1.198882 1.207744 0.448809 13.000000
1.208866 1.190441 0.448712 37.000000
1.214598 1.170185 0.447540 64.000000
1.244693 1.173122 0.455302 34.000000
1.268370 1.168465 0.460304 57.000000
1.273723 1.147781 0.459080 37.000000
1.307755 1.152582 0.468161 43.000000
1.320149 1.137875 0.469428 66.000000
1.325379 1.116342 0.467923 21.000000
1.333650 1.098374 0.467876 36.000000
1.356780 1.092375 0.473008 54.000000
1.372303 1.080045 0.475534 35.000000
1.391605 1.070461 0.479327 66.000000
1.407012 1.057640 0.481814 35.000000
1.430088 1.050330 0.486953 35.000000
1.445348 1.036912 0.489402 52.000000
1.468394 1.028881 0.494517 18.000000
1.491508 1.020470 0.499592 67.000000
1.474504 0.984856 0.491333 64.000000
1.521495 0.991799 0.504385 54.000000
1.532253 0.974599 0.505420 66.000000
1.555115 0.964844 0.510428 62.000000
1.577911 0.954695 0.515451 43.000000
1.600755 0.944150 0.520490 68.000000
1.589845 0.914363 0.514852 18.000000
1.637636 0.917514 0.527907 49.000000
1.660247 0.905862 0.532867 67.000000
1.678400 0.891848 0.536664 55.000000
1.692378 0.875072 0.538868 69.000000
1.710278 0.860422 0.542622 50.000000
1.719691 0.841049 0.543412 42.000000
1.737305 0.825928 0.547119 61.000000
1.785443 0.824603 0.560365 22.000000
1.785469 0.800697 0.558495 35.000000
1.820487 0.792209 0.567610 52.000000
1.842280 0.777334 0.572559 35.000000
1.868454 0.763916 0.578897 53.000000
1.903466 0.753573 0.588012 52.000000
1.924988 0.737278 0.592873 40.000000
1.950931 0.722349 0.599128 38.000000
1.940502 0.694075 0.594444 25.000000
1.975275 0.681679 0.603422 42.000000
2.000740 0.665641 0.609774 60.000000
2.026203 0.648993 0.615939 42.000000
2.042277 0.629108 0.619466 36.000000
2.076626 0.614399 0.628438 58.000000
2.115496 0.600314 0.638891 50.000000
2.140317 0.581800 0.645176 49.000000
2.169823 0.563798 0.652728 28.000000
2.185055 0.541880 0.656239 35.000000
2.209465 0.521891 0.662414 48.000000
2.257169 0.506594 0.675606 73.000000
2.281314 0.485362 0.681732 56.000000
2.305249 0.463562 0.687791 69.000000
2.272393 0.430620 0.677151 10.000000
2.314745 0.411972 0.688838 9.000000
2.385340 0.397134 0.708981 22.000000
2.432163 0.376985 0.722032 53.000000
2.459820 0.353232 0.729544 48.000000
2.525361 0.333901 0.748096 67.000000
2.547895 0.308007 0.754221 54.000000
2.574921 0.282047 0.761517 53.000000
2.620768 0.257511 0.774544 27.000000
2.637784 0.229438 0.779030 25.000000
2.726147 0.206479 0.804607 47.000000
2.742594 0.176964 0.809104 58.000000
2.811395 0.149849 0.829051 58.000000
2.851163 0.120115 0.840623 81.000000
2.876312 0.088989 0.847870 56.000000
2.901020 0.057236 0.854935 10.000000
3.006990 0.025736 0.886120 15.000000
3.026270 -0.007895 0.891869 74.000000
3.054754 -0.042087 0.900252 87.000000
3.054074 -0.076204 0.900252 93.000000
3.019551 -0.109108 0.890263 72.000000
3.003833 -0.142169 0.885737 95.000000
2.987746 -0.174910 0.881404 85.000000
2.952159 -0.205899 0.871234 28.000000
2.868439 -0.232269 0.847137 7.000000
2.870560 -0.264753 0.848274 9.000000
2.819821 -0.291911 0.833889 9.000000
2.811629 -0.322836 0.832208 9.000000
2.774712 -0.349964 0.821801 9.000000
2.737441 -0.376436 0.811758 9.000000
2.737968 -0.407728 0.812639 9.000000
2.766461 -0.443596 0.822141 13.000000
2.747285 -0.472080 0.817386 33.000000
2.751494 -0.504396 0.819666 85.000000
2.736470 -0.533251 0.816233 95.000000
2.716342 -0.560925 0.811578 95.000000
2.691326 -0.587173 0.805348 76.000000
2.680079 -0.616139 0.803333 95.000000
2.659264 -0.642659 0.798431 81.000000
2.661525 -0.674589 0.800447 63.000000
2.602894 -0.690807 0.784455 28.000000
2.590735 -0.718457 0.782117 30.000000
2.582788 -0.747424 0.781348 34.000000
2.560707 -0.772062 0.776397 90.000000
2.565954 -0.804932 0.779724 70.000000
2.547765 -0.830750 0.776258 76.000000
2.511357 -0.849866 0.766901 94.000000
2.506456 -0.879589 0.767531 54.000000
2.474262 -0.899230 0.759504 26.000000
2.563243 -0.964119 0.789125 23.000000
2.660021 -1.034624 0.821264 16.000000
2.835875 -1.139610 0.878265 10.000000
2.965310 -1.230280 0.921130 9.000000
2.960591 -1.267189 0.922559 9.000000
2.937891 -1.296329 0.918480 9.000000
2.928100 -1.331038 0.918425 9.000000
2.900437 -1.357487 0.912783 8.000000
2.863936 -1.379369 0.904417 10.000000
2.857225 -1.415916 0.905939 16.000000
2.871750 -1.462967 0.913869 21.000000
2.821399 -1.477419 0.901543 12.000000
2.762961 -1.485942 0.886233 16.000000
2.729597 -1.507775 0.879313 17.000000
2.704514 -1.533777 0.875120 17.000000
2.683793 -1.561224 0.871896 22.000000
2.654167 -1.583938 0.866273 49.000000
2.632525 -1.611303 0.863359 80.000000
2.614724 -1.640939 0.861696 89.000000
2.588527 -1.665070 0.857350 60.000000
2.566174 -1.691475 0.854256 35.000000
2.587412 -1.747255 0.865865 32.000000
2.588047 -1.790031 0.870653 29.000000
2.576284 -1.824597 0.871421 29.000000
2.556195 -1.853481 0.869422 33.000000
2.539778 -1.885039 0.868748 36.000000
2.511477 -1.907533 0.864003 36.000000
2.486812 -1.932715 0.860590 32.000000
2.473241 -1.966519 0.861127 34.000000
2.451752 -1.994104 0.858928 33.000000
2.441195 -2.030748 0.860653 26.000000
2.399926 -2.043116 0.852220 24.000000
2.410478 -2.098347 0.861642 33.000000
2.391356 -2.128427 0.860516 31.000000
2.354002 -2.142031 0.852911 35.000000
2.340475 -2.178854 0.854673 28.000000
2.330939 -2.218239 0.857398 34.000000
2.306956 -2.244051 0.854857 32.000000
2.275002 -2.263756 0.849960 26.000000
2.250585 -2.288883 0.847325 26.000000
2.232771 -2.320777 0.847235 32.000000
2.210068 -2.349909 0.846167 36.000000
2.207757 -2.399150 0.852270 37.000000
2.177679 -2.420853 0.848541 32.000000
2.151801 -2.444883 0.845666 34.000000
2.130798 -2.476971 0.845604 21.000000
2.070137 -2.459605 0.828987 18.000000
2.018069 -2.453393 0.816396 11.000000
1.855301 -2.305794 0.757690 11.000000
1.784653 -2.269922 0.736724 18.000000
1.672021 -2.174232 0.697050 22.000000
1.606996 -2.139152 0.677534 16.000000
1.547108 -2.105962 0.659110 24.000000
1.464226 -2.040984 0.631297 17.000000
1.400949 -1.997463 0.610637 13.000000
1.340318 -1.957462 0.591551 14.000000
1.311627 -1.959988 0.585549 28.000000
1.297787 -1.987309 0.587000 29.000000
1.254757 -1.969475 0.575268 34.000000
1.252019 -2.011987 0.581257 30.000000
1.232125 -2.030586 0.580210 30.000000
1.205982 -2.035582 0.575459 31.000000
1.193036 -2.066312 0.577863 27.000000
1.179492 -2.097043 0.580305 10.000000
0.818661 1.482196 0.421605 6.000000
0.824597 1.456153 0.418616 9.000000
0.857817 1.475708 0.428774 20.000000
0.870645 1.461982 0.429431 23.000000
0.886873 1.451753 0.431091 19.000000
0.905513 1.445361 0.433984 28.000000
0.915428 1.427109 0.433281 18.000000
0.925915 1.408228 0.432451 22.000000
0.946030 1.405960 0.436699 22.000000
0.975362 1.414778 0.444508 10.000000
0.973468 1.380109 0.438753 23.000000
0.983086 1.360869 0.437774 19.000000
1.003130 1.357690 0.442001 20.000000
1.000696 1.322782 0.435868 28.000000
1.029408 1.330701 0.443868 23.000000
1.047170 1.322436 0.446581 26.000000
1.064163 1.314476 0.449516 25.000000
1.087989 1.313193 0.454824 14.000000
1.086226 1.282592 0.449974 32.000000
1.100510 1.269901 0.451355 24.000000
1.120346 1.264809 0.455498 26.000000
1.136990 1.255783 0.458352 29.000000
1.157527 1.249634 0.462311 24.000000
1.167515 1.233096 0.462505 31.000000
1.183974 1.223456 0.465273 28.000000
1.214565 1.226746 0.473174 18.000000
1.196759 1.182593 0.462717 35.000000
1.230225 1.189165 0.472080 29.000000
1.246945 1.178174 0.474659 36.000000
1.266624 1.170645 0.478692 41.000000
1.275615 1.153103 0.478716 29.000000
1.302467 1.151426 0.485457 35.000000
1.318945 1.139425 0.487962 33.000000
1.327475 1.121405 0.487936 26.000000
1.343304 1.109431 0.490558 34.000000
1.344004 1.085173 0.487753 26.000000
1.363280 1.075905 0.491737 32.000000
1.405371 1.083982 0.503873 35.000000
1.417082 1.067992 0.505055 30.000000
1.432497 1.054796 0.507610 34.000000
1.443901 1.038536 0.508795 27.000000
1.466991 1.030451 0.514059 24.000000
1.478147 1.013775 0.515197 37.000000
1.493124 0.999658 0.517663 33.000000
1.507988 0.985336 0.520134 36.000000
1.526500 0.973679 0.524116 48.000000
1.545239 0.961379 0.527937 31.000000
1.563916 0.948779 0.531770 35.000000
1.590792 0.940764 0.538293 34.000000
1.600779 0.923022 0.539468 27.000000
1.619192 0.909511 0.543215 32.000000
1.641504 0.898292 0.548497 30.000000
1.664025 0.886373 0.553616 34.000000
1.690473 0.876555 0.560341 43.000000
1.700044 0.857291 0.561189 30.000000
1.726412 0.846655 0.567822 38.000000
1.752841 0.835510 0.574475 32.000000
1.761740 0.815797 0.575402 24.000000
1.783630 0.801855 0.580598 32.000000
1.801007 0.785641 0.584320 33.000000
1.827106 0.772839 0.590842 31.000000
1.875346 0.768598 0.604525 32.000000
1.901419 0.754495 0.611089 29.000000
1.927452 0.739926 0.617603 35.000000
1.930788 0.716689 0.617023 27.000000
1.938530 0.694905 0.617744 17.000000
1.977556 0.684146 0.628668 37.000000
2.007534 0.669515 0.636670 33.000000
2.014817 0.646854 0.637209 33.000000
2.035419 0.628429 0.642281 33.000000
2.078715 0.616640 0.654657 30.000000
2.108368 0.599825 0.662512 34.000000
2.128650 0.579838 0.667485 31.000000
2.102355 0.547618 0.658042 10.000000
2.177756 0.541380 0.680428 34.000000
2.220726 0.525722 0.692689 29.000000
2.240332 0.503979 0.697559 34.000000
2.269071 0.483772 0.705343 35.000000
2.293008 0.462094 0.711608 33.000000
2.307256 0.438211 0.715118 29.000000
2.335369 0.416487 0.722854 26.000000
2.358627 0.393448 0.729141 9.000000
2.419453 0.375859 0.747187 36.000000
2.475424 0.356322 0.763719 41.000000
2.507616 0.332320 0.772884 30.000000
2.530075 0.306449 0.779054 37.000000
2.571269 0.282239 0.790995 33.000000
2.578916 0.253980 0.792787 31.000000
2.595769 0.226363 0.797591 10.000000
2.645769 0.200876 0.812395 8.000000
2.733676 0.176789 0.839006 21.000000
2.797485 0.149415 0.858220 36.000000
2.837126 0.119732 0.870117 32.000000
2.866882 0.088898 0.879089 36.000000
2.882045 0.057047 0.883485 9.000000
2.968455 0.025490 0.910047 10.000000
3.021133 -0.007908 0.926167 61.000000
3.063960 -0.042351 0.939258 75.000000
3.058496 -0.076465 0.937793 87.000000
3.009650 -0.109012 0.923044 69.000000
2.984428 -0.141525 0.915527 57.000000
2.977939 -0.174719 0.913872 68.000000
2.937787 -0.205377 0.901968 20.000000
2.887691 -0.234407 0.887141 8.000000
2.837402 -0.262278 0.872137 9.000000
2.810623 -0.291550 0.864460 9.000000
2.807196 -0.323023 0.864280 9.000000
2.784524 -0.352096 0.858072 9.000000
2.742687 -0.378043 0.846024 8.000000
2.738358 -0.408700 0.845494 9.000000
2.733853 -0.439268 0.844964 10.000000
2.714766 -0.467402 0.840146 18.000000
2.733012 -0.502134 0.846907 71.000000
2.699261 -0.527130 0.837547 34.000000
2.669874 -0.552553 0.829742 30.000000
2.640334 -0.577363 0.821947 23.000000
2.605983 -0.600488 0.812536 11.000000
2.599244 -0.629574 0.811853 10.000000
2.592335 -0.658661 0.811086 9.000000
2.534216 -0.674046 0.794373 8.000000
2.605073 -0.724268 0.818326 68.000000
2.583179 -0.749408 0.813209 58.000000
2.542959 -0.768443 0.802064 59.000000
2.557239 -0.804077 0.808435 74.000000
2.507312 -0.819488 0.794770 62.000000
2.498316 -0.847485 0.793845 63.000000
2.507052 -0.881754 0.798507 58.000000
2.443235 -0.890197 0.780413 11.000000
2.545582 -0.959696 0.815217 11.000000
2.650957 -1.033445 0.851537 10.000000
2.777290 -1.118755 0.894833 9.000000
2.950693 -1.227115 0.953642 8.000000
2.937157 -1.260192 0.952319 8.000000
2.918933 -1.291127 0.949469 8.000000
2.909067 -1.325838 0.949469 8.000000
2.898852 -1.360341 0.949364 6.000000
2.836480 -1.369819 0.932227 9.000000
2.791382 -1.386566 0.920708 11.000000
2.758827 -1.409379 0.913760 21.000000
2.709572 -1.422299 0.900789 33.000000
2.689482 -1.450687 0.898017 32.000000
2.682131 -1.485273 0.898984 61.000000
2.665555 -1.515499 0.897521 36.000000
2.645029 -1.542722 0.894267 12.000000
2.644371 -1.582469 0.898306 32.000000
2.651484 -1.627317 0.905021 29.000000
2.649645 -1.667507 0.908817 31.000000
2.643847 -1.704563 0.910899 30.000000
2.621049 -1.731799 0.907712 13.000000
2.621781 -1.774703 0.912741 13.000000
2.574632 -1.785101 0.901156 24.000000
2.551015 -1.811368 0.897787 10.000000
2.542812 -1.848456 0.899929 33.000000
2.518697 -1.874226 0.896560 23.000000
2.501897 -1.905438 0.895737 32.000000
2.484834 -1.936536 0.895008 31.000000
2.463646 -1.964320 0.892809 23.000000
2.449615 -1.998088 0.893230 31.000000
2.435251 -2.031722 0.893737 22.000000
2.398482 -2.046475 0.885913 10.000000
2.397154 -2.093059 0.892011 29.000000
2.374359 -2.119888 0.889590 27.000000
2.351363 -2.146414 0.887069 26.000000
2.335108 -2.179212 0.887224 29.000000
2.300171 -2.196140 0.880994 21.000000
2.286751 -2.231919 0.882368 28.000000
2.252435 -2.247098 0.875757 19.000000
2.220409 -2.266192 0.870794 10.000000
2.226047 -2.322226 0.879855 30.000000
2.201112 -2.346957 0.877107 22.000000
2.184534 -2.382970 0.878496 29.000000
2.155753 -2.403504 0.874326 29.000000
2.136499 -2.434648 0.873971 25.000000
2.109161 -2.459221 0.871411 20.000000
2.073638 -2.471465 0.864559 10.000000
2.027637 -2.472904 0.854066 9.000000
1.850120 -2.306860 0.786758 10.000000
1.755784 -2.240655 0.754764 10.000000
1.687859 -2.202424 0.732827 10.000000
1.608192 -2.148321 0.706284 10.000000
1.531218 -2.091869 0.679487 10.000000
1.460083 -2.042628 0.655719 12.000000
1.410748 -2.019037 0.640599 10.000000
1.336404 -1.959372 0.614519 10.000000
1.310398 -1.965969 0.609553 22.000000
1.269950 -1.952668 0.598681 22.000000
1.262387 -1.987056 0.602383 26.000000
1.245317 -2.009902 0.602628 27.000000
1.212880 -2.007681 0.595473 21.000000
1.201757 -2.037677 0.597788 28.000000
1.181387 -2.055806 0.596700 19.000000
1.185913 -2.115326 0.607529 9.000000
0.804435 1.463576 0.431566 8.000000
0.829205 1.471385 0.438487 25.000000
0.840708 1.453158 0.437721 23.000000
0.856857 1.443204 0.439468 22.000000
0.871895 1.433567 0.441322 28.000000
0.887832 1.423242 0.443016 25.000000
0.892304 1.396944 0.439741 26.000000
0.921083 1.406635 0.447797 30.000000
0.935845 1.396280 0.449603 21.000000
0.926746 1.349410 0.439527 24.000000
0.963124 1.370559 0.451699 29.000000
0.972681 1.351394 0.450675 30.000000
0.978313 1.328840 0.448426 30.000000
1.004697 1.332715 0.455255 24.000000
1.004019 1.302321 0.450341 29.000000
1.018484 1.290509 0.451798 29.000000
1.053303 1.305319 0.462772 26.000000
1.048711 1.271176 0.456410 29.000000
1.065961 1.262541 0.459158 31.000000
1.091947 1.265087 0.466154 35.000000
1.102157 1.249192 0.466395 36.000000
1.135449 1.257695 0.475879 31.000000
1.135768 1.230712 0.472011 35.000000
1.158788 1.228414 0.477633 32.000000
1.179126 1.221732 0.481701 30.000000
1.182083 1.198158 0.479103 34.000000
1.198315 1.188138 0.481918 32.000000
1.214995 1.177451 0.484580 36.000000
1.234592 1.170313 0.488792 36.000000
1.247124 1.156323 0.490196 35.000000
1.266718 1.148624 0.494378 43.000000
1.286235 1.140655 0.498521 40.000000
1.313034 1.138596 0.505472 37.000000
1.311090 1.110829 0.501034 34.000000
1.334195 1.105100 0.506555 32.000000
1.346093 1.089952 0.507822 32.000000
1.365404 1.080592 0.511964 46.000000
1.384679 1.070895 0.516010 35.000000
1.392438 1.052243 0.515818 36.000000
1.399967 1.033566 0.515620 34.000000
1.418986 1.023221 0.519630 35.000000
1.449321 1.021204 0.528104 33.000000
1.472285 1.012807 0.533524 40.000000
1.483269 0.996017 0.534662 44.000000
1.486128 0.973864 0.532871 38.000000
1.520920 0.972356 0.542582 35.000000
1.531217 0.955328 0.543847 52.000000
1.566165 0.952766 0.553496 36.000000
1.580684 0.937324 0.555937 34.000000
1.603071 0.926754 0.561521 35.000000
1.613169 0.908448 0.562466 34.000000
1.635493 0.897221 0.567897 35.000000
1.657669 0.885593 0.573405 37.000000
1.671626 0.868849 0.575706 32.000000
1.702277 0.860819 0.584107 58.000000
1.720049 0.845859 0.588014 54.000000
1.724792 0.824402 0.587524 32.000000
1.746645 0.810969 0.592915 29.000000
1.772800 0.799083 0.599731 33.000000
1.807694 0.790508 0.609455 31.000000
1.833792 0.777548 0.616248 32.000000
1.846545 0.758620 0.618555 33.000000
1.859210 0.739464 0.620802 35.000000
1.902657 0.732343 0.633633 33.000000
1.915080 0.712441 0.635835 29.000000
1.945117 0.699026 0.644188 34.000000
1.970554 0.683413 0.650939 37.000000
1.986941 0.664301 0.654722 36.000000
2.007601 0.646314 0.660006 35.000000
2.028221 0.627886 0.665164 36.000000
2.048662 0.609082 0.670332 42.000000
2.078093 0.592516 0.678436 50.000000
2.093586 0.571735 0.682194 30.000000
2.141157 0.559114 0.696396 32.000000
2.184124 0.544266 0.709051 33.000000
2.208443 0.524039 0.715714 36.000000
2.232641 0.503394 0.722314 45.000000
2.251976 0.481261 0.727271 48.000000
2.294445 0.463534 0.739991 45.000000
2.318047 0.441328 0.746548 45.000000
2.346115 0.419464 0.754623 32.000000
2.383525 0.398569 0.765575 51.000000
2.415881 0.376202 0.775183 61.000000
2.448097 0.353201 0.784725 58.000000
2.465991 0.327524 0.789579 71.000000
2.507262 0.304401 0.802003 91.000000
2.524544 0.277821 0.806950 42.000000
2.589118 0.255521 0.826965 59.000000
2.553727 0.223127 0.815094 9.000000
2.627206 0.199899 0.838157 8.000000
2.657758 0.172299 0.847507 8.000000
2.688009 0.143974 0.856776 9.000000
2.746508 0.116217 0.875150 10.000000
2.814320 0.087384 0.896564 27.000000
2.848384 0.056482 0.907183 10.000000
2.967939 0.025572 0.945299 14.000000
3.001382 -0.007883 0.955920 71.000000
3.039203 -0.042056 0.967962 98.000000
3.019568 -0.075748 0.961893 98.000000
2.989938 -0.108570 0.952694 95.000000
2.974319 -0.141430 0.947952 95.000000
2.972603 -0.174809 0.947857 95.000000
2.932482 -0.205522 0.935442 31.000000
2.849396 -0.231812 0.909393 9.000000
2.818183 -0.261126 0.900027 10.000000
2.824670 -0.293744 0.902785 15.000000
2.797637 -0.322662 0.894760 22.000000
2.803394 -0.355243 0.897517 27.000000
2.780530 -0.384123 0.891103 35.000000
2.761986 -0.413194 0.886028 47.000000
2.752721 -0.443374 0.883981 63.000000
2.696055 -0.465341 0.866921 10.000000
2.653298 -0.488652 0.854320 10.000000
2.671248 -0.522940 0.861257 10.000000
2.656074 -0.550976 0.857546 10.000000
2.617310 -0.573611 0.846482 11.000000
2.601587 -0.600879 0.842871 10.000000
2.594922 -0.630103 0.842187 10.000000
2.550945 -0.649739 0.829398 10.000000
2.553002 -0.680750 0.831558 13.000000
2.568452 -0.715724 0.838210 75.000000
2.560519 -0.744554 0.837442 86.000000
2.543114 -0.770617 0.833681 83.000000
2.529980 -0.797655 0.831336 95.000000
2.507553 -0.821619 0.825922 93.000000
2.489488 -0.846645 0.821926 81.000000
2.484657 -0.876061 0.822407 60.000000
2.470571 -0.902219 0.819824 28.000000
2.509602 -0.948615 0.835248 16.000000
2.632727 -1.028792 0.878569 21.000000
2.718666 -1.097754 0.910095 12.000000
2.777110 -1.157794 0.932561 16.000000
2.746678 -1.181487 0.925398 22.000000
2.786090 -1.235580 0.941872 31.000000
2.824608 -1.290756 0.958099 31.000000
2.801777 -1.318326 0.953668 35.000000
2.787242 -1.349769 0.952086 42.000000
2.785345 -1.387408 0.954905 95.000000
2.753126 -1.409883 0.947458 52.000000
2.728869 -1.436723 0.943053 55.000000
2.734253 -1.478508 0.948677 41.000000
2.734913 -1.518343 0.952619 35.000000
2.751296 -1.568331 0.962656 35.000000
2.709443 -1.584446 0.952029 27.000000
2.695930 -1.617738 0.951776 31.000000
2.690213 -1.655740 0.954410 35.000000
2.652142 -1.672881 0.945081 29.000000
2.637573 -1.705564 0.944722 30.000000
2.610771 -1.730102 0.939945 24.000000
2.615387 -1.775784 0.946655 14.000000
2.603615 -1.810863 0.947504 30.000000
2.560898 -1.822878 0.936514 27.000000
2.533032 -1.846161 0.931663 27.000000
2.520459 -1.880535 0.932310 32.000000
2.473065 -1.888592 0.920281 29.000000
2.463704 -1.925378 0.922347 31.000000
2.442612 -1.953135 0.920059 34.000000
2.413795 -1.974518 0.914955 27.000000
2.403314 -2.010932 0.916886 30.000000
2.373206 -2.032488 0.911992 21.000000
2.351054 -2.059209 0.909608 25.000000
2.353643 -2.107957 0.916879 31.000000
2.323667 -2.127976 0.911489 29.000000
2.304051 -2.157285 0.910372 29.000000
2.291107 -2.193017 0.911810 31.000000
2.280068 -2.232955 0.915006 26.000000
2.259352 -2.261889 0.913644 25.000000
2.224815 -2.276837 0.906795 23.000000
2.202480 -2.306074 0.905636 24.000000
2.177694 -2.330556 0.902803 32.000000
2.162346 -2.365491 0.903941 25.000000
2.142236 -2.397771 0.904108 26.000000
2.122887 -2.428873 0.903748 28.000000
2.090660 -2.445066 0.897992 19.000000
2.072405 -2.480415 0.899260 10.000000
1.991104 -2.436195 0.872148 10.000000
1.850743 -2.315259 0.818486 10.000000
1.783302 -2.283463 0.797286 11.000000
1.691772 -2.215037 0.763952 11.000000
1.612106 -2.161161 0.736366 14.000000
1.535230 -2.105008 0.708701 13.000000
1.469673 -2.063759 0.686691 12.000000
1.412031 -2.028516 0.667109 10.000000
1.329601 -1.957054 0.636202 9.000000
1.311561 -1.975733 0.634953 17.000000
1.276402 -1.970667 0.626188 21.000000
1.240137 -1.960254 0.615967 22.000000
1.225778 -1.987024 0.617532 23.000000
1.207415 -2.004653 0.616226 24.000000
1.189935 -2.027027 0.616399 20.000000
1.193737 -2.087087 0.627924 18.000000
1.155316 -2.070702 0.616388 9.000000
0.804121 1.470366 0.448946 8.000000
0.818118 1.456520 0.449447 26.000000
0.838193 1.455593 0.454010 26.000000
0.839658 1.420686 0.447904 35.000000
0.866971 1.431820 0.456412 29.000000
0.872730 1.405109 0.452825 36.000000
0.884902 1.391201 0.453384 41.000000
0.916144 1.404882 0.463037 29.000000
0.914908 1.370484 0.456880 37.000000
0.916548 1.339752 0.451846 24.000000
0.947154 1.353085 0.461670 32.000000
0.947427 1.322788 0.456694 35.000000
0.976411 1.330946 0.465072 31.000000
0.996213 1.327652 0.469521 37.000000
1.008022 1.312046 0.469735 34.000000
1.013020 1.289312 0.467356 33.000000
1.027381 1.277345 0.468865 36.000000
1.056172 1.284301 0.477429 25.000000
1.069793 1.272317 0.479066 44.000000
1.071411 1.245135 0.474988 43.000000
1.097353 1.247450 0.482180 39.000000
1.113814 1.238560 0.485162 52.000000
1.147131 1.246617 0.495006 44.000000
1.143999 1.216163 0.489587 41.000000
1.157009 1.203153 0.491127 46.000000
1.176636 1.196823 0.495499 20.000000
1.199595 1.193616 0.501254 52.000000
1.212953 1.179503 0.502547 50.000000
1.236027 1.175621 0.508339 45.000000
1.245176 1.158235 0.508373 75.000000
1.261177 1.147320 0.511218 60.000000
1.273563 1.132925 0.512630 61.000000
1.289397 1.121508 0.515486 67.000000
1.301490 1.106800 0.516848 17.000000
1.320832 1.098046 0.521113 37.000000
1.340144 1.089015 0.525338 37.000000
1.351932 1.073647 0.526660 40.000000
1.371165 1.064086 0.530852 57.000000
1.394113 1.057075 0.536468 37.000000
1.401777 1.038258 0.536283 35.000000
1.416898 1.025019 0.538925 54.000000
1.451479 1.025305 0.548952 20.000000
1.462661 1.008673 0.550144 37.000000
1.473333 0.992325 0.551506 38.000000
1.492097 0.980654 0.555556 32.000000
1.498807 0.960958 0.555152 52.000000
1.529223 0.956766 0.563862 35.000000
1.560028 0.951656 0.572373 36.000000
1.574238 0.936562 0.575156 42.000000
1.572113 0.911282 0.571593 17.000000
1.615095 0.912312 0.584782 37.000000
1.633422 0.898388 0.588743 52.000000
1.647230 0.882203 0.591385 37.000000
1.669360 0.870210 0.596996 48.000000
1.691451 0.857811 0.602563 37.000000
1.700682 0.838620 0.603595 34.000000
1.722557 0.825545 0.609185 50.000000
1.740065 0.810046 0.613146 15.000000
1.766155 0.798151 0.620163 30.000000
1.792230 0.785802 0.627199 36.000000
1.809459 0.769144 0.631133 32.000000
1.835383 0.755851 0.638073 33.000000
1.852241 0.738761 0.642092 32.000000
1.895751 0.731430 0.655134 31.000000
1.916878 0.715048 0.660655 35.000000
1.920013 0.691849 0.660035 17.000000
1.954367 0.679555 0.670129 34.000000
1.975130 0.661986 0.675553 39.000000
1.995791 0.644045 0.680920 36.000000
2.020888 0.627139 0.687843 35.000000
2.036723 0.606972 0.691549 37.000000
2.065988 0.590657 0.700112 35.000000
2.108942 0.577457 0.713275 33.000000
2.138038 0.559680 0.721738 23.000000
2.167052 0.541315 0.730144 31.000000
2.200527 0.523458 0.740118 33.000000
2.224658 0.502808 0.746851 35.000000
2.243869 0.480745 0.752255 35.000000
2.295516 0.464896 0.768432 47.000000
2.309738 0.440874 0.772078 32.000000
2.351826 0.421520 0.785016 32.000000
2.360962 0.395750 0.787039 29.000000
2.402656 0.375078 0.800078 35.000000
2.430064 0.351367 0.808286 60.000000
2.452522 0.326499 0.814937 51.000000
2.493652 0.303503 0.827935 53.000000
2.543998 0.280620 0.843832 52.000000
2.570503 0.254336 0.852158 52.000000
2.554157 0.223709 0.846057 10.000000
2.608456 0.199008 0.863628 8.000000
2.653113 0.172351 0.877991 8.000000
2.706970 0.145329 0.895411 8.000000
2.736823 0.116041 0.904996 8.000000
2.785419 0.086703 0.920860 9.000000
2.852677 0.056674 0.942822 31.000000
2.900516 0.024986 0.958696 32.000000
2.986061 -0.007870 0.986940 72.000000
3.019001 -0.041924 0.997826 98.000000
2.994689 -0.075293 0.989981 95.000000
2.979397 -0.108474 0.985179 92.000000
2.949603 -0.140561 0.975576 34.000000
2.905240 -0.171265 0.961367 25.000000
2.898446 -0.203577 0.959518 32.000000
2.891379 -0.235782 0.957671 32.000000
2.850761 -0.264806 0.944948 81.000000
2.838371 -0.295841 0.941263 62.000000
2.801868 -0.324028 0.930119 90.000000
2.779399 -0.353085 0.923315 77.000000
2.765940 -0.383022 0.919827 94.000000
2.752240 -0.412747 0.916251 91.000000
2.728835 -0.440567 0.909375 42.000000
2.663020 -0.460767 0.888715 8.000000
2.657811 -0.490721 0.888194 9.000000
2.638356 -0.517843 0.882907 9.000000
2.623268 -0.545618 0.879098 10.000000
2.603322 -0.571991 0.873652 10.000000
2.596902 -0.601267 0.873053 10.000000
2.571756 -0.625962 0.866233 12.000000
2.550973 -0.651417 0.860807 10.000000
2.530013 -0.676391 0.855304 10.000000
2.554577 -0.713677 0.865319 85.000000
2.542179 -0.740955 0.862748 76.000000
2.529386 -0.768216 0.860436 95.000000
2.507215 -0.792423 0.854949 87.000000
2.489404 -0.817722 0.850932 75.000000
2.475822 -0.844185 0.848465 88.000000
2.439600 -0.862451 0.838130 23.000000
2.501611 -0.916016 0.861670 10.000000
2.478266 -0.938986 0.855864 28.000000
2.507687 -0.982658 0.868743 34.000000
2.496978 -1.010727 0.867447 95.000000
2.441832 -1.020527 0.851019 95.000000
2.412978 -1.040559 0.843801 95.000000
2.812635 -1.327104 0.993808 25.000000
2.810942 -1.365032 0.996772 31.000000
2.804452 -1.400921 0.998205 34.000000
2.784851 -1.430270 0.994984 36.000000
2.781857 -1.468222 0.997714 33.000000
2.761654 -1.497170 0.994393 32.000000
2.740696 -1.526324 0.991378 37.000000
2.728270 -1.559313 0.990873 30.000000
2.690305 -1.578418 0.981758 21.000000
2.685403 -1.615833 0.984157 33.000000
2.667458 -1.646410 0.982452 30.000000
2.649614 -1.676184 0.980247 36.000000
2.631068 -1.706259 0.978442 32.000000
2.596217 -1.725663 0.970493 26.000000
2.593474 -1.765206 0.974132 19.000000
2.554337 -1.781022 0.964728 24.000000
2.538525 -1.812748 0.964116 25.000000
2.533925 -1.852925 0.967916 34.000000
2.509648 -1.878833 0.964341 33.000000
2.473851 -1.895631 0.956172 34.000000
2.437910 -1.911786 0.948131 31.000000
2.420678 -1.942464 0.947317 31.000000
2.414075 -1.981937 0.950764 34.000000
2.388690 -2.006161 0.946920 25.000000
2.370433 -2.036340 0.945881 26.000000
2.351710 -2.066203 0.944835 32.000000
2.325695 -2.089548 0.940800 32.000000
2.316983 -2.128714 0.943956 34.000000
2.283352 -2.144940 0.937051 28.000000
2.277379 -2.187281 0.941500 32.000000
2.266315 -2.227164 0.944787 34.000000
2.242137 -2.252658 0.941954 26.000000
2.201131 -2.260670 0.932039 24.000000
2.186658 -2.295789 0.933364 27.000000
2.181469 -2.341360 0.938885 32.000000
2.148647 -2.359605 0.933431 33.000000
2.126472 -2.387239 0.931786 27.000000
2.116636 -2.429017 0.935710 34.000000
2.095526 -2.461005 0.935624 31.000000
2.063087 -2.476934 0.929669 15.000000
1.972832 -2.421730 0.897499 10.000000
1.855856 -2.331906 0.853333 10.000000
1.774865 -2.280436 0.824247 13.000000
1.676514 -2.205351 0.787412 18.000000
1.604344 -2.158346 0.761358 13.000000
1.534810 -2.114797 0.737080 17.000000
1.479015 -2.084752 0.718036 21.000000
1.410253 -2.033851 0.692382 14.000000
1.330820 -1.966554 0.661762 10.000000
1.286068 -1.945128 0.647170 18.000000
1.264282 -1.960194 0.644807 26.000000
1.233325 -1.957910 0.636914 28.000000
1.218997 -1.984592 0.638463 29.000000
1.198140 -1.998153 0.635809 28.000000
1.173301 -2.007990 0.632140 26.000000
1.168926 -2.050359 0.638559 21.000000
1.157586 -2.085193 0.642601 10.000000
0.787525 1.447405 0.457037 9.000000
0.816793 1.463611 0.467073 17.000000
0.828360 1.445380 0.466236 32.000000
0.844515 1.435454 0.468031 24.000000
0.842120 1.396999 0.460528 30.000000
0.856759 1.387429 0.462442 34.000000
0.895435 1.413750 0.476472 29.000000
0.897224 1.383389 0.471562 35.000000
0.925968 1.392669 0.480189 29.000000
0.921703 1.354353 0.472351 23.000000
0.934045 1.339435 0.472626 34.000000
0.942631 1.320983 0.471651 31.000000
0.960162 1.313615 0.474701 34.000000
0.979771 1.310438 0.479271 33.000000
0.996578 1.303113 0.482451 30.000000
1.005225 1.283716 0.481186 36.000000
1.030803 1.287218 0.488632 27.000000
1.032306 1.260681 0.484662 26.000000
1.061753 1.266797 0.493316 35.000000
1.068996 1.247415 0.492131 33.000000
1.079135 1.231672 0.492366 49.000000
1.105061 1.233618 0.499761 32.000000
1.125308 1.227579 0.504084 57.000000
1.141748 1.218273 0.507183 53.000000
1.151433 1.201772 0.507323 32.000000
1.177720 1.202266 0.514712 25.000000
1.187817 1.184978 0.514642 40.000000
1.197090 1.168037 0.514671 36.000000
1.223519 1.167558 0.522066 60.000000
1.236051 1.153568 0.523578 36.000000
1.259109 1.149072 0.529486 58.000000
1.267967 1.131458 0.529470 63.000000
1.301766 1.135779 0.539829 36.000000
1.295879 1.105384 0.533790 29.000000
1.315190 1.096622 0.538149 33.000000
1.330774 1.084515 0.541022 34.000000
1.353717 1.078155 0.546860 65.000000
1.369221 1.065518 0.549699 34.000000
1.384567 1.052683 0.552490 43.000000
1.391827 1.034303 0.552476 42.000000
1.406956 1.021104 0.555219 33.000000
1.437521 1.018663 0.564011 30.000000
1.452559 1.004829 0.566724 33.000000
1.475033 0.996519 0.572733 45.000000
1.477987 0.974275 0.570806 69.000000
1.492660 0.959819 0.573421 35.000000
1.518964 0.953085 0.580894 64.000000
1.545603 0.945524 0.588104 37.000000
1.572052 0.937827 0.595512 34.000000
1.577930 0.917637 0.595195 24.000000
1.608685 0.911125 0.603954 48.000000
1.618479 0.892903 0.605082 32.000000
1.648961 0.885803 0.614002 49.000000
1.658460 0.867105 0.615144 35.000000
1.684710 0.856839 0.622482 73.000000
1.698197 0.839814 0.625081 49.000000
1.707208 0.820514 0.626055 30.000000
1.733301 0.809062 0.633316 24.000000
1.755001 0.795261 0.638959 36.000000
1.776644 0.780979 0.644617 33.000000
1.806702 0.770249 0.653571 47.000000
1.828193 0.755087 0.659134 32.000000
1.840613 0.736233 0.661736 33.000000
1.861918 0.720382 0.667256 36.000000
1.896207 0.709278 0.677677 29.000000
1.921664 0.694285 0.684946 27.000000
1.951409 0.680319 0.693757 43.000000
1.963219 0.659674 0.696149 34.000000
1.992831 0.644763 0.704856 43.000000
2.013215 0.626528 0.710522 36.000000
2.019937 0.603645 0.711201 34.000000
2.058195 0.589967 0.723217 53.000000
2.087308 0.572993 0.731984 29.000000
2.134601 0.560244 0.747110 30.000000
2.145167 0.537218 0.749355 32.000000
2.183180 0.520607 0.761166 29.000000
2.211691 0.501248 0.769926 33.000000
2.258757 0.485126 0.784913 37.000000
2.273174 0.461469 0.788728 33.000000
2.310577 0.442049 0.800527 39.000000
2.329102 0.418549 0.806046 29.000000
2.366273 0.397641 0.817717 31.000000
2.398425 0.375341 0.827942 37.000000
2.425833 0.351651 0.836407 37.000000
2.448229 0.326728 0.843264 48.000000
2.470441 0.301381 0.850207 57.000000
2.501705 0.276650 0.860311 37.000000
2.556415 0.253537 0.878431 38.000000
2.568326 0.225531 0.882082 29.000000
2.608473 0.199393 0.895115 17.000000
2.624575 0.170950 0.900225 10.000000
2.673507 0.143884 0.916675 9.000000
2.726874 0.115953 0.934755 8.000000
2.779936 0.086761 0.952754 9.000000
2.842223 0.056674 0.973819 35.000000
2.889887 0.024986 0.990115 42.000000
2.975119 -0.007870 1.019380 95.000000
2.993846 -0.041629 1.025766 98.000000
2.969527 -0.074839 1.017663 95.000000
2.959019 -0.107938 1.014327 84.000000
2.915253 -0.139337 0.999556 10.000000
2.880504 -0.170241 0.987843 10.000000
2.892612 -0.203629 0.992514 31.000000
2.843032 -0.232511 0.976231 35.000000
2.830943 -0.263653 0.972627 95.000000
2.809096 -0.293599 0.965789 87.000000
2.782227 -0.322485 0.957339 84.000000
2.773920 -0.353233 0.955181 95.000000
2.746428 -0.381272 0.946742 88.000000
2.742136 -0.412210 0.946295 95.000000
2.728143 -0.441636 0.942530 70.000000
2.662535 -0.461864 0.921114 9.000000
2.643433 -0.489252 0.915581 18.000000
2.642617 -0.519980 0.916585 21.000000
2.622897 -0.546775 0.911062 24.000000
2.625925 -0.578522 0.913761 31.000000
2.596538 -0.602637 0.904944 43.000000
2.575952 -0.628650 0.899438 44.000000
2.582707 -0.661226 0.903484 91.000000
2.552533 -0.684218 0.894694 40.000000
2.544955 -0.712911 0.893757 95.000000
2.537122 -0.741519 0.892820 95.000000
2.510651 -0.764692 0.885659 74.000000
2.502282 -0.792926 0.884561 95.000000
2.479988 -0.816714 0.878846 85.000000
2.462022 -0.841645 0.874650 82.000000
2.452724 -0.869373 0.873645 50.000000
2.425290 -0.890482 0.866199 29.000000
2.428857 -0.922810 0.869796 36.000000
2.414075 -0.948670 0.867291 34.000000
2.412514 -0.979364 0.869121 30.000000
2.414747 -1.012258 0.872860 31.000000
2.429841 -1.050592 0.880900 32.000000
2.435510 -1.085822 0.886014 28.000000
2.835998 -1.341849 1.039066 24.000000
2.846780 -1.386394 1.046869 35.000000
2.814533 -1.410048 1.038871 42.000000
2.773724 -1.428766 1.027766 34.000000
2.762182 -1.462267 1.027523 37.000000
2.742044 -1.491122 1.024056 37.000000
2.725804 -1.521999 1.022151 35.000000
2.712784 -1.555541 1.022101 35.000000
2.683625 -1.578832 1.015442 24.000000
2.678647 -1.616285 1.017984 33.000000
2.664718 -1.649410 1.017721 35.000000
2.610672 -1.656342 1.001640 32.000000
2.592224 -1.686195 0.999756 33.000000
2.581397 -1.721031 1.000842 24.000000
2.562892 -1.749882 0.998554 14.000000
2.570800 -1.798232 1.007163 35.000000
2.512181 -1.799763 0.989800 20.000000
2.519158 -1.848203 0.998274 33.000000
2.472768 -1.856111 0.985047 31.000000
2.448490 -1.881332 0.981354 30.000000
2.435219 -1.915108 0.982002 35.000000
2.410478 -1.939791 0.978214 31.000000
2.396450 -1.973284 0.978745 31.000000
2.382091 -2.006648 0.979360 31.000000
