x y z intensity
1.267303 -0.678056 -0.668140 89.000000
1.728103 -1.029899 -0.926950 13.000000
1.790659 -1.095008 -0.964662 13.000000
1.793861 -1.125892 -0.971236 21.000000
1.797067 -1.156569 -0.977422 18.000000
1.795691 -1.185315 -0.981784 24.000000
1.805167 -1.221912 -0.992264 18.000000
1.799126 -1.248445 -0.994352 19.000000
1.796537 -1.277575 -0.998412 22.000000
1.764017 -1.285354 -0.985906 10.000000
1.742605 -1.300730 -0.979606 10.000000
1.753776 -1.340645 -0.991692 18.000000
1.746340 -1.366875 -0.993417 14.000000
1.738560 -1.393126 -0.995048 17.000000
1.744709 -1.430909 -1.004719 17.000000
1.736182 -1.457288 -1.006213 11.000000
1.741251 -1.495445 -1.015704 18.000000
1.707224 -1.501329 -1.003237 10.000000
1.697952 -1.527472 -1.004533 10.000000
1.705171 -1.568974 -1.015691 18.000000
1.690902 -1.592653 -1.015145 12.000000
1.700374 -1.637822 -1.028177 18.000000
1.685330 -1.661473 -1.027418 12.000000
1.687165 -1.700626 -1.036178 16.000000
1.674600 -1.727530 -1.037350 19.000000
1.658489 -1.751015 -1.036366 10.000000
1.649516 -1.780356 -1.038904 10.000000
1.639038 -1.810404 -1.041728 16.000000
1.625123 -1.836986 -1.042561 13.000000
1.627020 -1.880145 -1.052628 19.000000
1.621212 -1.917263 -1.059131 13.000000
1.608814 -1.947383 -1.061616 18.000000
1.593201 -1.973877 -1.062050 18.000000
1.584246 -2.006745 -1.065885 10.000000
1.570727 -2.036735 -1.068088 10.000000
1.559579 -2.070365 -1.072163 10.000000
1.553419 -2.111456 -1.079909 10.000000
1.530405 -2.130143 -1.076103 10.000000
1.525738 -2.175097 -1.085534 10.000000
1.525553 -2.227794 -1.098552 12.000000
1.506507 -2.253914 -1.098303 10.000000
1.497249 -2.295337 -1.105510 9.000000
1.492290 -2.344688 -1.116270 9.000000
1.469330 -2.366547 -1.113831 10.000000
1.460538 -2.412125 -1.122472 9.000000
1.450961 -2.457742 -1.131013 10.000000
1.424260 -2.475356 -1.126516 9.000000
1.415673 -2.525167 -1.136638 10.000000
0.638141 1.145636 -0.504236 10.000000
0.685168 1.198525 -0.533275 10.000000
0.962973 1.600794 -0.728073 24.000000
0.987499 1.600872 -0.736356 28.000000
1.007185 1.592846 -0.740959 10.000000
1.006599 1.553291 -0.730885 23.000000
1.020729 1.537151 -0.731714 23.000000
1.042553 1.532414 -0.738079 16.000000
1.048435 1.504515 -0.733272 30.000000
1.043145 1.461584 -0.720901 26.000000
0.754222 0.961761 -0.498464 20.000000
0.753110 0.938184 -0.492499 17.000000
0.760370 0.925525 -0.492146 26.000000
0.758549 0.902165 -0.486063 24.000000
0.768354 0.893021 -0.487580 23.000000
0.774526 0.880605 -0.487296 30.000000
0.778002 0.864366 -0.484882 22.000000
0.787462 0.854984 -0.486304 35.000000
0.777383 0.825656 -0.476265 10.000000
1.351143 1.309704 -0.800700 38.000000
1.391633 1.319160 -0.818716 36.000000
1.416321 1.311731 -0.826657 42.000000
1.464215 1.325903 -0.848701 24.000000
1.468594 1.299061 -0.844800 21.000000
1.485879 1.284797 -0.848999 27.000000
1.506535 1.273282 -0.855197 27.000000
1.534920 1.266716 -0.865073 32.000000
1.562701 1.260146 -0.875185 26.000000
1.601392 1.261544 -0.891344 29.000000
1.625791 1.251045 -0.899473 30.000000
1.635599 1.229086 -0.899511 20.000000
1.656277 1.215197 -0.905591 30.000000
1.680516 1.203591 -0.913642 28.000000
1.704792 1.191514 -0.921580 30.000000
1.736652 1.184183 -0.933673 34.000000
1.760906 1.171206 -0.941599 28.000000
1.789017 1.160232 -0.951515 35.000000
1.805488 1.141507 -0.955338 34.000000
1.836975 1.132483 -0.967566 19.000000
1.865028 1.120007 -0.977422 32.000000
1.888696 1.105224 -0.985547 32.000000
1.904815 1.084995 -0.989141 26.000000
1.932274 1.071594 -0.999217 26.000000
1.931721 1.042460 -0.994875 18.000000
1.939237 1.017325 -0.994132 16.000000
1.958208 0.998782 -0.999887 18.000000
1.924126 0.953564 -0.978700 10.000000
1.967212 0.946802 -0.996753 12.000000
1.969226 0.919809 -0.994058 12.000000
1.954015 0.885720 -0.983237 10.000000
1.955345 0.859090 -0.980362 14.000000
1.951843 0.831017 -0.975601 10.000000
1.956765 0.806270 -0.974578 15.000000
1.977950 0.788489 -0.982212 19.000000
1.948276 0.750757 -0.964627 9.000000
1.964783 0.731180 -0.970020 10.000000
1.972608 0.708199 -0.971147 15.000000
1.980292 0.685076 -0.972205 16.000000
1.966182 0.654790 -0.962590 19.000000
1.981931 0.634473 -0.967713 16.000000
1.979919 0.608766 -0.964542 15.000000
1.964603 0.579346 -0.955024 20.000000
1.966450 0.555217 -0.953806 10.000000
1.989861 0.537022 -0.963098 13.000000
1.991238 0.512704 -0.961743 15.000000
1.987983 0.487271 -0.958127 12.000000
1.979859 0.461085 -0.952659 20.000000
1.966974 0.434163 -0.944919 14.000000
1.976022 0.412204 -0.947723 15.000000
1.980377 0.389202 -0.948335 18.000000
1.966797 0.362848 -0.940302 13.000000
1.173955 0.160752 -0.558613 80.000000
1.180161 0.147641 -0.560906 95.000000
1.181726 0.133916 -0.561026 98.000000
1.183091 0.120191 -0.561267 95.000000
1.179832 0.106022 -0.559293 98.000000
1.185378 0.092702 -0.561668 55.000000
1.181830 0.078637 -0.559572 93.000000
1.182630 0.064884 -0.559692 95.000000
1.187786 0.051367 -0.561909 87.000000
1.183749 0.037419 -0.559812 95.000000
1.188589 0.023757 -0.562029 95.000000
1.152589 0.009689 -0.545011 100.000000
1.152628 -0.003696 -0.544972 98.000000
1.157070 -0.017148 -0.547070 100.000000
1.156875 -0.030586 -0.546914 103.000000
1.156445 -0.044023 -0.546875 100.000000
1.151383 -0.057198 -0.544661 103.000000
1.150722 -0.070583 -0.544505 95.000000
1.167863 -0.085245 -0.553007 95.000000
1.162449 -0.098419 -0.550596 98.000000
1.161307 -0.111883 -0.550399 100.000000
1.160047 -0.125347 -0.550163 95.000000
1.167532 -0.139926 -0.554309 95.000000
1.156977 -0.152314 -0.549848 100.000000
1.159801 -0.166341 -0.551584 95.000000
1.180298 -0.183248 -0.561910 87.000000
1.173700 -0.196279 -0.559581 95.000000
1.180442 -0.211439 -0.563392 95.000000
1.173611 -0.224337 -0.560984 98.000000
1.171113 -0.237953 -0.560581 95.000000
1.172881 -0.252522 -0.562300 95.000000
1.165675 -0.265104 -0.559695 98.000000
1.167220 -0.279654 -0.561289 95.000000
1.177244 -0.296560 -0.567234 85.000000
1.165171 -0.307944 -0.562555 65.000000
1.161761 -0.321501 -0.562027 86.000000
1.153835 -0.333717 -0.559348 95.000000
1.171898 -0.353650 -0.569284 84.000000
1.570345 -0.554510 -0.770557 52.000000
1.658010 -0.607160 -0.815739 10.000000
1.757428 -0.666648 -0.867090 24.000000
1.771301 -0.695350 -0.876348 20.000000
1.784739 -0.724480 -0.885576 28.000000
1.751510 -0.734829 -0.872024 26.000000
1.639259 -0.709950 -0.818550 34.000000
1.268268 -0.584291 -0.637460 58.000000
1.270023 -0.602997 -0.640670 29.000000
1.271552 -0.621848 -0.643820 71.000000
1.289118 -0.648937 -0.655177 52.000000
1.658835 -0.908509 -0.853481 29.000000
1.724517 -0.970235 -0.890900 26.000000
1.768867 -1.022588 -0.918135 18.000000
1.777480 -1.054668 -0.926446 9.000000
1.820300 -1.108925 -0.953439 11.000000
1.831706 -1.144464 -0.963596 11.000000
1.834386 -1.175832 -0.969925 15.000000
1.809902 -1.189918 -0.961945 10.000000
1.800529 -1.213737 -0.962017 10.000000
1.806006 -1.247900 -0.970093 10.000000
1.799704 -1.274429 -0.972075 10.000000
1.793213 -1.300912 -0.973967 9.000000
1.764258 -1.311035 -0.963721 10.000000
1.768204 -1.345561 -0.971465 10.000000
1.778860 -1.385927 -0.983084 10.000000
1.763846 -1.406722 -0.980682 10.000000
1.755714 -1.433095 -0.982181 10.000000
1.757114 -1.468843 -0.989914 10.000000
1.744843 -1.492310 -0.989227 10.000000
1.759939 -1.539831 -1.004315 9.000000
1.722078 -1.542556 -0.990097 9.000000
1.725999 -1.581149 -0.999034 10.000000
1.718359 -1.611250 -1.002422 10.000000
1.707896 -1.637544 -1.003357 10.000000
1.689621 -1.657936 -1.000691 9.000000
1.691571 -1.697046 -1.009198 10.000000
1.675983 -1.720582 -1.008356 9.000000
1.682345 -1.767342 -1.020934 9.000000
1.663780 -1.786715 -1.017624 9.000000
1.668948 -1.833892 -1.029982 9.000000
1.660990 -1.867612 -1.034517 10.000000
1.635439 -1.879707 -1.027156 9.000000
1.635767 -1.923864 -1.037247 10.000000
1.611732 -1.939799 -1.032104 9.000000
1.602116 -1.973387 -1.036328 9.000000
1.626565 -2.050642 -1.062996 9.000000
1.587114 -2.048057 -1.048210 8.000000
1.584361 -2.092877 -1.057795 9.000000
1.580874 -2.137821 -1.067118 9.000000
1.565683 -2.167998 -1.069014 9.000000
1.550161 -2.198108 -1.070694 9.000000
1.544759 -2.243460 -1.079794 9.000000
1.528132 -2.273459 -1.081277 9.000000
1.523928 -2.322922 -1.091955 9.000000
1.508828 -2.356735 -1.095053 9.000000
1.503171 -2.406412 -1.105448 9.000000
1.484429 -2.436290 -1.106504 9.000000
1.481920 -2.494226 -1.120219 9.000000
1.461983 -2.524185 -1.121140 9.000000
1.441594 -2.553933 -1.122017 9.000000
0.643544 1.147608 -0.492745 10.000000
0.730585 1.269557 -0.551007 24.000000
0.912949 1.546699 -0.678691 30.000000
0.968262 1.599609 -0.709717 27.000000
0.990278 1.595830 -0.715964 21.000000
0.999874 1.572049 -0.713361 25.000000
1.010121 1.547660 -0.710354 10.000000
1.039702 1.554903 -0.722015 21.000000
1.048503 1.530821 -0.719164 25.000000
1.073049 1.529632 -0.727216 21.000000
1.092226 1.520504 -0.731545 28.000000
1.097573 1.492318 -0.726816 24.000000
0.802993 1.017982 -0.514653 24.000000
0.758585 0.939691 -0.481152 29.000000
0.762867 0.923408 -0.478987 23.000000
0.772354 0.914590 -0.480679 34.000000
0.767115 0.887793 -0.472792 31.000000
0.779875 0.882039 -0.476095 26.000000
0.783270 0.865789 -0.473769 31.000000
0.783254 0.846211 -0.469497 26.000000
0.807935 0.853940 -0.480475 37.000000
1.322505 1.366028 -0.779593 33.000000
1.350447 1.363302 -0.789333 33.000000
1.371272 1.354156 -0.795619 30.000000
1.396197 1.347235 -0.803394 42.000000
1.407642 1.327341 -0.803527 32.000000
1.424972 1.314038 -0.807815 32.000000
1.449803 1.306191 -0.815522 34.000000
1.477455 1.301472 -0.825514 16.000000
1.495348 1.286691 -0.829407 30.000000
1.516049 1.275185 -0.835448 30.000000
1.533188 1.260328 -0.839561 29.000000
1.557966 1.250558 -0.847193 37.000000
1.596620 1.252156 -0.862943 30.000000
1.621031 1.241840 -0.870914 32.000000
1.645352 1.231064 -0.878844 32.000000
1.658584 1.211694 -0.880822 15.000000
1.675420 1.194854 -0.884707 32.000000
1.699646 1.183035 -0.892558 35.000000
1.731431 1.175903 -0.904332 31.000000
1.759463 1.165652 -0.914020 36.000000
1.775950 1.147365 -0.917836 31.000000
1.803989 1.136176 -0.927502 34.000000
1.831960 1.124481 -0.937127 36.000000
1.851702 1.108003 -0.943136 18.000000
1.879677 1.095306 -0.952740 36.000000
1.919145 1.089310 -0.968692 39.000000
1.935140 1.068797 -0.972176 31.000000
1.966639 1.057150 -0.984027 30.000000
1.986438 1.038080 -0.989406 21.000000
1.997504 1.014902 -0.991051 22.000000
2.004321 0.989550 -0.990670 27.000000
1.977832 0.948413 -0.973901 10.000000
1.996369 0.929124 -0.979430 18.000000
2.002209 0.903930 -0.978719 20.000000
2.007568 0.878906 -0.978296 16.000000
1.996078 0.846485 -0.969337 21.000000
2.005283 0.823074 -0.970425 19.000000
2.005573 0.796441 -0.967710 12.000000
2.014018 0.773201 -0.969009 21.000000
1.996593 0.740234 -0.957929 9.000000
2.004503 0.717003 -0.959069 18.000000
2.012199 0.693702 -0.960138 26.000000
2.006706 0.665952 -0.954890 19.000000
2.009588 0.641132 -0.953751 25.000000
2.003235 0.613885 -0.948694 19.000000
1.996864 0.586661 -0.943204 20.000000
2.007454 0.564673 -0.946176 24.000000
1.987087 0.534308 -0.934609 10.000000
2.010377 0.515728 -0.943715 17.000000
2.024646 0.494718 -0.948762 24.000000
2.021092 0.469039 -0.945245 20.000000
2.003817 0.440774 -0.935638 21.000000
1.999521 0.415731 -0.932174 25.000000
2.008369 0.393379 -0.934868 22.000000
1.999141 0.367635 -0.929113 23.000000
1.985172 0.341294 -0.921204 10.000000
1.939372 0.310408 -0.898923 32.000000
1.177160 0.146757 -0.543777 103.000000
1.174158 0.132626 -0.541971 98.000000
1.175507 0.119058 -0.542209 98.000000
1.172210 0.105045 -0.540282 98.000000
1.177808 0.091803 -0.542487 98.000000
1.183333 0.078456 -0.544613 62.000000
1.184090 0.064756 -0.544732 98.000000
1.189266 0.051252 -0.546899 103.000000
1.189786 0.037499 -0.546899 103.000000
1.190066 0.023747 -0.547019 100.000000
1.185723 0.009917 -0.544971 100.000000
1.190306 -0.003798 -0.547059 100.000000
1.190186 -0.017550 -0.546979 98.000000
1.185444 -0.031223 -0.544772 95.000000
1.180466 -0.044751 -0.542645 98.000000
1.179910 -0.058398 -0.542526 98.000000
1.174700 -0.071769 -0.540321 98.000000
1.191960 -0.086682 -0.548585 34.000000
1.177331 -0.099341 -0.542209 100.000000
1.180705 -0.113383 -0.544095 95.000000
1.170393 -0.126070 -0.539689 95.000000
1.164496 -0.139047 -0.537329 98.000000
1.167389 -0.153101 -0.539214 95.000000
1.165650 -0.166617 -0.538938 98.000000
1.168286 -0.180789 -0.540701 95.000000
1.188731 -0.198014 -0.550735 32.000000
1.137217 -0.203011 -0.527642 98.000000
1.130463 -0.215337 -0.525256 95.000000
1.132528 -0.229288 -0.526945 95.000000
1.125521 -0.241434 -0.524484 98.000000
1.118458 -0.253438 -0.521949 98.000000
1.133281 -0.270664 -0.529883 100.000000
1.156844 -0.290360 -0.541742 95.000000
1.188872 -0.313028 -0.557790 45.000000
1.930779 -0.604863 -0.913596 19.000000
1.941338 -0.632939 -0.920937 20.000000
1.938614 -0.656961 -0.922034 19.000000
1.935654 -0.680946 -0.923058 19.000000
1.936739 -0.706526 -0.925988 15.000000
1.924746 -0.727328 -0.922769 10.000000
1.938014 -0.757866 -0.931677 23.000000
1.921339 -0.776849 -0.926205 18.000000
1.921036 -0.802815 -0.929242 23.000000
1.299980 -0.596714 -0.635017 98.000000
1.878708 -0.969174 -0.931247 17.000000
1.887995 -1.001966 -0.939972 17.000000
1.885203 -1.028228 -0.942280 18.000000
1.865691 -1.045933 -0.936765 11.000000
1.870316 -1.076596 -0.942920 17.000000
1.866205 -1.103181 -0.945264 11.000000
1.854368 -1.124689 -0.943243 10.000000
1.845776 -1.148837 -0.943501 18.000000
1.848516 -1.180340 -0.949640 15.000000
1.843213 -1.206958 -0.951782 12.000000
1.837507 -1.233683 -0.953762 16.000000
1.816406 -1.249951 -0.947827 10.000000
1.836511 -1.294952 -0.963510 13.000000
1.814880 -1.311057 -0.957414 10.000000
1.796915 -1.329425 -0.953223 9.000000
1.804461 -1.367009 -0.962739 15.000000
1.796871 -1.393672 -0.964316 10.000000
1.799829 -1.428869 -0.971640 11.000000
1.783764 -1.450264 -0.969508 13.000000
1.771698 -1.473923 -0.968933 10.000000
1.780410 -1.515368 -0.979790 15.000000
1.749555 -1.524442 -0.969835 10.000000
1.743621 -1.553841 -0.972839 9.000000
1.770600 -1.615064 -0.995378 16.000000
1.756793 -1.638568 -0.994360 11.000000
1.738544 -1.659436 -0.991742 10.000000
1.726751 -1.686607 -0.992928 16.000000
1.725278 -1.722786 -0.999303 10.000000
1.722408 -1.759750 -1.006024 17.000000
1.702926 -1.780206 -1.003182 9.000000
1.706499 -1.823451 -1.013010 9.000000
1.698946 -1.857283 -1.017545 15.000000
1.681572 -1.880957 -1.016348 10.000000
1.676169 -1.918350 -1.022506 13.000000
1.670217 -1.955856 -1.028606 13.000000
1.635121 -1.957052 -1.015637 10.000000
1.648947 -2.019603 -1.034498 15.000000
1.632748 -2.046390 -1.034750 9.000000
1.613359 -2.069388 -1.033145 9.000000
1.613376 -2.118118 -1.044221 13.000000
1.609796 -2.163387 -1.053378 9.000000
1.602734 -2.205086 -1.060545 13.000000
1.586907 -2.235415 -1.062125 10.000000
1.581286 -2.281094 -1.070956 10.000000
1.553975 -2.296022 -1.065168 10.000000
1.557550 -2.357281 -1.080832 9.000000
1.535468 -2.384431 -1.080700 9.000000
1.524736 -2.426427 -1.087173 10.000000
1.510864 -2.464418 -1.091797 9.000000
1.505983 -2.518581 -1.103297 10.000000
1.485887 -2.548608 -1.104249 10.000000
1.467653 -2.582687 -1.106714 9.000000
0.628911 1.145240 -0.474249 10.000000
0.665112 1.178130 -0.493110 10.000000
0.925067 1.557346 -0.666147 24.000000
0.961193 1.578260 -0.682598 33.000000
0.990438 1.586661 -0.693940 29.000000
1.010986 1.578125 -0.698120 23.000000
1.009905 1.538574 -0.688422 24.000000
1.034231 1.538174 -0.696275 24.000000
1.048013 1.521934 -0.697048 29.000000
1.069736 1.517040 -0.703061 27.000000
1.097035 1.519414 -0.712654 26.000000
1.116149 1.510076 -0.716946 33.000000
1.126770 1.489258 -0.715820 26.000000
1.114252 1.438934 -0.700246 27.000000
0.782547 0.943069 -0.476872 44.000000
0.780723 0.919518 -0.471082 32.000000
0.787629 0.906716 -0.470719 37.000000
0.788198 0.886874 -0.466685 31.000000
0.797809 0.877496 -0.468086 32.000000
0.797421 0.858098 -0.464079 67.000000
1.321194 1.358298 -0.755662 32.000000
1.352383 1.358937 -0.767002 50.000000
1.366563 1.343372 -0.769397 33.000000
1.394687 1.339903 -0.778884 35.000000
1.406006 1.320059 -0.779048 43.000000
1.430147 1.313147 -0.786904 39.000000
1.454939 1.305356 -0.794534 35.000000
1.465175 1.285432 -0.794835 29.000000
1.493492 1.279942 -0.804268 30.000000
1.514073 1.268568 -0.810203 36.000000
1.535304 1.256312 -0.815765 37.000000
1.563097 1.249923 -0.825486 34.000000
1.584256 1.236912 -0.831024 55.000000
1.601137 1.221260 -0.834930 36.000000
1.621648 1.208082 -0.840699 33.000000
1.664402 1.210888 -0.858027 31.000000
1.681229 1.194096 -0.861861 36.000000
1.713001 1.187521 -0.873364 44.000000
1.729648 1.170033 -0.877162 56.000000
1.753835 1.157395 -0.884711 55.000000
1.781854 1.146771 -0.894226 57.000000
1.802150 1.130749 -0.899806 37.000000
1.830125 1.119208 -0.909303 34.000000
1.850191 1.102445 -0.914777 33.000000
1.869788 1.085713 -0.920551 38.000000
1.897707 1.072749 -0.929904 53.000000
1.937622 1.065912 -0.945105 51.000000
1.981339 1.060883 -0.962614 49.000000
2.000831 1.042146 -0.968275 33.000000
2.016392 1.020621 -0.971523 27.000000
2.019037 0.993219 -0.969218 27.000000
2.025586 0.967763 -0.968733 18.000000
2.027631 0.940323 -0.966183 20.000000
2.029443 0.912927 -0.963621 22.000000
2.039285 0.889320 -0.964879 19.000000
2.032008 0.858352 -0.958169 19.000000
2.036792 0.833276 -0.957642 25.000000
2.028825 0.802727 -0.950678 20.000000
2.037323 0.779267 -0.951985 17.000000
2.019818 0.746136 -0.941205 17.000000
2.027779 0.722757 -0.942352 23.000000
2.026862 0.696259 -0.939413 25.000000
2.034360 0.672764 -0.940413 26.000000
2.028486 0.644966 -0.935236 23.000000
2.035439 0.621410 -0.936088 26.000000
2.033255 0.595352 -0.933121 24.000000
2.021922 0.566956 -0.925970 21.000000
2.041341 0.546975 -0.932586 16.000000
2.051624 0.524492 -0.935382 24.000000
2.052620 0.499814 -0.934349 30.000000
2.044615 0.472895 -0.928912 24.000000
2.049517 0.449363 -0.929682 26.000000
2.027565 0.419987 -0.918013 23.000000
2.045445 0.399181 -0.924650 21.000000
2.027077 0.371544 -0.915337 21.000000
2.008552 0.344218 -0.905597 26.000000
1.998691 0.318785 -0.899844 32.000000
1.184528 0.133375 -0.531152 98.000000
1.190426 0.120174 -0.533387 103.000000
1.187117 0.106015 -0.531510 103.000000
1.192744 0.092669 -0.533667 95.000000
1.202856 0.079519 -0.537781 100.000000
1.203622 0.065621 -0.537942 100.000000
1.199705 0.051568 -0.535984 98.000000
1.204750 0.037866 -0.538022 103.000000
1.205072 0.023969 -0.538143 100.000000
1.205233 0.010071 -0.538184 103.000000
1.200708 -0.003812 -0.536145 100.000000
1.200628 -0.017657 -0.536065 95.000000
1.191259 -0.031223 -0.531869 95.000000
1.195423 -0.045135 -0.533867 98.000000
1.194863 -0.058928 -0.533747 98.000000
1.189626 -0.072403 -0.531550 78.000000
1.188750 -0.086142 -0.531510 95.000000
1.196815 -0.100607 -0.535423 98.000000
1.195652 -0.114412 -0.535262 100.000000
1.189826 -0.127690 -0.532987 100.000000
1.183811 -0.140902 -0.530793 98.000000
1.186788 -0.155075 -0.532467 98.000000
1.185069 -0.168747 -0.532187 98.000000
1.183190 -0.182420 -0.531868 98.000000
1.176563 -0.195344 -0.529638 74.000000
1.147375 -0.204121 -0.517191 95.000000
1.140667 -0.216421 -0.514697 95.000000
1.156189 -0.233214 -0.522448 100.000000
1.149041 -0.245643 -0.520149 100.000000
1.177599 -0.265909 -0.533833 100.000000
1.904748 -0.546932 -0.871735 27.000000
1.964580 -0.588574 -0.900908 23.000000
1.971129 -0.615363 -0.906115 18.000000
1.977314 -0.642455 -0.911242 22.000000
1.965908 -0.663851 -0.908198 22.000000
1.958581 -0.686523 -0.907161 22.000000
1.955353 -0.710691 -0.907986 10.000000
1.947525 -0.733206 -0.906808 18.000000
1.948103 -0.758910 -0.909481 19.000000
1.952375 -0.786735 -0.914414 22.000000
1.931195 -0.803859 -0.907046 21.000000
1.934935 -0.831699 -0.911823 21.000000
1.867023 -0.828060 -0.882721 23.000000
1.732607 -0.792436 -0.822072 36.000000
1.719778 -0.810489 -0.818828 12.000000
1.872040 -0.908613 -0.894512 20.000000
1.915523 -0.956873 -0.918618 24.000000
1.917049 -0.985647 -0.923244 21.000000
1.906386 -1.007760 -0.921598 24.000000
1.899478 -1.031854 -0.921770 21.000000
1.908089 -1.065300 -0.930126 23.000000
1.880234 -1.078465 -0.920712 18.000000
1.888500 -1.111630 -0.928525 10.000000
1.895860 -1.145619 -0.936591 18.000000
1.883237 -1.167711 -0.934829 16.000000
1.870392 -1.189656 -0.933068 16.000000
1.868838 -1.219010 -0.936967 19.000000
1.855471 -1.240723 -0.935047 16.000000
1.853299 -1.270112 -0.938836 16.000000
1.858288 -1.304923 -0.946373 19.000000
1.847772 -1.329165 -0.946190 10.000000
1.848204 -1.361487 -0.951668 15.000000
1.826038 -1.377308 -0.945573 17.000000
1.825794 -1.409757 -0.950853 15.000000
1.820838 -1.439987 -0.954502 18.000000
1.816077 -1.469706 -0.957740 14.000000
1.803227 -1.494235 -0.957475 18.000000
1.797763 -1.523909 -0.960588 16.000000
1.805244 -1.566519 -0.971437 10.000000
1.781620 -1.581074 -0.964926 16.000000
1.791428 -1.627028 -0.977555 17.000000
1.780941 -1.653891 -0.978342 17.000000
1.772723 -1.684509 -0.981370 19.000000
1.757395 -1.708733 -0.980654 16.000000
1.745937 -1.735342 -0.981215 19.000000
1.739802 -1.769217 -0.985931 16.000000
1.733214 -1.803075 -0.990443 10.000000
1.710163 -1.820126 -0.985735 13.000000
1.716347 -1.866951 -0.997010 15.000000
1.711449 -1.904556 -1.003136 17.000000
1.702931 -1.938611 -1.007303 19.000000
1.684749 -1.962266 -1.005988 13.000000
1.684302 -2.007082 -1.015418 23.000000
1.665393 -2.030497 -1.013874 16.000000
1.669584 -2.082856 -1.026678 10.000000
1.635375 -2.087792 -1.016032 10.000000
1.635381 -2.136709 -1.026826 10.000000
1.623462 -2.170929 -1.030417 11.000000
1.627506 -2.227805 -1.044402 13.000000
1.611531 -2.258405 -1.046002 11.000000
1.597806 -2.292678 -1.049232 17.000000
1.581024 -2.323059 -1.050568 13.000000
1.589651 -2.392473 -1.069308 10.000000
1.563928 -2.411180 -1.065286 10.000000
1.543854 -2.442344 -1.066739 10.000000
1.542266 -2.500427 -1.079854 13.000000
1.527529 -2.538789 -1.084146 13.000000
1.507414 -2.568950 -1.084947 10.000000
1.498516 -2.619488 -1.094229 16.000000
1.488928 -2.675183 -1.105397 10.000000
0.652464 1.180073 -0.476070 10.000000
0.937082 1.567902 -0.653376 30.000000
0.963611 1.572821 -0.662684 24.000000
0.995364 1.585235 -0.675439 30.000000
1.018433 1.580688 -0.681213 24.000000
1.014573 1.537231 -0.670101 18.000000
1.033652 1.529040 -0.674269 29.000000
1.055367 1.524465 -0.680172 28.000000
1.071700 1.511989 -0.682643 29.000000
1.093422 1.506802 -0.688523 27.000000
1.115186 1.501364 -0.694427 26.000000
1.134155 1.491882 -0.698547 30.000000
1.150146 1.478394 -0.700928 24.000000
1.099890 1.380040 -0.662580 27.000000
0.794563 0.931888 -0.465104 65.000000
0.795424 0.911891 -0.461201 31.000000
0.805304 0.902445 -0.462624 43.000000
0.805664 0.882578 -0.458633 35.000000
0.863002 0.924161 -0.486912 105.000000
1.332670 1.363687 -0.739103 62.000000
1.347523 1.347898 -0.741163 33.000000
1.371552 1.342194 -0.748862 66.000000
1.386200 1.325911 -0.750874 37.000000
1.407522 1.315797 -0.756477 44.000000
1.441891 1.318460 -0.769684 63.000000
1.466842 1.310580 -0.777118 32.000000
1.463727 1.277867 -0.769782 24.000000
1.484253 1.267062 -0.775580 35.000000
1.512493 1.261273 -0.784713 31.000000
1.547412 1.261406 -0.797917 56.000000
1.575912 1.254531 -0.807128 51.000000
1.592885 1.239169 -0.810979 36.000000
1.606094 1.220650 -0.812970 57.000000
1.619634 1.201533 -0.814563 32.000000
1.647523 1.193625 -0.823929 28.000000
1.675445 1.185168 -0.833329 62.000000
1.711018 1.181420 -0.846465 35.000000
1.712244 1.153723 -0.842579 76.000000
1.744033 1.146493 -0.853745 35.000000
1.768103 1.133615 -0.861156 36.000000
1.807816 1.130131 -0.876052 57.000000
1.827951 1.113839 -0.881478 35.000000
1.851955 1.099582 -0.888824 27.000000
1.863900 1.077895 -0.890318 46.000000
1.891733 1.065131 -0.899466 46.000000
1.943481 1.065601 -0.920361 76.000000
1.983714 1.058030 -0.935195 46.000000
2.007224 1.041594 -0.942676 36.000000
2.031022 1.024275 -0.949801 36.000000
2.041930 1.000804 -0.951381 21.000000
2.040122 0.971237 -0.947087 10.000000
2.054699 0.949544 -0.950443 24.000000
2.060683 0.923834 -0.949854 21.000000
2.070702 0.899983 -0.951199 22.000000
2.071856 0.872333 -0.948508 20.000000
2.072782 0.844805 -0.945807 17.000000
2.055981 0.810864 -0.935522 18.000000
2.064844 0.786987 -0.936548 11.000000
2.025683 0.745694 -0.916302 10.000000
2.059570 0.731606 -0.929184 24.000000
2.054341 0.703362 -0.924324 21.000000
2.053166 0.676715 -0.921411 23.000000
2.051642 0.650198 -0.918419 24.000000
2.054241 0.625151 -0.917311 20.000000
2.065424 0.602639 -0.919990 27.000000
2.058499 0.575148 -0.915086 19.000000
2.042331 0.545520 -0.906088 10.000000
2.065967 0.526545 -0.914746 24.000000
2.053702 0.498352 -0.907632 17.000000
2.063513 0.475730 -0.910168 22.000000
2.068507 0.452024 -0.911012 22.000000
2.068863 0.427179 -0.909457 20.000000
2.077863 0.404261 -0.912068 24.000000
2.077637 0.379449 -0.910651 18.000000
2.054416 0.351016 -0.899465 19.000000
2.021890 0.321556 -0.883956 31.000000
1.970734 0.290256 -0.860702 34.000000
1.254066 0.140739 -0.545963 98.000000
1.209839 0.121712 -0.526312 100.000000
1.206522 0.107395 -0.524528 100.000000
1.203076 0.093183 -0.522621 90.000000
1.222270 0.080586 -0.530773 98.000000
1.218544 0.066240 -0.528785 100.000000
1.219194 0.052237 -0.528867 100.000000
1.219681 0.038234 -0.528907 100.000000
1.220005 0.024231 -0.529029 100.000000
1.220208 0.010188 -0.529069 100.000000
1.211074 -0.003787 -0.525051 98.000000
1.220127 -0.017859 -0.528988 95.000000
1.215338 -0.031742 -0.526878 95.000000
1.210309 -0.045560 -0.524810 95.000000
1.205162 -0.059233 -0.522741 91.000000
1.218179 -0.073911 -0.528664 92.000000
1.231056 -0.088906 -0.534421 69.000000
1.207167 -0.101111 -0.524326 98.000000
1.205998 -0.115009 -0.524165 100.000000
1.222963 -0.130778 -0.531862 84.000000
1.226007 -0.145385 -0.533682 95.000000
1.197016 -0.155907 -0.521537 95.000000
1.199835 -0.170317 -0.523279 98.000000
1.229706 -0.188976 -0.536823 95.000000
1.191277 -0.197122 -0.520735 50.000000
1.193672 -0.211567 -0.522272 98.000000
1.195808 -0.226157 -0.523926 98.000000
1.260846 -0.253442 -0.553198 105.000000
1.501560 -0.337883 -0.660891 103.000000
1.622965 -0.384846 -0.715576 98.000000
1.730181 -0.431302 -0.764266 56.000000
1.876579 -0.490732 -0.830465 25.000000
1.950983 -0.534155 -0.865015 19.000000
1.971666 -0.564101 -0.875858 18.000000
2.009473 -0.599989 -0.894730 23.000000
1.994009 -0.620426 -0.889905 16.000000
2.000212 -0.647677 -0.894879 20.000000
1.997460 -0.672156 -0.895859 23.000000
1.985707 -0.693561 -0.892787 14.000000
2.004077 -0.725769 -0.903378 11.000000
1.978919 -0.742331 -0.894313 17.000000
1.974948 -0.766901 -0.895279 16.000000
1.975216 -0.792935 -0.897832 22.000000
1.966404 -0.815705 -0.896634 19.000000
1.965854 -0.842034 -0.899311 22.000000
1.952292 -0.862897 -0.896102 25.000000
1.921844 -0.875802 -0.885097 16.000000
1.920621 -0.901877 -0.887628 15.000000
1.948179 -0.942065 -0.903492 18.000000
1.942006 -0.966521 -0.903841 19.000000
1.947612 -0.997529 -0.910231 26.000000
1.928663 -1.015575 -0.904734 18.000000
1.921418 -1.040245 -0.905207 20.000000
1.918308 -1.066677 -0.907223 20.000000
1.910435 -1.091221 -0.907607 16.000000
1.938260 -1.136838 -0.925043 16.000000
1.925653 -1.159307 -0.923338 16.000000
1.912898 -1.181703 -0.921632 14.000000
1.903830 -1.206353 -0.921671 21.000000
1.894485 -1.230872 -0.921702 16.000000
1.884862 -1.255405 -0.921650 18.000000
1.878785 -1.282417 -0.923472 18.000000
1.860977 -1.301413 -0.919498 13.000000
1.888306 -1.352645 -0.937999 10.000000
1.862409 -1.366126 -0.930179 10.000000
1.858186 -1.396449 -0.933871 15.000000
1.857764 -1.429174 -0.939015 22.000000
1.842430 -1.450519 -0.936626 15.000000
1.833403 -1.478002 -0.938247 18.000000
1.835469 -1.513828 -0.945000 16.000000
1.825698 -1.541467 -0.946495 15.000000
1.819787 -1.571448 -0.949337 16.000000
1.802353 -1.592826 -0.946971 10.000000
1.808766 -1.635901 -0.957394 14.000000
1.812009 -1.675416 -0.965526 22.000000
1.786641 -1.690283 -0.959304 13.000000
1.788039 -1.730758 -0.967598 20.000000
1.766555 -1.747768 -0.962777 16.000000
1.763753 -1.785097 -0.969017 10.000000
1.776468 -1.839265 -0.984186 17.000000
1.743496 -1.846592 -0.974180 10.000000
1.754919 -1.901332 -0.989129 16.000000
1.756035 -1.946071 -0.998545 20.000000
1.719260 -1.949173 -0.986591 14.000000
1.716374 -1.990531 -0.994065 21.000000
1.704845 -2.020554 -0.995750 13.000000
1.706777 -2.069361 -1.006527 16.000000
1.684219 -2.089296 -1.003205 14.000000
1.680633 -2.135529 -1.012451 9.000000
1.680308 -2.184902 -1.022827 14.000000
1.653893 -2.200802 -1.017594 10.000000
1.649507 -2.246624 -1.026013 10.000000
1.641724 -2.288818 -1.032715 16.000000
1.619699 -2.311799 -1.030584 13.000000
1.616076 -2.361808 -1.040493 13.000000
1.601062 -2.396308 -1.043398 11.000000
1.593329 -2.442593 -1.051245 9.000000
1.568040 -2.466053 -1.049245 11.000000
1.558980 -2.512441 -1.056952 12.000000
1.551570 -2.562885 -1.066146 10.000000
1.536186 -2.601324 -1.070224 12.000000
1.529953 -2.661177 -1.082947 10.000000
1.508264 -2.691503 -1.083447 10.000000
0.687733 1.235538 -0.485255 9.000000
0.912100 1.557412 -0.624970 20.000000
0.954040 1.586519 -0.643604 17.000000
0.973325 1.579292 -0.647824 19.000000
0.992635 1.571767 -0.651997 16.000000
1.017034 1.571862 -0.659446 18.000000
1.013990 1.527841 -0.648353 14.000000
1.040848 1.531498 -0.657479 22.000000
1.054529 1.515339 -0.658198 24.000000
1.078933 1.514400 -0.665646 19.000000
1.092314 1.497880 -0.666306 23.000000
1.119618 1.500091 -0.675439 19.000000
1.139478 1.490040 -0.679206 16.000000
1.161221 1.483986 -0.684936 20.000000
1.112549 1.389674 -0.649498 16.000000
1.124552 1.372972 -0.649918 31.000000
0.816097 0.930784 -0.458262 37.000000
0.813611 0.907199 -0.452707 21.000000
0.845619 0.921764 -0.466321 93.000000
1.320376 1.346203 -0.710243 28.000000
1.345011 1.340489 -0.717513 32.000000
1.369616 1.334417 -0.724812 28.000000
1.384157 1.318254 -0.726746 34.000000
1.401993 1.305086 -0.730400 27.000000
1.432895 1.304790 -0.741524 24.000000
1.464642 1.303336 -0.752316 32.000000
1.464849 1.273784 -0.746929 10.000000
1.485349 1.263006 -0.752624 31.000000
1.506427 1.251425 -0.757956 29.000000
1.541338 1.251752 -0.770799 25.000000
1.562485 1.239277 -0.776116 29.000000
1.590337 1.232666 -0.785347 28.000000
1.615121 1.222309 -0.792460 24.000000
1.624387 1.200890 -0.792492 29.000000
1.645245 1.187065 -0.797675 10.000000
1.661688 1.170783 -0.801371 32.000000
1.708773 1.175228 -0.819645 30.000000
1.721363 1.155424 -0.821414 29.000000
1.745411 1.143122 -0.828652 32.000000
1.769487 1.130345 -0.835844 30.000000
1.793520 1.117158 -0.843058 26.000000
1.829411 1.110787 -0.855723 32.000000
1.849428 1.094199 -0.860990 10.000000
1.865317 1.075039 -0.864407 32.000000
1.905316 1.069194 -0.878885 41.000000
1.933239 1.055878 -0.887798 35.000000
1.977149 1.051182 -0.904446 38.000000
2.005115 1.036629 -0.913274 37.000000
2.024393 1.017755 -0.918666 30.000000
2.047998 1.000201 -0.925578 26.000000
2.058658 0.976628 -0.927079 9.000000
2.048066 0.943221 -0.919070 10.000000
2.100435 0.938473 -0.939307 24.000000
2.085042 0.903243 -0.929316 13.000000
2.086249 0.875538 -0.926724 16.000000
2.104296 0.854920 -0.931713 17.000000
2.091989 0.822112 -0.923338 11.000000
2.092021 0.794875 -0.920793 15.000000
2.070280 0.759505 -0.908422 9.000000
2.060931 0.729536 -0.901959 13.000000
2.073027 0.707355 -0.904951 20.000000
2.058602 0.676349 -0.896407 13.000000
2.083449 0.658155 -0.904991 18.000000
2.077263 0.630171 -0.900111 21.000000
2.079642 0.604928 -0.898912 18.000000
2.077115 0.578619 -0.896076 19.000000
2.061080 0.548667 -0.887117 9.000000
2.080282 0.528461 -0.893658 14.000000
2.081401 0.503464 -0.892444 20.000000
2.082285 0.478500 -0.891156 14.000000
2.078285 0.452728 -0.888151 14.000000
2.083138 0.428741 -0.888573 18.000000
2.074054 0.402260 -0.883419 13.000000
2.091931 0.380907 -0.889769 14.000000
2.059568 0.350727 -0.874812 9.000000
2.054054 0.325711 -0.871569 24.000000
2.043877 0.300029 -0.866045 30.000000
1.233847 0.123754 -0.520835 71.000000
1.221345 0.108412 -0.515188 95.000000
1.217845 0.094054 -0.513373 95.000000
1.232573 0.081010 -0.519389 83.000000
1.233431 0.066861 -0.519389 95.000000
1.229481 0.052556 -0.517532 98.000000
1.229970 0.038459 -0.517573 98.000000
1.225688 0.024272 -0.515716 100.000000
1.230459 0.010267 -0.517736 100.000000
1.221282 -0.003801 -0.513818 98.000000
1.225810 -0.017859 -0.515716 100.000000
1.257818 -0.032742 -0.529162 95.000000
1.252795 -0.046982 -0.527141 95.000000
1.224592 -0.059990 -0.515432 95.000000
1.237623 -0.074827 -0.521204 95.000000
1.250596 -0.089980 -0.526809 36.000000
1.240329 -0.103532 -0.522771 95.000000
1.239175 -0.117746 -0.522565 95.000000
1.242359 -0.132448 -0.524417 95.000000
1.240912 -0.146673 -0.524087 95.000000
1.234644 -0.160263 -0.521906 82.000000
1.237438 -0.175040 -0.523590 95.000000
1.235412 -0.189265 -0.523384 71.000000
1.274304 -0.210120 -0.540381 86.000000
1.783378 -0.399952 -0.761534 51.000000
1.850781 -0.437360 -0.791737 32.000000
1.935549 -0.480872 -0.829446 29.000000
1.957085 -0.510006 -0.840164 19.000000
2.000344 -0.545903 -0.860647 10.000000
2.025476 -0.577584 -0.873091 16.000000
2.019005 -0.600894 -0.872325 15.000000
2.012326 -0.624064 -0.871421 16.000000
2.018631 -0.651422 -0.876243 16.000000
2.002722 -0.671595 -0.871379 12.000000
2.012795 -0.700616 -0.877951 17.000000
1.996428 -0.720479 -0.872952 10.000000
1.988374 -0.743522 -0.872041 9.000000
2.006207 -0.776230 -0.882163 19.000000
1.984733 -0.794133 -0.875344 10.000000
1.984475 -0.820510 -0.878000 16.000000
1.966898 -0.839744 -0.873018 11.000000
1.953496 -0.860436 -0.869862 10.000000
1.965084 -0.892451 -0.877945 17.000000
1.955343 -0.914920 -0.876523 10.000000
1.949563 -0.939330 -0.876979 9.000000
1.972233 -0.978470 -0.890770 22.000000
1.941002 -0.990402 -0.879744 13.000000
1.971020 -1.034473 -0.897143 15.000000
1.968054 -1.061288 -0.899116 17.000000
1.944110 -1.077341 -0.892059 11.000000
1.948332 -1.109037 -0.897960 14.000000
1.936098 -1.131515 -0.896339 10.000000
1.907712 -1.144364 -0.887235 9.000000
1.942543 -1.195584 -0.907739 14.000000
1.921647 -1.213024 -0.902250 10.000000
1.916096 -1.240237 -0.904068 10.000000
1.906485 -1.264834 -0.903957 10.000000
1.904212 -1.294601 -0.907505 10.000000
1.916893 -1.335123 -0.918270 14.000000
1.894836 -1.351700 -0.912476 10.000000
1.864617 -1.362910 -0.903359 9.000000
1.879695 -1.406657 -0.915699 10.000000
1.871326 -1.434320 -0.917403 10.000000
1.866965 -1.464338 -0.920512 10.000000
1.861484 -1.495000 -0.923828 10.000000
1.859886 -1.528096 -0.928605 10.000000
1.867880 -1.570851 -0.938968 12.000000
1.851201 -1.592079 -0.936334 10.000000
1.822967 -1.604529 -0.928662 8.000000
1.832966 -1.650806 -0.940532 13.000000
1.808687 -1.665260 -0.934160 10.000000
1.810647 -1.705605 -0.942300 10.000000
1.815473 -1.749513 -0.952149 10.000000
1.796228 -1.770650 -0.949435 10.000000
1.783329 -1.798270 -0.950316 10.000000
1.771113 -1.825052 -0.950681 9.000000
1.770495 -1.866077 -0.958337 8.000000
1.765993 -1.903868 -0.964191 10.000000
1.748348 -1.927883 -0.962968 10.000000
1.736683 -1.958739 -0.965108 10.000000
1.736916 -2.003743 -0.974111 10.000000
1.724211 -2.034663 -0.976163 10.000000
1.723087 -2.080006 -0.984947 11.000000
1.700626 -2.100010 -0.981613 9.000000
1.698329 -2.145556 -0.990189 8.000000
1.695298 -2.191314 -0.998683 10.000000
1.681566 -2.226917 -1.002298 9.000000
1.677155 -2.272888 -1.010468 10.000000
1.658219 -2.300030 -1.010161 9.000000
1.652411 -2.346289 -1.018190 10.000000
1.643259 -2.388737 -1.024468 10.000000
1.620271 -2.411702 -1.022186 9.000000
1.626439 -2.482753 -1.040207 8.000000
1.599758 -2.501661 -1.036176 9.000000
1.590582 -2.548231 -1.043535 9.000000
1.570784 -2.578777 -1.044264 10.000000
1.567970 -2.642708 -1.058372 10.000000
1.549178 -2.677332 -1.060594 9.000000
1.536813 -2.724345 -1.067508 9.000000
1.530703 -2.788857 -1.081172 9.000000
0.890669 1.549741 -0.598439 20.000000
0.923906 1.567852 -0.612012 28.000000
0.960142 1.589390 -0.627274 24.000000
0.963056 1.553400 -0.619852 26.000000
0.984564 1.550082 -0.625491 31.000000
1.013923 1.558363 -0.636010 19.000000
1.022667 1.534685 -0.633536 21.000000
1.037318 1.518166 -0.633989 24.000000
1.064295 1.521544 -0.642907 25.000000
1.061300 1.482191 -0.633752 33.000000
1.091036 1.488802 -0.644229 24.000000
1.119195 1.490532 -0.652869 29.000000
1.129359 1.469972 -0.651842 31.000000
1.156725 1.471546 -0.660718 19.000000
1.157768 1.439674 -0.654550 23.000000
1.176193 1.429734 -0.658378 24.000000
1.185481 1.408796 -0.657175 31.000000
1.179141 1.369922 -0.647461 47.000000
1.234102 1.310251 -0.653723 30.000000
1.310230 1.360038 -0.688177 32.000000
1.334839 1.354738 -0.695290 26.000000
1.359543 1.348960 -0.702371 33.000000
1.370867 1.329755 -0.702574 37.000000
1.388679 1.316898 -0.706230 29.000000
1.419625 1.317093 -0.717028 48.000000
1.440937 1.306690 -0.722337 38.000000
1.458691 1.292891 -0.725918 31.000000
1.472847 1.275752 -0.727695 30.000000
1.486240 1.258931 -0.729727 24.000000
1.514502 1.253348 -0.738409 30.000000
1.542771 1.247298 -0.747189 35.000000
1.555969 1.229636 -0.749130 29.000000
1.587999 1.225611 -0.759535 37.000000
1.601026 1.207413 -0.761433 31.000000
1.618077 1.191331 -0.764783 28.000000
1.653561 1.189061 -0.777250 30.000000
1.670023 1.172784 -0.780833 29.000000
1.694580 1.160962 -0.787671 32.000000
1.722519 1.151801 -0.796525 36.000000
1.750479 1.142148 -0.805410 30.000000
1.766718 1.124487 -0.808852 38.000000
1.798654 1.116365 -0.819453 37.000000
1.826591 1.105165 -0.828210 29.000000
1.854598 1.093528 -0.836994 33.000000
1.882601 1.081308 -0.845734 32.000000
1.906529 1.066299 -0.852610 35.000000
1.934482 1.053164 -0.861325 49.000000
1.954113 1.035076 -0.866344 31.000000
1.977468 1.019149 -0.873421 34.000000
2.013515 1.008678 -0.885640 49.000000
2.045135 0.995818 -0.896356 29.000000
2.085461 0.986006 -0.910398 26.000000
2.091756 0.960150 -0.909998 16.000000
2.102028 0.936131 -0.911357 18.000000
2.120607 0.915646 -0.916329 26.000000
2.108958 0.882261 -0.908386 18.000000
2.118492 0.858012 -0.909587 18.000000
2.132051 0.835308 -0.912489 22.000000
2.080276 0.787687 -0.887600 10.000000
2.088608 0.763932 -0.888843 16.000000
2.092490 0.738268 -0.887862 18.000000
2.082791 0.708367 -0.881517 18.000000
2.107952 0.690276 -0.889977 21.000000
2.115319 0.666134 -0.890926 18.000000
2.117954 0.640503 -0.889935 18.000000
2.115959 0.613609 -0.887001 21.000000
2.113618 0.586775 -0.883988 15.000000
2.101898 0.557911 -0.877371 13.000000
2.112260 0.535004 -0.880031 16.000000
2.095537 0.505259 -0.871165 14.000000
2.114341 0.484453 -0.877714 18.000000
2.110425 0.458278 -0.874532 18.000000
2.092634 0.429374 -0.865641 18.000000
2.088038 0.403768 -0.862516 23.000000
2.110544 0.383196 -0.870598 16.000000
2.110004 0.358259 -0.869211 17.000000
2.090934 0.330463 -0.860152 17.000000
2.103516 0.307956 -0.864477 21.000000
2.102148 0.283315 -0.863013 22.000000
2.068314 0.254745 -0.848282 24.000000
1.236089 0.109390 -0.505649 80.000000
1.209535 0.093109 -0.494408 22.000000
1.242754 0.081436 -0.507823 93.000000
1.234370 0.066734 -0.504047 95.000000
1.235022 0.052637 -0.504169 98.000000
1.235510 0.038500 -0.504169 95.000000
1.240465 0.024495 -0.506180 95.000000
1.235999 0.010307 -0.504332 95.000000
1.268446 -0.003930 -0.517555 100.000000
1.272991 -0.018463 -0.519360 100.000000
1.258855 -0.032664 -0.513569 103.000000
1.263067 -0.047197 -0.515416 100.000000
1.267108 -0.061836 -0.517178 100.000000
1.257112 -0.075786 -0.513362 95.000000
1.214673 -0.087124 -0.496175 88.000000
1.213670 -0.101009 -0.496014 98.000000
1.212426 -0.114854 -0.495974 95.000000
1.224957 -0.130167 -0.501348 95.000000
1.218896 -0.143628 -0.499301 98.000000
1.258579 -0.162888 -0.516050 98.000000
2.053482 -0.361656 -0.845535 19.000000
2.085865 -0.391986 -0.860008 19.000000
2.058808 -0.411209 -0.849928 24.000000
2.076850 -0.439578 -0.858820 22.000000
2.062910 -0.461316 -0.854443 21.000000
2.075952 -0.488947 -0.861026 22.000000
2.070407 -0.512811 -0.860535 22.000000
2.028813 -0.527067 -0.844741 9.000000
2.054420 -0.558692 -0.856913 17.000000
2.052649 -0.583493 -0.858008 19.000000
2.055017 -0.609646 -0.860963 20.000000
2.052754 -0.634562 -0.861908 18.000000
2.045689 -0.658017 -0.860990 18.000000
2.056094 -0.687217 -0.867359 23.000000
2.035452 -0.706096 -0.860725 18.000000
2.018783 -0.726316 -0.856099 9.000000
2.028297 -0.755785 -0.862302 20.000000
2.019978 -0.779037 -0.861235 16.000000
2.032884 -0.810825 -0.869398 18.000000
2.023972 -0.834110 -0.868248 18.000000
2.001940 -0.851863 -0.861504 14.000000
2.022388 -0.887798 -0.873085 21.000000
2.012676 -0.910919 -0.871708 18.000000
1.990098 -0.927997 -0.864834 9.000000
2.000698 -0.961046 -0.872758 21.000000
2.002807 -0.990015 -0.876709 18.000000
1.991821 -1.013086 -0.875391 19.000000
1.997416 -1.044349 -0.880987 21.000000
1.981718 -1.065185 -0.877766 16.000000
1.990319 -1.099296 -0.885364 26.000000
1.982235 -1.124455 -0.885611 17.000000
1.957764 -1.140249 -0.878546 9.000000
1.965244 -1.174681 -0.885937 13.000000
1.936452 -1.187553 -0.877010 10.000000
1.955045 -1.229645 -0.889604 13.000000
1.945598 -1.254531 -0.889585 13.000000
1.935794 -1.279432 -0.889407 10.000000
1.925707 -1.304195 -0.889297 13.000000
1.922630 -1.334680 -0.892895 10.000000
1.896756 -1.348497 -0.885497 8.000000
1.912401 -1.392087 -0.897560 10.000000
1.893056 -1.411682 -0.893937 10.000000
1.900188 -1.450209 -0.902297 10.000000
1.902482 -1.486760 -0.909078 12.000000
1.882922 -1.505489 -0.904959 10.000000
1.869807 -1.530379 -0.904590 15.000000
1.881526 -1.576174 -0.916456 10.000000
1.868374 -1.600491 -0.915562 9.000000
1.861245 -1.631550 -0.918538 11.000000
1.843198 -1.653142 -0.916201 10.000000
1.831822 -1.680916 -0.917245 11.000000
1.820957 -1.707959 -0.917866 10.000000
1.819143 -1.745316 -0.923952 10.000000
1.820081 -1.786193 -0.931707 13.000000
1.810475 -1.817306 -0.934189 10.000000
1.810239 -1.858418 -0.941675 9.000000
1.793183 -1.882795 -0.940596 10.000000
1.772678 -1.903638 -0.937727 10.000000
1.777265 -1.951978 -0.948382 13.000000
1.756035 -1.972522 -0.945386 10.000000
1.762463 -2.024780 -0.957509 13.000000
1.758779 -2.066660 -0.964424 13.000000
1.739470 -2.090586 -0.962929 10.000000
1.755524 -2.158214 -0.981293 10.000000
1.732207 -2.178470 -0.977962 10.000000
1.723190 -2.217087 -0.982799 10.000000
1.710737 -2.252008 -0.985933 11.000000
1.696397 -2.287749 -0.989297 10.000000
1.694011 -2.337959 -0.998879 10.000000
1.677126 -2.369019 -1.000036 12.000000
1.670567 -2.415548 -1.007647 10.000000
1.680130 -2.490643 -1.026875 10.000000
1.643069 -2.494210 -1.016459 9.000000
1.647138 -2.560972 -1.031767 10.000000
1.624901 -2.588031 -1.030941 12.000000
1.610414 -2.631873 -1.036756 10.000000
1.604279 -2.687192 -1.046860 12.000000
1.592389 -2.734419 -1.053586 12.000000
1.570608 -2.770271 -1.055912 10.000000
1.561688 -2.825897 -1.065613 12.000000
0.856572 1.521233 -0.564925 34.000000
0.901235 1.560622 -0.585826 27.000000
0.923606 1.557696 -0.591069 30.000000
0.944994 1.555061 -0.596567 32.000000
0.963926 1.548105 -0.600469 30.000000
0.986498 1.544271 -0.605717 32.000000
1.000215 1.528815 -0.606497 30.000000
1.005869 1.501362 -0.602463 24.000000
1.028155 1.496912 -0.607671 34.000000
1.044051 1.484931 -0.609892 29.000000
1.065365 1.480525 -0.615309 31.000000
1.086725 1.475756 -0.620690 34.000000
1.102492 1.463060 -0.622934 29.000000
1.121858 1.453461 -0.626439 32.000000
1.146164 1.451513 -0.633490 32.000000
1.146821 1.419817 -0.627450 24.000000
1.165027 1.410091 -0.631202 35.000000
1.183194 1.400177 -0.634905 35.000000
1.198232 1.386382 -0.636918 37.000000
1.203712 1.361858 -0.633990 73.000000
1.158940 1.280799 -0.604322 76.000000
1.207981 1.305372 -0.624383 73.000000
1.273880 1.346140 -0.652861 35.000000
1.311401 1.354980 -0.666443 22.000000
1.329365 1.343071 -0.670006 50.000000
1.357271 1.340833 -0.678605 43.000000
1.381333 1.335326 -0.685811 66.000000
1.406102 1.328902 -0.692672 61.000000
1.413614 1.306084 -0.691111 35.000000
1.445298 1.305374 -0.701392 58.000000
1.463037 1.291556 -0.704859 39.000000
1.470040 1.268316 -0.703227 24.000000
1.483337 1.251616 -0.705180 35.000000
1.518760 1.252218 -0.717087 35.000000
1.539757 1.240336 -0.722180 35.000000
1.556550 1.225703 -0.725763 35.000000
1.584889 1.218926 -0.734268 35.000000
1.612828 1.212131 -0.742999 50.000000
1.641274 1.204334 -0.751434 37.000000
1.657867 1.188258 -0.754958 26.000000
1.674784 1.171497 -0.758157 42.000000
1.687291 1.152337 -0.759887 34.000000
1.715662 1.142969 -0.768201 56.000000
1.747516 1.135994 -0.778628 55.000000
1.759670 1.115963 -0.780189 34.000000
1.791527 1.108040 -0.790535 42.000000
1.819505 1.097107 -0.799086 35.000000
1.863622 1.095079 -0.814718 25.000000
1.879454 1.075972 -0.817965 52.000000
1.903364 1.061114 -0.824687 38.000000
1.927139 1.045832 -0.831356 39.000000
1.950918 1.030123 -0.838042 54.000000
1.970395 1.011850 -0.842895 35.000000
2.001997 0.999866 -0.853321 62.000000
2.025494 0.982887 -0.859842 36.000000
2.074253 0.977340 -0.877096 23.000000
2.088838 0.955607 -0.880309 33.000000
2.133179 0.946884 -0.895996 25.000000
2.126104 0.915090 -0.890115 20.000000
2.144783 0.894084 -0.894692 26.000000
2.150032 0.867718 -0.894033 24.000000
2.150670 0.839678 -0.891568 21.000000
2.150782 0.811988 -0.889320 20.000000
2.133226 0.777732 -0.879462 10.000000
2.137299 0.751663 -0.878546 22.000000
2.136406 0.724346 -0.876039 21.000000
2.135227 0.697082 -0.873448 22.000000
2.147101 0.674060 -0.876219 23.000000
2.140869 0.645483 -0.871655 22.000000
2.143353 0.619727 -0.870643 26.000000
2.150004 0.595169 -0.871374 21.000000
2.129352 0.563391 -0.861109 10.000000
2.144299 0.541420 -0.865620 21.000000
2.140972 0.514818 -0.862697 20.000000
2.132843 0.487241 -0.857870 21.000000
2.128909 0.460887 -0.854791 21.000000
2.138396 0.437469 -0.857190 22.000000
2.147545 0.414018 -0.859663 25.000000
2.138184 0.387076 -0.854746 18.000000
2.119309 0.358823 -0.846088 10.000000
2.141498 0.337540 -0.853769 22.000000
2.140450 0.312408 -0.852292 24.000000
2.134494 0.286761 -0.849050 22.000000
2.100528 0.257923 -0.834727 22.000000
2.075501 0.230885 -0.823993 28.000000
1.247228 0.095802 -0.494196 53.000000
1.257494 0.082165 -0.497953 75.000000
1.249034 0.067357 -0.494319 95.000000
1.249691 0.053114 -0.494401 95.000000
1.254872 0.039015 -0.496239 95.000000
1.255202 0.024719 -0.496362 95.000000
1.287913 0.010694 -0.509273 100.000000
1.255408 -0.003873 -0.496404 95.000000
1.283221 -0.018572 -0.507350 100.000000
1.282969 -0.033144 -0.507224 98.000000
1.282506 -0.047758 -0.507182 103.000000
1.277313 -0.062145 -0.505219 100.000000
1.276516 -0.076706 -0.505177 98.000000
1.247762 -0.089234 -0.494072 29.000000
1.256005 -0.104205 -0.497580 95.000000
1.273327 -0.120262 -0.504715 100.000000
2.037627 -0.310200 -0.811157 32.000000
2.084620 -0.341664 -0.830883 24.000000
2.103726 -0.369450 -0.839473 13.000000
2.113388 -0.395903 -0.844396 21.000000
2.113582 -0.420851 -0.845518 26.000000
2.108849 -0.444942 -0.844952 25.000000
2.094815 -0.466937 -0.840740 21.000000
2.089610 -0.490783 -0.840036 23.000000
2.102278 -0.519024 -0.846545 24.000000
2.101110 -0.544032 -0.847512 21.000000
2.068021 -0.560751 -0.835898 13.000000
2.070738 -0.586876 -0.838827 19.000000
2.073188 -0.613135 -0.841609 20.000000
2.066391 -0.636782 -0.840688 17.000000
2.081645 -0.667403 -0.848817 18.000000
2.074275 -0.691019 -0.847744 20.000000
2.075574 -0.717611 -0.850281 21.000000
2.071986 -0.742974 -0.851150 17.000000
2.046215 -0.760171 -0.843008 10.000000
2.051066 -0.788330 -0.847047 19.000000
2.046778 -0.813411 -0.847765 21.000000
2.042093 -0.838591 -0.848406 17.000000
2.045603 -0.867587 -0.852843 23.000000
2.040366 -0.892701 -0.853325 23.000000
2.051898 -0.925520 -0.860872 18.000000
2.037586 -0.946866 -0.857691 18.000000
2.010233 -0.962210 -0.849394 10.000000
2.016301 -0.993618 -0.855269 21.000000
2.026359 -1.026936 -0.862528 21.000000
1.998429 -1.041578 -0.854032 17.000000
2.024056 -1.084401 -0.868555 24.000000
2.012069 -1.107627 -0.867057 17.000000
2.008003 -1.135308 -0.869084 20.000000
1.991543 -1.155903 -0.865670 13.000000
1.978856 -1.178650 -0.864018 10.000000
1.985922 -1.213531 -0.871054 16.000000
1.976620 -1.238617 -0.871059 15.000000
1.971054 -1.266251 -0.872726 16.000000
1.961159 -1.291258 -0.872561 15.000000
