x y z intensity
0.872630 0.134435 -0.744610 100.000000
0.870326 0.122447 -0.741632 100.000000
0.871730 0.111006 -0.741772 95.000000
0.872818 0.099600 -0.742158 100.000000
0.873766 0.088159 -0.742439 103.000000
0.867072 0.076051 -0.736227 98.000000
0.867872 0.064709 -0.736366 81.000000
0.868568 0.053333 -0.736436 95.000000
0.869194 0.041957 -0.736436 95.000000
0.869473 0.030580 -0.736644 100.000000
0.896382 0.019794 -0.759404 103.000000
0.896526 0.008068 -0.759476 103.000000
0.877486 -0.003615 -0.743317 101.000000
0.877415 -0.015091 -0.743211 100.000000
0.869681 -0.026336 -0.736609 108.000000
0.877064 -0.038043 -0.742825 103.000000
0.868881 -0.049089 -0.736366 100.000000
0.864447 -0.060200 -0.733032 90.000000
0.886549 -0.073381 -0.752230 103.000000
0.878128 -0.084277 -0.745526 103.000000
0.877212 -0.095733 -0.745209 105.000000
0.876225 -0.107224 -0.744821 103.000000
0.874886 -0.118715 -0.744645 105.000000
0.877257 -0.130734 -0.747621 103.000000
0.875735 -0.142239 -0.747302 100.000000
0.855545 -0.150327 -0.730504 74.000000
0.872443 -0.165178 -0.746417 103.000000
0.866920 -0.175816 -0.742671 100.000000
0.865087 -0.187166 -0.742072 100.000000
0.855395 -0.196797 -0.735263 100.000000
0.856850 -0.208957 -0.738017 100.000000
0.858460 -0.221109 -0.740380 103.000000
0.852322 -0.231348 -0.736578 98.000000
0.846066 -0.241488 -0.732712 48.000000
0.850529 -0.254877 -0.738688 98.000000
0.847815 -0.266015 -0.737877 100.000000
0.848689 -0.278318 -0.740187 98.000000
0.838214 -0.287009 -0.733139 98.000000
0.827725 -0.295472 -0.726068 95.000000
0.824420 -0.306396 -0.725303 98.000000
0.824646 -0.318642 -0.727645 95.000000
0.817566 -0.328070 -0.723563 34.000000
0.842615 -0.350709 -0.747943 85.000000
0.838834 -0.361800 -0.746899 80.000000
0.838230 -0.374507 -0.749232 95.000000
0.827248 -0.382248 -0.741726 95.000000
0.819443 -0.391583 -0.737606 92.000000
0.811603 -0.400718 -0.733458 94.000000
0.810623 -0.413256 -0.735535 74.000000
0.809498 -0.425816 -0.737566 37.000000
0.839122 -0.455113 -0.767681 86.000000
0.830820 -0.464351 -0.763282 85.000000
0.819062 -0.471438 -0.755659 95.000000
0.817403 -0.484213 -0.757373 83.000000
0.811916 -0.495225 -0.756186 91.000000
0.810045 -0.507986 -0.757772 80.000000
0.797718 -0.514604 -0.750268 52.000000
0.798540 -0.529655 -0.755128 55.000000
0.821895 -0.560271 -0.781514 54.000000
0.806084 -0.564537 -0.770760 53.000000
0.799904 -0.575333 -0.769196 73.000000
0.796822 -0.588396 -0.770664 38.000000
0.793614 -0.601430 -0.772081 40.000000
0.790278 -0.614472 -0.773407 47.000000
0.783715 -0.625011 -0.771593 38.000000
0.779642 -0.638256 -0.773092 35.000000
0.782066 -0.656304 -0.780302 35.000000
0.769132 -0.661546 -0.772284 42.000000
0.773649 -0.682594 -0.782659 46.000000
0.763064 -0.690509 -0.777866 37.000000
0.755938 -0.700666 -0.775740 60.000000
0.753983 -0.716492 -0.779849 49.000000
0.751827 -0.732397 -0.783889 52.000000
0.749429 -0.748341 -0.787859 49.000000
0.758139 -0.775855 -0.803664 27.000000
0.752429 -0.789149 -0.804449 31.000000
0.754890 -0.811245 -0.814098 32.000000
0.737981 -0.812605 -0.802935 34.000000
0.726584 -0.819666 -0.797667 32.000000
0.728413 -0.841877 -0.807049 34.000000
0.719433 -0.851864 -0.804615 33.000000
0.707117 -0.858926 -0.799515 23.000000
0.713287 -0.887646 -0.814459 18.000000
0.711516 -0.907046 -0.820551 30.000000
0.706194 -0.923632 -0.823959 31.000000
0.691652 -0.926780 -0.815456 29.000000
0.683652 -0.939935 -0.815824 32.000000
0.682515 -0.963105 -0.824766 28.000000
0.679545 -0.982684 -0.830471 29.000000
0.675425 -1.002640 -0.836341 22.000000
0.538183 0.820076 -0.664863 32.000000
0.512623 0.760855 -0.624815 28.000000
0.520380 0.753742 -0.627017 27.000000
0.526399 0.742860 -0.626149 62.000000
0.529789 0.728652 -0.622387 35.000000
0.537274 0.721334 -0.624492 35.000000
0.550308 0.720165 -0.632084 46.000000
0.550189 0.702938 -0.625533 33.000000
0.563226 0.701465 -0.633051 40.000000
0.541985 0.659025 -0.603280 20.000000
0.562037 0.667150 -0.619606 52.000000
0.553643 0.640669 -0.603821 91.000000
0.552320 0.623952 -0.596864 51.000000
0.564405 0.622364 -0.604424 75.000000
0.565489 0.608688 -0.600273 56.000000
0.574786 0.603861 -0.604836 59.000000
0.576085 0.589968 -0.600364 71.000000
0.562449 0.562119 -0.581267 32.000000
0.565217 0.551818 -0.580021 69.000000
0.574112 0.546848 -0.584423 68.000000
0.583039 0.541739 -0.588809 59.000000
0.588961 0.533763 -0.590199 81.000000
0.606869 0.536316 -0.603479 37.000000
0.618419 0.533439 -0.611041 65.000000
0.621303 0.522430 -0.609316 35.000000
0.632899 0.519194 -0.616852 25.000000
0.591981 0.473174 -0.572847 92.000000
0.697476 0.543652 -0.670851 118.000000
1.342066 0.968181 -1.268320 20.000000
1.368654 0.961631 -1.286103 16.000000
1.372549 0.938809 -1.282443 9.000000
1.399200 0.931374 -1.300175 11.000000
1.402750 0.908337 -1.296315 15.000000
1.389311 0.874770 -1.277021 13.000000
1.405048 0.860607 -1.285776 21.000000
1.417999 0.843805 -1.290834 20.000000
1.413201 0.817196 -1.280854 17.000000
1.415528 0.794352 -1.276446 18.000000
1.406671 0.766307 -1.263171 10.000000
1.411359 0.745860 -1.262063 20.000000
1.426345 0.730803 -1.270199 21.000000
1.409724 0.699709 -1.250300 19.000000
1.413804 0.679367 -1.248842 25.000000
0.841053 0.365144 -0.734769 32.000000
0.841259 0.352628 -0.732678 86.000000
0.837750 0.338676 -0.727372 35.000000
0.859458 0.334728 -0.743988 98.000000
0.856042 0.320572 -0.738248 100.000000
0.866546 0.312090 -0.745615 98.000000
0.866274 0.299429 -0.743190 100.000000
0.869551 0.288014 -0.743838 98.000000
0.865110 0.274362 -0.738391 103.000000
0.868181 0.262971 -0.738891 100.000000
0.874652 0.252692 -0.742802 95.000000
0.866106 0.238174 -0.733956 95.000000
0.868655 0.226846 -0.734558 98.000000
0.871097 0.215482 -0.735054 98.000000
0.869704 0.203204 -0.732344 98.000000
0.871713 0.191889 -0.733013 100.000000
0.877682 0.181250 -0.736470 98.000000
0.871941 0.168352 -0.730647 100.000000
0.881293 0.158381 -0.737461 95.000000
0.879151 0.146243 -0.734670 100.000000
0.876924 0.134204 -0.731770 103.000000
0.886036 0.123831 -0.738381 103.000000
0.879556 0.111357 -0.732472 100.000000
0.877025 0.099447 -0.729357 100.000000
0.881837 0.088405 -0.732823 100.000000
0.871201 0.075925 -0.723507 100.000000
0.879681 0.065168 -0.730021 95.000000
0.861157 0.052534 -0.714185 95.000000
0.865620 0.041508 -0.717373 95.000000
0.865894 0.030281 -0.717579 95.000000
0.866135 0.019020 -0.717716 95.000000
0.870088 0.007794 -0.720941 95.000000
0.870122 -0.003517 -0.720941 95.000000
0.866238 -0.014763 -0.717682 95.000000
0.885347 -0.026602 -0.733455 94.000000
0.873556 -0.037616 -0.723680 95.000000
0.880694 -0.049409 -0.730021 95.000000
0.883908 -0.061136 -0.733104 93.000000
0.890886 -0.073243 -0.739302 98.000000
0.882364 -0.084088 -0.732683 100.000000
0.877654 -0.095149 -0.729183 100.000000
0.884050 -0.107506 -0.735445 100.000000
0.879170 -0.118481 -0.731805 100.000000
0.881548 -0.130487 -0.734740 98.000000
0.876257 -0.141328 -0.731244 100.000000
0.874678 -0.152734 -0.730858 95.000000
0.880585 -0.165532 -0.736718 95.000000
0.871239 -0.175476 -0.729840 100.000000
0.880470 -0.189284 -0.739040 98.000000
0.874744 -0.199835 -0.735160 100.000000
0.872443 -0.211270 -0.734700 100.000000
0.866320 -0.221673 -0.731004 98.000000
0.867593 -0.233997 -0.733567 100.000000
0.861315 -0.244232 -0.729735 83.000000
0.854990 -0.254335 -0.725839 95.000000
0.852006 -0.265565 -0.725313 100.000000
0.852891 -0.277823 -0.727585 98.000000
0.849754 -0.289032 -0.726951 100.000000
0.842847 -0.298836 -0.723067 95.000000
0.839793 -0.309750 -0.722014 98.000000
0.839744 -0.322271 -0.724589 98.000000
0.832634 -0.331790 -0.720540 95.000000
0.843473 -0.348629 -0.732071 95.000000
0.843348 -0.361163 -0.734160 98.000000
0.839224 -0.372279 -0.733299 98.000000
0.835316 -0.383216 -0.732152 98.000000
0.834549 -0.395902 -0.734295 98.000000
0.830156 -0.406885 -0.733287 98.000000
0.829153 -0.419567 -0.735309 93.000000
0.828076 -0.432305 -0.737249 85.000000
0.830273 -0.446924 -0.742236 87.000000
0.828915 -0.459708 -0.744042 98.000000
0.823620 -0.470777 -0.743012 95.000000
0.815222 -0.479553 -0.738538 98.000000
0.816551 -0.494517 -0.743510 98.000000
0.814734 -0.507276 -0.745063 95.000000
0.809098 -0.518103 -0.743765 95.000000
0.806619 -0.531069 -0.745485 84.000000
0.813901 -0.550636 -0.756268 57.000000
0.794817 -0.552403 -0.742618 98.000000
0.801754 -0.572206 -0.753279 91.000000
0.798756 -0.585190 -0.754720 81.000000
0.795631 -0.598183 -0.756073 95.000000
0.789261 -0.608711 -0.754356 95.000000
0.792169 -0.626593 -0.761633 98.000000
0.788169 -0.639845 -0.763132 48.000000
0.784502 -0.652792 -0.764230 43.000000
0.771052 -0.658249 -0.756576 95.000000
0.764258 -0.668402 -0.754607 91.000000
0.765742 -0.686797 -0.761797 95.000000
0.758164 -0.697148 -0.760000 87.000000
0.762195 -0.718475 -0.769971 86.000000
0.757201 -0.731593 -0.771020 95.000000
0.755539 -0.747272 -0.774601 41.000000
0.750234 -0.760345 -0.775492 35.000000
0.749837 -0.779578 -0.782471 92.000000
0.738627 -0.786765 -0.777389 83.000000
0.738420 -0.805777 -0.783940 95.000000
0.732513 -0.818825 -0.784547 89.000000
0.726460 -0.831823 -0.785137 90.000000
0.716949 -0.841954 -0.783029 85.000000
0.718468 -0.864285 -0.792152 33.000000
0.706824 -0.870841 -0.786763 40.000000
0.707132 -0.893608 -0.795958 95.000000
0.697800 -0.903237 -0.793371 90.000000
0.687661 -0.913036 -0.790953 98.000000
0.680641 -0.925729 -0.791116 77.000000
0.675101 -0.942012 -0.794300 82.000000
0.685838 -0.982051 -0.817174 81.000000
0.678035 -0.994851 -0.817061 37.000000
0.673855 -1.014842 -0.822793 29.000000
0.527002 0.816047 -0.643082 36.000000
0.542898 0.818884 -0.653523 22.000000
0.528515 0.776737 -0.627866 27.000000
0.525219 0.752201 -0.615931 35.000000
0.532840 0.744985 -0.618089 34.000000
0.541102 0.737431 -0.620011 63.000000
0.544292 0.723172 -0.616272 35.000000
0.556749 0.722290 -0.623990 57.000000
0.559697 0.707934 -0.620115 52.000000
0.554070 0.684326 -0.607916 32.000000
0.561776 0.676522 -0.609581 49.000000
0.563513 0.662629 -0.605760 51.000000
0.554826 0.636175 -0.590188 75.000000
0.561521 0.628662 -0.591917 95.000000
0.565395 0.618009 -0.590764 67.000000
0.583125 0.622223 -0.603981 90.000000
0.581732 0.605276 -0.596726 75.000000
0.585352 0.594486 -0.595456 80.000000
0.565755 0.560790 -0.570809 35.000000
0.580548 0.561601 -0.581034 30.000000
0.574830 0.542576 -0.570783 95.000000
0.589232 0.543249 -0.581196 63.000000
0.577119 0.519023 -0.564902 80.000000
0.579767 0.508539 -0.563272 95.000000
0.606816 0.519049 -0.585184 42.000000
0.627622 0.523917 -0.601510 37.000000
0.589760 0.479883 -0.561180 36.000000
1.332407 0.979060 -1.237059 32.000000
1.375318 0.984694 -1.269658 24.000000
1.398944 0.975566 -1.284271 20.000000
1.412734 0.959238 -1.289825 10.000000
1.419793 0.938232 -1.289223 16.000000
1.419911 0.912943 -1.282429 22.000000
1.423194 0.889834 -1.278569 20.000000
1.436377 0.872967 -1.283729 24.000000
1.435098 0.848126 -1.277124 24.000000
1.427386 0.819159 -1.263820 18.000000
1.432474 0.798549 -1.262985 19.000000
1.440876 0.779788 -1.265196 10.000000
1.421768 0.745886 -1.242235 13.000000
1.440262 0.732613 -1.253349 23.000000
1.444585 0.711958 -1.252152 26.000000
1.427388 0.681081 -1.232321 21.000000
1.394957 0.644366 -1.200600 29.000000
0.852779 0.355067 -0.726128 57.000000
0.874731 0.351270 -0.742566 100.000000
0.871400 0.336903 -0.737032 103.000000
0.871319 0.324168 -0.734803 100.000000
0.874827 0.312813 -0.735562 98.000000
0.874233 0.300222 -0.733467 103.000000
0.873791 0.287582 -0.731004 103.000000
0.876983 0.276179 -0.731614 100.000000
0.879816 0.264812 -0.732403 98.000000
0.879071 0.252224 -0.729750 95.000000
0.874177 0.238776 -0.724150 98.000000
0.880505 0.228392 -0.727876 100.000000
0.879169 0.216013 -0.725248 98.000000
0.881257 0.204685 -0.725991 100.000000
0.883523 0.193215 -0.726381 100.000000
0.885718 0.181710 -0.726699 100.000000
0.887559 0.170276 -0.727230 98.000000
0.889329 0.158771 -0.727655 95.000000
0.890992 0.147266 -0.728044 100.000000
0.884856 0.134555 -0.722084 100.000000
0.897890 0.124684 -0.731751 103.000000
0.887488 0.111638 -0.722751 100.000000
0.884922 0.099691 -0.719713 100.000000
0.885900 0.088265 -0.719993 103.000000
0.886774 0.076804 -0.720237 103.000000
0.868198 0.063916 -0.704648 91.000000
0.872761 0.052940 -0.707863 98.000000
0.865615 0.041275 -0.701605 100.000000
0.869805 0.030249 -0.704956 98.000000
0.866126 0.018919 -0.701945 103.000000
0.870112 0.007759 -0.705127 95.000000
0.870147 -0.003486 -0.705127 98.000000
0.866228 -0.014666 -0.701911 98.000000
0.904930 -0.027020 -0.733209 100.000000
0.881385 -0.037686 -0.714120 100.000000
0.873104 -0.048649 -0.707794 98.000000
0.899630 -0.061774 -0.729708 52.000000
0.887263 -0.072471 -0.720098 98.000000
0.898072 -0.084996 -0.729283 98.000000
0.893285 -0.096191 -0.725823 98.000000
0.888190 -0.107286 -0.722575 98.000000
0.883245 -0.118211 -0.718979 100.000000
0.881847 -0.129637 -0.718735 100.000000
0.888068 -0.142295 -0.724660 98.000000
0.882645 -0.153085 -0.721136 57.000000
0.892451 -0.166637 -0.730045 95.000000
0.883028 -0.176627 -0.723250 100.000000
0.884727 -0.188896 -0.726062 95.000000
0.886336 -0.201230 -0.728765 103.000000
0.884309 -0.212642 -0.728018 103.000000
0.878142 -0.223164 -0.724363 98.000000
0.879438 -0.235538 -0.726881 98.000000
0.850535 -0.239497 -0.704388 60.000000
0.866461 -0.256111 -0.719478 95.000000
0.863747 -0.267319 -0.718667 103.000000
0.864407 -0.279769 -0.721212 100.000000
0.861256 -0.291027 -0.720540 98.000000
0.858282 -0.302107 -0.719513 98.000000
0.847549 -0.310558 -0.712538 95.000000
0.847815 -0.322940 -0.714790 100.000000
0.847698 -0.335525 -0.717247 68.000000
0.858640 -0.352473 -0.728605 95.000000
0.858554 -0.365141 -0.730644 98.000000
0.854395 -0.376388 -0.729812 100.000000
0.850128 -0.387562 -0.728908 98.000000
0.849720 -0.400201 -0.730713 95.000000
0.841738 -0.409586 -0.726630 95.000000
0.840750 -0.422354 -0.728606 98.000000
0.839687 -0.435142 -0.730501 67.000000
0.845095 -0.451867 -0.738747 98.000000
0.840257 -0.462871 -0.737454 103.000000
0.835309 -0.473801 -0.736125 100.000000
0.833384 -0.486845 -0.738055 100.000000
0.821450 -0.493576 -0.730509 98.000000
0.822706 -0.508611 -0.735348 98.000000
0.820395 -0.521613 -0.737071 98.000000
0.814624 -0.532410 -0.735731 34.000000
0.812093 -0.545396 -0.737363 95.000000
0.802859 -0.553818 -0.732901 95.000000
0.819687 -0.580583 -0.752357 95.000000
0.810204 -0.589027 -0.747757 98.000000
0.803871 -0.599670 -0.746117 98.000000
0.800691 -0.612640 -0.747378 98.000000
0.796882 -0.625886 -0.748894 95.000000
0.796579 -0.641395 -0.753016 36.000000
0.792439 -0.654659 -0.754385 98.000000
0.782549 -0.662401 -0.749489 98.000000
0.781289 -0.678203 -0.753711 98.000000
0.776812 -0.691362 -0.754890 98.000000
0.778143 -0.709985 -0.761877 88.000000
0.764953 -0.714602 -0.753852 95.000000
0.768897 -0.736075 -0.763620 95.000000
0.760902 -0.746390 -0.761621 60.000000
0.770026 -0.773910 -0.776977 65.000000
0.758841 -0.781330 -0.772001 89.000000
0.749837 -0.791801 -0.770126 98.000000
0.746917 -0.807870 -0.773679 95.000000
0.738297 -0.817844 -0.771421 95.000000
0.732349 -0.830855 -0.771982 95.000000
0.733582 -0.853449 -0.781286 86.000000
0.719304 -0.856973 -0.773176 81.000000
0.725245 -0.886100 -0.788026 81.000000
0.715998 -0.895856 -0.785481 81.000000
0.705902 -0.905782 -0.783148 98.000000
0.701538 -0.921869 -0.786133 71.000000
0.701160 -0.944919 -0.794936 91.000000
0.693061 -0.958118 -0.795213 95.000000
0.697617 -0.987791 -0.809113 66.000000
0.686649 -0.997559 -0.806493 91.000000
0.687201 -1.024546 -0.817640 25.000000
0.675864 -1.034211 -0.814885 36.000000
0.547358 0.861156 -0.659559 26.000000
0.559067 0.856882 -0.664507 27.000000
0.563790 0.841993 -0.661239 28.000000
0.537504 0.782321 -0.622296 21.000000
0.536437 0.761118 -0.613304 44.000000
0.542365 0.750185 -0.612485 33.000000
0.554941 0.749561 -0.620156 34.000000
0.558184 0.735145 -0.616516 44.000000
0.561212 0.720801 -0.612775 34.000000
0.568631 0.713214 -0.614789 55.000000
0.581829 0.711703 -0.622139 33.000000
0.557332 0.665799 -0.590369 16.000000
0.575556 0.670579 -0.603279 87.000000
0.566243 0.644255 -0.588142 66.000000
0.570722 0.633325 -0.586831 78.000000
0.582965 0.631694 -0.594223 81.000000
0.583988 0.617911 -0.590210 72.000000
0.593887 0.612771 -0.594490 95.000000
0.597507 0.601865 -0.593242 49.000000
0.586414 0.576630 -0.577581 42.000000
0.592609 0.568748 -0.579083 71.000000
0.592785 0.555224 -0.574749 71.000000
0.571716 0.522517 -0.550117 95.000000
0.574331 0.512125 -0.548520 95.000000
0.576484 0.501957 -0.547081 95.000000
0.594346 0.504727 -0.559980 95.000000
0.631158 0.522600 -0.590441 31.000000
1.357938 1.016034 -1.238415 34.000000
1.388192 1.012413 -1.258837 26.000000
1.408769 1.001214 -1.270386 26.000000
1.419439 0.982623 -1.273005 16.000000
1.413312 0.952732 -1.260626 10.000000
1.436963 0.942911 -1.274935 18.000000
1.453979 0.928290 -1.283255 20.000000
1.447060 0.898560 -1.270538 21.000000
1.443205 0.871152 -1.260636 16.000000
1.459678 0.856185 -1.268626 23.000000
1.451226 0.827313 -1.256054 22.000000
1.453423 0.804312 -1.251821 16.000000
1.437266 0.772180 -1.232879 10.000000
1.456044 0.758984 -1.243934 16.000000
1.460538 0.738265 -1.242859 20.000000
1.461294 0.715700 -1.238683 25.000000
1.454665 0.689790 -1.228299 22.000000
1.447763 0.664193 -1.217758 24.000000
1.400558 0.621148 -1.173620 32.000000
0.886430 0.353652 -0.735657 63.000000
0.886743 0.340613 -0.733227 98.000000
0.890369 0.329150 -0.734106 98.000000
0.890160 0.316291 -0.731850 103.000000
0.893588 0.304731 -0.732579 100.000000
0.889112 0.290825 -0.727389 103.000000
0.892330 0.279253 -0.728004 103.000000
0.895440 0.267681 -0.728510 98.000000
0.883065 0.251822 -0.716961 65.000000
0.889497 0.241477 -0.720681 98.000000
0.892032 0.230015 -0.721288 98.000000
0.894496 0.218482 -0.721824 100.000000
0.889222 0.205181 -0.716114 95.000000
0.891453 0.193676 -0.716504 98.000000
0.893400 0.182241 -0.717106 98.000000
0.903208 0.172137 -0.723538 98.000000
0.901090 0.159846 -0.720872 80.000000
0.906636 0.148892 -0.724359 103.000000
0.904361 0.136630 -0.721583 103.000000
0.898079 0.123931 -0.715636 100.000000
0.903135 0.112892 -0.719194 100.000000
0.904409 0.101281 -0.719265 100.000000
0.901498 0.089283 -0.716482 103.000000
0.898473 0.077350 -0.713591 98.000000
0.883640 0.064659 -0.701353 75.000000
0.884330 0.053314 -0.701422 100.000000
0.884951 0.041968 -0.701422 98.000000
0.881344 0.030453 -0.698524 98.000000
0.881550 0.019157 -0.698662 98.000000
0.885606 0.007863 -0.701836 98.000000
0.885640 -0.003517 -0.701801 98.000000
0.885571 -0.014863 -0.701732 95.000000
0.897187 -0.026591 -0.710908 98.000000
0.889109 -0.037755 -0.704456 100.000000
0.912076 -0.050485 -0.723041 98.000000
0.911436 -0.062182 -0.722970 95.000000
0.910690 -0.073879 -0.722792 95.000000
0.905967 -0.085209 -0.719442 100.000000
0.901145 -0.096403 -0.716024 98.000000
0.899912 -0.107999 -0.715883 100.000000
0.902710 -0.120043 -0.718522 98.000000
0.901329 -0.131654 -0.718274 100.000000
0.888172 -0.141378 -0.708636 100.000000
0.890471 -0.153436 -0.711345 61.000000
0.900415 -0.167028 -0.720161 98.000000
0.898388 -0.178618 -0.719877 98.000000
0.896504 -0.190137 -0.719272 100.000000
0.898174 -0.202558 -0.721931 98.000000
0.895853 -0.214126 -0.721467 98.000000
0.893460 -0.225659 -0.720895 98.000000
0.890997 -0.237156 -0.720288 98.000000
0.888426 -0.248582 -0.719610 84.000000
0.878177 -0.257786 -0.712716 98.000000
0.878976 -0.270309 -0.715255 100.000000
0.875883 -0.281686 -0.714615 100.000000
0.869257 -0.291628 -0.710627 100.000000
0.873465 -0.305461 -0.716004 98.000000
0.866391 -0.315390 -0.712162 100.000000
0.862942 -0.326554 -0.711273 95.000000
0.859138 -0.337789 -0.710668 78.000000
0.870198 -0.354835 -0.721856 98.000000
0.866473 -0.366009 -0.720771 98.000000
0.869591 -0.380476 -0.726015 98.000000
0.865325 -0.391745 -0.725103 100.000000
0.860985 -0.403013 -0.724119 98.000000
0.860120 -0.415906 -0.726123 98.000000
0.851977 -0.425259 -0.722003 98.000000
0.843837 -0.434484 -0.717820 76.000000
0.863833 -0.458478 -0.737699 95.000000
0.858936 -0.469656 -0.736391 100.000000
0.853590 -0.480946 -0.735344 100.000000
0.841579 -0.487921 -0.727932 98.000000
0.839569 -0.501024 -0.729736 98.000000
0.833984 -0.512007 -0.728508 100.000000
0.824893 -0.520773 -0.724261 95.000000
0.825925 -0.535937 -0.728877 98.000000
0.816709 -0.544510 -0.724487 98.000000
0.834050 -0.571123 -0.743777 100.000000
0.834480 -0.586638 -0.748160 103.000000
0.828187 -0.597524 -0.746538 95.000000
0.825027 -0.610738 -0.747823 95.000000
0.818090 -0.621706 -0.746389 98.000000
0.808345 -0.629875 -0.741713 98.000000
0.807575 -0.645710 -0.746020 94.000000
0.807125 -0.661323 -0.749989 61.000000
0.802864 -0.674683 -0.751253 98.000000
0.795385 -0.685352 -0.749521 98.000000
0.788338 -0.695666 -0.747474 95.000000
0.786752 -0.711572 -0.751483 95.000000
0.781933 -0.724823 -0.752502 98.000000
0.780019 -0.740851 -0.756302 95.000000
0.771952 -0.751205 -0.754335 95.000000
0.784177 -0.781705 -0.772353 45.000000
0.775772 -0.792128 -0.770210 95.000000
0.763828 -0.799743 -0.765511 95.000000
0.758139 -0.812892 -0.766132 91.000000
0.752263 -0.825993 -0.766695 95.000000
0.751100 -0.845589 -0.773175 87.000000
0.744904 -0.858662 -0.773605 93.000000
0.737884 -0.872060 -0.774271 68.000000
0.726147 -0.878677 -0.768990 27.000000
0.731871 -0.908053 -0.783495 95.000000
0.722481 -0.917786 -0.780922 89.000000
0.707164 -0.921131 -0.773023 95.000000
0.706895 -0.944226 -0.781687 63.000000
0.714513 -0.977183 -0.798190 73.000000
0.698818 -0.980288 -0.790181 92.000000
0.699952 -1.007143 -0.801261 48.000000
0.688865 -1.016844 -0.798623 29.000000
0.682223 -1.033463 -0.801374 31.000000
0.691348 -1.074780 -0.822993 26.000000
0.568168 0.884737 -0.666649 24.000000
0.573140 0.869716 -0.663556 20.000000
0.566089 0.837268 -0.646912 10.000000
0.551276 0.794801 -0.621992 26.000000
0.555075 0.780271 -0.618567 16.000000
0.556183 0.762417 -0.612385 29.000000
0.564526 0.754692 -0.614307 21.000000
0.570254 0.743545 -0.613457 15.000000
0.575262 0.732637 -0.612760 23.000000
0.572930 0.711676 -0.603540 15.000000
0.574949 0.697628 -0.599982 23.000000
0.574642 0.680146 -0.593352 21.000000
0.579497 0.669103 -0.592172 26.000000
0.589205 0.664505 -0.596781 33.000000
0.590589 0.650499 -0.592983 26.000000
0.606361 0.651469 -0.602916 31.000000
0.596104 0.625444 -0.587781 34.000000
0.599822 0.614580 -0.586587 29.000000
0.612639 0.612190 -0.593637 30.000000
0.592609 0.578133 -0.569698 10.000000
0.604732 0.575925 -0.576885 30.000000
0.601898 0.559479 -0.569794 35.000000
0.604871 0.548726 -0.568342 29.000000
0.601614 0.532528 -0.561119 33.000000
0.601188 0.519161 -0.556696 32.000000
0.628370 0.529827 -0.578317 40.000000
1.379352 1.051414 -1.236411 23.000000
1.403392 1.043178 -1.250842 22.000000
1.428234 1.034008 -1.264796 19.000000
1.442477 1.017739 -1.270432 18.000000
1.446615 0.994296 -1.267233 17.000000
1.447156 0.968642 -1.260947 9.000000
1.457523 0.949745 -1.263374 11.000000
1.474585 0.934980 -1.271558 16.000000
1.470989 0.907253 -1.262004 12.000000
1.473930 0.883838 -1.258252 14.000000
1.473168 0.858444 -1.251392 16.000000
1.457549 0.825576 -1.233032 11.000000
1.473741 0.810347 -1.240746 17.000000
1.439672 0.768560 -1.207233 9.000000
1.487586 0.769976 -1.241532 16.000000
1.477796 0.741758 -1.228594 18.000000
1.478505 0.719139 -1.224445 17.000000
1.471700 0.693166 -1.214233 20.000000
1.471910 0.670765 -1.209855 22.000000
1.449954 0.638811 -1.187408 24.000000
0.935195 0.370717 -0.758661 14.000000
0.902109 0.344337 -0.729183 95.000000
0.898242 0.329993 -0.724036 100.000000
0.905515 0.319747 -0.727861 95.000000
0.905200 0.306812 -0.725574 100.000000
0.904747 0.293936 -0.723207 100.000000
0.907701 0.282376 -0.724119 98.000000
0.910837 0.270669 -0.724666 100.000000
0.906000 0.256832 -0.719325 81.000000
0.901223 0.243082 -0.713649 95.000000
0.899959 0.230551 -0.711219 98.000000
0.902387 0.219018 -0.711755 98.000000
0.908646 0.208300 -0.715263 100.000000
0.902939 0.195044 -0.709851 98.000000
0.916761 0.185815 -0.719315 100.000000
0.914741 0.173374 -0.716805 100.000000
0.908947 0.160237 -0.710882 95.000000
0.918435 0.149923 -0.717378 100.000000
0.916098 0.137574 -0.714647 105.000000
0.917383 0.125898 -0.715147 100.000000
0.918776 0.114151 -0.715325 103.000000
0.920061 0.102404 -0.715432 103.000000
0.924997 0.091044 -0.718813 108.000000
0.918049 0.078572 -0.712908 103.000000
0.907001 0.065979 -0.703905 98.000000
0.895863 0.053688 -0.694793 100.000000
0.900227 0.042444 -0.698132 98.000000
0.900749 0.030963 -0.698062 95.000000
0.900958 0.019482 -0.698201 100.000000
0.897145 0.007932 -0.695208 103.000000
0.893227 -0.003483 -0.692146 100.000000
0.897110 -0.014963 -0.695104 103.000000
0.936486 -0.027556 -0.725581 100.000000
0.936015 -0.039527 -0.725617 98.000000
0.931742 -0.051243 -0.722267 98.000000
0.927148 -0.062859 -0.719099 95.000000
0.926395 -0.074693 -0.718920 98.000000
0.921632 -0.086122 -0.715611 103.000000
0.920704 -0.097869 -0.715290 100.000000
0.923419 -0.110085 -0.718203 103.000000
0.918169 -0.121399 -0.714933 100.000000
0.920873 -0.133643 -0.717450 103.000000
0.911543 -0.144167 -0.711024 98.000000
0.909943 -0.155793 -0.710597 95.000000
0.919714 -0.169611 -0.719567 86.000000
0.917914 -0.181314 -0.718990 98.000000
0.915789 -0.193090 -0.718630 98.000000
0.909936 -0.203854 -0.714904 100.000000
0.903779 -0.214590 -0.711398 95.000000
0.901387 -0.226123 -0.710826 100.000000
0.895046 -0.236641 -0.707184 95.000000
0.896103 -0.249225 -0.709791 89.000000
0.885789 -0.258423 -0.702981 68.000000
0.890425 -0.272148 -0.708506 100.000000
0.883811 -0.282255 -0.704589 95.000000
0.888206 -0.296117 -0.709956 100.000000
0.877376 -0.304902 -0.703167 95.000000
0.877786 -0.317494 -0.705399 95.000000
0.878094 -0.330146 -0.707553 95.000000
0.874258 -0.341513 -0.706872 75.000000
0.889160 -0.360168 -0.720886 60.000000
0.885059 -0.371667 -0.720117 95.000000
0.881177 -0.382947 -0.718982 95.000000
0.873238 -0.392656 -0.715074 95.000000
0.872534 -0.405615 -0.717078 95.000000
0.868066 -0.416858 -0.716016 78.000000
0.863525 -0.428027 -0.714954 84.000000
0.848175 -0.433634 -0.704859 73.000000
0.868088 -0.457835 -0.724747 35.000000
0.866749 -0.470889 -0.726409 98.000000
0.857887 -0.480211 -0.722365 95.000000
0.856356 -0.493208 -0.723942 95.000000
0.854334 -0.506369 -0.725695 95.000000
0.841803 -0.513273 -0.718567 95.000000
0.839571 -0.526367 -0.720203 95.000000
0.833776 -0.537283 -0.718858 87.000000
0.851600 -0.563747 -0.737974 29.000000
0.852196 -0.579344 -0.742319 84.000000
0.845956 -0.590390 -0.740769 46.000000
0.839639 -0.601320 -0.739141 63.000000
0.836057 -0.614816 -0.740689 60.000000
0.826306 -0.623179 -0.736079 43.000000
0.822517 -0.636566 -0.737498 69.000000
0.815824 -0.647189 -0.735670 32.000000
0.811797 -0.660508 -0.736953 29.000000
0.820165 -0.684321 -0.749714 70.000000
0.813116 -0.694874 -0.747683 45.000000
0.808596 -0.708291 -0.748788 60.000000
0.813066 -0.729901 -0.758353 37.000000
0.814191 -0.748969 -0.764977 56.000000
0.809061 -0.762506 -0.765884 41.000000
0.797855 -0.770272 -0.761037 34.000000
0.795434 -0.786585 -0.764627 36.000000
0.795125 -0.806163 -0.771252 32.000000
0.780771 -0.810654 -0.763423 38.000000
0.769341 -0.817929 -0.758425 50.000000
0.768451 -0.837520 -0.764814 39.000000
0.759629 -0.847637 -0.762514 47.000000
0.756204 -0.863848 -0.765721 33.000000
0.743813 -0.870956 -0.760807 34.000000
0.744712 -0.893885 -0.769702 31.000000
0.748611 -0.919871 -0.780896 33.000000
0.738341 -0.930098 -0.778599 49.000000
0.741594 -0.956351 -0.789617 50.000000
0.733540 -0.969794 -0.789915 35.000000
0.725324 -0.983173 -0.790108 36.000000
0.716990 -0.996487 -0.790284 33.000000
0.708447 -1.009781 -0.790397 31.000000
0.704500 -1.029921 -0.795825 29.000000
0.711943 -1.067729 -0.814551 11.000000
0.702557 -1.081108 -0.814438 28.000000
0.540744 0.855349 -0.626123 37.000000
0.549968 0.847831 -0.628338 29.000000
0.563855 0.847266 -0.635779 35.000000
0.558721 0.818443 -0.621955 24.000000
0.553022 0.789977 -0.608025 19.000000
0.551763 0.768633 -0.599307 37.000000
0.557602 0.757647 -0.598537 32.000000
0.563333 0.746628 -0.597750 66.000000
0.566348 0.732248 -0.594177 46.000000
0.571794 0.721200 -0.593248 34.000000
0.587079 0.723424 -0.603373 75.000000
0.576310 0.692838 -0.586053 32.000000
0.575838 0.675407 -0.579493 29.000000
0.593789 0.680405 -0.592306 35.000000
0.601370 0.672330 -0.593888 37.000000
0.588642 0.642856 -0.576364 82.000000
0.590147 0.628776 -0.572333 39.000000
0.599631 0.624006 -0.576748 71.000000
0.594543 0.604255 -0.567275 95.000000
0.601360 0.596193 -0.568614 50.000000
0.571934 0.553652 -0.536602 31.000000
0.568794 0.537590 -0.529601 32.000000
0.574533 0.530092 -0.530957 62.000000
0.574103 0.516978 -0.526651 68.000000
0.576567 0.506692 -0.525112 65.000000
0.594562 0.509819 -0.537651 98.000000
0.716961 0.599713 -0.643806 108.000000
1.430212 1.138846 -1.268130 10.000000
1.439463 1.117452 -1.267855 13.000000
1.442052 1.090993 -1.261846 15.000000
1.450061 1.069989 -1.261871 11.000000
1.458689 1.048399 -1.261348 18.000000
1.463046 1.024886 -1.258335 16.000000
1.456985 0.994438 -1.246509 10.000000
1.477723 0.982361 -1.257687 12.000000
1.478013 0.956536 -1.251453 10.000000
1.477960 0.930844 -1.245053 13.000000
1.481039 0.907414 -1.241464 15.000000
1.456026 0.867329 -1.214490 10.000000
1.479564 0.856570 -1.228067 19.000000
1.481870 0.833320 -1.224151 18.000000
1.472715 0.804677 -1.211753 11.000000
1.496001 0.793062 -1.225183 10.000000
1.511490 0.777631 -1.233160 11.000000
1.519693 0.758212 -1.235147 17.000000
1.499171 0.724344 -1.212941 19.000000
1.503308 0.703333 -1.211753 14.000000
1.510834 0.684017 -1.213383 22.000000
1.518297 0.664576 -1.214951 21.000000
1.506517 0.637411 -1.202029 13.000000
0.913734 0.346613 -0.721925 32.000000
0.913593 0.333555 -0.719841 100.000000
0.913348 0.320556 -0.717638 95.000000
0.913000 0.307581 -0.715430 95.000000
0.912478 0.294666 -0.713105 93.000000
0.915724 0.282996 -0.713725 95.000000
0.922412 0.272498 -0.717517 95.000000
0.921596 0.259583 -0.715001 62.000000
0.916560 0.245802 -0.709705 67.000000
0.923042 0.235109 -0.713317 91.000000
0.921622 0.222404 -0.710863 95.000000
0.924009 0.210651 -0.711333 94.000000
0.918507 0.197184 -0.705724 95.000000
0.908940 0.183091 -0.697069 98.000000
0.918633 0.173065 -0.703614 95.000000
0.904649 0.158630 -0.692043 89.000000
0.910451 0.147724 -0.695157 98.000000
0.915773 0.136787 -0.698768 91.000000
0.917224 0.125140 -0.699016 95.000000
0.918605 0.113458 -0.699193 95.000000
0.927631 0.102689 -0.705578 98.000000
0.920870 0.090129 -0.699583 95.000000
0.921791 0.078447 -0.699830 95.000000
0.906663 0.065579 -0.687903 78.000000
0.903379 0.053827 -0.684990 71.000000
0.907776 0.042583 -0.688286 90.000000
0.900331 0.030795 -0.682180 95.000000
0.936400 0.020152 -0.709489 98.000000
0.936543 0.008247 -0.709561 100.000000
0.936579 -0.003622 -0.709525 95.000000
0.940493 -0.015557 -0.712472 100.000000
0.936364 -0.027360 -0.709310 100.000000
0.931915 -0.039098 -0.706327 100.000000
0.923632 -0.050446 -0.699972 100.000000
0.934930 -0.062967 -0.708916 95.000000
0.930201 -0.074518 -0.705720 98.000000
0.929380 -0.086300 -0.705471 103.000000
0.928273 -0.098119 -0.705399 100.000000
0.923275 -0.109397 -0.701994 103.000000
0.925917 -0.121649 -0.704828 100.000000
0.920538 -0.132826 -0.701531 100.000000
0.919258 -0.144452 -0.700927 100.000000
0.909570 -0.154844 -0.694769 73.000000
0.907913 -0.166370 -0.694311 98.000000
0.902228 -0.177090 -0.690744 100.000000
0.900157 -0.188567 -0.690393 100.000000
0.901921 -0.200912 -0.693007 98.000000
0.899630 -0.212368 -0.692514 100.000000
0.897303 -0.223788 -0.691950 100.000000
0.894871 -0.235173 -0.691350 100.000000
0.900059 -0.248658 -0.696625 81.000000
0.901030 -0.261293 -0.699151 98.000000
0.890603 -0.270353 -0.692361 94.000000
0.895174 -0.284145 -0.697722 100.000000
0.892032 -0.295571 -0.697044 98.000000
0.892545 -0.308237 -0.699270 98.000000
0.885391 -0.318244 -0.695473 100.000000
0.881963 -0.329491 -0.694616 100.000000
0.881931 -0.342302 -0.696903 60.000000
0.882011 -0.354994 -0.698896 98.000000
0.881734 -0.367853 -0.701062 95.000000
0.881605 -0.380591 -0.702895 98.000000
0.881043 -0.393532 -0.704936 95.000000
0.869366 -0.401413 -0.698061 95.000000
0.875940 -0.417773 -0.705835 98.000000
0.874699 -0.430914 -0.707967 95.000000
0.877286 -0.445725 -0.712693 47.000000
0.876130 -0.458803 -0.714397 98.000000
0.874487 -0.472048 -0.716278 95.000000
0.865966 -0.481216 -0.712014 95.000000
0.867621 -0.496422 -0.716724 98.000000
0.869113 -0.511772 -0.721378 95.000000
0.866918 -0.525082 -0.723033 95.000000
0.861143 -0.536253 -0.721703 95.000000
0.851857 -0.545149 -0.717443 67.000000
0.832309 -0.547153 -0.704493 98.000000
0.836550 -0.564697 -0.711685 90.000000
0.850655 -0.589417 -0.727429 90.000000
0.847739 -0.602715 -0.728715 95.000000
0.847500 -0.618672 -0.733086 95.000000
0.844301 -0.631951 -0.734224 95.000000
0.840460 -0.645512 -0.735585 90.000000
0.833256 -0.656495 -0.734050 70.000000
0.832852 -0.672336 -0.737836 81.000000
0.822259 -0.680578 -0.733338 92.000000
0.817895 -0.693997 -0.734463 93.000000
0.810318 -0.704669 -0.732718 68.000000
0.808795 -0.720724 -0.736555 95.000000
0.797903 -0.728527 -0.731912 95.000000
0.796111 -0.744583 -0.735594 65.000000
0.785088 -0.752067 -0.730838 78.000000
0.806711 -0.791396 -0.756658 41.000000
0.800596 -0.805178 -0.757648 52.000000
0.789114 -0.812605 -0.752715 86.000000
0.792001 -0.834999 -0.761552 55.000000
0.776896 -0.839485 -0.754069 61.000000
0.773681 -0.855804 -0.757256 72.000000
0.764079 -0.866206 -0.755193 58.000000
0.768745 -0.892017 -0.766430 50.000000
0.775000 -0.921618 -0.780562 34.000000
0.754051 -0.919094 -0.767437 56.000000
0.747225 -0.932178 -0.767549 65.000000
0.736911 -0.942275 -0.765209 43.000000
0.731627 -0.958905 -0.768241 62.000000
0.731151 -0.982361 -0.776508 46.000000
0.735303 -1.012758 -0.789999 40.000000
0.724237 -1.022739 -0.787379 36.000000
0.734763 -1.063935 -0.808620 21.000000
0.711273 -1.056335 -0.792664 29.000000
0.711400 -1.083807 -0.803082 28.000000
0.704213 -1.100705 -0.805491 27.000000
0.545096 0.875802 -0.622762 32.000000
0.554474 0.868300 -0.624969 37.000000
0.556832 0.849938 -0.619368 51.000000
0.568362 0.845850 -0.624085 30.000000
0.562981 0.817043 -0.610516 35.000000
0.559528 0.791995 -0.599398 29.000000
0.565595 0.780936 -0.598708 42.000000
0.566460 0.763027 -0.592710 71.000000
0.569634 0.748559 -0.589281 38.000000
0.580400 0.744173 -0.593773 77.000000
0.583254 0.729709 -0.590201 62.000000
0.588605 0.718518 -0.589276 37.000000
0.593214 0.707600 -0.588536 66.000000
0.570845 0.664441 -0.560561 20.000000
0.586515 0.666233 -0.570224 85.000000
0.599030 0.664812 -0.577417 62.000000
0.597867 0.647470 -0.570790 70.000000
0.607475 0.642730 -0.575215 98.000000
0.600089 0.619515 -0.562998 81.000000
0.603651 0.608688 -0.561861 95.000000
0.613040 0.603736 -0.566173 81.000000
0.607825 0.583937 -0.556474 32.000000
0.577544 0.541768 -0.524808 53.000000
0.577173 0.528607 -0.520603 51.000000
0.582824 0.521062 -0.521923 86.000000
0.600937 0.524355 -0.534316 98.000000
0.720328 0.613348 -0.636032 118.000000
1.457249 1.151686 -1.260894 18.000000
1.452742 1.120433 -1.249969 14.000000
1.465073 1.101396 -1.252476 18.000000
1.473940 1.079785 -1.252089 24.000000
1.478523 1.056069 -1.249262 16.000000
1.497058 1.041391 -1.257159 24.000000
1.490988 1.010656 -1.245576 12.000000
1.498253 0.989211 -1.245266 10.000000
1.491526 0.958843 -1.233457 19.000000
1.501809 0.939661 -1.235764 17.000000
1.494396 0.909629 -1.223677 18.000000
1.500776 0.888258 -1.222891 21.000000
1.503306 0.864873 -1.219155 20.000000
1.509184 0.843470 -1.218216 21.000000
1.504119 0.816186 -1.208487 13.000000
1.512622 0.797069 -1.210660 10.000000
1.528772 0.781217 -1.218045 13.000000
1.529693 0.758069 -1.214241 16.000000
1.526675 0.733345 -1.207388 23.000000
1.523417 0.708646 -1.200445 20.000000
1.534749 0.690905 -1.204994 17.000000
1.527303 0.664774 -1.194916 24.000000
1.542045 0.648339 -1.202191 21.000000
1.534109 0.622559 -1.191826 10.000000
0.928962 0.337131 -0.715328 43.000000
0.921070 0.321328 -0.707342 95.000000
0.920691 0.308350 -0.705176 95.000000
0.920137 0.295431 -0.702894 100.000000
0.923346 0.283688 -0.703514 98.000000
0.926482 0.271946 -0.704061 76.000000
0.913702 0.255884 -0.693031 43.000000
0.932171 0.248423 -0.705228 98.000000
0.930850 0.235618 -0.702895 98.000000
0.929434 0.222911 -0.700484 98.000000
0.931820 0.211122 -0.700990 98.000000
0.926216 0.197650 -0.695469 98.000000
0.924239 0.185169 -0.693116 98.000000
0.930268 0.174199 -0.696329 89.000000
0.920127 0.160364 -0.687900 39.000000
0.925764 0.149394 -0.691257 98.000000
0.927328 0.137697 -0.691612 98.000000
0.928822 0.125964 -0.691861 98.000000
0.934200 0.114722 -0.695009 103.000000
0.931275 0.102499 -0.692394 100.000000
0.932483 0.090731 -0.692465 100.000000
0.933372 0.078963 -0.692679 95.000000
0.910099 0.065465 -0.675015 37.000000
0.914804 0.054238 -0.678058 95.000000
0.907193 0.042313 -0.672386 72.000000
0.907676 0.030864 -0.672351 98.000000
0.948091 0.020274 -0.702209 103.000000
0.952253 0.008354 -0.705257 98.000000
0.956307 -0.003668 -0.708233 103.000000
0.940163 -0.015461 -0.696223 103.000000
0.944038 -0.027431 -0.699055 98.000000
0.939556 -0.039169 -0.696116 103.000000
0.939199 -0.050988 -0.695830 100.000000
0.938592 -0.062842 -0.695723 98.000000
0.941850 -0.074979 -0.698481 100.000000
0.941025 -0.086848 -0.698230 103.000000
0.939914 -0.098753 -0.698158 103.000000
0.934879 -0.110116 -0.694795 100.000000
0.937547 -0.122420 -0.697585 103.000000
0.936149 -0.134253 -0.697298 100.000000
0.934643 -0.146050 -0.696939 100.000000
0.929059 -0.157176 -0.693581 98.000000
0.927381 -0.168887 -0.693081 100.000000
0.917472 -0.179091 -0.686874 100.000000
0.919542 -0.191417 -0.689230 103.000000
0.913436 -0.202172 -0.685847 100.000000
0.911171 -0.213712 -0.685352 100.000000
0.908799 -0.225217 -0.684785 105.000000
0.910263 -0.237707 -0.687132 100.000000
0.907490 -0.249262 -0.686706 95.000000
0.904859 -0.260710 -0.685959 100.000000
0.905743 -0.273362 -0.688332 100.000000
0.902672 -0.284823 -0.687725 103.000000
0.903374 -0.297515 -0.689947 98.000000
0.896245 -0.307639 -0.686297 100.000000
0.896705 -0.320357 -0.688405 98.000000
0.889461 -0.330276 -0.684619 98.000000
0.889461 -0.343091 -0.686863 95.000000
0.893379 -0.357294 -0.691696 93.000000
0.889365 -0.368685 -0.690900 95.000000
0.892713 -0.383211 -0.695892 98.000000
0.888482 -0.394553 -0.694980 95.000000
0.884142 -0.405858 -0.693996 98.000000
0.879693 -0.417090 -0.692938 98.000000
0.875208 -0.428250 -0.691844 98.000000
0.870613 -0.439336 -0.690713 83.000000
0.883726 -0.459957 -0.704196 93.000000
0.889654 -0.476919 -0.711572 98.000000
0.877142 -0.484348 -0.704726 100.000000
0.875317 -0.497623 -0.706477 100.000000
0.876870 -0.512983 -0.711047 100.000000
0.867681 -0.522109 -0.706936 98.000000
0.868970 -0.537545 -0.711331 100.000000
0.863118 -0.548639 -0.710001 86.000000
0.874404 -0.570895 -0.722785 70.000000
0.844314 -0.566017 -0.701434 98.000000
0.855253 -0.588433 -0.714095 74.000000
0.855297 -0.604304 -0.718445 95.000000
0.848902 -0.615195 -0.716817 89.000000
0.855263 -0.636064 -0.726649 87.000000
0.848177 -0.647165 -0.725153 95.000000
0.847968 -0.663013 -0.728949 66.000000
0.827695 -0.663672 -0.716172 36.000000
0.826800 -0.679644 -0.720153 98.000000
0.822535 -0.693027 -0.721245 95.000000
0.818094 -0.706415 -0.722284 95.000000
0.826022 -0.730796 -0.734354 95.000000
0.802701 -0.727481 -0.718674 95.000000
0.807074 -0.749227 -0.727837 93.000000
0.802084 -0.762498 -0.728612 65.000000
0.817342 -0.796514 -0.748859 32.000000
0.811807 -0.810051 -0.749470 90.000000
0.803236 -0.820503 -0.747337 53.000000
0.791057 -0.828173 -0.742694 75.000000
0.796722 -0.853691 -0.754048 84.000000
0.781472 -0.858120 -0.746602 52.000000
0.775343 -0.871331 -0.746940 78.000000
0.771150 -0.888010 -0.750247 32.000000
0.763959 -0.901532 -0.750757 34.000000
0.770859 -0.930888 -0.764313 84.000000
0.760560 -0.941187 -0.762000 59.000000
0.742305 -0.941333 -0.751719 84.000000
0.744917 -0.968071 -0.762627 73.000000
0.736832 -0.981443 -0.762805 75.000000
0.726116 -0.991321 -0.760336 81.000000
0.737634 -1.032196 -0.781422 33.000000
0.723965 -1.038612 -0.776172 32.000000
0.729478 -1.073064 -0.791728 31.000000
0.710751 -1.072212 -0.781206 32.000000
0.710744 -1.099781 -0.791381 35.000000
0.719440 -1.141981 -0.811725 29.000000
0.553778 0.903694 -0.624121 26.000000
0.561172 0.892469 -0.623827 36.000000
0.566083 0.877619 -0.620923 28.000000
0.570691 0.862747 -0.617982 31.000000
0.577551 0.851477 -0.617578 35.000000
0.569594 0.819070 -0.601592 21.000000
0.568447 0.797461 -0.593256 36.000000
0.569449 0.779427 -0.587415 52.000000
0.577897 0.771771 -0.589312 37.000000
0.588837 0.767358 -0.593790 55.000000
0.591923 0.752769 -0.590378 31.000000
0.597461 0.741494 -0.589565 35.000000
0.597451 0.723673 -0.583389 45.000000
0.591680 0.699488 -0.571871 45.000000
0.601604 0.695045 -0.576373 45.000000
0.614868 0.693331 -0.583323 52.000000
0.608308 0.669436 -0.571540 83.000000
0.606606 0.652324 -0.565266 62.000000
0.610941 0.641158 -0.564061 72.000000
0.617606 0.633243 -0.565695 95.000000
0.624655 0.625008 -0.567105 50.000000
0.622238 0.608119 -0.560583 95.000000
0.598641 0.570866 -0.534734 28.000000
0.583197 0.543101 -0.517125 51.000000
0.592066 0.538353 -0.521187 85.000000
0.622847 0.552916 -0.544384 95.000000
0.931169 0.787477 -0.802715 115.000000
1.486986 1.167490 -1.256439 15.000000
1.476540 1.130459 -1.239727 22.000000
1.485623 1.108807 -1.239471 15.000000
1.500481 1.092400 -1.245183 19.000000
1.502402 1.065692 -1.239130 18.000000
1.506696 1.041873 -1.236246 18.000000
1.511493 1.017621 -1.232800 20.000000
1.518775 0.996083 -1.232544 10.000000
1.511874 0.965533 -1.220956 16.000000
1.525713 0.948443 -1.226092 24.000000
1.532337 0.926793 -1.225525 20.000000
1.513907 0.890468 -1.205015 17.000000
1.519951 0.868988 -1.204197 17.000000
1.518623 0.843536 -1.197564 14.000000
1.531516 0.826043 -1.202209 16.000000
1.529691 0.800638 -1.195413 9.000000
1.541684 0.783208 -1.200315 10.000000
1.549906 0.763679 -1.202307 16.000000
1.551047 0.740232 -1.198001 14.000000
1.566352 0.724043 -1.205518 19.000000
1.559169 0.697439 -1.195719 20.000000
1.559163 0.674400 -1.191567 18.000000
1.570220 0.656157 -1.195898 25.000000
1.475014 0.594932 -1.119527 10.000000
1.427822 0.555611 -1.080837 32.000000
0.928683 0.322137 -0.696972 58.000000
0.932139 0.310407 -0.697707 98.000000
0.939330 0.299841 -0.701304 98.000000
0.942580 0.287988 -0.701931 95.000000
0.937903 0.273779 -0.696680 98.000000
0.940942 0.261914 -0.697156 38.000000
0.947547 0.251127 -0.700759 86.000000
0.950158 0.239213 -0.701384 98.000000
0.940836 0.224432 -0.693198 95.000000
0.935307 0.210807 -0.687877 98.000000
0.941548 0.199839 -0.691190 98.000000
0.935754 0.186391 -0.685715 95.000000
0.941645 0.175408 -0.689174 98.000000
0.935629 0.162139 -0.683547 65.000000
0.941276 0.151035 -0.686863 95.000000
0.934830 0.138017 -0.681337 98.000000
0.936323 0.126284 -0.681586 98.000000
0.949747 0.115991 -0.690578 98.000000
0.946835 0.103630 -0.688010 100.000000
0.948018 0.091725 -0.688046 100.000000
0.944912 0.079516 -0.685368 98.000000
0.925490 0.066216 -0.670898 42.000000
0.930234 0.054854 -0.673898 71.000000
0.926609 0.043014 -0.671248 95.000000
0.931146 0.031516 -0.674144 95.000000
0.963788 0.020518 -0.697701 98.000000
0.967947 0.008461 -0.700706 100.000000
0.967983 -0.003647 -0.700706 100.000000
0.951747 -0.015527 -0.688871 100.000000
0.951568 -0.027467 -0.688728 103.000000
0.955185 -0.039576 -0.691694 103.000000
0.950779 -0.051313 -0.688477 105.000000
0.950169 -0.063218 -0.688369 95.000000
0.949416 -0.075123 -0.688154 95.000000
0.952628 -0.087398 -0.690830 100.000000
0.955544 -0.099775 -0.693685 103.000000
0.954495 -0.111745 -0.693287 103.000000
0.945113 -0.122671 -0.687257 100.000000
0.943715 -0.134540 -0.686970 100.000000
0.946218 -0.146996 -0.689534 103.000000
0.940631 -0.158170 -0.686182 95.000000
0.934700 -0.169280 -0.683047 95.000000
0.932915 -0.180992 -0.682476 103.000000
0.930844 -0.192739 -0.682119 100.000000
0.928666 -0.204414 -0.681691 100.000000
0.926381 -0.216090 -0.681191 100.000000
0.916091 -0.225784 -0.674802 98.000000
0.917587 -0.238276 -0.677106 100.000000
0.915063 -0.249760 -0.676395 95.000000
0.912183 -0.261314 -0.675898 95.000000
0.909232 -0.272798 -0.675364 98.000000
0.913953 -0.286722 -0.680516 98.000000
0.914673 -0.299501 -0.682728 98.000000
0.903636 -0.308353 -0.676192 100.000000
0.904163 -0.321074 -0.678257 95.000000
0.900721 -0.332405 -0.677396 98.000000
0.912187 -0.349696 -0.688234 75.000000
0.904702 -0.359600 -0.684337 91.000000
0.908240 -0.374158 -0.689282 98.000000
0.904065 -0.385657 -0.688440 98.000000
0.903566 -0.398737 -0.690352 100.000000
0.895496 -0.408435 -0.686536 95.000000
0.894777 -0.421463 -0.688330 100.000000
0.886230 -0.431103 -0.684668 98.000000
0.877943 -0.440394 -0.680648 53.000000
0.902506 -0.466555 -0.702188 83.000000
0.897267 -0.478050 -0.701170 98.000000
0.899137 -0.493433 -0.705746 100.000000
0.893666 -0.504907 -0.704644 100.000000
0.884514 -0.514194 -0.700603 98.000000
0.878876 -0.525433 -0.699354 100.000000
0.873162 -0.536597 -0.698068 98.000000
0.867334 -0.547684 -0.696705 77.000000
0.864904 -0.560911 -0.698109 95.000000
0.876148 -0.583336 -0.710654 98.000000
0.872944 -0.596995 -0.712168 95.000000
0.866602 -0.608006 -0.710573 95.000000
0.866536 -0.624069 -0.714773 86.000000
0.866679 -0.639912 -0.718636 95.000000
0.862884 -0.653571 -0.719904 91.000000
0.852373 -0.662122 -0.715593 36.000000
0.851587 -0.678307 -0.719526 95.000000
0.837711 -0.683977 -0.712392 95.000000
0.833408 -0.697409 -0.713477 98.000000
0.832223 -0.713568 -0.717206 95.000000
0.827614 -0.727006 -0.718137 84.000000
0.826022 -0.743250 -0.721779 95.000000
0.818056 -0.753804 -0.719878 98.000000
0.813066 -0.767201 -0.720647 55.000000
0.834578 -0.807120 -0.745928 55.000000
0.823036 -0.814854 -0.741127 62.000000
0.822725 -0.834730 -0.747346 95.000000
0.813944 -0.845207 -0.745140 91.000000
0.801548 -0.852903 -0.740515 78.000000
0.798396 -0.869363 -0.743520 79.000000
0.794343 -0.886186 -0.746792 38.000000
0.778940 -0.890309 -0.739391 62.000000
0.783539 -0.916361 -0.750171 34.000000
0.781613 -0.936507 -0.755862 37.000000
0.771277 -0.946842 -0.753585 68.000000
0.760899 -0.957046 -0.751264 61.000000
0.755617 -0.973858 -0.754118 85.000000
0.750146 -0.990677 -0.756895 64.000000
0.754600 -1.021255 -0.770008 50.000000
0.743542 -1.031270 -0.767425 35.000000
0.744724 -1.058631 -0.777718 17.000000
0.738105 -1.075615 -0.780178 24.000000
0.726509 -1.085449 -0.777441 32.000000
0.731326 -1.120361 -0.792496 26.000000
0.728476 -1.144672 -0.799853 29.000000
0.713898 -1.150765 -0.794391 22.000000
0.564637 0.913463 -0.619962 19.000000
0.568125 0.894563 -0.614481 16.000000
0.577658 0.886936 -0.616687 25.000000
0.579927 0.868395 -0.611277 18.000000
0.598897 0.874866 -0.623521 21.000000
0.583518 0.831632 -0.600263 19.000000
0.584882 0.813345 -0.594624 18.000000
0.588533 0.798645 -0.591458 33.000000
0.589378 0.780515 -0.585656 21.000000
0.600454 0.776041 -0.590111 21.000000
0.598206 0.754658 -0.581623 31.000000
0.606377 0.746693 -0.583408 23.000000
0.614513 0.738625 -0.585159 28.000000
0.592111 0.694775 -0.558184 10.000000
0.613732 0.702955 -0.572863 25.000000
0.627127 0.701180 -0.579714 32.000000
0.625699 0.683745 -0.573640 26.000000
0.636121 0.678560 -0.577842 36.000000
0.625518 0.652039 -0.563701 27.000000
0.632766 0.643752 -0.565131 27.000000
0.627899 0.623466 -0.555890 54.000000
0.637440 0.618375 -0.560152 16.000000
0.610215 0.578210 -0.532268 26.000000
0.610515 0.564433 -0.528121 29.000000
0.632113 0.570714 -0.542943 36.000000
1.497160 1.197449 -1.243264 10.000000
1.503522 1.172977 -1.240530 10.000000
1.502966 1.143466 -1.232240 10.000000
1.518851 1.126621 -1.237524 14.000000
1.524422 1.102135 -1.234451 10.000000
1.511929 1.066063 -1.218088 10.000000
1.523759 1.046528 -1.220318 12.000000
1.517388 1.015669 -1.209152 9.000000
1.514722 0.986990 -1.200096 10.000000
1.528700 0.970015 -1.205317 13.000000
1.524836 0.941892 -1.196535 10.000000
1.542021 0.926772 -1.204268 13.000000
1.544829 0.903024 -1.200876 10.000000
1.550955 0.881311 -1.200058 10.000000
1.546018 0.853612 -1.190845 14.000000
1.540709 0.826086 -1.181466 9.000000
