x y z intensity
2.761172 -0.492039 0.041089 41.000000
2.765517 -0.523861 0.041235 81.000000
2.749872 -0.551875 0.041003 73.000000
2.733927 -0.579591 0.040857 81.000000
2.722566 -0.608184 0.040784 95.000000
2.691504 -0.631930 0.040419 46.000000
2.703918 -0.665908 0.040711 42.000000
2.764300 -0.712617 0.041647 10.000000
2.944635 -0.793309 0.044492 16.000000
3.253539 -0.914420 0.049305 9.000000
3.387369 -0.991843 0.051494 9.000000
3.414640 -1.040124 0.051968 9.000000
3.398434 -1.075658 0.051895 9.000000
3.381826 -1.110870 0.051714 8.000000
3.416875 -1.163599 0.052440 7.000000
3.446528 -1.215582 0.053094 6.000000
3.433143 -1.252837 0.052982 5.000000
3.419312 -1.289980 0.052982 6.000000
3.353906 -1.307043 0.052075 3.000000
3.390534 -1.363932 0.052871 2.000000
3.366352 -1.396798 0.052615 2.000000
3.337212 -1.427274 0.052398 2.000000
3.335206 -1.469546 0.052504 2.000000
3.346394 -1.517979 0.052936 2.000000
3.347804 -1.562662 0.053111 3.000000
3.321651 -1.594644 0.052967 3.000000
3.088914 -1.524429 0.049413 3.000000
3.040986 -1.542034 0.048806 6.000000
3.015155 -1.570404 0.048663 6.000000
3.006748 -1.607699 0.048702 2.000000
3.125032 -1.714938 0.050807 1.000000
3.114924 -1.753679 0.050950 1.000000
3.121590 -1.802500 0.051267 1.000000
3.123298 -1.849009 0.051512 1.000000
2.940608 -1.784353 0.048816 1.000000
2.929468 -1.821547 0.048853 1.000000
3.031745 -1.931237 0.050796 1.000000
3.048255 -1.988625 0.051321 1.000000
3.063898 -2.046722 0.051843 1.000000
3.024900 -2.068721 0.051561 1.000000
2.973525 -2.081423 0.050958 1.000000
2.824710 -2.023513 0.048676 1.000000
2.871956 -2.153474 0.050068 1.000000
2.828457 -2.169484 0.049611 1.000000
2.840033 -2.227937 0.050127 1.000000
2.823375 -2.265041 0.050155 1.000000
2.860364 -2.346374 0.051151 1.000000
2.742686 -2.300320 0.049382 1.000000
2.622565 -2.248681 0.047553 2.000000
2.680713 -2.349649 0.048958 4.000000
2.613969 -2.342000 0.048095 8.000000
2.470277 -2.262334 0.045801 8.000000
2.390786 -2.237770 0.044675 10.000000
2.297659 -2.197992 0.043282 16.000000
2.184221 -2.135554 0.041395 10.000000
2.118473 -2.116736 0.040490 20.000000
2.042788 -2.086096 0.039387 24.000000
1.961175 -2.046827 0.038154 24.000000
1.894400 -2.020609 0.037195 26.000000
1.821642 -1.985802 0.036023 25.000000
1.753178 -1.953369 0.035007 24.000000
1.685686 -1.919759 0.033996 22.000000
1.635391 -1.903795 0.033321 16.000000
1.576036 -1.875482 0.032375 24.000000
1.549275 -1.884730 0.032168 32.000000
1.522532 -1.893617 0.031888 32.000000
1.501842 -1.910080 0.031814 36.000000
1.471935 -1.914356 0.031544 35.000000
1.454082 -1.934198 0.031461 33.000000
1.438956 -1.957912 0.031517 28.000000
1.414756 -1.969276 0.031304 25.000000
1.399114 -1.992705 0.031359 30.000000
1.374587 -2.003593 0.031220 28.000000
1.380620 -2.059956 0.031711 30.000000
1.366433 -2.087339 0.031827 32.000000
1.343743 -2.102034 0.031675 28.000000
1.326194 -2.124908 0.031725 32.000000
1.313434 -2.156283 0.031824 27.000000
1.277237 -2.148895 0.031357 9.000000
0.829109 1.414530 0.032932 7.000000
0.823828 1.371191 0.032275 11.000000
0.836051 1.357901 0.032321 22.000000
0.853418 1.352978 0.032568 26.000000
0.868018 1.343652 0.032764 23.000000
0.888035 1.342469 0.033116 26.000000
0.899776 1.328651 0.033160 21.000000
0.922670 1.331131 0.033618 26.000000
0.931273 1.312891 0.033558 26.000000
0.951295 1.310812 0.033915 18.000000
0.959475 1.292353 0.033853 26.000000
0.970406 1.277907 0.033895 29.000000
0.981152 1.263330 0.033936 26.000000
0.997933 1.256551 0.034189 32.000000
1.046163 1.288314 0.035512 28.000000
1.053708 1.269173 0.035449 29.000000
1.067404 1.257692 0.035600 27.000000
1.067897 1.230907 0.035318 14.000000
1.094495 1.234177 0.035902 31.000000
1.111196 1.225896 0.036163 35.000000
1.127825 1.217441 0.036373 30.000000
1.144433 1.208710 0.036635 34.000000
1.164495 1.203344 0.037009 35.000000
1.188075 1.201278 0.037443 35.000000
1.215286 1.202344 0.038043 33.000000
1.213914 1.175130 0.037753 18.000000
1.223024 1.158386 0.037744 36.000000
1.239237 1.148414 0.038011 46.000000
1.277589 1.158300 0.038903 69.000000
1.305129 1.157564 0.039514 37.000000
1.313868 1.140016 0.039507 62.000000
1.326240 1.125626 0.039666 42.000000
1.342246 1.114269 0.039887 37.000000
1.358215 1.102722 0.040108 21.000000
1.385837 1.100308 0.040728 35.000000
1.397721 1.085130 0.040836 40.000000
1.425368 1.081932 0.041407 36.000000
1.441127 1.069287 0.041632 47.000000
1.456732 1.056445 0.041913 32.000000
1.480393 1.049186 0.042373 41.000000
1.491747 1.032957 0.042484 36.000000
1.507021 1.019473 0.042712 17.000000
1.543040 1.019510 0.043529 40.000000
1.562450 1.008049 0.043878 45.000000
1.581807 0.996348 0.044228 39.000000
1.592593 0.979056 0.044342 36.000000
1.620297 0.971936 0.044931 37.000000
1.635051 0.956753 0.045166 58.000000
1.675733 0.956283 0.046118 36.000000
1.690409 0.940395 0.046355 19.000000
1.709354 0.926736 0.046654 46.000000
1.745845 0.922105 0.047495 49.000000
1.786844 0.919062 0.048459 62.000000
1.805659 0.904093 0.048823 39.000000
1.815399 0.884428 0.048885 37.000000
1.833926 0.868920 0.049251 45.000000
1.856838 0.855245 0.049740 39.000000
1.907074 0.853400 0.050898 24.000000
1.920843 0.834663 0.051147 35.000000
1.957428 0.825409 0.051945 53.000000
1.975500 0.807857 0.052319 36.000000
2.007400 0.795564 0.052998 40.000000
2.067234 0.793447 0.054483 49.000000
2.085123 0.774486 0.054797 35.000000
2.107451 0.756875 0.055303 31.000000
2.120239 0.735750 0.055495 30.000000
2.161296 0.723842 0.056429 53.000000
2.183290 0.704931 0.056941 53.000000
2.214648 0.688608 0.057632 42.000000
2.269900 0.678858 0.058946 84.000000
2.296349 0.659715 0.059517 72.000000
2.322626 0.640083 0.060162 37.000000
2.300395 0.607202 0.059485 9.000000
2.374709 0.599341 0.061310 8.000000
2.434516 0.586345 0.062763 27.000000
2.474888 0.567717 0.063717 53.000000
2.515041 0.548272 0.064674 52.000000
2.584490 0.534075 0.066387 69.000000
2.619563 0.511788 0.067223 53.000000
2.639769 0.485984 0.067682 35.000000
2.674401 0.462498 0.068521 20.000000
2.763171 0.446985 0.070666 34.000000
2.822153 0.425096 0.072142 43.000000
2.871237 0.400644 0.073367 52.000000
2.920015 0.375225 0.074596 50.000000
2.993377 0.351572 0.076369 60.000000
3.002028 0.319622 0.076588 20.000000
3.075006 0.293648 0.078457 9.000000
3.232324 0.273223 0.082393 25.000000
3.230112 0.237799 0.082364 82.000000
3.227596 0.202385 0.082237 95.000000
3.204612 0.165947 0.081700 89.000000
3.181209 0.130149 0.081064 87.000000
3.167485 0.095096 0.080682 83.000000
3.103389 0.059413 0.079122 33.000000
3.093867 0.025596 0.078867 9.000000
2.998993 -0.007782 0.076447 9.000000
2.983725 -0.040173 0.076064 9.000000
2.963100 -0.072116 0.075645 9.000000
2.957200 -0.104153 0.075518 9.000000
2.940866 -0.135530 0.075135 9.000000
2.899326 -0.165250 0.074114 9.000000
2.912336 -0.197738 0.074497 9.000000
2.910019 -0.229373 0.074497 26.000000
2.892411 -0.259578 0.074114 76.000000
2.879451 -0.290048 0.073859 63.000000
2.851257 -0.318461 0.073221 50.000000
2.862549 -0.351292 0.073604 32.000000
2.833816 -0.379058 0.072879 24.000000
2.785018 -0.403333 0.071732 10.000000
2.775527 -0.432802 0.071605 9.000000
2.706549 -0.452195 0.069949 9.000000
2.760572 -0.492039 0.071392 64.000000
2.750098 -0.521069 0.071265 79.000000
2.729585 -0.547855 0.070798 70.000000
2.718662 -0.576480 0.070671 75.000000
2.707335 -0.604829 0.070459 81.000000
2.686047 -0.630787 0.070078 79.000000
2.683825 -0.661042 0.070121 54.000000
2.720129 -0.701385 0.071262 9.000000
2.905374 -0.782813 0.076242 18.000000
3.214322 -0.903598 0.084601 9.000000
3.434584 -1.005892 0.090571 8.000000
3.447347 -1.050321 0.091093 7.000000
3.440561 -1.089236 0.091109 7.000000
3.442799 -1.131153 0.091488 6.000000
3.477612 -1.184550 0.092638 6.000000
3.422179 -1.206935 0.091393 5.000000
3.437058 -1.254327 0.092036 3.000000
3.385906 -1.277407 0.090920 3.000000
3.404477 -1.326789 0.091687 2.000000
3.380591 -1.359867 0.091325 2.000000
3.434824 -1.425198 0.093091 2.000000
3.391584 -1.450640 0.092227 2.000000
3.398576 -1.497428 0.092739 1.000000
3.436761 -1.558939 0.094122 1.000000
3.369774 -1.572894 0.092637 4.000000
3.420109 -1.641898 0.094389 6.000000
3.097248 -1.528538 0.085721 2.000000
3.044819 -1.543983 0.084625 6.000000
2.970201 -1.547003 0.082912 7.000000
2.979677 -1.593246 0.083551 3.000000
3.080559 -1.690564 0.086674 1.000000
3.182962 -1.884326 0.090784 1.000000
2.986983 -1.812562 0.085647 1.000000
2.869514 -1.784175 0.082623 1.000000
2.925801 -1.863664 0.084717 1.000000
2.959786 -1.930938 0.086088 1.000000
2.909439 -1.943649 0.085129 1.000000
2.886976 -2.020894 0.085414 1.000000
2.767324 -2.075176 0.083311 1.000000
2.724791 -2.089953 0.082500 1.000000
2.725430 -2.138026 0.083009 1.000000
2.807226 -2.252087 0.086023 1.000000
2.790236 -2.288860 0.086152 1.000000
2.692352 -2.258126 0.083670 1.000000
2.656296 -2.277542 0.083099 2.000000
2.680169 -2.349214 0.084425 3.000000
2.628325 -2.354913 0.083381 7.000000
2.525164 -2.312565 0.080692 8.000000
2.397585 -2.244202 0.077193 9.000000
2.304397 -2.204515 0.074766 13.000000
2.216016 -2.166632 0.072467 10.000000
2.135695 -2.134036 0.070413 20.000000
2.045929 -2.089311 0.067930 20.000000
1.995411 -2.082574 0.066825 24.000000
1.907652 -2.034858 0.064454 25.000000
1.844966 -2.011259 0.062901 23.000000
1.766212 -1.967929 0.060781 25.000000
1.708461 -1.945741 0.059280 20.000000
1.641599 -1.911072 0.057524 11.000000
1.582244 -1.882837 0.056005 19.000000
1.548977 -1.884432 0.055326 27.000000
1.525367 -1.897216 0.055064 35.000000
1.476901 -1.878274 0.053828 33.000000
1.465547 -1.906136 0.054019 32.000000
1.453861 -1.933903 0.054134 35.000000
1.429853 -1.945458 0.053875 28.000000
1.402868 -1.952741 0.053431 21.000000
1.396019 -1.988317 0.053838 33.000000
1.368709 -1.995052 0.053395 29.000000
1.360912 -2.030511 0.053723 27.000000
1.363467 -2.082852 0.054560 32.000000
1.332745 -2.084807 0.054005 29.000000
1.325965 -2.124602 0.054430 28.000000
1.305402 -2.143167 0.054309 25.000000
1.320426 -2.221642 0.055774 9.000000
0.826382 1.409918 0.047551 5.000000
0.818485 1.362330 0.046436 9.000000
0.846337 1.374633 0.047413 13.000000
0.842509 1.335777 0.046578 16.000000
0.878621 1.360151 0.048005 10.000000
0.887839 1.342174 0.047905 21.000000
0.891124 1.315942 0.047504 13.000000
0.919576 1.326727 0.048448 17.000000
0.936760 1.320749 0.048845 21.000000
0.959854 1.322649 0.049497 9.000000
0.950292 1.280020 0.048481 25.000000
0.982250 1.293533 0.049591 20.000000
1.002366 1.290666 0.050096 16.000000
1.006963 1.267998 0.049834 25.000000
1.033258 1.272491 0.050649 14.000000
1.059790 1.276611 0.051470 22.000000
1.063868 1.253579 0.051205 18.000000
1.110171 1.279681 0.052969 10.000000
1.074298 1.211440 0.050823 30.000000
1.107536 1.221890 0.051965 23.000000
1.120729 1.209805 0.052167 26.000000
1.140693 1.204777 0.052635 28.000000
1.153763 1.192314 0.052838 20.000000
1.177172 1.190309 0.053519 29.000000
1.200711 1.187972 0.054153 24.000000
1.224376 1.185248 0.054842 16.000000
1.226292 1.161514 0.054514 34.000000
1.238876 1.148105 0.054721 23.000000
1.258710 1.141254 0.055200 30.000000
1.282325 1.137402 0.055897 32.000000
1.305947 1.133201 0.056544 26.000000
1.318196 1.118893 0.056702 34.000000
1.341874 1.114003 0.057354 29.000000
1.357788 1.102455 0.057732 21.000000
1.381492 1.096877 0.058388 30.000000
1.396965 1.085238 0.058716 26.000000
1.420679 1.079019 0.059377 30.000000
1.436348 1.066418 0.059707 29.000000
1.451974 1.053620 0.060038 26.000000
1.463368 1.037680 0.060202 31.000000
1.486920 1.030222 0.060871 26.000000
1.498022 1.013927 0.061037 18.000000
1.534026 1.014111 0.062217 32.000000
1.553372 1.002742 0.062668 29.000000
1.568440 0.988412 0.063007 29.000000
1.596107 0.981731 0.063858 42.000000
1.615262 0.969422 0.064314 29.000000
1.630044 0.954286 0.064657 31.000000
1.675085 0.956342 0.066143 33.000000
1.676660 0.933164 0.065977 20.000000
1.695464 0.919648 0.066438 34.000000
1.727450 0.912826 0.067478 32.000000
1.755067 0.903119 0.068288 30.000000
1.796045 0.899617 0.069621 35.000000
1.805737 0.880050 0.069744 28.000000
1.828729 0.866780 0.070450 32.000000
1.860690 0.857336 0.071445 35.000000
1.874448 0.839108 0.071744 16.000000
1.910974 0.830615 0.072919 31.000000
1.933694 0.815634 0.073572 31.000000
1.984033 0.811641 0.075279 29.000000
2.020610 0.801089 0.076465 34.000000
2.043167 0.784492 0.077126 29.000000
2.070324 0.769197 0.077965 27.000000
2.092660 0.751739 0.078630 26.000000
2.105325 0.730834 0.078943 10.000000
2.146317 0.719010 0.080320 38.000000
2.173009 0.701789 0.081099 34.000000
2.228184 0.693061 0.083016 33.000000
2.254743 0.674490 0.083799 44.000000
2.290744 0.658262 0.085012 36.000000
2.297731 0.633370 0.085158 29.000000
2.294838 0.605854 0.084873 8.000000
2.369041 0.598043 0.087449 6.000000
2.394889 0.576907 0.088315 18.000000
2.469165 0.566522 0.090900 35.000000
2.533705 0.552530 0.093210 33.000000
2.554244 0.528006 0.093829 33.000000
2.603955 0.508913 0.095527 31.000000
2.638868 0.485984 0.096689 28.000000
2.678413 0.463267 0.098032 32.000000
2.732636 0.442196 0.099919 7.000000
2.791636 0.420629 0.101989 16.000000
2.860366 0.399262 0.104424 35.000000
2.899203 0.372677 0.105778 27.000000
2.952666 0.346908 0.107677 33.000000
2.981140 0.317505 0.108673 10.000000
3.078943 0.294123 0.112114 8.000000
3.151574 0.266487 0.114747 29.000000
3.229025 0.237799 0.117565 58.000000
3.206562 0.201134 0.116658 45.000000
3.193554 0.165430 0.116211 71.000000
3.170155 0.129740 0.115303 35.000000
3.151438 0.094646 0.114673 54.000000
3.107342 0.059508 0.113037 28.000000
3.062849 0.025348 0.111402 8.000000
2.987993 -0.007756 0.108767 9.000000
2.977726 -0.040106 0.108403 8.000000
2.947119 -0.071751 0.107312 8.000000
2.926244 -0.103008 0.106584 9.000000
2.894955 -0.133459 0.105493 8.000000
2.898351 -0.165162 0.105675 9.000000
2.886430 -0.195957 0.105311 9.000000
2.874171 -0.226535 0.104948 14.000000
2.876506 -0.258237 0.105129 26.000000
2.818821 -0.283950 0.103129 10.000000
2.795671 -0.312358 0.102315 9.000000
2.792149 -0.342683 0.102315 10.000000
2.743710 -0.367045 0.100680 8.000000
2.759348 -0.399666 0.101321 9.000000
2.730150 -0.425787 0.100414 8.000000
2.715484 -0.453758 0.099966 7.000000
2.759631 -0.491954 0.101695 67.000000
2.729521 -0.517263 0.100789 35.000000
2.709055 -0.543921 0.100160 35.000000
2.712755 -0.575359 0.100523 67.000000
2.686898 -0.600386 0.099714 44.000000
2.685121 -0.630619 0.099811 85.000000
2.663575 -0.656176 0.099185 36.000000
2.588549 -0.667607 0.096574 10.000000
2.774101 -0.747616 0.103706 21.000000
2.943830 -0.827754 0.110286 6.000000
3.462154 -1.014211 0.129999 5.000000
3.470035 -1.057495 0.130608 5.000000
3.496513 -1.107227 0.131935 6.000000
3.470064 -1.140403 0.131285 6.000000
3.443270 -1.173158 0.130524 4.000000
3.387976 -1.195188 0.128800 2.000000
3.440523 -1.255929 0.131196 2.000000
3.496891 -1.319637 0.133653 2.000000
3.337962 -1.301269 0.128004 1.000000
3.374731 -1.357891 0.129746 1.000000
3.345890 -1.388691 0.129101 1.000000
3.408721 -1.458390 0.131902 1.000000
3.383612 -1.491269 0.131433 1.000000
3.471780 -1.575457 0.135285 1.000000
3.291556 -1.536955 0.128680 1.000000
3.288208 -1.579164 0.129100 1.000000
3.208103 -1.583840 0.126406 1.000000
2.918796 -1.480686 0.115437 4.000000
2.995665 -1.560857 0.118931 5.000000
2.956512 -1.581564 0.117847 4.000000
3.109933 -1.707397 0.124588 1.000000
3.206146 -1.852161 0.129575 1.000000
2.991323 -1.860823 0.122527 1.000000
3.000273 -1.912109 0.123527 1.000000
3.079731 -2.010254 0.127466 1.000000
2.933420 -2.251413 0.126239 1.000000
2.854327 -2.239172 0.123518 1.000000
2.864925 -2.298333 0.124825 1.000000
2.726059 -2.286383 0.120267 1.000000
2.693376 -2.309428 0.119604 1.000000
2.671891 -2.341973 0.119556 3.000000
2.661066 -2.384279 0.119901 5.000000
2.572341 -2.355814 0.116731 6.000000
2.429819 -2.274335 0.111075 8.000000
2.332701 -2.231566 0.107443 9.000000
2.211780 -2.162571 0.102669 8.000000
2.159887 -2.158209 0.101063 16.000000
2.059289 -2.103058 0.097154 10.000000
1.987881 -2.074829 0.094582 15.000000
1.910559 -2.037992 0.091609 17.000000
1.834249 -1.999711 0.088738 10.000000
1.775741 -1.978602 0.086697 18.000000
1.698095 -1.933922 0.083612 10.000000
1.621676 -1.887789 0.080624 9.000000
1.585008 -1.886212 0.079589 15.000000
1.545431 -1.880125 0.078323 15.000000
1.518659 -1.888981 0.077779 25.000000
1.482641 -1.885693 0.076685 28.000000
1.465180 -1.905622 0.076624 25.000000
1.450415 -1.929391 0.076648 30.000000
1.420605 -1.932934 0.075879 22.000000
1.399585 -1.948242 0.075659 10.000000
1.392776 -1.983707 0.076151 29.000000
1.390957 -2.027578 0.076950 20.000000
1.368886 -2.042518 0.076650 24.000000
1.352138 -2.065595 0.076660 24.000000
1.329751 -2.080143 0.076434 20.000000
1.317721 -2.111424 0.076749 24.000000
1.292097 -2.121289 0.076291 17.000000
1.263936 -2.126651 0.075682 9.000000
0.812616 1.388507 0.061318 7.000000
0.819939 1.366712 0.061039 21.000000
0.832120 1.353451 0.061139 26.000000
0.846725 1.344328 0.061382 21.000000
0.866699 1.343457 0.062061 28.000000
0.875694 1.325598 0.061915 22.000000
0.892855 1.320178 0.062402 26.000000
0.909961 1.314502 0.062842 28.000000
0.935722 1.320848 0.063924 23.000000
0.926553 1.278253 0.062587 24.000000
0.940343 1.268079 0.062828 23.000000
0.972152 1.281691 0.064266 29.000000
0.976869 1.259187 0.063960 29.000000
0.993555 1.252441 0.064404 24.000000
1.016521 1.253192 0.065255 29.000000
1.026886 1.238208 0.065298 29.000000
1.066145 1.257491 0.067172 28.000000
1.053565 1.215607 0.065789 26.000000
1.076672 1.215279 0.066650 30.000000
1.096520 1.210882 0.067310 35.000000
1.109593 1.198857 0.067510 34.000000
1.139781 1.204878 0.068795 28.000000
1.159745 1.199548 0.069464 38.000000
1.179763 1.193914 0.070085 32.000000
1.196233 1.184508 0.070551 32.000000
1.198325 1.160968 0.070127 29.000000
1.229041 1.165054 0.071435 32.000000
1.234336 1.144759 0.071220 48.000000
1.272626 1.154680 0.072909 35.000000
1.288907 1.144086 0.073384 32.000000
1.316365 1.143026 0.074448 51.000000
1.317351 1.118893 0.074019 35.000000
1.333284 1.107672 0.074445 35.000000
1.345303 1.093006 0.074657 29.000000
1.353252 1.075179 0.074653 27.000000
1.368812 1.063408 0.075080 35.000000
1.408146 1.069573 0.076811 32.000000
1.431791 1.063058 0.077625 33.000000
1.451371 1.053237 0.078279 36.000000
1.466840 1.040186 0.078717 31.000000
1.486312 1.029835 0.079320 30.000000
1.518097 1.027596 0.080640 35.000000
1.529241 1.010964 0.080808 28.000000
1.548554 0.999638 0.081473 32.000000
1.567760 0.988016 0.082085 36.000000
1.582487 0.973821 0.082533 31.000000
1.610117 0.966793 0.083593 36.000000
1.624869 0.951704 0.084045 32.000000
1.643841 0.938941 0.084664 29.000000
1.662689 0.925816 0.085285 34.000000
1.690191 0.917207 0.086357 34.000000
1.735386 0.917376 0.088331 35.000000
1.763044 0.907631 0.089412 37.000000
1.790659 0.897318 0.090497 34.000000
1.809306 0.882177 0.091071 35.000000
1.832315 0.868858 0.091935 37.000000
1.846206 0.850939 0.092348 28.000000
1.878128 0.841024 0.093671 31.000000
1.900859 0.826568 0.094479 31.000000
1.937335 0.817512 0.096038 29.000000
1.955381 0.800160 0.096623 31.000000
1.987115 0.788067 0.097961 29.000000
2.018786 0.775602 0.099238 32.000000
2.059882 0.765784 0.101044 34.000000
2.077473 0.746738 0.101638 27.000000
2.104372 0.730698 0.102694 30.000000
2.140544 0.717285 0.104213 35.000000
2.162458 0.698649 0.105044 34.000000
2.203340 0.685499 0.106801 52.000000
2.220171 0.664324 0.107405 59.000000
2.265652 0.651218 0.109401 42.000000
2.296640 0.633370 0.110705 33.000000
2.269606 0.599405 0.109224 8.000000
2.343784 0.591854 0.112625 8.000000
2.418039 0.582758 0.116035 30.000000
2.448533 0.562053 0.117277 35.000000
2.503239 0.546143 0.119765 36.000000
2.538377 0.524971 0.121245 35.000000
2.578231 0.504040 0.123040 36.000000
2.642551 0.486889 0.125930 42.000000
2.657483 0.459860 0.126563 12.000000
2.667274 0.431737 0.126879 9.000000
2.760710 0.416162 0.131186 8.000000
2.779900 0.388124 0.131976 9.000000
2.868142 0.368766 0.136057 33.000000
2.906662 0.341660 0.137791 34.000000
2.949969 0.314330 0.139763 18.000000
3.012893 0.287946 0.142679 9.000000
3.140269 0.265645 0.148661 29.000000
3.192774 0.235132 0.151115 71.000000
3.185152 0.199785 0.150643 91.000000
3.157176 0.163620 0.149325 68.000000
3.118896 0.127697 0.147533 75.000000
3.090089 0.092846 0.146117 53.000000
3.065971 0.058743 0.144937 36.000000
2.991527 0.024769 0.141487 10.000000
2.986624 -0.007756 0.141251 9.000000
2.981356 -0.040082 0.141015 10.000000
2.970733 -0.072269 0.140543 10.000000
2.939877 -0.103535 0.139125 10.000000
2.958485 -0.136451 0.140070 27.000000
2.951870 -0.168289 0.139834 33.000000
2.944900 -0.200018 0.139598 67.000000
2.837997 -0.223787 0.134637 10.000000
2.820465 -0.253236 0.133929 9.000000
2.817523 -0.283950 0.133842 10.000000
2.794382 -0.312272 0.132898 9.000000
2.771031 -0.340248 0.131869 9.000000
2.767193 -0.370273 0.131869 10.000000
2.738300 -0.396801 0.130605 9.000000
2.743689 -0.428012 0.130991 9.000000
2.709297 -0.452850 0.129578 9.000000
2.728846 -0.486692 0.130671 30.000000
2.728333 -0.517178 0.130822 95.000000
2.727461 -0.547770 0.130972 85.000000
2.716456 -0.576310 0.130652 86.000000
2.680763 -0.599213 0.129158 95.000000
2.659547 -0.624823 0.128370 68.000000
2.647770 -0.652507 0.127969 86.000000
2.635686 -0.680003 0.127651 95.000000
2.652229 -0.715111 0.128738 22.000000
2.846272 -0.800522 0.138389 10.000000
2.981207 -0.873454 0.145307 3.000000
3.196166 -0.974264 0.156082 2.000000
3.380560 -1.070698 0.165540 2.000000
3.477880 -1.143299 0.170678 1.000000
3.365964 -1.147157 0.165680 1.000000
3.089614 -1.090564 0.152449 1.000000
3.086985 -1.127423 0.152713 1.000000
3.401614 -1.284464 0.168737 1.000000
3.564443 -1.389965 0.177310 1.000000
3.465732 -1.394967 0.172916 1.000000
3.413534 -1.417197 0.170840 1.000000
3.365809 -1.440477 0.169001 1.000000
3.231103 -1.424551 0.162790 1.000000
3.320065 -1.507095 0.167863 1.000000
3.199386 -1.494457 0.162359 1.000000
3.277533 -1.574615 0.166959 1.000000
3.309465 -1.634492 0.169144 1.000000
2.993115 -1.519014 0.153604 3.000000
2.945397 -1.535255 0.151801 6.000000
2.963784 -1.586073 0.153319 5.000000
2.985727 -1.639855 0.155057 2.000000
2.941615 -1.657611 0.153486 1.000000
2.940655 -1.699585 0.154083 1.000000
2.952058 -1.749368 0.155460 1.000000
3.079097 -1.915476 0.163620 1.000000
2.876925 -1.833499 0.153617 1.000000
2.831714 -1.848383 0.151957 1.000000
2.906876 -1.943008 0.156799 1.000000
2.918599 -1.997084 0.158267 1.000000
2.772781 -2.080539 0.153761 1.000000
2.797564 -2.147108 0.156096 1.000000
2.718964 -2.134307 0.152579 1.000000
2.851333 -2.288952 0.161063 1.000000
2.725817 -2.237599 0.154912 1.000000
2.628559 -2.206103 0.150428 1.000000
2.615716 -2.244479 0.150664 2.000000
2.561142 -2.246450 0.148605 2.000000
2.547636 -2.284239 0.148840 3.000000
2.518868 -2.308563 0.148206 8.000000
2.427989 -2.274436 0.143899 8.000000
2.377834 -2.276575 0.141984 10.000000
2.242214 -2.194014 0.134922 10.000000
2.165180 -2.165367 0.131325 12.000000
2.075139 -2.121001 0.126892 18.000000
1.993210 -2.082134 0.122908 17.000000
1.919183 -2.049016 0.119370 18.000000
1.859675 -2.029257 0.116697 21.000000
1.787539 -1.993561 0.113112 19.000000
1.739429 -1.982820 0.111101 16.000000
1.649436 -1.922060 0.106373 10.000000
1.593140 -1.897766 0.103687 12.000000
1.540775 -1.876338 0.101299 15.000000
1.510923 -1.881265 0.100306 22.000000
1.478091 -1.881911 0.099109 24.000000
1.448424 -1.885958 0.098198 28.000000
1.424942 -1.897579 0.097630 25.000000
1.419067 -1.933081 0.098291 26.000000
1.400886 -1.952374 0.098129 16.000000
1.394017 -1.987946 0.098778 22.000000
1.369539 -1.998804 0.098279 23.000000
1.358897 -2.030212 0.098716 23.000000
1.342278 -2.053200 0.098745 23.000000
1.319952 -2.067660 0.098371 20.000000
1.321259 -2.119980 0.099716 20.000000
1.308527 -2.151321 0.100129 18.000000
1.300369 -2.191173 0.100932 8.000000
0.817317 1.396587 0.076284 7.000000
0.809322 1.349094 0.074501 21.000000
0.823933 1.340201 0.074837 28.000000
0.843724 1.339617 0.075651 34.000000
0.858187 1.330330 0.075941 26.000000
0.872601 1.320946 0.076280 32.000000
0.884073 1.307232 0.076377 32.000000
0.906728 1.309859 0.077394 28.000000
0.920892 1.299929 0.077735 36.000000
0.923188 1.273679 0.077048 22.000000
0.939909 1.267597 0.077631 28.000000
0.956669 1.261257 0.078166 33.000000
0.973370 1.254755 0.078704 29.000000
0.996219 1.255816 0.079741 33.000000
1.009786 1.244943 0.080083 30.000000
1.026444 1.237717 0.080628 29.000000
1.039808 1.226465 0.080923 35.000000
1.066156 1.230160 0.082226 14.000000
1.072864 1.210995 0.081969 34.000000
1.089317 1.202980 0.082520 36.000000
1.111985 1.202523 0.083632 33.000000
1.124997 1.190311 0.083882 51.000000
1.158726 1.199497 0.085722 42.000000
1.178738 1.193914 0.086543 36.000000
1.202297 1.191486 0.087574 42.000000
1.197306 1.160917 0.086588 16.000000
1.209894 1.147768 0.086843 63.000000
1.218669 1.131121 0.086837 46.000000
1.242056 1.127776 0.087876 35.000000
1.261724 1.120770 0.088657 75.000000
1.307816 1.136423 0.091335 44.000000
1.323904 1.125308 0.091811 40.000000
1.339956 1.113950 0.092341 37.000000
1.344297 1.092953 0.092077 20.000000
1.356104 1.078180 0.092341 39.000000
1.375689 1.069430 0.093140 37.000000
1.407174 1.069465 0.094690 33.000000
1.426749 1.059971 0.095497 49.000000
1.438210 1.044327 0.095714 35.000000
1.461779 1.037187 0.096795 37.000000
1.493469 1.035414 0.098365 37.000000
1.500554 1.016229 0.098316 17.000000
1.519849 1.005343 0.099081 38.000000
1.543291 0.996816 0.100176 44.000000
1.558295 0.982577 0.100673 34.000000
1.585944 0.975983 0.101992 45.000000
1.591967 0.956395 0.101946 32.000000
1.628141 0.954113 0.103821 35.000000
1.660138 0.948675 0.105428 42.000000
1.657282 0.923212 0.104834 21.000000
1.684746 0.914648 0.106113 35.000000
1.712242 0.905586 0.107455 36.000000
1.753078 0.902878 0.109575 32.000000
1.785095 0.894897 0.111206 52.000000
1.808199 0.881993 0.112225 44.000000
1.822180 0.864393 0.112688 34.000000
1.849622 0.852843 0.114053 40.000000
1.858773 0.832672 0.114239 11.000000
1.899656 0.826568 0.116389 32.000000
1.917719 0.809745 0.117141 35.000000
1.949470 0.798269 0.118739 30.000000
1.981234 0.786226 0.120341 34.000000
2.003683 0.770032 0.121384 34.000000
2.030600 0.755142 0.122711 33.000000
2.076259 0.746536 0.125176 35.000000
2.070138 0.719029 0.124460 14.000000
2.125036 0.712524 0.127501 32.000000
2.161208 0.698579 0.129413 53.000000
2.182936 0.679494 0.130406 36.000000
2.209332 0.661390 0.131686 69.000000
2.240369 0.644248 0.133325 55.000000
2.276082 0.627914 0.135182 26.000000
2.273069 0.600608 0.134754 9.000000
2.318183 0.585667 0.137189 7.000000
2.411742 0.581436 0.142496 26.000000
2.442210 0.560859 0.144083 34.000000
2.496953 0.544922 0.147109 36.000000
2.536952 0.524892 0.149279 35.000000
2.586584 0.505876 0.152029 34.000000
2.611537 0.481297 0.153262 35.000000
2.655917 0.459778 0.155731 31.000000
2.685416 0.434846 0.157339 7.000000
2.734411 0.412355 0.160022 8.000000
2.783214 0.388815 0.162708 8.000000
2.821907 0.363034 0.164818 8.000000
2.875308 0.338162 0.167886 15.000000
2.938320 0.313181 0.171450 18.000000
3.001199 0.286904 0.175018 9.000000
3.053885 0.258488 0.178009 27.000000
3.175981 0.234032 0.184967 68.000000
3.168354 0.198847 0.184484 75.000000
3.125433 0.162069 0.181969 90.000000
3.097135 0.126880 0.180323 57.000000
3.083305 0.092696 0.179452 62.000000
3.064191 0.058743 0.178290 51.000000
2.989790 0.024769 0.174026 9.000000
2.994873 -0.007690 0.174316 11.000000
2.994598 -0.040283 0.174316 24.000000
2.973998 -0.072390 0.173154 32.000000
2.988054 -0.105293 0.174026 88.000000
2.976710 -0.137280 0.173445 83.000000
2.945170 -0.167914 0.171702 76.000000
2.933226 -0.199341 0.171121 62.000000
2.846297 -0.224485 0.166182 9.000000
2.823793 -0.253683 0.164933 9.000000
2.796014 -0.281861 0.163395 9.000000
2.753151 -0.307835 0.161073 9.000000
2.749594 -0.337729 0.160989 9.000000
2.745783 -0.367538 0.160989 9.000000
2.721874 -0.394484 0.159744 9.000000
2.727282 -0.425618 0.160240 9.000000
2.707787 -0.452766 0.159286 7.000000
2.727237 -0.486523 0.160650 31.000000
2.736530 -0.518953 0.161433 80.000000
2.686695 -0.539819 0.158746 74.000000
2.675781 -0.567935 0.158289 82.000000
2.664555 -0.595861 0.157917 91.000000
2.653102 -0.623598 0.157462 95.000000
2.646187 -0.652341 0.157378 65.000000
2.609940 -0.673599 0.155484 21.000000
2.621802 -0.707144 0.156553 27.000000
2.767764 -0.778711 0.165586 9.000000
2.926807 -0.857913 0.175461 4.000000
3.060536 -0.933390 0.183881 2.000000
3.349951 -1.061543 0.201738 1.000000
3.271857 -1.076125 0.197516 1.000000
3.269514 -1.114511 0.197877 1.000000
3.393770 -1.198183 0.205950 1.000000
3.042980 -1.111706 0.185086 1.000000
3.422963 -1.292839 0.208818 1.000000
3.385506 -1.320900 0.207172 1.000000
3.292237 -1.325965 0.202008 1.000000
3.300640 -1.371233 0.203210 1.000000
3.175433 -1.359904 0.196188 1.000000
3.120561 -1.458206 0.194673 1.000000
3.059564 -1.470483 0.191541 1.000000
3.114987 -1.539067 0.195729 1.000000
2.955659 -1.500525 0.186426 2.000000
2.952424 -1.539567 0.186963 6.000000
2.926726 -1.566914 0.186098 6.000000
2.865725 -1.574634 0.182999 2.000000
3.161545 -1.782335 0.202783 1.000000
2.947431 -1.704271 0.189919 2.000000
2.958760 -1.754145 0.191447 1.000000
3.110508 -1.889353 0.202117 1.000000
2.879258 -1.835870 0.188910 1.000000
2.821392 -1.842613 0.186115 1.000000
2.821954 -1.887183 0.187079 1.000000
2.890527 -2.025656 0.193644 1.000000
2.778860 -2.086322 0.189463 1.000000
2.688606 -2.064787 0.184317 1.000000
2.673769 -2.100173 0.184444 1.000000
2.670162 -2.144901 0.185380 1.000000
2.588740 -2.126465 0.180917 1.000000
2.576865 -2.164254 0.181212 2.000000
2.484924 -2.133682 0.175972 4.000000
2.465254 -2.164002 0.175739 7.000000
2.430346 -2.180765 0.174537 8.000000
2.428574 -2.227359 0.175635 9.000000
2.422314 -2.270818 0.176458 9.000000
2.375823 -2.276474 0.174363 9.000000
2.261701 -2.214879 0.167361 10.000000
2.184484 -2.186467 0.162930 16.000000
2.083797 -2.131531 0.156683 18.000000
2.025874 -2.118130 0.153521 24.000000
1.931116 -2.063513 0.147597 21.000000
1.875703 -2.046738 0.144481 24.000000
1.803388 -2.011249 0.140170 24.000000
1.728745 -1.970753 0.135624 18.000000
1.645411 -1.917420 0.130252 11.000000
1.605225 -1.912231 0.128326 16.000000
1.546371 -1.883241 0.124800 16.000000
1.504006 -1.872668 0.122569 28.000000
1.471264 -1.873253 0.121186 27.000000
1.450885 -1.889120 0.120749 32.000000
1.424290 -1.896782 0.119808 32.000000
1.406588 -1.916173 0.119625 28.000000
1.397388 -1.947510 0.120190 21.000000
1.381955 -1.970775 0.120250 24.000000
1.374592 -2.006229 0.121051 26.000000
1.338856 -2.000341 0.119367 28.000000
1.338947 -2.048197 0.120900 27.000000
1.322040 -2.071046 0.120943 29.000000
1.304800 -2.093711 0.120907 25.000000
1.305393 -2.146208 0.122649 24.000000
1.294727 -2.181727 0.123403 9.000000
0.813513 1.392179 0.090587 7.000000
0.802941 1.340385 0.088165 20.000000
0.822684 1.340057 0.089113 26.000000
0.837151 1.331021 0.089497 29.000000
0.859681 1.334430 0.090738 28.000000
0.865894 1.312468 0.090266 26.000000
0.880073 1.302999 0.090651 28.000000
0.905511 1.309761 0.092143 34.000000
0.916793 1.295757 0.092242 32.000000
0.924962 1.277626 0.092048 24.000000
0.941723 1.271463 0.092678 31.000000
0.958522 1.265139 0.093358 31.000000
0.969149 1.250664 0.093403 29.000000
0.991943 1.251807 0.094629 29.000000
1.011753 1.248674 0.095613 32.000000
1.031633 1.245256 0.096553 32.000000
1.035452 1.222510 0.096002 32.000000
1.042143 1.203600 0.095745 24.000000
1.075035 1.214584 0.097893 32.000000
1.088177 1.202831 0.098190 34.000000
1.101170 1.190880 0.098537 39.000000
1.117491 1.182407 0.099189 44.000000
1.140727 1.180938 0.100403 41.000000
1.164047 1.179042 0.101673 38.000000
1.173268 1.162763 0.101670 35.000000
1.200175 1.163779 0.103256 25.000000
1.205153 1.144179 0.102995 33.000000
1.221208 1.134314 0.103611 49.000000
1.237183 1.124266 0.104227 37.000000
1.260589 1.120615 0.105470 52.000000
1.302885 1.132937 0.108283 56.000000
1.303731 1.108930 0.107659 58.000000
1.334949 1.110546 0.109547 36.000000
1.323778 1.076995 0.107919 22.000000
1.343278 1.068649 0.108865 35.000000
1.362755 1.060026 0.109762 38.000000
1.382155 1.051126 0.110715 52.000000
1.421603 1.056777 0.113213 34.000000
1.437070 1.044109 0.113803 36.000000
1.460574 1.036967 0.115036 42.000000
1.475903 1.023816 0.115631 33.000000
1.499391 1.016008 0.116872 25.000000
1.510358 0.999557 0.117149 36.000000
1.529317 0.988746 0.118128 36.000000
1.556888 0.982690 0.119704 57.000000
1.576025 0.970807 0.120580 36.000000
1.599327 0.961251 0.121840 46.000000
1.618322 0.948778 0.122721 34.000000
1.641585 0.938478 0.123989 37.000000
1.673496 0.932695 0.125859 26.000000
1.679131 0.911974 0.125765 36.000000
1.710999 0.905290 0.127644 43.000000
1.738507 0.895721 0.129199 49.000000
1.765975 0.885646 0.130759 33.000000
1.797818 0.877555 0.132716 48.000000
1.816255 0.862192 0.133624 41.000000
1.839130 0.848662 0.134867 41.000000
1.861893 0.834651 0.136050 28.000000
1.889178 0.822332 0.137633 34.000000
1.920978 0.811367 0.139491 42.000000
1.938885 0.794229 0.140414 35.000000
1.961255 0.778796 0.141676 32.000000
1.997518 0.768110 0.143882 31.000000
2.015117 0.749791 0.144750 35.000000
2.065387 0.743024 0.147974 30.000000
2.092158 0.727083 0.149522 31.000000
2.118799 0.710801 0.151143 36.000000
2.145372 0.693835 0.152699 35.000000
2.176635 0.677801 0.154528 44.000000
2.188666 0.655524 0.155075 40.000000
2.229142 0.641489 0.157658 41.000000
2.269613 0.626443 0.160176 29.000000
2.266665 0.599190 0.159712 8.000000
2.364938 0.597819 0.166318 8.000000
2.395526 0.577851 0.168245 28.000000
2.435663 0.559665 0.170782 35.000000
2.470789 0.539523 0.172982 40.000000
2.520476 0.521779 0.176210 44.000000
2.545569 0.498132 0.177734 34.000000
2.604765 0.480392 0.181656 35.000000
2.639359 0.457142 0.183873 27.000000
2.654042 0.429976 0.184722 8.000000
2.717670 0.410038 0.188919 8.000000
2.766418 0.386658 0.192175 8.000000
2.815046 0.362310 0.195351 8.000000
2.853457 0.335742 0.197930 8.000000
2.911533 0.310536 0.201799 10.000000
2.974252 0.284529 0.206016 16.000000
3.106403 0.263023 0.215054 23.000000
3.178717 0.234399 0.219968 48.000000
3.171101 0.199160 0.219377 95.000000
3.108384 0.161294 0.214995 72.000000
3.084988 0.126377 0.213272 63.000000
3.061287 0.092096 0.211643 35.000000
3.012166 0.057786 0.208196 25.000000
3.017615 0.025110 0.208633 35.000000
3.007731 -0.007729 0.207944 67.000000
2.992493 -0.040283 0.206909 62.000000
2.991943 -0.072876 0.206909 83.000000
2.970997 -0.104675 0.205530 81.000000
2.944810 -0.135900 0.203806 77.000000
2.918197 -0.166494 0.202081 95.000000
2.911253 -0.197898 0.201647 81.000000
2.784619 -0.219775 0.193030 9.000000
2.801927 -0.251810 0.194323 9.000000
2.769310 -0.279272 0.192255 9.000000
2.756160 -0.308304 0.191481 9.000000
2.752682 -0.338253 0.191396 9.000000
2.734032 -0.366130 0.190279 10.000000
2.715088 -0.393684 0.189163 9.000000
2.720497 -0.424764 0.189767 9.000000
2.656659 -0.444452 0.185559 8.000000
2.695910 -0.481179 0.188568 24.000000
2.724770 -0.516923 0.190803 75.000000
2.684769 -0.539651 0.188317 95.000000
2.669062 -0.566731 0.187464 86.000000
2.648115 -0.592510 0.186353 93.000000
2.631846 -0.618864 0.185502 74.000000
2.644354 -0.652257 0.186704 77.000000
2.559828 -0.660963 0.181071 35.000000
2.581365 -0.696581 0.182958 33.000000
2.669709 -0.751588 0.189615 10.000000
2.766702 -0.811313 0.196853 6.000000
3.020214 -0.921451 0.215392 2.000000
3.281016 -1.040222 0.234576 1.000000
3.449602 -1.135056 0.247273 1.000000
3.201092 -1.091756 0.229980 1.000000
3.068813 -1.121783 0.221678 1.000000
3.322507 -1.255691 0.240643 1.000000
3.308601 -1.291760 0.240317 1.000000
3.252941 -1.310509 0.236958 1.000000
3.160147 -1.313361 0.230914 1.000000
3.310782 -1.418309 0.242701 1.000000
3.263191 -1.440234 0.240021 1.000000
3.045835 -1.424290 0.225537 1.000000
3.066169 -1.474704 0.227902 1.000000
2.978586 -1.472220 0.222149 1.000000
2.966876 -1.506897 0.222076 1.000000
2.941440 -1.534444 0.221105 6.000000
2.942187 -1.575829 0.222027 7.000000
2.889858 -1.588655 0.219069 4.000000
2.928901 -1.651884 0.222966 1.000000
2.932290 -1.696257 0.224206 2.000000
2.900768 -1.720532 0.222803 2.000000
2.992626 -1.819484 0.230944 1.000000
3.057395 -1.904813 0.237083 1.000000
3.015435 -1.924662 0.234894 1.000000
2.819229 -1.842201 0.220619 1.000000
2.852949 -1.908965 0.224448 1.000000
2.819604 -1.931475 0.223051 1.000000
2.724852 -1.910643 0.216681 1.000000
2.845662 -2.042073 0.227516 1.000000
2.792480 -2.097885 0.225906 1.000000
2.662589 -2.046131 0.216679 1.000000
2.534182 -1.991840 0.207494 2.000000
2.543411 -2.044449 0.209564 3.000000
2.505539 -2.059517 0.207787 6.000000
2.502025 -2.102844 0.208885 9.000000
2.475153 -2.126777 0.207968 9.000000
2.451802 -2.153721 0.207469 9.000000
2.443002 -2.193702 0.208135 9.000000
2.415229 -2.216934 0.207318 9.000000
2.401886 -2.253442 0.207660 9.000000
2.410446 -2.309691 0.209879 8.000000
2.271043 -2.224096 0.199257 10.000000
2.204418 -2.206421 0.194931 18.000000
2.114009 -2.162555 0.188450 17.000000
2.028248 -2.120572 0.182314 18.000000
1.943632 -2.076965 0.176212 24.000000
1.873751 -2.046483 0.171290 19.000000
1.808149 -2.018436 0.166788 22.000000
1.749927 -1.996705 0.162922 20.000000
1.679366 -1.958866 0.157776 10.000000
1.622711 -1.934947 0.153956 18.000000
1.563650 -1.906169 0.149777 17.000000
1.520983 -1.895804 0.147134 22.000000
1.475679 -1.880815 0.144206 26.000000
1.449065 -1.888901 0.143167 29.000000
1.419555 -1.892572 0.141760 27.000000
1.407796 -1.919980 0.142148 29.000000
1.389742 -1.939176 0.141935 20.000000
1.377253 -1.966466 0.142239 26.000000
1.364278 -1.993649 0.142609 25.000000
1.337017 -2.000120 0.141505 28.000000
1.328891 -2.035434 0.142453 28.000000
1.314796 -2.062402 0.142732 26.000000
1.297641 -2.085084 0.142789 23.000000
1.287850 -2.120379 0.143634 24.000000
1.236728 -2.087095 0.139936 8.000000
0.802952 1.374208 0.103776 7.000000
0.805027 1.343948 0.102581 15.000000
0.816123 1.331358 0.102732 14.000000
0.846468 1.347728 0.105188 18.000000
0.847574 1.317405 0.103970 21.000000
0.861852 1.308110 0.104402 15.000000
0.889983 1.319302 0.106502 27.000000
0.892907 1.293098 0.105551 21.000000
0.918410 1.299588 0.107330 16.000000
0.917862 1.269300 0.106078 21.000000
0.934531 1.263201 0.106849 14.000000
0.945220 1.248986 0.106893 24.000000
0.970944 1.254367 0.108691 27.000000
0.987578 1.247651 0.109423 18.000000
1.004248 1.240674 0.110156 28.000000
1.039937 1.256537 0.112965 23.000000
1.043893 1.233688 0.112374 24.000000
1.047453 1.210901 0.111725 22.000000
1.057227 1.195654 0.111719 18.000000
1.083593 1.198883 0.113511 27.000000
1.103314 1.194295 0.114609 25.000000
1.129994 1.196663 0.116418 23.000000
1.132545 1.173460 0.115709 32.000000
1.166282 1.182339 0.118239 25.000000
1.179087 1.169534 0.118595 27.000000
1.184632 1.149631 0.118236 29.000000
1.214729 1.154180 0.120432 21.000000
1.209027 1.123873 0.118994 29.000000
1.247025 1.134025 0.121871 33.000000
1.259351 1.120306 0.122232 24.000000
1.267709 1.103210 0.122230 37.000000
1.313867 1.118312 0.125864 29.000000
1.326010 1.103846 0.126181 31.000000
1.314792 1.070386 0.124356 23.000000
1.342018 1.068386 0.126134 21.000000
1.361435 1.059709 0.127184 33.000000
1.400721 1.065905 0.130134 27.000000
1.416302 1.053476 0.130827 26.000000
1.427700 1.037920 0.131151 32.000000
1.447065 1.027976 0.132164 25.000000
1.466120 1.018183 0.133289 25.000000
1.489533 1.010465 0.134736 24.000000
1.512964 1.002366 0.136133 23.000000
1.523795 0.985704 0.136467 35.000000
1.542890 0.974310 0.137496 29.000000
1.566178 0.965235 0.138961 26.000000
1.589412 0.955770 0.140374 33.000000
1.608344 0.943389 0.141414 27.000000
1.627157 0.930706 0.142457 29.000000
1.645733 0.918064 0.143561 27.000000
1.668793 0.907154 0.144991 26.000000
1.682966 0.891232 0.145605 30.000000
1.719169 0.886522 0.148188 34.000000
1.755493 0.881113 0.150720 27.000000
1.782850 0.870625 0.152554 31.000000
1.814779 0.861823 0.154716 30.000000
1.823941 0.842207 0.155024 29.000000
1.851174 0.830445 0.156811 28.000000
1.873828 0.816171 0.158217 24.000000
1.905545 0.805418 0.160400 31.000000
1.927994 0.790256 0.161814 29.000000
1.959576 0.778602 0.164073 26.000000
1.995816 0.767914 0.166596 30.000000
2.036765 0.758290 0.169581 29.000000
2.044881 0.736069 0.169847 21.000000
2.085688 0.725377 0.172844 29.000000
2.107570 0.707355 0.174219 26.000000
2.138905 0.692025 0.176378 31.000000
2.169994 0.676249 0.178612 35.000000
2.172456 0.651160 0.178429 30.000000
2.222507 0.639827 0.182100 47.000000
2.248522 0.621063 0.183955 24.000000
2.221432 0.587575 0.181344 8.000000
2.314601 0.585448 0.188644 8.000000
2.378955 0.574192 0.193595 19.000000
2.409387 0.553928 0.195793 27.000000
2.459039 0.537241 0.199500 33.000000
2.503787 0.518589 0.202817 30.000000
2.563071 0.501884 0.207406 29.000000
2.602658 0.480311 0.210339 33.000000
2.588038 0.448548 0.208915 9.000000
2.632142 0.426704 0.212250 8.000000
2.705628 0.408466 0.217971 7.000000
2.739516 0.383121 0.220438 7.000000
2.792929 0.359677 0.224583 8.000000
2.861072 0.336820 0.229926 7.000000
2.899203 0.309389 0.232800 9.000000
2.966914 0.283962 0.238065 32.000000
3.084059 0.261340 0.247316 24.000000
3.141388 0.231735 0.251793 37.000000
3.113857 0.195721 0.249498 55.000000
3.085904 0.160165 0.247202 33.000000
3.072573 0.125968 0.246100 20.000000
3.013922 0.090746 0.241313 9.000000
2.964922 0.056925 0.237415 9.000000
2.990295 0.024902 0.239410 54.000000
2.985403 -0.007678 0.239103 33.000000
2.975162 -0.040082 0.238304 73.000000
2.969542 -0.072299 0.237905 55.000000
2.953689 -0.104148 0.236708 36.000000
2.947354 -0.136040 0.236218 93.000000
2.920848 -0.166688 0.234223 45.000000
2.879097 -0.195780 0.231031 55.000000
2.842020 -0.224398 0.228151 24.000000
2.755014 -0.247707 0.221285 8.000000
2.767011 -0.279187 0.222481 9.000000
2.734142 -0.306002 0.220005 9.000000
2.725657 -0.335127 0.219522 8.000000
2.721874 -0.364721 0.219438 9.000000
2.698025 -0.391454 0.217678 9.000000
2.673904 -0.417756 0.216004 8.000000
2.679095 -0.448401 0.216716 9.000000
2.654397 -0.474085 0.214960 10.000000
2.717667 -0.515909 0.220438 80.000000
2.667932 -0.536536 0.216697 57.000000
2.652183 -0.563457 0.215737 62.000000
2.645957 -0.592261 0.215571 87.000000
2.629613 -0.618698 0.214613 55.000000
2.627588 -0.648508 0.214844 54.000000
2.586681 -0.668282 0.211829 53.000000
2.569614 -0.693819 0.210875 29.000000
2.643515 -0.744576 0.217336 9.000000
2.797888 -0.821050 0.230569 9.000000
2.917496 -0.890788 0.241024 3.000000
3.164252 -1.003634 0.261884 1.000000
3.437245 -1.131606 0.285255 1.000000
3.162903 -1.117901 0.263712 1.000000
3.113128 -1.138605 0.260273 1.000000
3.212445 -1.214707 0.269351 1.000000
3.236132 -1.264227 0.272159 1.000000
3.333261 -1.343734 0.281091 1.000000
3.327724 -1.383867 0.281539 1.000000
3.220867 -1.380770 0.273322 1.000000
3.324194 -1.468100 0.283097 1.000000
3.085711 -1.403247 0.263654 1.000000
3.111097 -1.455357 0.266723 1.000000
3.135440 -1.508662 0.269781 1.000000
3.154571 -1.560426 0.272442 1.000000
3.128555 -1.590273 0.271240 1.000000
2.925443 -1.527420 0.254654 3.000000
2.912967 -1.561595 0.254634 5.000000
2.900238 -1.595663 0.254512 4.000000
2.696218 -1.521420 0.237556 2.000000
2.882340 -1.668165 0.255026 1.000000
2.919729 -1.732635 0.259573 2.000000
3.028389 -1.842160 0.270466 1.000000
3.020794 -1.883053 0.271062 1.000000
2.836224 -1.811302 0.255844 1.000000
2.958205 -1.934994 0.268190 1.000000
2.858189 -1.914514 0.260371 1.000000
2.939927 -2.016174 0.269260 1.000000
2.790442 -2.003626 0.258312 1.000000
2.603727 -1.912972 0.242347 1.000000
2.526868 -1.899407 0.236628 2.000000
2.565261 -1.972569 0.241632 6.000000
2.523978 -1.985084 0.239181 7.000000
2.533245 -2.037600 0.241555 8.000000
2.510861 -2.065157 0.240958 8.000000
2.488178 -2.092616 0.240361 8.000000
2.465196 -2.119677 0.239764 9.000000
2.449406 -2.153123 0.239901 8.000000
2.448010 -2.199765 0.241498 8.000000
2.416495 -2.219706 0.240063 9.000000
2.406639 -2.259665 0.240916 8.000000
2.411493 -2.312531 0.243010 7.000000
2.290079 -2.244554 0.232530 9.000000
2.205557 -2.209378 0.225714 10.000000
2.118667 -2.169136 0.218667 13.000000
2.022560 -2.116428 0.210487 10.000000
1.968707 -2.105587 0.206555 10.000000
1.885095 -2.060693 0.199524 14.000000
1.819299 -2.032887 0.194308 10.000000
1.787241 -2.041328 0.192578 10.000000
1.683883 -1.965969 0.183174 10.000000
1.620781 -1.934561 0.177968 10.000000
1.564851 -1.909650 0.173570 11.000000
1.512813 -1.887649 0.169472 11.000000
1.473779 -1.880449 0.166790 19.000000
1.441177 -1.880547 0.164818 27.000000
1.417675 -1.892210 0.163892 21.000000
1.399937 -1.911568 0.163658 21.000000
1.382038 -1.930699 0.163422 18.000000
1.375345 -1.966099 0.164478 16.000000
1.362358 -1.993280 0.164913 24.000000
1.335105 -1.999753 0.163643 19.000000
1.335059 -2.047598 0.165686 20.000000
1.302061 -2.045196 0.163740 21.000000
1.298172 -2.088946 0.165422 18.000000
1.294861 -2.132034 0.167007 14.000000
1.281841 -2.163164 0.167728 7.000000
0.814103 1.395401 0.119987 6.000000
0.808757 1.352171 0.117507 10.000000
0.833838 1.360254 0.119482 15.000000
0.835277 1.329964 0.118144 22.000000
0.863184 1.341748 0.120508 17.000000
0.872248 1.323900 0.120240 19.000000
0.885786 1.314826 0.120774 21.000000
0.911374 1.321489 0.122784 19.000000
0.922797 1.307393 0.122893 22.000000
0.916520 1.268965 0.120692 10.000000
0.948047 1.282910 0.123486 25.000000
0.958908 1.268533 0.123539 24.000000
0.978733 1.265858 0.124803 24.000000
0.986264 1.247262 0.124463 24.000000
1.015417 1.255836 0.126909 23.000000
1.029012 1.244663 0.127354 28.000000
1.045727 1.237148 0.128193 28.000000
1.062375 1.229414 0.129035 10.000000
1.059208 1.199048 0.127497 34.000000
1.082208 1.198488 0.129133 27.000000
1.101971 1.193897 0.130328 29.000000
1.114954 1.181760 0.130776 30.000000
1.127738 1.169523 0.131224 28.000000
1.147419 1.164186 0.132429 30.000000
1.180793 1.173097 0.135310 35.000000
1.200681 1.167048 0.136582 13.000000
1.202511 1.143519 0.135769 36.000000
1.222257 1.137045 0.136993 36.000000
1.238262 1.126956 0.137761 33.000000
1.257959 1.119945 0.138994 47.000000
1.285109 1.119161 0.141056 33.000000
1.312441 1.117890 0.143076 37.000000
1.328412 1.106666 0.143913 36.000000
1.336569 1.088853 0.143867 21.000000
1.348395 1.074175 0.144237 36.000000
1.363993 1.062402 0.145025 34.000000
1.383091 1.053774 0.146286 35.000000
1.386549 1.032592 0.145819 42.000000
1.421943 1.034934 0.148717 29.000000
1.445327 1.027922 0.150307 41.000000
1.468736 1.020589 0.151957 36.000000
1.483923 1.007227 0.152710 21.000000
1.507312 0.999169 0.154315 42.000000
1.526477 0.988022 0.155499 36.000000
1.541382 0.973919 0.156316 34.000000
1.564433 0.965123 0.157935 36.000000
1.596188 0.960795 0.160418 42.000000
1.615166 0.948319 0.161620 39.000000
1.629759 0.933066 0.162395 35.000000
1.631126 0.910320 0.161819 19.000000
1.667224 0.906689 0.164757 35.000000
1.698881 0.900388 0.167273 51.000000
1.717393 0.886285 0.168436 35.000000
1.744788 0.876401 0.170471 52.000000
1.781089 0.870443 0.173384 35.000000
1.799438 0.855225 0.174561 34.000000
1.826618 0.844112 0.176614 46.000000
1.831136 0.822037 0.176485 22.000000
1.890214 0.823881 0.181618 37.000000
1.917407 0.810985 0.183628 35.000000
1.953663 0.801534 0.186587 33.000000
1.971524 0.783864 0.187727 34.000000
2.007861 0.773020 0.190635 37.000000
2.016167 0.751069 0.190898 35.000000
2.061627 0.742755 0.194769 35.000000
2.074253 0.721833 0.195481 17.000000
2.110250 0.708805 0.198414 60.000000
2.132034 0.690353 0.199951 62.000000
2.148959 0.670041 0.201116 46.000000
2.194223 0.658176 0.204956 71.000000
2.220383 0.639685 0.206951 61.000000
2.270380 0.627481 0.211254 41.000000
2.301162 0.609024 0.213632 43.000000
2.307581 0.584007 0.213924 10.000000
2.357346 0.569440 0.218175 33.000000
2.421676 0.557050 0.223703 67.000000
2.437268 0.532832 0.224829 38.000000
2.481934 0.514390 0.228652 40.000000
2.531352 0.495979 0.232932 39.000000
2.570847 0.474724 0.236240 38.000000
2.605251 0.451791 0.239102 33.000000
2.664100 0.432204 0.244304 7.000000
2.708038 0.409126 0.247993 8.000000
2.732044 0.382346 0.250051 8.000000
2.790343 0.359591 0.255102 8.000000
2.863283 0.337314 0.261600 8.000000
2.916330 0.311414 0.266208 11.000000
2.969042 0.284346 0.270910 37.000000
3.036467 0.257459 0.276883 45.000000
