x y z intensity
1.490740 -0.734524 -1.076407 24.000000
1.471291 -0.747429 -1.066694 10.000000
1.481629 -0.775583 -1.078625 21.000000
1.480469 -0.798035 -1.082336 27.000000
1.471680 -0.816528 -1.080505 21.000000
1.466425 -0.836926 -1.081249 24.000000
1.450101 -0.850895 -1.073908 21.000000
1.444519 -0.871094 -1.074524 19.000000
1.445944 -0.895706 -1.080369 22.000000
1.446486 -0.920773 -1.086615 10.000000
1.447314 -0.945613 -1.092273 15.000000
1.429741 -0.959185 -1.084944 21.000000
1.419060 -0.977195 -1.082833 17.000000
1.415111 -1.000033 -1.086032 22.000000
1.418490 -1.027395 -1.093943 26.000000
1.410554 -1.047761 -1.094255 21.000000
1.412638 -1.075806 -1.102404 24.000000
1.380793 -1.077841 -1.084128 9.000000
1.392362 -1.113800 -1.099926 18.000000
1.382931 -1.134402 -1.100308 20.000000
1.367427 -1.148964 -1.095003 15.000000
1.374557 -1.182796 -1.107830 26.000000
1.371525 -1.208452 -1.112711 17.000000
1.361114 -1.228950 -1.112758 19.000000
1.351230 -1.248874 -1.112268 22.000000
1.340298 -1.269206 -1.112158 9.000000
1.333172 -1.291811 -1.114082 10.000000
1.330951 -1.321082 -1.121506 18.000000
1.325317 -1.347339 -1.126184 16.000000
1.311285 -1.363855 -1.122693 19.000000
1.299192 -1.383777 -1.122149 14.000000
1.298542 -1.416344 -1.131673 17.000000
1.297341 -1.449082 -1.141057 18.000000
1.281513 -1.465805 -1.137685 9.000000
1.285120 -1.505258 -1.151919 14.000000
1.271467 -1.525074 -1.150862 17.000000
1.263140 -1.551538 -1.154788 20.000000
1.254456 -1.577932 -1.158527 22.000000
1.237356 -1.594109 -1.154766 16.000000
1.235929 -1.630777 -1.165785 21.000000
1.213291 -1.639668 -1.156971 15.000000
1.210983 -1.676517 -1.167713 9.000000
1.200616 -1.702787 -1.171004 10.000000
1.188628 -1.729621 -1.174610 10.000000
1.175072 -1.752290 -1.175219 12.000000
1.166003 -1.782110 -1.180642 16.000000
1.159832 -1.819938 -1.191201 10.000000
1.147439 -1.846226 -1.193909 12.000000
1.134658 -1.872392 -1.196561 14.000000
0.789772 1.308292 -0.821382 28.000000
0.815063 1.316670 -0.836387 21.000000
0.825226 1.298134 -0.834465 30.000000
0.831707 1.276312 -0.830383 27.000000
0.848547 1.268679 -0.835485 23.000000
0.861822 1.257634 -0.838511 32.000000
0.897729 1.278720 -0.863193 22.000000
0.904554 1.255929 -0.858586 16.000000
0.904878 1.226634 -0.849388 33.000000
0.917925 1.214918 -0.852211 30.000000
0.933586 1.206490 -0.857483 60.000000
0.922119 1.163706 -0.838139 42.000000
0.789302 0.972773 -0.710112 52.000000
0.777545 0.935840 -0.692523 35.000000
0.787585 0.925800 -0.694659 27.000000
0.794734 0.912361 -0.694222 26.000000
0.801727 0.898868 -0.693770 35.000000
0.791051 0.866145 -0.678244 74.000000
0.803391 0.859089 -0.682656 79.000000
0.812771 0.848755 -0.684524 73.000000
0.822026 0.838296 -0.686392 93.000000
0.821497 0.818871 -0.680832 57.000000
0.827399 0.805276 -0.680060 74.000000
0.839394 0.797609 -0.684280 48.000000
0.822475 0.763693 -0.665802 28.000000
0.834141 0.755984 -0.669912 69.000000
0.845271 0.748356 -0.674275 72.000000
0.847127 0.731872 -0.670660 68.000000
0.828651 0.699132 -0.651725 98.000000
0.829454 0.683264 -0.648182 70.000000
0.837113 0.672579 -0.649484 95.000000
0.847678 0.664684 -0.653610 81.000000
0.848007 0.648842 -0.649910 36.000000
0.861828 0.643266 -0.656532 95.000000
0.858407 0.624894 -0.650084 91.000000
0.865208 0.614065 -0.651414 95.000000
0.857851 0.593472 -0.642220 95.000000
0.856966 0.578134 -0.638461 62.000000
0.859754 0.564972 -0.636978 98.000000
0.862380 0.551789 -0.635449 95.000000
0.853744 0.532143 -0.626204 64.000000
0.852420 0.516931 -0.621924 98.000000
0.846919 0.499889 -0.615153 92.000000
0.863249 0.495667 -0.624255 98.000000
0.868556 0.484946 -0.625366 100.000000
0.866319 0.470081 -0.621075 100.000000
0.875108 0.461244 -0.624740 98.000000
0.876345 0.448394 -0.623030 95.000000
0.885034 0.439321 -0.626597 36.000000
0.886016 0.426422 -0.624772 89.000000
0.882816 0.411941 -0.620432 98.000000
0.887363 0.400873 -0.621172 95.000000
0.895453 0.391599 -0.624781 98.000000
0.892085 0.377098 -0.620027 98.000000
0.892225 0.364487 -0.618170 98.000000
0.896139 0.353410 -0.618904 95.000000
0.884228 0.336319 -0.608814 54.000000
0.883716 0.324023 -0.606963 100.000000
0.891232 0.314449 -0.610256 98.000000
0.886542 0.300800 -0.605614 98.000000
0.889911 0.289741 -0.606057 100.000000
0.888969 0.277534 -0.604016 100.000000
0.891916 0.266559 -0.604592 98.000000
0.898792 0.256700 -0.607860 100.000000
0.885410 0.241202 -0.597425 72.000000
0.888017 0.230241 -0.597826 100.000000
0.886324 0.218346 -0.595661 98.000000
0.888619 0.207435 -0.596194 100.000000
0.890947 0.196425 -0.596426 98.000000
0.888913 0.184630 -0.594088 100.000000
0.886630 0.172936 -0.591910 100.000000
0.892622 0.162743 -0.594916 98.000000
0.898531 0.152450 -0.597890 95.000000
0.900095 0.141406 -0.598256 100.000000
0.885016 0.127970 -0.587605 103.000000
0.878071 0.116002 -0.582372 105.000000
0.879300 0.105198 -0.582534 100.000000
0.880433 0.094361 -0.582664 103.000000
0.885496 0.083951 -0.585704 105.000000
0.886471 0.073063 -0.585704 100.000000
0.903847 0.063342 -0.596869 95.000000
0.908677 0.052491 -0.599720 100.000000
0.900736 0.040968 -0.594448 100.000000
0.905370 0.030065 -0.597167 98.000000
0.905601 0.018940 -0.597300 100.000000
0.909908 0.007884 -0.600085 100.000000
0.909941 -0.003293 -0.600085 103.000000
0.905701 -0.014404 -0.597266 98.000000
0.884670 -0.024908 -0.583375 98.000000
0.888453 -0.035946 -0.586127 98.000000
0.888128 -0.046834 -0.585867 98.000000
0.879242 -0.057180 -0.580269 70.000000
0.878566 -0.067966 -0.580076 100.000000
0.873537 -0.078410 -0.577327 98.000000
0.893482 -0.091235 -0.590745 100.000000
0.975414 -0.111698 -0.645554 100.000000
1.007247 -0.127885 -0.667308 95.000000
1.022357 -0.142578 -0.677991 100.000000
1.024945 -0.155757 -0.680320 95.000000
1.027368 -0.168999 -0.682607 71.000000
1.004802 -0.177966 -0.668640 90.000000
0.998645 -0.189547 -0.665565 95.000000
1.000781 -0.202576 -0.667672 98.000000
0.994455 -0.214019 -0.664453 95.000000
0.991896 -0.226292 -0.664156 98.000000
1.009808 -0.243361 -0.677255 95.000000
1.344495 -0.358971 -0.905077 52.000000
1.461566 -0.409470 -0.986032 18.000000
1.553636 -0.455760 -1.050462 18.000000
1.552582 -0.476132 -1.052121 21.000000
1.555442 -0.497765 -1.056371 28.000000
1.541717 -0.514339 -1.050113 24.000000
1.536225 -0.533235 -1.048755 20.000000
1.542064 -0.556531 -1.055814 22.000000
1.532293 -0.573920 -1.051563 19.000000
1.518037 -0.589806 -1.044917 10.000000
1.534976 -0.617960 -1.059798 26.000000
1.520483 -0.633609 -1.052972 19.000000
1.520944 -0.655919 -1.057219 24.000000
1.521572 -0.678062 -1.061032 22.000000
1.517750 -0.698752 -1.062389 21.000000
1.514071 -0.719175 -1.063254 23.000000
1.509869 -0.739873 -1.064475 18.000000
1.490291 -0.752921 -1.054884 10.000000
1.496981 -0.779175 -1.063923 20.000000
1.492126 -0.799744 -1.064819 20.000000
1.490815 -0.822329 -1.068303 24.000000
1.489232 -0.844975 -1.071707 24.000000
1.469118 -0.856934 -1.061791 21.000000
1.470800 -0.881592 -1.067639 22.000000
1.460875 -0.900086 -1.065912 19.000000
1.472812 -0.931721 -1.079428 10.000000
1.451726 -0.943224 -1.069605 22.000000
1.441168 -0.961421 -1.067617 17.000000
1.445173 -0.988680 -1.075601 23.000000
1.455199 -1.021502 -1.089140 23.000000
1.440474 -1.037207 -1.084243 21.000000
1.432610 -1.057707 -1.084495 23.000000
1.424438 -1.078166 -1.084736 21.000000
1.426285 -1.106449 -1.092541 10.000000
1.421011 -1.129550 -1.095131 19.000000
1.404815 -1.144958 -1.090353 18.000000
1.395843 -1.165198 -1.090149 22.000000
1.393145 -1.190904 -1.095061 22.000000
1.395879 -1.222778 -1.105378 19.000000
1.382959 -1.240115 -1.102346 24.000000
1.372219 -1.260692 -1.102321 12.000000
1.358939 -1.277672 -1.099150 11.000000
1.360262 -1.309937 -1.109035 16.000000
1.354909 -1.336337 -1.113738 15.000000
1.353211 -1.365366 -1.120444 21.000000
1.344151 -1.388826 -1.122411 16.000000
1.334818 -1.412169 -1.124281 16.000000
1.322273 -1.432411 -1.123627 18.000000
1.321136 -1.465337 -1.132779 13.000000
1.310904 -1.488653 -1.134411 12.000000
1.303156 -1.515271 -1.138419 11.000000
1.292325 -1.538496 -1.139773 20.000000
1.283972 -1.565019 -1.143556 21.000000
1.267014 -1.581409 -1.139937 15.000000
1.258121 -1.607893 -1.143506 18.000000
1.246143 -1.630829 -1.144592 18.000000
1.244328 -1.667772 -1.155282 13.000000
1.239418 -1.701291 -1.163381 18.000000
1.217505 -1.714160 -1.157373 10.000000
1.206763 -1.740572 -1.160406 12.000000
1.198254 -1.770443 -1.165780 13.000000
1.190211 -1.804761 -1.173845 13.000000
1.180664 -1.834797 -1.178999 14.000000
1.164452 -1.858077 -1.179726 10.000000
1.147146 -1.876884 -1.177526 10.000000
0.782322 1.317826 -0.802649 12.000000
0.796049 1.307637 -0.805711 16.000000
0.801406 1.281874 -0.799162 28.000000
0.836260 1.304949 -0.823245 16.000000
0.836336 1.271587 -0.811910 21.000000
0.859506 1.275414 -0.824306 24.000000
0.887879 1.286127 -0.841511 15.000000
0.887091 1.252674 -0.829897 22.000000
0.900298 1.241278 -0.832826 15.000000
0.910834 1.226199 -0.833254 24.000000
0.916722 1.203625 -0.828545 30.000000
0.932209 1.195288 -0.833692 20.000000
0.923084 1.155995 -0.817098 34.000000
0.791501 0.968156 -0.693573 20.000000
0.793433 0.947983 -0.688457 28.000000
0.800784 0.934521 -0.688132 20.000000
0.787809 0.898059 -0.670618 10.000000
0.814929 0.907385 -0.687353 32.000000
0.821810 0.893757 -0.686857 29.000000
0.828494 0.880118 -0.686346 33.000000
0.838081 0.869514 -0.688213 33.000000
0.838394 0.849514 -0.682632 32.000000
0.832214 0.823563 -0.671992 42.000000
0.844353 0.815944 -0.676218 27.000000
0.846495 0.799538 -0.673198 26.000000
0.848919 0.782838 -0.669822 35.000000
0.847478 0.763608 -0.664109 30.000000
0.855897 0.752772 -0.665640 42.000000
0.863833 0.742137 -0.667412 42.000000
0.862181 0.722792 -0.661262 30.000000
0.843127 0.690214 -0.642576 63.000000
0.867703 0.692832 -0.656613 31.000000
0.854714 0.666183 -0.642843 28.000000
0.865248 0.658095 -0.646861 38.000000
0.865379 0.642169 -0.643203 37.000000
0.868835 0.628815 -0.642014 60.000000
0.875626 0.617943 -0.643349 54.000000
0.878810 0.604567 -0.642029 61.000000
0.881827 0.591165 -0.640699 81.000000
0.881097 0.575436 -0.636696 34.000000
0.876285 0.557703 -0.630303 70.000000
0.871509 0.539978 -0.623584 35.000000
0.884495 0.533621 -0.630036 78.000000
0.894120 0.524666 -0.633641 95.000000
0.899644 0.513616 -0.634827 71.000000
0.882783 0.490085 -0.620237 95.000000
0.880533 0.475121 -0.616043 95.000000
0.878087 0.460269 -0.611831 92.000000
0.886855 0.451318 -0.615385 95.000000
0.891746 0.440285 -0.616278 30.000000
0.896531 0.429217 -0.617135 68.000000
0.912799 0.423436 -0.625879 84.000000
0.913340 0.410486 -0.624210 61.000000
0.910099 0.395760 -0.619634 95.000000
0.914312 0.384585 -0.620527 77.000000
0.910533 0.370111 -0.616038 95.000000
0.918440 0.360472 -0.619475 86.000000
0.914398 0.346133 -0.614863 35.000000
0.890312 0.324707 -0.596880 95.000000
0.893867 0.313701 -0.597461 95.000000
0.901119 0.304115 -0.600918 98.000000
0.904484 0.292992 -0.601398 100.000000
0.899506 0.279397 -0.596699 98.000000
0.902467 0.268372 -0.597312 98.000000
0.905325 0.257279 -0.597856 98.000000
0.912153 0.247256 -0.601016 83.000000
0.890349 0.229722 -0.585316 100.000000
0.892710 0.218845 -0.585915 98.000000
0.895139 0.207834 -0.586214 98.000000
0.893185 0.195987 -0.583956 100.000000
0.899363 0.185913 -0.587079 98.000000
0.905494 0.175705 -0.590106 100.000000
0.907398 0.164577 -0.590407 98.000000
0.904885 0.152816 -0.588144 95.000000
0.906581 0.141705 -0.588310 100.000000
0.916376 0.131827 -0.594043 100.000000
0.917752 0.120615 -0.594278 105.000000
0.910673 0.108408 -0.589075 100.000000
0.924385 0.098603 -0.597316 103.000000
0.904394 0.085331 -0.584099 103.000000
0.905251 0.074290 -0.584297 103.000000
0.897718 0.062630 -0.578854 98.000000
0.915130 0.052624 -0.589774 98.000000
0.915563 0.041447 -0.590006 103.000000
0.920230 0.030409 -0.592679 100.000000
0.920464 0.019181 -0.592813 100.000000
0.916361 0.007917 -0.590140 103.000000
0.920631 -0.003308 -0.592847 100.000000
0.916361 -0.014470 -0.590073 103.000000
0.920398 -0.025798 -0.592646 98.000000
0.915796 -0.036857 -0.589940 100.000000
0.907064 -0.047593 -0.584264 95.000000
0.906471 -0.058667 -0.584165 95.000000
0.897294 -0.069095 -0.578789 98.000000
0.930059 -0.083026 -0.600155 100.000000
1.017073 -0.103302 -0.656592 95.000000
1.028353 -0.117152 -0.664548 98.000000
1.039526 -0.131309 -0.672387 95.000000
1.038083 -0.143999 -0.672083 98.000000
1.040649 -0.157280 -0.674400 98.000000
1.034625 -0.169341 -0.671475 80.000000
1.012062 -0.178301 -0.657507 51.000000
1.010052 -0.190699 -0.657135 95.000000
1.012023 -0.203855 -0.659454 95.000000
1.009780 -0.216229 -0.658968 100.000000
1.032058 -0.234164 -0.674532 53.000000
1.533173 -0.427300 -1.009978 24.000000
1.573053 -0.459069 -1.038440 15.000000
1.572062 -0.479543 -1.040048 21.000000
1.562811 -0.497492 -1.036249 17.000000
1.569167 -0.520729 -1.043367 19.000000
1.563618 -0.539821 -1.041994 19.000000
1.557533 -0.559091 -1.040920 21.000000
1.551328 -0.578183 -1.039787 16.000000
1.540933 -0.595747 -1.035878 11.000000
1.530512 -0.613036 -1.031916 10.000000
1.543391 -0.639913 -1.043737 21.000000
1.532578 -0.657119 -1.039529 15.000000
1.529022 -0.677849 -1.040971 16.000000
1.537197 -0.703557 -1.049839 19.000000
1.521617 -0.718934 -1.043174 13.000000
1.521286 -0.741452 -1.046924 15.000000
1.509286 -0.758308 -1.042719 10.000000
1.508487 -0.780819 -1.046328 10.000000
1.518699 -0.809406 -1.057714 21.000000
1.494934 -0.819946 -1.045410 10.000000
1.493514 -0.842448 -1.048736 15.000000
1.499207 -0.869354 -1.057188 16.000000
1.482020 -0.883688 -1.050254 10.000000
1.468943 -0.899641 -1.045564 10.000000
1.455238 -0.915627 -1.041129 10.000000
1.456396 -0.940382 -1.046613 9.000000
1.485225 -0.984521 -1.073008 16.000000
1.463675 -0.995760 -1.063190 10.000000
1.463262 -1.021338 -1.068691 10.000000
1.455580 -1.041991 -1.069033 18.000000
1.440727 -1.057519 -1.064121 10.000000
1.432674 -1.077941 -1.064261 10.000000
1.424438 -1.098258 -1.064390 10.000000
1.432915 -1.131879 -1.077080 9.000000
1.426739 -1.155483 -1.079885 14.000000
1.414388 -1.173099 -1.077155 10.000000
1.411060 -1.199427 -1.082384 12.000000
1.401555 -1.219611 -1.082021 10.000000
1.400818 -1.248836 -1.089503 10.000000
1.403626 -1.280707 -1.098974 14.000000
1.370369 -1.280712 -1.081311 9.000000
1.369559 -1.309480 -1.088032 9.000000
1.370594 -1.341930 -1.097649 11.000000
1.365026 -1.368489 -1.102179 10.000000
1.368153 -1.404420 -1.113943 10.000000
1.346740 -1.415389 -1.105920 10.000000
1.337186 -1.438760 -1.107681 10.000000
1.339076 -1.475055 -1.119139 11.000000
1.323038 -1.491930 -1.115792 9.000000
1.315439 -1.518570 -1.119678 9.000000
1.307486 -1.545147 -1.123448 14.000000
1.299177 -1.571797 -1.127172 10.000000
1.282325 -1.588151 -1.123545 10.000000
1.276120 -1.618135 -1.129460 10.000000
1.264193 -1.641225 -1.130449 9.000000
1.263938 -1.682376 -1.143779 10.000000
1.243357 -1.694837 -1.137453 9.000000
1.227978 -1.714097 -1.135812 8.000000
1.233767 -1.766447 -1.155794 10.000000
1.227538 -1.800263 -1.163315 9.000000
1.210989 -1.819466 -1.161365 10.000000
1.190444 -1.835403 -1.157437 10.000000
1.190112 -1.880494 -1.171692 10.000000
1.168775 -1.896304 -1.167624 10.000000
1.164885 -1.937791 -1.179282 9.000000
0.786199 1.313201 -0.784676 18.000000
0.790597 1.287918 -0.778509 19.000000
0.809703 1.284848 -0.785855 27.000000
0.818301 1.267010 -0.784164 32.000000
0.842258 1.270893 -0.796067 22.000000
0.850512 1.252859 -0.794361 35.000000
0.862022 1.237904 -0.794640 29.000000
0.892993 1.252112 -0.813820 26.000000
0.896638 1.226014 -0.806985 29.000000
0.898975 1.200500 -0.800351 21.000000
0.914367 1.192584 -0.805411 31.000000
0.922349 1.173589 -0.803066 35.000000
0.787918 0.956638 -0.672340 52.000000
0.795286 0.943298 -0.672100 28.000000
0.808228 0.936543 -0.676557 34.000000
0.800845 0.906594 -0.664184 24.000000
0.825257 0.912684 -0.678231 28.000000
0.841020 0.908600 -0.685045 54.000000
0.841846 0.888416 -0.679706 46.000000
0.830131 0.855833 -0.664546 51.000000
0.830196 0.836005 -0.659015 88.000000
0.842409 0.828515 -0.663234 52.000000
0.838856 0.805775 -0.655115 93.000000
0.847697 0.795141 -0.656785 32.000000
0.855927 0.784712 -0.658659 31.000000
0.838620 0.750648 -0.640465 77.000000
0.863269 0.754303 -0.654320 47.000000
0.841466 0.718316 -0.633726 73.000000
0.846072 0.704841 -0.632597 54.000000
0.850154 0.691642 -0.631689 69.000000
0.860839 0.683834 -0.635775 94.000000
0.861674 0.667606 -0.631999 32.000000
0.868749 0.656916 -0.633461 35.000000
0.868835 0.641022 -0.629845 63.000000
0.875702 0.630226 -0.631218 56.000000
0.871902 0.611922 -0.624925 95.000000
0.885649 0.605934 -0.631277 89.000000
0.885018 0.590138 -0.627412 95.000000
0.873417 0.567372 -0.615893 95.000000
0.883255 0.558778 -0.619551 55.000000
0.881759 0.543478 -0.615739 75.000000
0.898767 0.539111 -0.624446 86.000000
0.893343 0.521598 -0.617982 95.000000
0.891655 0.506219 -0.613765 95.000000
0.889509 0.491098 -0.609714 67.000000
0.890978 0.478151 -0.608185 95.000000
0.884700 0.461229 -0.601450 98.000000
0.889678 0.450350 -0.602410 73.000000
0.890674 0.437478 -0.600709 67.000000
0.899313 0.428342 -0.604152 83.000000
0.907850 0.419005 -0.607566 75.000000
0.900758 0.402565 -0.600517 95.000000
0.904952 0.391568 -0.601433 78.000000
0.889606 0.372126 -0.589036 98.000000
0.893572 0.361263 -0.589864 83.000000
0.901370 0.351882 -0.593236 82.000000
0.901158 0.339331 -0.591312 77.000000
0.904814 0.328261 -0.591967 98.000000
0.904346 0.315754 -0.589966 95.000000
0.899540 0.302059 -0.585470 98.000000
0.902875 0.291000 -0.585947 95.000000
0.905937 0.280009 -0.586593 100.000000
0.900746 0.266538 -0.581939 100.000000
0.911756 0.257857 -0.587750 95.000000
0.918613 0.247803 -0.590864 75.000000
0.921279 0.236558 -0.591309 83.000000
0.928001 0.226284 -0.594326 95.000000
0.938606 0.216934 -0.600163 95.000000
0.928560 0.202720 -0.592471 100.000000
0.934868 0.192261 -0.595562 95.000000
0.928566 0.179255 -0.590608 98.000000
0.938713 0.169498 -0.596420 98.000000
0.915452 0.153817 -0.580750 71.000000
0.908780 0.141353 -0.575612 98.000000
0.918626 0.131495 -0.581251 98.000000
0.907394 0.118685 -0.573552 100.000000
0.908646 0.107644 -0.573750 95.000000
0.914012 0.097017 -0.576539 98.000000
0.910723 0.085529 -0.574178 98.000000
0.911547 0.074454 -0.574376 98.000000
0.929300 0.064520 -0.584979 90.000000
0.925744 0.052999 -0.582421 95.000000
0.926179 0.041771 -0.582654 98.000000
0.926613 0.030509 -0.582621 95.000000
0.922615 0.019160 -0.580094 103.000000
0.914282 0.007877 -0.574805 97.000000
0.897383 -0.003203 -0.564160 98.000000
0.901551 -0.014171 -0.566756 103.000000
0.901389 -0.025123 -0.566626 103.000000
0.905261 -0.036246 -0.569286 100.000000
0.900674 -0.046997 -0.566366 103.000000
0.895895 -0.057678 -0.563610 95.000000
1.025972 -0.078607 -0.646062 98.000000
1.050431 -0.093314 -0.661748 95.000000
1.057872 -0.106894 -0.666719 100.000000
1.039770 -0.117854 -0.655905 103.000000
1.038413 -0.130480 -0.655641 98.000000
1.045339 -0.144265 -0.660646 100.000000
1.039590 -0.156324 -0.657577 100.000000
1.046104 -0.170326 -0.662689 58.000000
1.006532 -0.176514 -0.638538 98.000000
1.008862 -0.189469 -0.640634 95.000000
1.006758 -0.201728 -0.640191 95.000000
1.033561 -0.220139 -0.658253 71.000000
1.557219 -0.371385 -0.995193 29.000000
1.577678 -0.396582 -1.010331 25.000000
1.585559 -0.419066 -1.017479 29.000000
1.585002 -0.439520 -1.019229 10.000000
1.596492 -0.463573 -1.028809 18.000000
1.599501 -0.485493 -1.032992 21.000000
1.594284 -0.504862 -1.031793 20.000000
1.580443 -0.521743 -1.025647 20.000000
1.578922 -0.542278 -1.026894 18.000000
1.568868 -0.560165 -1.023201 16.000000
1.574653 -0.583762 -1.029909 18.000000
1.560260 -0.599879 -1.023425 10.000000
1.573498 -0.626794 -1.035086 19.000000
1.574606 -0.649191 -1.038839 21.000000
1.555455 -0.663585 -1.029880 17.000000
1.556145 -0.685945 -1.033503 21.000000
1.548432 -0.705075 -1.032167 20.000000
1.548340 -0.727722 -1.035950 22.000000
1.547923 -0.750438 -1.039596 19.000000
1.512833 -0.756055 -1.019926 10.000000
1.531239 -0.788285 -1.036345 19.000000
1.526439 -0.809062 -1.037201 18.000000
1.528943 -0.833856 -1.043064 22.000000
1.519898 -0.852503 -1.041143 20.000000
1.510296 -0.871398 -1.039532 15.000000
1.523123 -0.902947 -1.052820 21.000000
1.509329 -0.919570 -1.048509 15.000000
1.485013 -0.928754 -1.036069 9.000000
1.485574 -0.954118 -1.041766 13.000000
1.467806 -0.967705 -1.034692 10.000000
1.489304 -1.007568 -1.055417 12.000000
1.488867 -1.033337 -1.060831 14.000000
1.481106 -1.054235 -1.061108 14.000000
1.476653 -1.077573 -1.063825 14.000000
1.464971 -1.095710 -1.061373 10.000000
1.446288 -1.108453 -1.053913 9.000000
1.447319 -1.137337 -1.061787 15.000000
1.441946 -1.160541 -1.064112 10.000000
1.442958 -1.189235 -1.071318 17.000000
1.432859 -1.210188 -1.071431 13.000000
1.429932 -1.236182 -1.075951 14.000000
1.422637 -1.259936 -1.078364 14.000000
1.421528 -1.289502 -1.085610 18.000000
1.395298 -1.294943 -1.072629 8.000000
1.403082 -1.333504 -1.087033 13.000000
1.385321 -1.348008 -1.081746 10.000000
1.376637 -1.371545 -1.083710 10.000000
1.364691 -1.391913 -1.083151 10.000000
1.367670 -1.427949 -1.094619 10.000000
1.361056 -1.454714 -1.098690 16.000000
1.351140 -1.478193 -1.100312 10.000000
1.355623 -1.518039 -1.113767 8.000000
1.336311 -1.531723 -1.107976 14.000000
1.328330 -1.558429 -1.111670 10.000000
1.320064 -1.585208 -1.115249 13.000000
1.305810 -1.605154 -1.114041 13.000000
1.288670 -1.621434 -1.110312 10.000000
1.294563 -1.669586 -1.128211 16.000000
1.279395 -1.689331 -1.126685 10.000000
1.282549 -1.733719 -1.141516 9.000000
1.249951 -1.732538 -1.126209 10.000000
1.249449 -1.773499 -1.138419 10.000000
1.239523 -1.804409 -1.143943 12.000000
1.235428 -1.842041 -1.153564 10.000000
1.219535 -1.865648 -1.154272 10.000000
1.211954 -1.899703 -1.161282 14.000000
1.197647 -1.926974 -1.164029 10.000000
1.205118 -1.987847 -1.186798 9.000000
0.777580 1.322677 -0.766223 29.000000
0.785358 1.300836 -0.762271 17.000000
0.791798 1.279434 -0.758476 33.000000
0.806042 1.268892 -0.761099 26.000000
0.820183 1.258248 -0.763721 30.000000
0.838137 1.255318 -0.771150 35.000000
0.852155 1.244248 -0.773685 30.000000
0.867691 1.237128 -0.778769 48.000000
0.884084 1.229371 -0.783557 29.000000
0.891727 1.211039 -0.781703 21.000000
0.901784 1.196275 -0.782130 37.000000
0.917953 1.187969 -0.786824 32.000000
0.919492 1.162553 -0.780096 78.000000
0.828894 1.023829 -0.696209 56.000000
0.803780 0.968859 -0.667751 33.000000
0.808331 0.951999 -0.665181 42.000000
0.818479 0.941851 -0.667254 31.000000
0.816829 0.918364 -0.659824 37.000000
0.835552 0.917868 -0.668898 36.000000
0.854400 0.917022 -0.677971 67.000000
0.839969 0.880841 -0.660842 86.000000
0.849479 0.870274 -0.662702 62.000000
0.852703 0.853374 -0.659721 67.000000
0.852532 0.833440 -0.654268 86.000000
0.858453 0.819707 -0.653558 62.000000
0.860984 0.802945 -0.650376 60.000000
0.866493 0.789164 -0.649594 32.000000
0.871449 0.775626 -0.648963 86.000000
0.876628 0.761803 -0.648075 70.000000
0.871721 0.739474 -0.639768 68.000000
0.862693 0.714891 -0.629206 91.000000
0.874002 0.706768 -0.632993 72.000000
0.878026 0.693323 -0.632108 61.000000
0.881914 0.679883 -0.631172 67.000000
0.879107 0.660913 -0.624972 32.000000
0.889636 0.652635 -0.628876 95.000000
0.886022 0.634088 -0.622789 77.000000
0.892839 0.623134 -0.624130 85.000000
0.892374 0.607264 -0.620410 98.000000
0.891727 0.591419 -0.616633 66.000000
0.901770 0.582764 -0.620303 95.000000
0.904466 0.569258 -0.618932 81.000000
0.899623 0.551286 -0.612495 34.000000
0.894226 0.533696 -0.606214 98.000000
0.892640 0.518290 -0.602131 95.000000
0.890558 0.503140 -0.598250 95.000000
0.896163 0.492074 -0.599118 98.000000
0.905174 0.483183 -0.602699 98.000000
0.902681 0.468140 -0.598643 98.000000
0.903876 0.455148 -0.597038 98.000000
0.889418 0.434619 -0.585248 60.000000
0.913558 0.432915 -0.598831 95.000000
0.918256 0.421692 -0.599620 98.000000
0.915027 0.406939 -0.595263 98.000000
0.915312 0.394148 -0.593665 100.000000
0.895882 0.372954 -0.578932 88.000000
0.919721 0.370102 -0.592586 87.000000
0.907848 0.352540 -0.582844 89.000000
0.931703 0.349012 -0.596426 66.000000
0.907230 0.327461 -0.579082 95.000000
0.910561 0.316509 -0.579906 98.000000
0.918091 0.306743 -0.583036 98.000000
0.917358 0.294193 -0.580936 98.000000
0.908176 0.279329 -0.573834 98.000000
0.927505 0.273120 -0.584794 98.000000
0.930574 0.261775 -0.585139 98.000000
0.912718 0.244922 -0.572699 91.000000
0.940060 0.240245 -0.588906 73.000000
0.946811 0.229823 -0.591883 89.000000
0.945152 0.217350 -0.589599 98.000000
0.947404 0.205885 -0.590084 98.000000
0.945403 0.193564 -0.587932 98.000000
0.943245 0.181274 -0.585674 98.000000
0.940967 0.169087 -0.583379 82.000000
0.942813 0.157671 -0.583652 52.000000
0.914906 0.141684 -0.565777 100.000000
0.946025 0.134771 -0.584165 98.000000
0.917820 0.119467 -0.566175 103.000000
0.914842 0.107875 -0.563763 100.000000
0.915864 0.096801 -0.564093 100.000000
0.912674 0.085329 -0.561580 100.000000
0.913494 0.074274 -0.561777 98.000000
0.935611 0.064688 -0.574808 36.000000
0.931893 0.053133 -0.572496 98.000000
0.932461 0.041871 -0.572529 82.000000
0.911596 0.029878 -0.559458 98.000000
0.911825 0.018841 -0.559556 103.000000
0.929002 0.007983 -0.570048 100.000000
0.929035 -0.003260 -0.570048 105.000000
0.920446 -0.014370 -0.564752 103.000000
0.916020 -0.025392 -0.562006 105.000000
0.924177 -0.036787 -0.567234 103.000000
0.966246 -0.050190 -0.593340 100.000000
1.046634 -0.067040 -0.642627 98.000000
1.062737 -0.080986 -0.653114 95.000000
1.061821 -0.093842 -0.652809 100.000000
1.060715 -0.106697 -0.652695 98.000000
1.059570 -0.119476 -0.652313 98.000000
1.062468 -0.132823 -0.654654 100.000000
1.052520 -0.144531 -0.649096 98.000000
1.054993 -0.157928 -0.651550 100.000000
1.057527 -0.171314 -0.653697 100.000000
1.030304 -0.179742 -0.637772 78.000000
1.019891 -0.190659 -0.632232 98.000000
1.592814 -0.378056 -0.993617 25.000000
1.609286 -0.402588 -1.005878 32.000000
1.605023 -0.421948 -1.004753 25.000000
1.620969 -0.447114 -1.016741 12.000000
1.623975 -0.469279 -1.021313 23.000000
1.618851 -0.488868 -1.020228 21.000000
1.617693 -0.509744 -1.021602 26.000000
1.624164 -0.533453 -1.028428 28.000000
1.605970 -0.549020 -1.019669 22.000000
1.604210 -0.569791 -1.020790 28.000000
1.589860 -0.586328 -1.014442 20.000000
1.599507 -0.611748 -1.023436 13.000000
1.600488 -0.634517 -1.027587 23.000000
1.593573 -0.653852 -1.026118 22.000000
1.590187 -0.675050 -1.027512 23.000000
1.586886 -0.695977 -1.028408 23.000000
1.563464 -0.708308 -1.016861 21.000000
1.563347 -0.731010 -1.020550 22.000000
1.555270 -0.750100 -1.019082 21.000000
1.566299 -0.778658 -1.030178 13.000000
1.542464 -0.789818 -1.018372 17.000000
1.545323 -0.814622 -1.024180 19.000000
1.540280 -0.835467 -1.024912 21.000000
1.534634 -0.856590 -1.025884 19.000000
1.540435 -0.883760 -1.033960 21.000000
1.530526 -0.902763 -1.032266 23.000000
1.520931 -0.921200 -1.030134 16.000000
1.514384 -0.942239 -1.030754 10.000000
1.503948 -0.960847 -1.028868 13.000000
1.511510 -0.991151 -1.039319 13.000000
1.504228 -1.012152 -1.039706 17.000000
1.503847 -1.037982 -1.044984 16.000000
1.499631 -1.061437 -1.047754 17.000000
1.495178 -1.084873 -1.050308 18.000000
1.483440 -1.103096 -1.047909 15.000000
1.467463 -1.119004 -1.043373 10.000000
1.455494 -1.136925 -1.040850 11.000000
1.460352 -1.168268 -1.050505 14.000000
1.460754 -1.197529 -1.057988 18.000000
1.464790 -1.229335 -1.067331 14.000000
1.437837 -1.236187 -1.055200 17.000000
1.456943 -1.283031 -1.076871 22.000000
1.433707 -1.291858 -1.066566 13.000000
1.432317 -1.321569 -1.073524 17.000000
1.405041 -1.327387 -1.061183 10.000000
1.412510 -1.366230 -1.075156 16.000000
1.406898 -1.393065 -1.079397 18.000000
1.385517 -1.404290 -1.071664 13.000000
1.382446 -1.434150 -1.078101 17.000000
1.384928 -1.470585 -1.089228 10.000000
1.383943 -1.503950 -1.097837 15.000000
1.367659 -1.521155 -1.094509 11.000000
1.348391 -1.534832 -1.088759 10.000000
1.349191 -1.571682 -1.099433 19.000000
1.335142 -1.591743 -1.098264 16.000000
1.328279 -1.622649 -1.104428 13.000000
1.313759 -1.642597 -1.103062 17.000000
1.309936 -1.676367 -1.110937 11.000000
1.309793 -1.717906 -1.123646 14.000000
1.291587 -1.734179 -1.119708 10.000000
1.278536 -1.757418 -1.120351 10.000000
1.268984 -1.788419 -1.125830 14.000000
1.257786 -1.815120 -1.128518 12.000000
1.244911 -1.842545 -1.131537 13.000000
1.240462 -1.880265 -1.140827 16.000000
1.233913 -1.918901 -1.150405 10.000000
1.219511 -1.946402 -1.153080 11.000000
1.206197 -1.973066 -1.155235 10.000000
1.207011 -2.027313 -1.173318 9.000000
0.773234 1.339656 -0.752185 29.000000
0.790432 1.333232 -0.757162 32.000000
0.777217 1.276798 -0.733417 27.000000
0.796146 1.274141 -0.740429 31.000000
0.806868 1.260399 -0.741073 34.000000
0.825747 1.257283 -0.748125 26.000000
0.836273 1.243266 -0.748659 31.000000
0.855150 1.239684 -0.755648 34.000000
0.878360 1.243576 -0.767427 32.000000
0.884403 1.221289 -0.763099 36.000000
0.883871 1.192349 -0.754504 24.000000
0.907960 1.195050 -0.765932 32.000000
0.920507 1.183686 -0.768504 42.000000
0.919920 1.154371 -0.759381 32.000000
0.822587 1.008663 -0.672367 58.000000
0.816209 0.977935 -0.660745 35.000000
0.818554 0.957269 -0.655658 32.000000
0.825777 0.943751 -0.655422 43.000000
0.829931 0.926876 -0.652762 22.000000
0.848802 0.926285 -0.661725 81.000000
0.858682 0.915711 -0.663675 59.000000
0.862403 0.898634 -0.660894 37.000000
0.862765 0.878431 -0.655737 95.000000
0.859753 0.855221 -0.648098 67.000000
0.868984 0.844479 -0.649860 76.000000
0.871745 0.827548 -0.646842 79.000000
0.874291 0.810693 -0.643716 35.000000
0.879840 0.796825 -0.642947 45.000000
0.885242 0.782914 -0.642126 43.000000
0.887175 0.766093 -0.638859 71.000000
0.891808 0.752509 -0.638212 98.000000
0.903472 0.744134 -0.642037 58.000000
0.890776 0.716659 -0.629202 95.000000
0.895258 0.702805 -0.628101 95.000000
0.892261 0.683872 -0.622383 38.000000
0.896367 0.670078 -0.621172 82.000000
0.899986 0.656566 -0.620146 79.000000
0.903433 0.642984 -0.619071 95.000000
0.910293 0.631938 -0.620427 76.000000
0.913465 0.618293 -0.619259 86.000000
0.916469 0.604698 -0.618041 98.000000
0.919381 0.591077 -0.616776 95.000000
0.918400 0.575159 -0.613001 95.000000
0.920956 0.561572 -0.611599 59.000000
0.923348 0.548001 -0.610188 82.000000
0.903003 0.521411 -0.593848 95.000000
0.912281 0.512625 -0.597462 98.000000
0.917945 0.501372 -0.598345 95.000000
0.919409 0.488196 -0.596924 98.000000
0.913052 0.471064 -0.590475 95.000000
0.918078 0.459961 -0.591415 98.000000
0.919102 0.446857 -0.589856 67.000000
0.923928 0.435658 -0.590720 90.000000
0.916840 0.418992 -0.583993 95.000000
0.921391 0.407793 -0.584740 80.000000
0.929809 0.398224 -0.587999 95.000000
0.929995 0.385359 -0.586340 95.000000
0.938235 0.375587 -0.589499 95.000000
0.946261 0.365789 -0.592807 98.000000
0.913745 0.340745 -0.570793 60.000000
0.921460 0.331134 -0.573977 95.000000
0.925028 0.319946 -0.574601 98.000000
0.928492 0.308724 -0.575155 98.000000
0.940061 0.300052 -0.580746 98.000000
0.943171 0.288696 -0.581410 98.000000
0.942253 0.276024 -0.579289 98.000000
0.940996 0.263487 -0.577302 98.000000
0.960432 0.256534 -0.588004 35.000000
0.942333 0.239635 -0.575725 67.000000
0.957323 0.231320 -0.583961 100.000000
0.955648 0.218760 -0.581759 95.000000
0.953708 0.206335 -0.579692 95.000000
0.947571 0.193050 -0.574825 95.000000
0.949631 0.181618 -0.575169 89.000000
0.951553 0.170151 -0.575478 95.000000
0.944796 0.157307 -0.570839 39.000000
0.950742 0.146563 -0.573569 95.000000
0.930991 0.132096 -0.561101 98.000000
0.953613 0.123628 -0.574185 98.000000
0.950649 0.111609 -0.571825 95.000000
0.930498 0.097930 -0.559171 98.000000
0.927289 0.086289 -0.556705 98.000000
0.928117 0.075130 -0.556903 98.000000
0.933160 0.064266 -0.559636 68.000000
0.942358 0.053510 -0.564871 98.000000
0.947181 0.042321 -0.567473 98.000000
0.947654 0.030923 -0.567473 98.000000
0.917866 0.018907 -0.549596 98.000000
0.939445 0.008020 -0.562504 103.000000
0.939478 -0.003275 -0.562504 103.000000
0.939412 -0.014570 -0.562404 105.000000
0.947822 -0.026134 -0.567439 98.000000
1.033193 -0.040929 -0.618791 100.000000
1.071205 -0.055351 -0.641823 100.000000
1.074839 -0.068518 -0.644237 95.000000
1.078352 -0.081788 -0.646611 95.000000
1.090256 -0.095874 -0.653998 95.000000
1.084856 -0.108598 -0.651317 98.000000
1.075045 -0.120701 -0.645996 98.000000
1.077921 -0.134190 -0.648289 85.000000
1.072161 -0.146580 -0.645419 98.000000
1.074833 -0.160094 -0.647594 100.000000
1.072941 -0.173065 -0.647324 81.000000
1.033024 -0.179307 -0.623776 49.000000
1.115522 -0.207458 -0.674542 69.000000
1.522879 -0.321368 -0.923891 31.000000
1.599147 -0.357536 -0.971569 28.000000
1.624383 -0.383761 -0.988768 29.000000
1.637002 -0.407396 -0.997884 20.000000
1.640785 -0.429314 -1.002194 24.000000
1.644340 -0.451373 -1.006375 12.000000
1.639385 -0.471193 -1.005348 13.000000
1.650513 -0.496033 -1.014771 30.000000
1.636977 -0.513290 -1.008482 19.000000
1.639404 -0.535767 -1.012634 24.000000
1.633423 -0.555603 -1.011597 21.000000
1.635395 -0.578255 -1.015489 21.000000
1.620911 -0.595032 -1.009277 22.000000
1.618416 -0.616099 -1.010516 10.000000
1.611746 -0.635618 -1.009108 17.000000
1.612590 -0.658528 -1.013034 18.000000
1.601473 -0.676216 -1.008987 14.000000
1.601858 -0.699122 -1.012712 21.000000
1.598037 -0.720380 -1.013921 22.000000
1.582213 -0.736132 -1.007438 16.000000
1.581908 -0.759066 -1.010955 21.000000
1.585283 -0.783988 -1.016825 10.000000
1.572827 -0.801194 -1.012656 14.000000
1.568038 -0.822213 -1.013401 22.000000
1.555314 -0.839077 -1.009054 20.000000
1.561068 -0.866577 -1.017466 21.000000
1.563113 -0.891790 -1.022871 22.000000
1.534436 -0.899930 -1.008832 14.000000
1.535570 -0.925453 -1.014472 19.000000
1.540195 -0.953354 -1.022480 9.000000
1.555398 -0.988566 -1.037685 12.000000
1.551857 -1.012306 -1.040581 23.000000
1.529892 -1.023899 -1.031111 18.000000
1.533082 -1.052454 -1.038674 21.000000
1.525279 -1.073559 -1.038897 23.000000
1.520772 -1.097244 -1.041406 21.000000
1.512440 -1.118239 -1.041406 20.000000
1.478915 -1.121204 -1.024805 9.000000
1.477325 -1.147119 -1.029515 10.000000
1.485002 -1.181804 -1.041734 22.000000
1.469048 -1.197004 -1.036692 13.000000
1.475951 -1.232076 -1.048684 26.000000
1.476346 -1.261267 -1.055361 16.000000
1.469002 -1.285334 -1.057562 12.000000
1.461328 -1.309363 -1.059740 18.000000
1.440412 -1.321445 -1.052278 10.000000
1.425914 -1.339263 -1.049568 10.000000
1.443066 -1.387438 -1.070367 20.000000
1.421604 -1.399051 -1.062685 13.000000
1.418807 -1.429105 -1.069098 18.000000
1.418678 -1.462502 -1.077725 18.000000
1.408937 -1.486367 -1.079293 15.000000
1.404933 -1.516738 -1.085339 21.000000
1.385642 -1.530769 -1.079744 9.000000
1.378031 -1.557799 -1.083332 10.000000
1.367162 -1.581403 -1.084502 18.000000
1.357788 -1.609051 -1.088299 15.000000
1.354789 -1.642908 -1.096198 19.000000
1.340112 -1.663037 -1.094824 16.000000
1.335127 -1.697604 -1.102824 18.000000
1.325291 -1.724635 -1.105848 20.000000
1.308532 -1.745181 -1.104682 10.000000
1.306007 -1.782909 -1.114233 10.000000
1.298904 -1.817780 -1.121826 10.000000
1.282467 -1.837469 -1.119942 10.000000
1.274497 -1.872407 -1.127258 13.000000
1.260001 -1.895543 -1.127451 10.000000
1.255910 -1.938087 -1.138979 13.000000
1.240592 -1.961154 -1.138905 13.000000
1.235241 -2.003938 -1.150248 9.000000
1.226660 -2.043059 -1.159132 10.000000
1.212940 -2.074611 -1.163643 13.000000
0.774763 1.330678 -0.732149 22.000000
0.791752 1.324405 -0.737010 10.000000
0.778070 1.267914 -0.713718 18.000000
0.796920 1.265416 -0.720576 21.000000
0.812379 1.259268 -0.725541 19.000000
0.826250 1.248750 -0.728082 24.000000
0.839105 1.238486 -0.730826 19.000000
0.863120 1.242358 -0.742073 21.000000
0.876901 1.231251 -0.744541 26.000000
0.894986 1.227592 -0.751649 16.000000
0.892559 1.194534 -0.740683 26.000000
0.905008 1.183508 -0.743275 22.000000
0.923734 1.178910 -0.749988 26.000000
0.908161 1.132610 -0.730080 30.000000
0.841476 1.024382 -0.669129 21.000000
0.832175 0.990105 -0.655482 31.000000
0.830995 0.966280 -0.648536 19.000000
0.850693 0.965656 -0.657147 21.000000
0.854965 0.948507 -0.654614 27.000000
0.865081 0.937953 -0.656584 29.000000
0.872017 0.924036 -0.656217 40.000000
0.875713 0.906827 -0.653535 33.000000
0.885463 0.895994 -0.655398 29.000000
0.898235 0.888146 -0.659532 52.000000
0.901432 0.870859 -0.656674 34.000000
0.888316 0.838411 -0.642116 36.000000
0.877863 0.809431 -0.629805 13.000000
0.886638 0.798555 -0.631371 21.000000
0.892015 0.784597 -0.630592 35.000000
0.897245 0.770680 -0.629761 29.000000
0.905670 0.759557 -0.631192 35.000000
0.916971 0.751391 -0.635230 54.000000
0.918383 0.734478 -0.631892 30.000000
0.929551 0.726065 -0.635854 41.000000
0.906081 0.690538 -0.615765 19.000000
0.906339 0.674264 -0.612461 33.000000
0.906718 0.657850 -0.608862 46.000000
0.910099 0.644263 -0.607831 36.000000
0.931439 0.643150 -0.618742 86.000000
0.927379 0.624465 -0.612831 49.000000
0.930757 0.610505 -0.611436 37.000000
0.929965 0.594432 -0.607775 93.000000
0.925239 0.576147 -0.601679 27.000000
0.931204 0.565053 -0.603009 35.000000
0.933557 0.551431 -0.601609 89.000000
0.935823 0.537825 -0.600163 74.000000
0.941703 0.526367 -0.601143 83.000000
0.943408 0.512900 -0.599835 58.000000
0.952934 0.503377 -0.603103 95.000000
0.923332 0.473959 -0.582144 91.000000
0.943983 0.470551 -0.592888 44.000000
0.937241 0.453449 -0.586486 36.000000
0.938185 0.440222 -0.584904 75.000000
0.942906 0.428855 -0.585703 59.000000
0.935611 0.412154 -0.579109 74.000000
0.940093 0.400787 -0.579790 80.000000
0.948487 0.391005 -0.582942 81.000000
0.944519 0.376372 -0.578859 95.000000
0.948697 0.364875 -0.579430 56.000000
0.924058 0.342876 -0.562789 69.000000
0.931782 0.333219 -0.565964 82.000000
0.931262 0.320535 -0.564071 80.000000
0.938844 0.310675 -0.567147 95.000000
0.950484 0.301924 -0.572649 95.000000
0.953607 0.290553 -0.573315 95.000000
0.956801 0.279007 -0.573737 98.000000
0.951403 0.265170 -0.569304 90.000000
0.945816 0.251498 -0.564828 61.000000
0.948506 0.240118 -0.565276 89.000000
0.951093 0.228704 -0.565690 91.000000
0.961875 0.219247 -0.571218 95.000000
0.955817 0.205806 -0.566517 77.000000
0.962194 0.195217 -0.569440 80.000000
0.964237 0.183648 -0.569821 98.000000
0.961955 0.171286 -0.567621 95.000000
0.959518 0.159027 -0.565384 87.000000
0.965507 0.148147 -0.568104 98.000000
0.958467 0.135352 -0.563418 98.000000
0.964119 0.124420 -0.566208 95.000000
0.956842 0.111847 -0.561379 98.000000
0.962329 0.100830 -0.564067 95.000000
0.941884 0.087285 -0.551577 100.000000
0.977192 0.078766 -0.571934 98.000000
0.952105 0.065286 -0.556985 86.000000
0.957057 0.054098 -0.559607 98.000000
0.953319 0.042422 -0.557154 98.000000
0.958073 0.031131 -0.559641 98.000000
0.945360 0.019415 -0.552212 103.000000
0.949811 0.008090 -0.554767 101.000000
0.949844 -0.003290 -0.554767 100.000000
0.979997 -0.015137 -0.572349 100.000000
1.066152 -0.029247 -0.622626 100.000000
1.091626 -0.043044 -0.637750 103.000000
1.095398 -0.056353 -0.640193 100.000000
1.094701 -0.069453 -0.640038 81.000000
1.106846 -0.083567 -0.647402 95.000000
1.110247 -0.097159 -0.649606 98.000000
1.130560 -0.112647 -0.662075 95.000000
1.107806 -0.123772 -0.649291 98.000000
1.127831 -0.139735 -0.661593 98.000000
1.096289 -0.149141 -0.643633 95.000000
1.120304 -0.166069 -0.658318 98.000000
1.122654 -0.180186 -0.660550 63.000000
1.613448 -0.338817 -0.954477 29.000000
1.630676 -0.362935 -0.966472 24.000000
1.639432 -0.385344 -0.973034 21.000000
1.656115 -0.410256 -0.984820 20.000000
1.655738 -0.431248 -0.986475 17.000000
1.642617 -0.448793 -0.980581 10.000000
1.658597 -0.474423 -0.992024 16.000000
1.657345 -0.495706 -0.993725 16.000000
1.647847 -0.514201 -0.990081 16.000000
1.650391 -0.536743 -0.994080 19.000000
1.644409 -0.556580 -0.993042 16.000000
1.630053 -0.573473 -0.986984 15.000000
1.636038 -0.597498 -0.993199 12.000000
1.605109 -0.607906 -0.977073 9.000000
1.626562 -0.638492 -0.993345 14.000000
1.631779 -0.662846 -0.999275 16.000000
1.624363 -0.682622 -0.998101 17.000000
1.620754 -0.703946 -0.999265 16.000000
1.605002 -0.719958 -0.992986 11.000000
1.612862 -0.746697 -1.001385 16.000000
1.600712 -0.764243 -0.997441 12.000000
1.596303 -0.785420 -0.998273 9.000000
1.607231 -0.814518 -1.008805 16.000000
1.598409 -0.833802 -1.007040 14.000000
1.577477 -0.847076 -0.998224 16.000000
1.579881 -0.872306 -1.003637 16.000000
1.558771 -0.885051 -0.994720 12.000000
1.560219 -0.910622 -1.000297 16.000000
1.565150 -0.938594 -1.008204 10.000000
1.559017 -0.959532 -1.008389 9.000000
1.570720 -0.992456 -1.020923 10.000000
1.552493 -1.006770 -1.014111 10.000000
1.555573 -1.035684 -1.021968 12.000000
1.537078 -1.049519 -1.015035 10.000000
1.532952 -1.073125 -1.017548 10.000000
1.535667 -1.101836 -1.024806 10.000000
1.519659 -1.118191 -1.020394 10.000000
1.507745 -1.136520 -1.017972 9.000000
1.508919 -1.165815 -1.025283 10.000000
1.503410 -1.189453 -1.027430 10.000000
1.497053 -1.213459 -1.029820 10.000000
1.494440 -1.239850 -1.034137 10.000000
1.480743 -1.258246 -1.031653 10.000000
1.486848 -1.293846 -1.043203 10.000000
1.465953 -1.306201 -1.035950 10.000000
1.487623 -1.357030 -1.058908 9.000000
1.463055 -1.366152 -1.049168 10.000000
1.457700 -1.393340 -1.053284 10.000000
1.452076 -1.420488 -1.057294 10.000000
1.436631 -1.438239 -1.054359 10.000000
1.424149 -1.459028 -1.053579 10.000000
1.420735 -1.489264 -1.059652 10.000000
1.413800 -1.516406 -1.063318 10.000000
1.409512 -1.546849 -1.069147 9.000000
1.398873 -1.570717 -1.070383 10.000000
1.381084 -1.588362 -1.067358 9.000000
1.375720 -1.618818 -1.072917 13.000000
1.378558 -1.659649 -1.085084 10.000000
1.368284 -1.687533 -1.088635 10.000000
1.355969 -1.711232 -1.089392 12.000000
1.342236 -1.735516 -1.090418 10.000000
1.329397 -1.759041 -1.091039 10.000000
1.328286 -1.801124 -1.102984 9.000000
1.314651 -1.824626 -1.103429 9.000000
1.296900 -1.845043 -1.101878 10.000000
1.291549 -1.883761 -1.111328 9.000000
1.279449 -1.910714 -1.113602 10.000000
1.263244 -1.934552 -1.114047 10.000000
1.274709 -1.999387 -1.137783 10.000000
1.266763 -2.038673 -1.146622 10.000000
1.244115 -2.054908 -1.142482 10.000000
1.228191 -2.082578 -1.144598 18.000000
0.765799 1.339383 -0.713815 22.000000
0.782829 1.333332 -0.718568 19.000000
0.797554 1.323134 -0.721222 26.000000
0.809741 1.308981 -0.721701 10.000000
0.811021 1.279917 -0.713899 24.000000
0.815227 1.254281 -0.707850 27.000000
0.846547 1.270130 -0.725347 21.000000
0.847845 1.240620 -0.717056 32.000000
0.868403 1.241287 -0.726233 23.000000
0.887394 1.237484 -0.732928 25.000000
0.900185 1.226601 -0.735610 26.000000
0.930022 1.236670 -0.751030 16.000000
0.916288 1.189151 -0.731491 33.000000
0.917601 1.163832 -0.725249 29.000000
0.899524 1.113745 -0.703167 31.000000
0.839795 1.016277 -0.650213 31.000000
0.847579 1.002538 -0.650147 25.000000
0.852894 0.984993 -0.647530 48.000000
0.860318 0.971210 -0.647340 30.000000
0.873630 0.963946 -0.651571 26.000000
0.881381 0.949571 -0.651057 42.000000
0.885322 0.932300 -0.648501 35.000000
0.885972 0.911803 -0.643616 49.000000
0.892527 0.897770 -0.643221 51.000000
0.902147 0.886807 -0.644998 40.000000
0.889210 0.854128 -0.630833 95.000000
0.888694 0.834049 -0.625673 47.000000
0.914064 0.838115 -0.638751 50.000000
0.899971 0.806130 -0.624302 28.000000
0.908728 0.795049 -0.625837 29.000000
0.917361 0.783843 -0.627373 63.000000
0.922507 0.769672 -0.626514 42.000000
0.927507 0.755502 -0.625644 63.000000
0.924983 0.736108 -0.620281 74.000000
0.929555 0.721986 -0.619297 57.000000
0.909315 0.689131 -0.601892 70.000000
0.909492 0.672891 -0.598672 31.000000
0.913332 0.659095 -0.597501 42.000000
0.927554 0.653127 -0.603520 88.000000
0.930859 0.639414 -0.602500 73.000000
0.941319 0.630618 -0.606148 95.000000
0.941036 0.614115 -0.602403 91.000000
0.940180 0.597987 -0.598875 86.000000
0.939144 0.581962 -0.595252 95.000000
0.930358 0.561456 -0.586859 26.000000
0.951629 0.559059 -0.597397 94.000000
0.953598 0.545502 -0.596237 98.000000
0.955749 0.531769 -0.594802 95.000000
0.949977 0.513839 -0.588537 98.000000
0.951498 0.500423 -0.587228 95.000000
0.933594 0.476826 -0.573650 98.000000
0.930772 0.461697 -0.569789 98.000000
0.947534 0.456226 -0.577917 39.000000
0.960378 0.448506 -0.583620 87.000000
0.965179 0.436912 -0.584469 95.000000
0.965897 0.423522 -0.582826 88.000000
0.966467 0.410120 -0.581140 98.000000
0.966853 0.396777 -0.579412 81.000000
0.959002 0.380273 -0.572787 95.000000
0.958919 0.367223 -0.571149 95.000000
0.971022 0.358776 -0.576733 36.000000
0.942088 0.335274 -0.557754 98.000000
0.945652 0.323988 -0.558383 100.000000
0.945002 0.311232 -0.556501 98.000000
0.948202 0.299994 -0.557232 103.000000
0.947265 0.287318 -0.555273 100.000000
0.950417 0.275887 -0.555689 100.000000
0.949127 0.263361 -0.553792 100.000000
0.956098 0.253130 -0.556762 93.000000
0.958799 0.241665 -0.557213 100.000000
0.957162 0.229186 -0.555172 100.000000
0.951118 0.215776 -0.550601 98.000000
0.957630 0.205341 -0.553539 98.000000
0.951330 0.192117 -0.548857 100.000000
0.966162 0.183184 -0.556655 98.000000
0.963810 0.170872 -0.554501 98.000000
0.961338 0.158628 -0.552275 71.000000
0.967243 0.147800 -0.555153 100.000000
0.968857 0.136230 -0.555325 103.000000
0.965952 0.124106 -0.553130 100.000000
0.967217 0.112588 -0.553335 103.000000
0.968413 0.101001 -0.553506 98.000000
0.973835 0.089848 -0.556080 100.000000
0.974693 0.078243 -0.556286 100.000000
0.979784 0.066901 -0.558931 98.000000
0.950105 0.053500 -0.541752 100.000000
0.954980 0.042331 -0.544260 98.000000
0.951074 0.030810 -0.541786 100.000000
0.955652 0.019537 -0.544360 100.000000
0.955786 0.008124 -0.544394 98.000000
1.034023 -0.003523 -0.588935 98.000000
1.112148 -0.017070 -0.633398 95.000000
1.116297 -0.030470 -0.635716 95.000000
1.120207 -0.043934 -0.638189 95.000000
1.119656 -0.057319 -0.638111 95.000000
1.114650 -0.070391 -0.635480 91.000000
1.096490 -0.082383 -0.625397 43.000000
1.108594 -0.096562 -0.632500 94.000000
1.103096 -0.109376 -0.629913 79.000000
1.106172 -0.123047 -0.632187 95.000000
1.104766 -0.136211 -0.631914 91.000000
1.094662 -0.148208 -0.626628 95.000000
1.097221 -0.161943 -0.628901 98.000000
1.599490 -0.275128 -0.918783 30.000000
1.690575 -0.311547 -0.972372 13.000000
1.704225 -0.335098 -0.981488 25.000000
1.700328 -0.355493 -0.981062 21.000000
1.692241 -0.374765 -0.977692 20.000000
1.692292 -0.396041 -0.979479 21.000000
1.683617 -0.415211 -0.976295 19.000000
1.683220 -0.436406 -0.977896 21.000000
1.678472 -0.456497 -0.976983 15.000000
1.656702 -0.471690 -0.966103 14.000000
1.676422 -0.499108 -0.980044 23.000000
1.679187 -0.521767 -0.984071 22.000000
1.656980 -0.536315 -0.972964 16.000000
1.667626 -0.561738 -0.981673 20.000000
1.661416 -0.581661 -0.980566 17.000000
1.675305 -0.609174 -0.991860 16.000000
1.656436 -0.624532 -0.983269 13.000000
1.629333 -0.636353 -0.969727 13.000000
1.650581 -0.667424 -0.985579 25.000000
1.635054 -0.683919 -0.979500 21.000000
1.643526 -0.710520 -0.987926 18.000000
1.623665 -0.724885 -0.979316 20.000000
1.615736 -0.744399 -0.977892 18.000000
1.639234 -0.778777 -0.995581 15.000000
1.630769 -0.798423 -0.994002 14.000000
1.606442 -0.809978 -0.982709 10.000000
1.628539 -0.845682 -1.000417 25.000000
1.600047 -0.854724 -0.986622 19.000000
1.598234 -0.878367 -0.989880 17.000000
1.592246 -0.899844 -0.990615 22.000000
1.605617 -0.932011 -1.002778 16.000000
1.599094 -0.953648 -1.003347 11.000000
1.588638 -0.972946 -1.001475 10.000000
1.570463 -0.987361 -0.994813 10.000000
1.581964 -1.020653 -1.006971 17.000000
1.566624 -1.037634 -1.002923 14.000000
1.555378 -1.056420 -1.000777 13.000000
1.551252 -1.080123 -1.003256 16.000000
1.539627 -1.098735 -1.000904 11.000000
1.541558 -1.128054 -1.008281 12.000000
1.550804 -1.162368 -1.019812 10.000000
1.527306 -1.173257 -1.010703 10.000000
1.538597 -1.211157 -1.024674 19.000000
1.522330 -1.226720 -1.019664 15.000000
1.515580 -1.250940 -1.021923 12.000000
1.518740 -1.283789 -1.030996 18.000000
1.514665 -1.311035 -1.035354 11.000000
1.486976 -1.317687 -1.023647 12.000000
1.482468 -1.344795 -1.027840 10.000000
1.467773 -1.362854 -1.025093 9.000000
1.482001 -1.408321 -1.042793 19.000000
1.469928 -1.429428 -1.042187 13.000000
1.460739 -1.453619 -1.043758 12.000000
