x y z intensity
0.910412 -0.672164 -0.689188 95.000000
0.903052 -0.683527 -0.687691 95.000000
0.926071 -0.718405 -0.709375 36.000000
0.948458 -0.753921 -0.730948 95.000000
0.963112 -0.784959 -0.747523 98.000000
1.004086 -0.838173 -0.784187 95.000000
1.017942 -0.870168 -0.800138 100.000000
1.441008 -1.387695 -1.174868 16.000000
1.465514 -1.445426 -1.204655 14.000000
1.477889 -1.491163 -1.223676 19.000000
1.473454 -1.522427 -1.230383 11.000000
1.477516 -1.563135 -1.244472 16.000000
1.463316 -1.585202 -1.243480 16.000000
1.475026 -1.636024 -1.264729 13.000000
1.471540 -1.671070 -1.273420 13.000000
1.461800 -1.699739 -1.277009 11.000000
1.460160 -1.738301 -1.287795 21.000000
1.438601 -1.753494 -1.281274 19.000000
1.427775 -1.782061 -1.284574 16.000000
1.435549 -1.834647 -1.304770 21.000000
1.421133 -1.859839 -1.305322 18.000000
1.411633 -1.892011 -1.310614 16.000000
1.406906 -1.931195 -1.320594 17.000000
1.387448 -1.953428 -1.318923 9.000000
1.376659 -1.985621 -1.323775 10.000000
1.363106 -2.014015 -1.326164 10.000000
1.359550 -2.061536 -1.340856 10.000000
1.344910 -2.090041 -1.343013 10.000000
1.337483 -2.134177 -1.355026 10.000000
1.326459 -2.170265 -1.361588 10.000000
0.508736 0.856968 -0.521954 9.000000
0.519963 0.854121 -0.526273 17.000000
0.513181 0.820849 -0.511744 12.000000
0.531299 0.829070 -0.523031 21.000000
0.535740 0.814553 -0.520093 18.000000
0.544272 0.807640 -0.521982 18.000000
0.552736 0.800660 -0.523870 18.000000
0.556656 0.786062 -0.520767 15.000000
0.554625 0.764684 -0.513059 18.000000
0.547024 0.736424 -0.500431 23.000000
0.558005 0.732642 -0.504332 20.000000
0.563097 0.722009 -0.503589 26.000000
0.565321 0.707962 -0.500412 21.000000
0.575637 0.704114 -0.504416 26.000000
0.557926 0.666603 -0.484109 28.000000
0.593489 0.692606 -0.509999 19.000000
0.577918 0.658795 -0.491949 25.000000
0.561719 0.625448 -0.473783 16.000000
0.568492 0.618262 -0.475138 31.000000
0.575177 0.611017 -0.476492 37.000000
0.587862 0.609911 -0.482739 29.000000
0.594498 0.602383 -0.484048 62.000000
0.634949 0.628348 -0.512705 98.000000
0.769576 0.743683 -0.616332 100.000000
1.440302 1.328185 -1.136440 11.000000
1.460615 1.316067 -1.144582 20.000000
1.452432 1.277432 -1.129570 10.000000
1.475715 1.267818 -1.140162 13.000000
1.473305 1.235116 -1.129972 10.000000
1.479639 1.211285 -1.127683 10.000000
1.489893 1.189630 -1.127441 10.000000
1.472008 1.147316 -1.107118 8.000000
1.497939 1.139311 -1.119862 10.000000
1.496312 1.110363 -1.112151 10.000000
1.494397 1.081561 -1.104263 10.000000
1.509579 1.065333 -1.109133 11.000000
1.521153 1.046459 -1.111303 10.000000
1.521863 1.020236 -1.105723 10.000000
1.536547 1.003505 -1.110336 10.000000
1.510960 0.961636 -1.086820 9.000000
1.550559 0.960711 -1.109460 12.000000
1.546039 0.932735 -1.101261 16.000000
1.534353 0.900352 -1.087359 11.000000
1.540132 0.879277 -1.086782 16.000000
1.549526 0.860234 -1.088686 13.000000
1.551237 0.837021 -1.085284 14.000000
1.567744 0.821768 -1.092368 19.000000
1.542521 0.784985 -1.070350 9.000000
1.585327 0.782729 -1.095605 16.000000
1.593833 0.763052 -1.097129 17.000000
1.582955 0.734314 -1.085385 10.000000
1.586735 0.713133 -1.084433 16.000000
1.586840 0.690044 -1.080388 16.000000
1.590278 0.668914 -1.079293 16.000000
1.601283 0.650885 -1.083376 23.000000
1.600372 0.628118 -1.079429 10.000000
1.611083 0.609854 -1.083329 21.000000
1.617666 0.589981 -1.084509 28.000000
1.620134 0.568583 -1.082898 21.000000
1.630024 0.550111 -1.086993 28.000000
1.628071 0.527385 -1.082517 24.000000
1.625565 0.504918 -1.078340 25.000000
1.606634 0.477774 -1.063376 26.000000
1.615782 0.459179 -1.067026 10.000000
0.954135 0.233903 -0.626230 42.000000
0.956731 0.222135 -0.626550 98.000000
0.959042 0.210438 -0.627012 98.000000
0.961246 0.198706 -0.627474 95.000000
0.967514 0.187740 -0.630525 98.000000
0.969549 0.175850 -0.630846 100.000000
0.962997 0.162629 -0.625914 88.000000
0.960644 0.150156 -0.623393 100.000000
0.966360 0.139017 -0.626445 100.000000
0.971983 0.127742 -0.629394 100.000000
0.973334 0.115867 -0.629608 98.000000
0.974578 0.103957 -0.629750 103.000000
0.975574 0.092047 -0.630070 103.000000
0.984880 0.080824 -0.635693 103.000000
0.977422 0.068191 -0.630248 95.000000
0.965504 0.055521 -0.622238 100.000000
0.965961 0.043729 -0.622484 103.000000
0.966452 0.031937 -0.622449 100.000000
0.970901 0.020232 -0.625296 100.000000
0.966803 0.008353 -0.622624 103.000000
0.971077 -0.003490 -0.625331 98.000000
0.975210 -0.015399 -0.627968 103.000000
0.975033 -0.027329 -0.627826 95.000000
1.008215 -0.040576 -0.649475 103.000000
1.003650 -0.052661 -0.646477 98.000000
1.007190 -0.065186 -0.649072 98.000000
0.985346 -0.075876 -0.635586 94.000000
0.988711 -0.088262 -0.638002 100.000000
0.987775 -0.100326 -0.637678 95.000000
0.990731 -0.112866 -0.640236 98.000000
0.993603 -0.125508 -0.642683 98.000000
0.992223 -0.137637 -0.642392 100.000000
0.990698 -0.149731 -0.642029 100.000000
0.988919 -0.161860 -0.641811 95.000000
0.995471 -0.175378 -0.646728 95.000000
0.985214 -0.186010 -0.640976 95.000000
0.983108 -0.198031 -0.640613 95.000000
0.989172 -0.211816 -0.645520 98.000000
0.978605 -0.222036 -0.639596 98.000000
0.980164 -0.235040 -0.641955 95.000000
0.985829 -0.249031 -0.646665 100.000000
0.982997 -0.261130 -0.646187 95.000000
0.967892 -0.269755 -0.637599 55.000000
0.968968 -0.282777 -0.639658 100.000000
0.969910 -0.295862 -0.641675 95.000000
0.958631 -0.305163 -0.635637 98.000000
0.979224 -0.324956 -0.651104 95.000000
0.979761 -0.338251 -0.652912 91.000000
0.975948 -0.350326 -0.652239 98.000000
0.979995 -0.365246 -0.656848 71.000000
0.979876 -0.378834 -0.658712 37.000000
0.967882 -0.387678 -0.652574 98.000000
0.955806 -0.396292 -0.646375 88.000000
0.955424 -0.409654 -0.648052 91.000000
0.977953 -0.433548 -0.665799 95.000000
0.973301 -0.445468 -0.664722 83.000000
0.968302 -0.457504 -0.663838 95.000000
0.959404 -0.467599 -0.660246 79.000000
0.977044 -0.490894 -0.675009 32.000000
0.960290 -0.497063 -0.666083 95.000000
0.951066 -0.506880 -0.662380 95.000000
0.971707 -0.532965 -0.679517 98.000000
0.965955 -0.544867 -0.678287 95.000000
0.960083 -0.556729 -0.677017 52.000000
0.961112 -0.573085 -0.681106 98.000000
0.954995 -0.584879 -0.679746 65.000000
0.944819 -0.594474 -0.675957 30.000000
0.949354 -0.612989 -0.682236 77.000000
0.942546 -0.624792 -0.680947 50.000000
0.935618 -0.636515 -0.679618 80.000000
0.928608 -0.648157 -0.678208 38.000000
0.931990 -0.667174 -0.684489 82.000000
0.969720 -0.711792 -0.716235 80.000000
0.996344 -0.749647 -0.740134 42.000000
1.046178 -0.806615 -0.781741 59.000000
1.057789 -0.835561 -0.795109 41.000000
1.051634 -0.851694 -0.795972 78.000000
1.349175 -1.202796 -1.049337 24.000000
1.422810 -1.298211 -1.113994 20.000000
1.462149 -1.366487 -1.153731 10.000000
1.488651 -1.423347 -1.182644 8.000000
1.510134 -1.478552 -1.209400 10.000000
1.499995 -1.503800 -1.211158 10.000000
1.507699 -1.547665 -1.227560 10.000000
1.487712 -1.563547 -1.221685 10.000000
1.488397 -1.601458 -1.232939 10.000000
1.488514 -1.639667 -1.244033 10.000000
1.476475 -1.664955 -1.245195 10.000000
1.478439 -1.706741 -1.258420 8.000000
1.471275 -1.738707 -1.264182 10.000000
1.472029 -1.780920 -1.277139 10.000000
1.450183 -1.796043 -1.270619 10.000000
1.444459 -1.831591 -1.278453 10.000000
1.432931 -1.860287 -1.281335 10.000000
1.424899 -1.896625 -1.289438 11.000000
1.407231 -1.918215 -1.287368 9.000000
1.417687 -1.978906 -1.311282 8.000000
1.397765 -2.001251 -1.309427 9.000000
1.391541 -2.040784 -1.318738 9.000000
1.379793 -2.073089 -1.323252 9.000000
1.363600 -2.102371 -1.325792 9.000000
1.362832 -2.153408 -1.341738 9.000000
1.347693 -2.186594 -1.346365 9.000000
1.347612 -2.241759 -1.364267 9.000000
0.523371 0.874195 -0.522357 26.000000
0.516214 0.840935 -0.508321 13.000000
0.523229 0.830267 -0.507818 46.000000
0.524676 0.812377 -0.502788 28.000000
0.528860 0.798003 -0.499856 30.000000
0.539652 0.794943 -0.504024 46.000000
0.540976 0.776867 -0.498689 26.000000
0.546573 0.766379 -0.498114 58.000000
0.536940 0.734183 -0.483253 26.000000
0.563181 0.752078 -0.501396 28.000000
0.549693 0.716949 -0.484191 32.000000
0.544159 0.692383 -0.473785 32.000000
0.554271 0.688913 -0.477688 67.000000
0.564395 0.685251 -0.481606 36.000000
0.574531 0.681458 -0.485538 61.000000
0.578944 0.670857 -0.484626 65.000000
0.568716 0.643813 -0.471667 37.000000
0.563877 0.623613 -0.463418 33.000000
0.564642 0.610014 -0.459924 31.000000
0.565239 0.596508 -0.456374 85.000000
0.568624 0.586230 -0.455202 98.000000
0.614960 0.619263 -0.488159 108.000000
1.461808 1.340182 -1.124901 10.000000
1.479727 1.324502 -1.130087 15.000000
1.504181 1.314316 -1.140103 22.000000
1.494839 1.276067 -1.125795 14.000000
1.482292 1.234859 -1.108290 15.000000
1.495329 1.216525 -1.111074 17.000000
1.501384 1.192671 -1.108852 10.000000
1.501091 1.163012 -1.100983 10.000000
1.506522 1.139177 -1.098501 10.000000
1.515249 1.117942 -1.098449 10.000000
1.523721 1.096593 -1.098319 13.000000
1.532006 1.075199 -1.098046 10.000000
1.547218 1.058560 -1.102833 13.000000
1.558635 1.039311 -1.104957 14.000000
1.530284 0.994073 -1.079086 10.000000
1.552058 0.981886 -1.088675 10.000000
1.562287 0.962926 -1.090956 13.000000
1.539691 0.923560 -1.069747 15.000000
1.560570 0.911173 -1.079545 22.000000
1.555733 0.883236 -1.070879 13.000000
1.568839 0.866156 -1.075360 18.000000
1.574312 0.844868 -1.074633 16.000000
1.579551 0.823481 -1.073833 14.000000
1.603711 0.811789 -1.085889 10.000000
1.604748 0.788215 -1.082312 11.000000
1.601780 0.762927 -1.076064 17.000000
1.598436 0.737735 -1.069731 16.000000
1.590948 0.711024 -1.060653 12.000000
1.602274 0.693295 -1.064875 17.000000
1.617823 0.676743 -1.071211 21.000000
1.617128 0.653791 -1.067496 15.000000
1.635967 0.638658 -1.076710 20.000000
1.622883 0.611096 -1.064885 16.000000
1.629465 0.591161 -1.066065 21.000000
1.635862 0.571164 -1.067183 22.000000
1.645796 0.552645 -1.071174 24.000000
1.639751 0.528497 -1.064163 21.000000
1.649375 0.509792 -1.067968 27.000000
1.642537 0.486040 -1.061183 19.000000
1.606817 0.454430 -1.035811 15.000000
1.607573 0.433655 -1.034012 24.000000
1.534095 0.393911 -0.984634 31.000000
0.975819 0.225535 -0.623958 43.000000
0.940996 0.205435 -0.600406 98.000000
0.947333 0.194824 -0.603503 95.000000
0.949385 0.183274 -0.603851 95.000000
0.955401 0.172512 -0.607023 95.000000
0.986514 0.165757 -0.625831 95.000000
0.979975 0.152427 -0.620706 100.000000
0.985741 0.141102 -0.623717 95.000000
0.983010 0.128576 -0.621348 100.000000
0.984367 0.116614 -0.621562 95.000000
0.985616 0.104617 -0.621705 98.000000
0.986616 0.092656 -0.622027 98.000000
0.991729 0.081004 -0.624900 95.000000
0.979989 0.068040 -0.616887 95.000000
0.972243 0.055661 -0.611674 95.000000
0.976928 0.044060 -0.614581 98.000000
0.977386 0.032181 -0.614545 98.000000
0.981865 0.020391 -0.617347 98.000000
1.007403 0.008680 -0.633350 100.000000
1.007440 -0.003595 -0.633350 100.000000
0.994669 -0.015634 -0.625294 100.000000
0.998722 -0.027836 -0.627811 103.000000
1.002556 -0.040141 -0.630471 100.000000
1.006387 -0.052513 -0.632841 103.000000
0.993092 -0.063935 -0.624757 67.000000
0.996417 -0.076343 -0.627451 100.000000
0.995589 -0.088442 -0.627199 100.000000
0.998867 -0.100932 -0.629531 100.000000
0.993464 -0.112606 -0.626695 103.000000
0.992168 -0.124669 -0.626443 98.000000
0.990763 -0.136733 -0.626155 103.000000
0.993479 -0.149391 -0.628410 103.000000
0.995891 -0.162151 -0.630880 80.000000
0.985650 -0.172852 -0.625291 100.000000
0.988018 -0.185554 -0.627398 100.000000
0.985957 -0.197560 -0.626964 95.000000
0.983751 -0.209530 -0.626530 98.000000
0.985469 -0.222508 -0.628846 98.000000
0.987202 -0.235441 -0.630905 100.000000
0.984504 -0.247475 -0.630467 100.000000
0.981732 -0.259473 -0.629993 78.000000
0.982947 -0.272571 -0.632080 98.000000
0.984027 -0.285731 -0.634125 98.000000
0.976794 -0.296484 -0.630835 98.000000
0.977665 -0.309598 -0.632728 98.000000
0.974135 -0.321586 -0.632176 95.000000
0.978771 -0.336157 -0.636570 95.000000
0.975026 -0.348133 -0.635902 95.000000
0.999146 -0.370407 -0.653496 43.000000
0.975163 -0.374924 -0.639641 95.000000
0.978977 -0.389970 -0.643996 98.000000
0.974756 -0.401880 -0.643091 98.000000
0.970196 -0.413903 -0.642375 98.000000
0.973568 -0.429147 -0.646588 95.000000
0.968743 -0.441115 -0.645753 100.000000
0.963842 -0.453007 -0.644879 98.000000
0.981892 -0.476024 -0.659445 35.000000
0.965149 -0.482344 -0.650687 95.000000
0.963690 -0.496109 -0.652227 95.000000
0.962073 -0.509930 -0.653720 98.000000
0.952765 -0.519620 -0.649988 98.000000
0.954616 -0.535439 -0.653920 95.000000
0.941145 -0.543014 -0.647787 95.000000
0.939012 -0.556671 -0.649069 98.000000
0.932773 -0.568299 -0.647984 55.000000
0.941360 -0.588744 -0.656771 62.000000
0.934825 -0.600396 -0.655551 76.000000
0.942562 -0.621418 -0.664435 95.000000
0.975012 -0.659631 -0.690956 88.000000
1.031572 -0.715955 -0.735004 81.000000
1.062456 -0.756244 -0.761175 87.000000
1.075199 -0.784616 -0.774606 76.000000
1.070156 -0.800413 -0.775329 53.000000
1.064963 -0.816200 -0.776041 31.000000
1.532363 -1.294229 -1.145836 14.000000
1.548272 -1.338486 -1.164995 10.000000
1.556111 -1.378145 -1.179537 11.000000
1.547241 -1.403540 -1.181616 10.000000
1.542171 -1.431253 -1.185537 8.000000
1.551607 -1.474663 -1.202102 11.000000
1.538551 -1.497111 -1.201397 10.000000
1.537503 -1.531815 -1.210345 13.000000
1.520743 -1.551077 -1.207009 10.000000
1.521986 -1.589067 -1.218126 10.000000
1.528571 -1.633756 -1.233913 14.000000
1.507837 -1.649625 -1.227919 10.000000
1.525075 -1.707794 -1.252988 9.000000
1.497938 -1.716986 -1.241986 13.000000
1.485108 -1.742364 -1.242876 10.000000
1.480499 -1.777866 -1.250791 13.000000
1.472510 -1.810068 -1.256259 11.000000
1.466891 -1.845675 -1.263866 13.000000
1.467532 -1.892662 -1.278953 15.000000
1.449980 -1.914575 -1.276909 10.000000
1.463893 -1.978856 -1.302919 9.000000
1.423340 -1.972870 -1.282433 9.000000
1.417742 -2.012378 -1.291757 9.000000
1.412654 -2.056441 -1.303724 10.000000
1.396034 -2.081506 -1.303528 9.000000
1.401736 -2.144381 -1.326723 9.000000
1.396018 -2.188218 -1.337650 10.000000
1.383165 -2.225466 -1.344339 9.000000
1.378267 -2.273457 -1.357315 9.000000
0.525944 0.894639 -0.518262 40.000000
0.526652 0.872325 -0.511170 30.000000
0.519250 0.839035 -0.497398 30.000000
0.530983 0.835887 -0.501377 26.000000
0.532997 0.817674 -0.496306 47.000000
0.543924 0.814661 -0.500452 33.000000
0.545480 0.796466 -0.495250 39.000000
0.546135 0.778663 -0.490166 53.000000
0.554821 0.771511 -0.491734 35.000000
0.562919 0.764491 -0.493464 49.000000
0.557612 0.739709 -0.483625 28.000000
0.555104 0.718388 -0.475808 38.000000
0.551695 0.697532 -0.468057 89.000000
0.567431 0.700876 -0.476600 53.000000
0.575338 0.693499 -0.477969 66.000000
0.574115 0.676154 -0.472443 35.000000
0.584214 0.672275 -0.476273 54.000000
0.588468 0.661617 -0.475357 87.000000
0.571850 0.628186 -0.457792 27.000000
0.590585 0.633871 -0.468632 95.000000
0.570087 0.597827 -0.448514 95.000000
0.588809 0.603223 -0.459346 105.000000
1.353889 1.262623 -1.022710 43.000000
1.474332 1.342756 -1.105280 27.000000
1.501373 1.336285 -1.118063 20.000000
1.512677 1.314540 -1.118294 21.000000
1.503885 1.275733 -1.103723 24.000000
1.510551 1.251755 -1.101723 16.000000
1.524422 1.232735 -1.104057 20.000000
1.520317 1.200500 -1.094506 13.000000
1.539905 1.187139 -1.102085 10.000000
1.539306 1.157251 -1.094319 18.000000
1.544603 1.133117 -1.091868 16.000000
1.553186 1.111548 -1.091742 16.000000
1.568694 1.094829 -1.096578 19.000000
1.558967 1.060883 -1.083849 10.000000
1.566839 1.039173 -1.083477 19.000000
1.585370 1.024536 -1.090532 13.000000
1.574576 0.991016 -1.077493 10.000000
1.570654 0.962491 -1.069355 17.000000
1.576954 0.941166 -1.069050 21.000000
1.579860 0.917309 -1.065697 24.000000
1.585719 0.895887 -1.065238 24.000000
1.588138 0.872031 -1.061728 19.000000
1.612579 0.860797 -1.073716 25.000000
1.614116 0.837097 -1.070454 19.000000
1.607746 0.809582 -1.061966 10.000000
1.628022 0.795542 -1.071258 16.000000
1.613305 0.764510 -1.057510 14.000000
1.633323 0.750073 -1.066558 20.000000
1.629769 0.724806 -1.060233 21.000000
1.637305 0.705049 -1.061943 21.000000
1.645094 0.684849 -1.063083 25.000000
1.636387 0.658493 -1.054341 15.000000
1.631726 0.633640 -1.047579 10.000000
1.650560 0.618294 -1.056599 25.000000
1.653175 0.596707 -1.055217 22.000000
1.655197 0.575343 -1.054141 27.000000
1.661500 0.555123 -1.055140 25.000000
1.659399 0.532163 -1.050849 21.000000
1.664989 0.512104 -1.052029 29.000000
1.666226 0.490649 -1.050560 21.000000
1.638798 0.461001 -1.030466 10.000000
1.623068 0.435541 -1.018420 27.000000
1.573669 0.402173 -0.985834 26.000000
0.989139 0.214955 -0.616078 78.000000
0.953769 0.195276 -0.593135 94.000000
0.955822 0.183691 -0.593483 95.000000
0.957770 0.172106 -0.593796 93.000000
0.984902 0.164710 -0.609708 56.000000
0.982364 0.152131 -0.607494 98.000000
0.992482 0.141389 -0.612852 98.000000
0.989723 0.128826 -0.610529 100.000000
0.991079 0.116864 -0.610744 103.000000
0.992186 0.104867 -0.611101 98.000000
0.993329 0.092870 -0.611208 103.000000
0.998470 0.081183 -0.614035 98.000000
0.986644 0.068217 -0.606161 64.000000
0.987211 0.056287 -0.606479 100.000000
0.987812 0.044357 -0.606515 95.000000
0.984013 0.032252 -0.603901 98.000000
0.988521 0.020426 -0.606621 100.000000
1.018492 0.008752 -0.624961 100.000000
1.001482 -0.003514 -0.614501 102.000000
1.014195 -0.015834 -0.622273 100.000000
1.014013 -0.028109 -0.622128 103.000000
1.017872 -0.040517 -0.624742 103.000000
1.017325 -0.052843 -0.624705 100.000000
1.012597 -0.064860 -0.621728 98.000000
1.011725 -0.077099 -0.621765 98.000000
1.006606 -0.088962 -0.618863 103.000000
1.009800 -0.101576 -0.621365 100.000000
1.004473 -0.113264 -0.618393 100.000000
1.007440 -0.125944 -0.620748 103.000000
1.001796 -0.137565 -0.617814 98.000000
0.995913 -0.149084 -0.615063 103.000000
0.998542 -0.161759 -0.617236 100.000000
1.000867 -0.174607 -0.619550 98.000000
0.998906 -0.186736 -0.619223 103.000000
0.992647 -0.197994 -0.616187 103.000000
0.998799 -0.211736 -0.620949 100.000000
0.996502 -0.223807 -0.620402 100.000000
0.998108 -0.236902 -0.622632 100.000000
0.995435 -0.249023 -0.622192 100.000000
0.996934 -0.262086 -0.624086 98.000000
0.998154 -0.275322 -0.626085 95.000000
0.994941 -0.287508 -0.625716 98.000000
0.991803 -0.299509 -0.625051 98.000000
0.992675 -0.312797 -0.626892 100.000000
0.993223 -0.326222 -0.628914 103.000000
0.993593 -0.339671 -0.630856 100.000000
0.985963 -0.350199 -0.627387 98.000000
1.010266 -0.372578 -0.644620 95.000000
0.986162 -0.377168 -0.630991 95.000000
0.985837 -0.390837 -0.632953 98.000000
0.985552 -0.404377 -0.634607 100.000000
0.981011 -0.416449 -0.633888 98.000000
0.988358 -0.433474 -0.640522 103.000000
0.983533 -0.445577 -0.639679 98.000000
0.978554 -0.457565 -0.638798 98.000000
0.981255 -0.473255 -0.642962 98.000000
0.976044 -0.485223 -0.641958 88.000000
0.970755 -0.497075 -0.640916 98.000000
0.961534 -0.506876 -0.637267 98.000000
0.971211 -0.526797 -0.646250 98.000000
0.957732 -0.534580 -0.640232 98.000000
0.963240 -0.552619 -0.646539 100.000000
0.957044 -0.564501 -0.645480 98.000000
0.958445 -0.580513 -0.649160 95.000000
0.988761 -0.615200 -0.672993 40.000000
1.033052 -0.659999 -0.706723 98.000000
1.065669 -0.698797 -0.732757 95.000000
1.086787 -0.731268 -0.751175 91.000000
1.082341 -0.747051 -0.752091 87.000000
1.084839 -0.767848 -0.757950 60.000000
1.090601 -0.791319 -0.766107 95.000000
1.558587 -1.277733 -1.128846 19.000000
1.581839 -1.327570 -1.152620 13.000000
1.590234 -1.367212 -1.167041 16.000000
1.591480 -1.401509 -1.176311 20.000000
1.567000 -1.411962 -1.165726 12.000000
1.570720 -1.449271 -1.177258 16.000000
1.570715 -1.483905 -1.186311 10.000000
1.567003 -1.515662 -1.192751 16.000000
1.556634 -1.541329 -1.194277 16.000000
1.542892 -1.563797 -1.193390 11.000000
1.541138 -1.598776 -1.201856 16.000000
1.544844 -1.640391 -1.215000 11.000000
1.542023 -1.675738 -1.223236 13.000000
1.526826 -1.698186 -1.221887 10.000000
1.505655 -1.713840 -1.215742 10.000000
1.507411 -1.755995 -1.228365 20.000000
1.505586 -1.794945 -1.238467 16.000000
1.493613 -1.824624 -1.241899 15.000000
1.485239 -1.856999 -1.247040 19.000000
1.484595 -1.899883 -1.259063 13.000000
1.479233 -1.940140 -1.269005 13.000000
1.458672 -1.958519 -1.264557 10.000000
1.445870 -1.987428 -1.266982 9.000000
1.436295 -2.024215 -1.274266 13.000000
1.435296 -2.071286 -1.287785 10.000000
1.419548 -2.101018 -1.290269 10.000000
1.417320 -2.148342 -1.303480 11.000000
1.410187 -2.193030 -1.314748 10.000000
1.399828 -2.234196 -1.323575 10.000000
1.399841 -2.289825 -1.340698 10.000000
1.381078 -2.319677 -1.342525 9.000000
0.543961 0.942432 -0.529153 30.000000
0.533828 0.900415 -0.511358 48.000000
0.546152 0.897209 -0.515374 12.000000
0.525219 0.840553 -0.488462 35.000000
0.531470 0.830203 -0.488132 26.000000
0.548040 0.834447 -0.496523 26.000000
0.551691 0.820185 -0.493891 34.000000
0.555721 0.805611 -0.491059 25.000000
0.558956 0.791367 -0.488363 60.000000
0.570414 0.787695 -0.492177 37.000000
0.565359 0.762674 -0.482611 24.000000
0.568486 0.748236 -0.479560 43.000000
0.570878 0.734096 -0.476609 28.000000
0.570794 0.716266 -0.471182 45.000000
0.575530 0.705720 -0.470428 55.000000
0.585850 0.701933 -0.474263 37.000000
0.585093 0.684245 -0.468657 49.000000
0.589424 0.673631 -0.467828 53.000000
0.593652 0.662997 -0.466923 61.000000
0.582804 0.636005 -0.454353 65.000000
0.592612 0.631970 -0.458029 85.000000
0.584110 0.608649 -0.447627 98.000000
0.646300 0.658036 -0.491215 123.000000
1.451775 1.346169 -1.068901 25.000000
1.476176 1.336895 -1.078723 29.000000
1.497343 1.324260 -1.086124 29.000000
1.528467 1.319861 -1.100656 21.000000
1.542224 1.301331 -1.103674 24.000000
1.543008 1.270880 -1.096512 21.000000
1.563123 1.257585 -1.104117 18.000000
1.556371 1.221799 -1.091929 19.000000
1.548437 1.186797 -1.080088 10.000000
1.561640 1.167402 -1.082198 18.000000
1.577623 1.150921 -1.087080 25.000000
1.572116 1.118894 -1.077281 18.000000
1.573302 1.092208 -1.072313 14.000000
1.592246 1.077737 -1.079419 19.000000
1.596546 1.053423 -1.076667 18.000000
1.604338 1.031441 -1.076287 25.000000
1.585992 0.993246 -1.058597 9.000000
1.600532 0.975958 -1.062900 15.000000
1.599971 0.949573 -1.057330 21.000000
1.591543 0.918987 -1.046656 15.000000
1.620151 0.910388 -1.061053 24.000000
1.622591 0.886243 -1.057655 23.000000
1.620459 0.860445 -1.052078 16.000000
1.633476 0.842747 -1.056377 22.000000
1.623101 0.813181 -1.045582 9.000000
1.651268 0.802828 -1.059741 16.000000
1.656023 0.780861 -1.058791 18.000000
1.660543 0.758861 -1.057704 16.000000
1.649013 0.729826 -1.046509 16.000000
1.656967 0.709656 -1.047845 19.000000
1.652437 0.684715 -1.041822 16.000000
1.659954 0.664500 -1.042960 24.000000
1.646896 0.636629 -1.031736 10.000000
1.669809 0.622689 -1.043087 21.000000
1.672430 0.601001 -1.041756 25.000000
1.670755 0.577876 -1.037825 18.000000
1.681101 0.558967 -1.041360 24.000000
1.683079 0.537212 -1.039764 26.000000
1.692766 0.518140 -1.043492 21.000000
1.698536 0.497570 -1.044245 26.000000
1.649851 0.461973 -1.012187 10.000000
1.642297 0.438661 -1.005461 21.000000
1.642829 0.417771 -1.003697 24.000000
1.576030 0.380820 -0.961368 30.000000
0.989685 0.201630 -0.600373 52.000000
0.966513 0.184846 -0.585394 91.000000
0.968470 0.173176 -0.585708 95.000000
0.995637 0.165772 -0.601556 67.000000
0.997430 0.153760 -0.601736 95.000000
0.999008 0.141747 -0.602094 98.000000
0.996185 0.129147 -0.599818 100.000000
0.997542 0.117114 -0.600032 95.000000
1.003060 0.105566 -0.602776 100.000000
1.004208 0.093446 -0.602883 98.000000
1.000827 0.081016 -0.600532 95.000000
1.001648 0.068983 -0.600710 65.000000
0.993760 0.056428 -0.595682 98.000000
0.998612 0.044619 -0.598285 98.000000
0.999110 0.032602 -0.598285 95.000000
0.995070 0.020497 -0.595824 98.000000
1.016660 0.008679 -0.608737 100.000000
0.999536 -0.003484 -0.598463 98.000000
1.033782 -0.016033 -0.618901 103.000000
1.033598 -0.028500 -0.618791 103.000000
1.033193 -0.040929 -0.618791 100.000000
1.032642 -0.053359 -0.618717 105.000000
1.027734 -0.065515 -0.616003 95.000000
1.022723 -0.077569 -0.613254 100.000000
1.030398 -0.090610 -0.618092 103.000000
1.029332 -0.103040 -0.617982 103.000000
1.015320 -0.113996 -0.610107 103.000000
1.018274 -0.126765 -0.612416 98.000000
1.012597 -0.138436 -0.609563 100.000000
1.015356 -0.151235 -0.611759 103.000000
1.009328 -0.162804 -0.608945 95.000000
1.007621 -0.174897 -0.608437 95.000000
1.014111 -0.188599 -0.613220 103.000000
1.011987 -0.200830 -0.612817 100.000000
1.013850 -0.213949 -0.615077 100.000000
1.011534 -0.226158 -0.614562 100.000000
1.008959 -0.238367 -0.614157 98.000000
1.006422 -0.250466 -0.613495 100.000000
1.007792 -0.263690 -0.615561 85.000000
1.009027 -0.276979 -0.617548 80.000000
1.001847 -0.287951 -0.614379 98.000000
1.002686 -0.301340 -0.616473 98.000000
1.007687 -0.315970 -0.620799 98.000000
1.008234 -0.329496 -0.622770 100.000000
1.008639 -0.343085 -0.624661 100.000000
1.008900 -0.356735 -0.626471 100.000000
1.025226 -0.376358 -0.638368 64.000000
1.004951 -0.382565 -0.627477 98.000000
0.996791 -0.393101 -0.624087 103.000000
1.000366 -0.408516 -0.628433 78.000000
1.003909 -0.423896 -0.632499 95.000000
0.995214 -0.434355 -0.629185 98.000000
1.002226 -0.451794 -0.635891 98.000000
0.993300 -0.462137 -0.632461 95.000000
1.011640 -0.485427 -0.646512 55.000000
0.986916 -0.488071 -0.633023 95.000000
0.981568 -0.500008 -0.631977 98.000000
0.980024 -0.513883 -0.633376 98.000000
0.974460 -0.525712 -0.632208 100.000000
0.979940 -0.543983 -0.638701 98.000000
1.030748 -0.588065 -0.674502 98.000000
1.061725 -0.622690 -0.698043 98.000000
1.103225 -0.664889 -0.728844 68.000000
1.121825 -0.694390 -0.744739 35.000000
1.121504 -0.712796 -0.748212 79.000000
1.117337 -0.728860 -0.749218 83.000000
1.102102 -0.737595 -0.742791 95.000000
1.101228 -0.755988 -0.746090 70.000000
1.114490 -0.784427 -0.759100 98.000000
1.581118 -1.227713 -1.101846 16.000000
1.598177 -1.271872 -1.121128 24.000000
1.605071 -1.307838 -1.132682 11.000000
1.624220 -1.355846 -1.154032 24.000000
1.616632 -1.381116 -1.155644 17.000000
1.617887 -1.415605 -1.164748 17.000000
1.605495 -1.438538 -1.164288 18.000000
1.602621 -1.470256 -1.170778 10.000000
1.589701 -1.493097 -1.170126 10.000000
1.598815 -1.537183 -1.185891 19.000000
1.582006 -1.556908 -1.182590 14.000000
1.580601 -1.592073 -1.191013 18.000000
1.560238 -1.608435 -1.185264 15.000000
1.570219 -1.656513 -1.202840 15.000000
1.570397 -1.695369 -1.213163 19.000000
1.546210 -1.708154 -1.204865 9.000000
1.542572 -1.743805 -1.212685 10.000000
1.532615 -1.772783 -1.215747 14.000000
1.526796 -1.809334 -1.223763 14.000000
1.527319 -1.852130 -1.235797 17.000000
1.516002 -1.881311 -1.238520 12.000000
1.508555 -1.918117 -1.246078 16.000000
1.499099 -1.950817 -1.250878 17.000000
1.482467 -1.977159 -1.251521 10.000000
1.480141 -2.020631 -1.262798 9.000000
1.467762 -2.054091 -1.267664 10.000000
1.456534 -2.086866 -1.271950 10.000000
1.450810 -2.131435 -1.283203 10.000000
1.441064 -2.167934 -1.289466 10.000000
1.438809 -2.220332 -1.304849 10.000000
1.420562 -2.245654 -1.304124 10.000000
1.419113 -2.302235 -1.321468 9.000000
1.407187 -2.343735 -1.329722 9.000000
1.394654 -2.385415 -1.337972 9.000000
0.549832 0.944352 -0.519589 15.000000
0.564875 0.944897 -0.525820 17.000000
0.542291 0.883698 -0.497440 13.000000
0.549682 0.872832 -0.497024 10.000000
0.541586 0.839512 -0.483694 23.000000
0.550833 0.832500 -0.485388 16.000000
0.556884 0.821938 -0.485022 21.000000
0.568584 0.818408 -0.488843 18.000000
0.575060 0.807438 -0.488260 14.000000
0.580817 0.796668 -0.487796 27.000000
0.565556 0.756897 -0.469322 9.000000
0.578879 0.757018 -0.475428 20.000000
0.579057 0.739018 -0.470142 30.000000
0.592400 0.738810 -0.476237 18.000000
0.592150 0.720861 -0.470869 29.000000
0.596870 0.710144 -0.470139 34.000000
0.607266 0.706128 -0.473930 18.000000
0.600489 0.681639 -0.463868 35.000000
0.607711 0.674200 -0.465300 17.000000
0.590787 0.640553 -0.448399 34.000000
0.597606 0.633256 -0.449715 40.000000
0.638284 0.660962 -0.476344 103.000000
1.358222 1.281918 -0.981786 36.000000
1.453350 1.340059 -1.042677 22.000000
1.477730 1.330925 -1.052284 26.000000
1.498850 1.318356 -1.059582 24.000000
1.526657 1.311306 -1.071533 25.000000
1.544369 1.295214 -1.076324 10.000000
1.554419 1.273733 -1.076821 10.000000
1.582233 1.265393 -1.088654 14.000000
1.578156 1.232685 -1.079528 9.000000
1.574272 1.199776 -1.069862 15.000000
1.576395 1.172747 -1.065253 10.000000
1.578755 1.145433 -1.060137 10.000000
1.594466 1.128728 -1.064901 15.000000
1.588501 1.096845 -1.055219 10.000000
1.607457 1.082406 -1.062241 11.000000
1.619664 1.062376 -1.063994 14.000000
1.597916 1.021385 -1.044311 9.000000
1.616382 1.006522 -1.051126 12.000000
1.619323 0.982601 -1.048606 10.000000
1.622432 0.958333 -1.045538 13.000000
1.629166 0.936294 -1.044818 16.000000
1.635589 0.914217 -1.044090 10.000000
1.633706 0.888193 -1.038739 13.000000
1.643522 0.868173 -1.040169 16.000000
1.637169 0.840381 -1.032205 10.000000
1.653921 0.824437 -1.038779 10.000000
1.670563 0.808240 -1.045369 10.000000
1.659563 0.778711 -1.034641 10.000000
1.695647 0.771218 -1.053281 19.000000
1.676137 0.738369 -1.037468 10.000000
1.688167 0.719710 -1.041156 13.000000
1.687985 0.695856 -1.037439 18.000000
1.683182 0.670715 -1.031556 10.000000
1.674410 0.643989 -1.022669 15.000000
1.673074 0.620802 -1.018971 12.000000
1.687833 0.603594 -1.025190 15.000000
1.694323 0.583176 -1.026261 21.000000
1.692390 0.560033 -1.022357 19.000000
1.706738 0.542151 -1.028278 23.000000
1.716493 0.522996 -1.031968 25.000000
1.705601 0.497360 -1.022748 13.000000
1.694165 0.472188 -1.013761 17.000000
1.661456 0.441791 -0.992197 16.000000
1.649393 0.417550 -0.982980 18.000000
1.649683 0.396689 -0.981196 29.000000
0.998219 0.190120 -0.589902 69.000000
0.996007 0.177350 -0.587714 69.000000
1.010693 0.167509 -0.595538 95.000000
1.008229 0.154702 -0.593241 100.000000
1.005534 0.141998 -0.591086 98.000000
1.011254 0.130503 -0.593889 95.000000
1.008331 0.117866 -0.591588 100.000000
1.009586 0.105782 -0.591767 98.000000
1.014999 0.094060 -0.594393 103.000000
1.015935 0.081888 -0.594609 95.000000
1.012419 0.069421 -0.592269 95.000000
1.008789 0.057022 -0.589856 98.000000
1.005083 0.044726 -0.587406 98.000000
1.009861 0.032813 -0.589892 98.000000
1.014427 0.020834 -0.592556 100.000000
1.044792 0.008899 -0.610243 103.000000
1.023241 -0.003544 -0.597635 100.000000
1.023169 -0.015803 -0.597563 99.000000
1.044570 -0.028655 -0.610022 103.000000
1.044164 -0.041173 -0.610022 103.000000
1.043647 -0.053691 -0.609948 100.000000
1.038673 -0.065898 -0.607281 85.000000
1.037937 -0.078365 -0.607097 98.000000
1.037091 -0.090757 -0.606802 103.000000
1.035988 -0.103224 -0.606692 103.000000
1.034811 -0.115616 -0.606508 100.000000
1.024911 -0.126983 -0.601220 100.000000
1.027771 -0.139819 -0.603406 100.000000
1.026233 -0.152124 -0.603040 100.000000
1.024475 -0.164429 -0.602783 71.000000
1.026868 -0.177470 -0.605001 98.000000
1.024882 -0.189789 -0.604670 98.000000
1.027030 -0.202910 -0.606735 98.000000
1.020580 -0.214317 -0.603750 98.000000
1.018116 -0.226599 -0.603419 95.000000
1.024118 -0.240716 -0.607834 103.000000
1.021411 -0.253026 -0.607389 95.000000
1.022785 -0.266391 -0.609367 86.000000
1.019844 -0.278640 -0.608809 98.000000
1.025163 -0.293236 -0.613161 94.000000
1.021822 -0.305623 -0.612673 98.000000
1.039220 -0.324282 -0.624398 53.000000
1.043872 -0.339490 -0.628755 95.000000
1.044200 -0.353428 -0.630582 95.000000
1.044381 -0.367426 -0.632364 86.000000
1.040373 -0.379955 -0.631586 49.000000
1.019956 -0.386289 -0.620874 81.000000
1.015589 -0.398660 -0.620223 78.000000
1.015329 -0.412438 -0.621771 98.000000
1.018736 -0.428113 -0.625970 85.000000
1.033929 -0.449069 -0.637462 95.000000
1.036895 -0.465121 -0.641508 95.000000
1.031758 -0.477666 -0.640592 72.000000
1.022568 -0.488214 -0.637186 62.000000
1.001602 -0.492812 -0.626367 93.000000
1.007925 -0.510799 -0.632640 69.000000
1.044965 -0.545100 -0.658356 95.000000
1.073454 -0.576425 -0.679279 95.000000
1.105534 -0.610403 -0.702303 95.000000
1.129158 -0.641122 -0.720566 75.000000
1.137109 -0.663673 -0.729030 80.000000
1.141021 -0.684250 -0.734998 65.000000
1.145020 -0.704728 -0.740611 29.000000
1.137290 -0.718594 -0.739206 52.000000
1.136778 -0.737185 -0.742560 49.000000
1.146596 -0.763391 -0.753282 35.000000
1.533828 -1.128617 -1.029908 16.000000
1.574522 -1.186855 -1.063057 10.000000
1.641342 -1.268127 -1.115262 10.000000
1.631287 -1.290625 -1.114820 10.000000
1.640935 -1.330085 -1.128796 12.000000
1.630298 -1.352563 -1.128149 10.000000
1.649010 -1.401228 -1.148886 10.000000
1.643534 -1.430193 -1.153137 10.000000
1.624435 -1.447412 -1.147945 10.000000
1.641289 -1.497206 -1.168290 9.000000
1.611950 -1.505186 -1.155941 10.000000
1.605071 -1.534205 -1.159770 10.000000
1.613770 -1.578664 -1.175027 10.000000
1.590332 -1.592111 -1.167161 10.000000
1.594799 -1.633857 -1.179825 10.000000
1.589505 -1.666174 -1.185529 10.000000
1.571563 -1.685618 -1.181972 9.000000
1.577454 -1.731154 -1.196534 9.000000
1.573732 -1.767056 -1.204181 9.000000
1.562497 -1.797002 -1.207562 9.000000
1.563580 -1.839875 -1.219429 10.000000
1.549807 -1.865817 -1.219877 10.000000
1.545654 -1.906287 -1.229755 10.000000
1.531023 -1.932149 -1.230031 10.000000
1.512070 -1.955112 -1.228389 10.000000
1.526645 -2.020037 -1.252921 10.000000
1.519943 -2.061005 -1.262132 9.000000
1.487839 -2.064996 -1.248791 9.000000
1.493243 -2.124372 -1.268697 9.000000
1.474603 -2.150751 -1.268838 9.000000
1.467235 -2.191151 -1.277046 9.000000
1.452853 -2.224924 -1.281262 9.000000
1.458887 -2.288272 -1.302178 9.000000
1.442967 -2.322248 -1.306114 9.000000
1.438216 -2.375505 -1.320726 8.000000
1.427916 -2.421241 -1.330728 9.000000
0.554078 0.969083 -0.516466 20.000000
0.571626 0.973606 -0.524702 27.000000
0.551973 0.915717 -0.499145 23.000000
0.578727 0.935537 -0.515804 18.000000
0.551979 0.871108 -0.485878 27.000000
0.551694 0.848818 -0.479028 27.000000
0.571044 0.856774 -0.489287 28.000000
0.565230 0.827080 -0.478037 27.000000
0.578936 0.827524 -0.484155 26.000000
0.590721 0.823769 -0.487896 30.000000
0.588582 0.802009 -0.480976 21.000000
0.602892 0.801678 -0.486860 30.000000
0.584339 0.758351 -0.466490 21.000000
0.583928 0.740620 -0.461522 30.000000
0.589343 0.729695 -0.460695 53.000000
0.588428 0.712086 -0.455591 29.000000
0.598802 0.708278 -0.459319 40.000000
0.594974 0.687126 -0.451713 66.000000
0.602223 0.679847 -0.453138 34.000000
0.609440 0.672444 -0.454532 58.000000
0.601771 0.648328 -0.444515 14.000000
0.614807 0.647430 -0.450348 105.000000
1.289689 1.267759 -0.922074 55.000000
1.367521 1.313569 -0.970161 35.000000
1.407639 1.321085 -0.991029 38.000000
1.454639 1.333775 -1.016506 16.000000
1.482305 1.327744 -1.028262 29.000000
1.503410 1.315338 -1.035393 29.000000
1.531183 1.308326 -1.047159 27.000000
1.555666 1.297934 -1.056520 32.000000
1.583632 1.289950 -1.068229 20.000000
1.597068 1.270958 -1.070972 18.000000
1.617985 1.256690 -1.077950 22.000000
1.614210 1.223341 -1.068476 10.000000
1.598717 1.182816 -1.052353 17.000000
1.601018 1.155355 -1.047383 15.000000
1.609686 1.133443 -1.047354 14.000000
1.629004 1.118975 -1.054375 22.000000
1.637236 1.096833 -1.054272 20.000000
1.631130 1.064466 -1.044166 17.000000
1.646244 1.047069 -1.048623 21.000000
1.623858 1.006261 -1.029240 9.000000
1.642252 0.991072 -1.035913 16.000000
1.656821 0.973341 -1.040089 17.000000
1.674518 0.957901 -1.046992 17.000000
1.673520 0.931130 -1.041501 19.000000
1.660528 0.898173 -1.028743 15.000000
1.669977 0.878293 -1.030646 20.000000
1.679687 0.857887 -1.032089 21.000000
1.665178 0.825990 -1.019370 10.000000
1.693717 0.815503 -1.033028 16.000000
1.710426 0.798786 -1.039422 19.000000
1.707010 0.772720 -1.033689 16.000000
1.711362 0.750390 -1.032642 19.000000
1.719506 0.729671 -1.033945 20.000000
1.715254 0.703906 -1.027910 17.000000
1.714826 0.679980 -1.024221 23.000000
1.705651 0.653189 -1.015916 10.000000
1.704409 0.629751 -1.012324 19.000000
1.715506 0.610522 -1.015648 25.000000
1.717866 0.588555 -1.014355 23.000000
1.715924 0.565131 -1.010489 27.000000
1.713418 0.542095 -1.006928 24.000000
1.723438 0.522741 -1.010254 22.000000
1.724986 0.500729 -1.008563 25.000000
1.721867 0.477779 -1.004668 11.000000
1.747932 0.462772 -1.017870 22.000000
1.735976 0.437553 -1.008874 26.000000
1.736444 0.415781 -1.007170 22.000000
1.740886 0.394948 -1.007796 24.000000
1.736503 0.372352 -1.003751 27.000000
0.976661 0.173150 -0.561894 83.000000
0.991380 0.163585 -0.569534 36.000000
1.027427 0.156997 -0.589696 98.000000
1.024835 0.144102 -0.587410 100.000000
1.030636 0.132417 -0.590170 100.000000
1.027668 0.119625 -0.587918 105.000000
1.028939 0.107314 -0.588100 98.000000
1.034429 0.095438 -0.590680 100.000000
1.026677 0.082416 -0.585954 98.000000
1.031808 0.070453 -0.588608 72.000000
1.010842 0.056920 -0.576385 98.000000
1.024433 0.045410 -0.583842 100.000000
1.020559 0.033061 -0.581368 100.000000
1.020810 0.020869 -0.581476 98.000000
1.020953 0.008678 -0.581512 98.000000
1.020989 -0.003478 -0.581512 98.000000
1.025262 -0.015737 -0.583914 100.000000
1.064174 -0.029047 -0.606033 95.000000
1.063763 -0.041721 -0.606033 98.000000
1.058900 -0.054209 -0.603485 95.000000
1.066941 -0.067378 -0.608281 98.000000
1.053151 -0.079126 -0.600677 98.000000
1.052298 -0.091659 -0.600381 95.000000
1.046860 -0.103800 -0.597799 95.000000
1.054320 -0.117279 -0.602554 100.000000
1.052980 -0.129826 -0.602293 98.000000
1.051565 -0.142373 -0.601958 95.000000
1.054192 -0.155592 -0.604238 100.000000
1.052510 -0.168153 -0.603790 98.000000
1.054892 -0.181452 -0.605954 65.000000
1.052865 -0.194027 -0.605578 95.000000
1.050725 -0.206602 -0.605128 98.000000
1.048323 -0.219176 -0.604865 100.000000
1.033202 -0.228814 -0.596932 95.000000
1.039127 -0.243183 -0.601434 95.000000
1.040628 -0.256638 -0.603439 95.000000
1.033556 -0.267969 -0.600462 98.000000
1.018020 -0.276873 -0.592556 63.000000
1.019186 -0.290179 -0.594337 100.000000
1.020067 -0.303697 -0.596336 98.000000
1.054180 -0.327561 -0.617792 95.000000
1.054819 -0.341413 -0.619381 95.000000
1.051060 -0.354048 -0.618722 91.000000
1.051268 -0.368049 -0.620457 98.000000
1.047066 -0.380733 -0.619913 92.000000
0.997952 -0.376261 -0.592390 37.000000
1.010187 -0.394539 -0.601231 98.000000
1.009815 -0.408326 -0.602971 95.000000
1.001218 -0.418795 -0.599792 95.000000
1.000582 -0.432566 -0.601451 98.000000
1.003793 -0.448143 -0.605439 95.000000
0.994911 -0.458374 -0.602150 98.000000
1.033430 -0.490968 -0.627649 95.000000
1.079301 -0.528425 -0.657866 33.000000
1.140182 -0.574887 -0.697483 95.000000
1.168808 -0.606949 -0.718002 98.000000
1.170010 -0.625004 -0.721453 95.000000
1.163052 -0.639197 -0.720347 67.000000
1.163564 -0.657578 -0.723911 89.000000
1.164262 -0.675818 -0.727133 84.000000
1.160572 -0.692127 -0.728197 58.000000
1.156739 -0.708434 -0.729207 37.000000
1.141477 -0.717654 -0.723071 54.000000
1.692604 -1.178545 -1.094674 18.000000
1.694309 -1.209122 -1.101463 13.000000
1.709273 -1.250782 -1.117978 17.000000
1.688890 -1.265867 -1.110618 10.000000
1.678281 -1.289235 -1.110612 9.000000
1.677836 -1.320763 -1.117405 17.000000
1.681122 -1.354677 -1.126024 13.000000
1.676375 -1.383658 -1.130344 11.000000
1.667902 -1.409876 -1.132255 14.000000
1.659079 -1.436034 -1.134068 10.000000
1.653305 -1.465079 -1.138149 15.000000
1.643892 -1.491228 -1.139760 10.000000
1.627598 -1.511254 -1.136714 9.000000
1.653125 -1.570938 -1.163203 21.000000
1.636094 -1.591016 -1.160000 10.000000
1.631475 -1.623523 -1.165756 10.000000
1.617124 -1.646470 -1.164623 14.000000
1.608655 -1.675781 -1.167889 10.000000
1.621313 -1.727902 -1.186790 16.000000
1.610809 -1.758096 -1.190255 10.000000
1.595009 -1.780951 -1.188740 9.000000
1.578975 -1.803633 -1.187129 18.000000
1.581955 -1.850737 -1.201484 13.000000
1.579581 -1.890538 -1.210739 17.000000
1.556803 -1.906160 -1.204436 11.000000
1.546688 -1.939783 -1.209522 13.000000
1.545575 -1.983317 -1.220595 17.000000
1.539749 -2.024261 -1.229816 9.000000
1.535958 -2.068892 -1.240951 9.000000
1.538228 -2.120327 -1.255866 13.000000
1.514557 -2.139742 -1.251700 10.000000
1.515422 -2.191434 -1.266318 10.000000
1.496169 -2.218103 -1.266184 10.000000
1.498943 -2.278548 -1.285203 10.000000
1.490840 -2.324173 -1.295468 11.000000
1.481348 -2.365175 -1.303041 8.000000
1.455217 -2.384067 -1.298247 9.000000
1.447361 -2.433787 -1.310251 10.000000
1.438529 -2.483697 -1.322035 9.000000
0.562210 0.974869 -0.508654 29.000000
0.572914 0.967633 -0.510576 28.000000
0.566968 0.933069 -0.497937 35.000000
0.557273 0.895240 -0.483251 21.000000
0.554857 0.868984 -0.474533 26.000000
0.564348 0.861918 -0.476230 31.000000
0.568748 0.847183 -0.473682 25.000000
0.577469 0.840248 -0.475468 36.000000
0.589346 0.836603 -0.479202 27.000000
0.595905 0.825451 -0.478661 31.000000
0.593708 0.803661 -0.471871 32.000000
0.594397 0.785300 -0.466962 20.000000
0.594780 0.767079 -0.461980 34.000000
0.599948 0.756327 -0.461431 37.000000
0.594127 0.731226 -0.451989 41.000000
0.593143 0.713626 -0.447010 82.000000
0.595228 0.699258 -0.443947 43.000000
0.605528 0.695397 -0.447593 70.000000
0.622261 0.697830 -0.455413 46.000000
0.617516 0.677001 -0.448024 35.000000
0.603240 0.646496 -0.433974 91.000000
1.315732 1.285818 -0.915619 91.000000
1.384456 1.322283 -0.956169 57.000000
1.428105 1.332818 -0.978876 34.000000
1.458945 1.330397 -0.992706 30.000000
1.473311 1.312592 -0.995201 27.000000
1.501003 1.306300 -1.006726 33.000000
1.532145 1.302364 -1.020489 34.000000
1.559966 1.294961 -1.031970 32.000000
1.581049 1.281477 -1.038877 47.000000
1.594995 1.262091 -1.041248 26.000000
1.625770 1.256655 -1.055319 23.000000
1.632489 1.231351 -1.052927 16.000000
1.646036 1.211276 -1.055102 18.000000
1.644386 1.181191 -1.048363 23.000000
1.639293 1.148283 -1.038863 21.000000
1.644081 1.123596 -1.036517 21.000000
1.652383 1.101338 -1.036397 24.000000
1.657256 1.076209 -1.033539 20.000000
1.668757 1.056201 -1.035581 22.000000
1.661219 1.024509 -1.025990 10.000000
1.672255 1.004457 -1.027874 17.000000
1.690790 0.988665 -1.034361 25.000000
1.697629 0.966066 -1.033779 24.000000
1.700421 0.941217 -1.030780 25.000000
1.683081 0.906356 -1.016363 24.000000
1.692992 0.885940 -1.017817 23.000000
1.682651 0.855726 -1.007892 21.000000
1.703981 0.841139 -1.016272 10.000000
1.724848 0.826531 -1.025002 20.000000
1.721672 0.800299 -1.019495 21.000000
1.722193 0.776031 -1.016270 18.000000
1.730506 0.755345 -1.017644 21.000000
1.734635 0.732817 -1.016644 23.000000
1.742603 0.711984 -1.017819 20.000000
1.733951 0.684562 -1.009471 18.000000
1.712388 0.652962 -0.994205 10.000000
1.723701 0.633863 -0.997546 23.000000
1.726259 0.611794 -0.996433 27.000000
1.736968 0.592596 -0.999906 26.000000
1.734941 0.569131 -0.996201 26.000000
1.741035 0.548374 -0.997153 27.000000
1.751202 0.528758 -1.000441 23.000000
1.752461 0.506733 -0.999185 22.000000
1.766499 0.488058 -1.004690 11.000000
1.767363 0.465893 -1.003241 22.000000
1.759576 0.441631 -0.996844 22.000000
1.772773 0.422690 -1.002422 24.000000
1.760254 0.397629 -0.993475 22.000000
1.760246 0.375717 -0.991565 27.000000
1.712627 0.344413 -0.963406 26.000000
1.040622 0.171034 -0.582973 93.000000
1.033809 0.157289 -0.578354 100.000000
1.044078 0.146249 -0.583525 103.000000
1.041357 0.133228 -0.581250 103.000000
1.047057 0.121353 -0.583892 103.000000
1.035294 0.107531 -0.576806 103.000000
1.045020 0.096057 -0.581946 100.000000
1.041723 0.083258 -0.579594 100.000000
1.029439 0.070005 -0.572499 98.000000
1.030123 0.057761 -0.572607 100.000000
1.017597 0.044939 -0.565363 103.000000
1.026834 0.033133 -0.570216 103.000000
1.031456 0.021030 -0.572751 100.000000
1.031600 0.008751 -0.572823 100.000000
1.027264 -0.003478 -0.570396 103.000000
1.031564 -0.015737 -0.572751 100.000000
1.066346 -0.028966 -0.592017 98.000000
1.074674 -0.041966 -0.596832 98.000000
1.069782 -0.054506 -0.594331 100.000000
1.069109 -0.067216 -0.594219 91.000000
1.064000 -0.079564 -0.591570 98.000000
1.058675 -0.091844 -0.589072 103.000000
1.066380 -0.105273 -0.593584 98.000000
1.069531 -0.118428 -0.595819 100.000000
1.063837 -0.130582 -0.593135 95.000000
1.062305 -0.143256 -0.592986 100.000000
1.065064 -0.156490 -0.595031 98.000000
1.067585 -0.169865 -0.597186 83.000000
1.074291 -0.184007 -0.601717 89.000000
1.076546 -0.197563 -0.603752 100.000000
1.070074 -0.209501 -0.600881 98.000000
1.067794 -0.222191 -0.600387 103.000000
1.056730 -0.233032 -0.595188 95.000000
1.058359 -0.246615 -0.597181 98.000000
1.051378 -0.258171 -0.594321 98.000000
1.035779 -0.267359 -0.586581 70.000000
1.028642 -0.278499 -0.583584 95.000000
1.029673 -0.292006 -0.585576 98.000000
1.060203 -0.314193 -0.604045 95.000000
1.060858 -0.328140 -0.605901 98.000000
1.061408 -0.342111 -0.607676 95.000000
1.061774 -0.356181 -0.609407 98.000000
1.066180 -0.371681 -0.613481 98.000000
1.058008 -0.382852 -0.610312 71.000000
1.020745 -0.383186 -0.590635 92.000000
1.020719 -0.396889 -0.592180 98.000000
1.016274 -0.409124 -0.591459 90.000000
1.019841 -0.424666 -0.595482 98.000000
1.047524 -0.450768 -0.613631 98.000000
1.255511 -0.593605 -0.742992 103.000000
1.197521 -0.583438 -0.711130 67.000000
1.190931 -0.597908 -0.710163 73.000000
1.192371 -0.616062 -0.713567 95.000000
1.185459 -0.630442 -0.712500 89.000000
1.186488 -0.648690 -0.715740 95.000000
1.179297 -0.662978 -0.714573 98.000000
1.183504 -0.683764 -0.720305 86.000000
1.179765 -0.700215 -0.721312 78.000000
1.688639 -1.112725 -1.053025 23.000000
1.728076 -1.167685 -1.082988 25.000000
1.719176 -1.190796 -1.082849 22.000000
1.720295 -1.222000 -1.089943 19.000000
1.725220 -1.255591 -1.098779 22.000000
1.711230 -1.276538 -1.096509 9.000000
1.711163 -1.308150 -1.103283 17.000000
1.707799 -1.336694 -1.107224 21.000000
1.706917 -1.368576 -1.113770 16.000000
1.702195 -1.397742 -1.118013 18.000000
1.693648 -1.424138 -1.119815 13.000000
1.705045 -1.467949 -1.135031 19.000000
1.688972 -1.488636 -1.132185 17.000000
1.686021 -1.521070 -1.138225 10.000000
1.672797 -1.544413 -1.137359 12.000000
1.655943 -1.564684 -1.134330 17.000000
1.671291 -1.615777 -1.153369 18.000000
1.660242 -1.642276 -1.154474 18.000000
1.639362 -1.659039 -1.148926 12.000000
1.643417 -1.701396 -1.160934 20.000000
1.627280 -1.725088 -1.159995 15.000000
1.639301 -1.777791 -1.178353 10.000000
1.623349 -1.800834 -1.176842 15.000000
1.615014 -1.834497 -1.182178 18.000000
1.613257 -1.874370 -1.191304 21.000000
1.598031 -1.901377 -1.192113 21.000000
1.589477 -1.934489 -1.196702 14.000000
1.579096 -1.968390 -1.201659 20.000000
1.558455 -1.987326 -1.197479 15.000000
1.574841 -2.057033 -1.223535 10.000000
1.551933 -2.076705 -1.219514 10.000000
1.551615 -2.124583 -1.232019 10.000000
1.543813 -2.166049 -1.240621 12.000000
1.532754 -2.204011 -1.246853 15.000000
1.525203 -2.244964 -1.254745 13.000000
1.513021 -2.282964 -1.260728 16.000000
1.502707 -2.324730 -1.268719 11.000000
1.491611 -2.366778 -1.276527 10.000000
1.484007 -2.411750 -1.285836 9.000000
1.466805 -2.446077 -1.289234 10.000000
1.465073 -2.507915 -1.306931 16.000000
0.561747 0.991767 -0.500842 23.000000
0.569519 0.980973 -0.500912 22.000000
0.582606 0.977596 -0.504793 27.000000
0.583752 0.954601 -0.498553 21.000000
0.589331 0.939467 -0.496300 18.000000
0.567490 0.882153 -0.471434 20.000000
0.577106 0.874959 -0.473119 26.000000
0.579034 0.856342 -0.468575 31.000000
0.592976 0.856863 -0.474521 26.000000
0.599780 0.845641 -0.474014 33.000000
0.606398 0.834416 -0.473529 30.000000
0.612831 0.823154 -0.472994 26.000000
0.613100 0.804945 -0.468383 27.000000
0.605246 0.775771 -0.457205 27.000000
0.613293 0.768486 -0.458794 36.000000
0.616039 0.753760 -0.455976 35.000000
0.604075 0.721760 -0.442432 36.000000
0.608656 0.711026 -0.441758 57.000000
0.622510 0.710210 -0.447301 37.000000
0.626958 0.699321 -0.446589 48.000000
0.634321 0.691736 -0.447986 35.000000
0.648207 0.690376 -0.453511 108.000000
1.279925 1.272338 -0.873394 95.000000
1.348346 1.310141 -0.912972 72.000000
1.398165 1.327860 -0.939616 82.000000
1.432123 1.329240 -0.955346 35.000000
1.443068 1.308834 -0.955666 26.000000
1.483967 1.315155 -0.975778 35.000000
1.484639 1.285342 -0.969420 32.000000
1.529333 1.293337 -0.991727 36.000000
