x y z intensity
2.443854 -0.640940 -0.569724 8.000000
2.507302 -0.687233 -0.585734 18.000000
2.490359 -0.712283 -0.582969 10.000000
2.501200 -0.745242 -0.586707 11.000000
2.497615 -0.774279 -0.587150 11.000000
2.493753 -0.803337 -0.587590 10.000000
2.498785 -0.835345 -0.590131 15.000000
2.494167 -0.864464 -0.590398 10.000000
2.461792 -0.883628 -0.584205 8.000000
2.497723 -0.927857 -0.594355 17.000000
2.483003 -0.953517 -0.592435 10.000000
2.499661 -0.991760 -0.598200 16.000000
2.479866 -1.015469 -0.595024 13.000000
2.468640 -1.042862 -0.594186 11.000000
2.484018 -1.081867 -0.599833 16.000000
2.489894 -1.117301 -0.603303 10.000000
2.446586 -1.130515 -0.594822 8.000000
2.496114 -1.186479 -0.608785 19.000000
2.474299 -1.209739 -0.605601 10.000000
2.491503 -1.252460 -0.612072 13.000000
2.473485 -1.277664 -0.609956 10.000000
2.459482 -1.304887 -0.608826 10.000000
2.483473 -1.353497 -0.617555 16.000000
2.464367 -1.378500 -0.615342 9.000000
2.466236 -1.415392 -0.618357 8.000000
2.480260 -1.459828 -0.624536 14.000000
2.481088 -1.497249 -0.627511 10.000000
2.472660 -1.530171 -0.628538 10.000000
2.464210 -1.562643 -0.629284 10.000000
2.451274 -1.592361 -0.628969 10.000000
2.454380 -1.632818 -0.632756 12.000000
2.428082 -1.654822 -0.629465 9.000000
2.454219 -1.712192 -0.639399 8.000000
2.450991 -1.751111 -0.642356 10.000000
2.428056 -1.775107 -0.639718 9.000000
2.444070 -1.828030 -0.647461 11.000000
2.439230 -1.867345 -0.650174 12.000000
2.419107 -1.893985 -0.648449 12.000000
2.447568 -1.960872 -0.660307 31.000000
2.449154 -2.006178 -0.664711 35.000000
2.408088 -2.018005 -0.658007 21.000000
2.397590 -2.053713 -0.659212 68.000000
2.363613 -2.071002 -0.654480 41.000000
2.345023 -2.099934 -0.653636 86.000000
2.318159 -2.122922 -0.650856 78.000000
2.287402 -2.142187 -0.647168 70.000000
2.239686 -2.143291 -0.638061 35.000000
1.562142 -1.597072 -0.455610 21.000000
1.530921 -1.600374 -0.450303 27.000000
1.503837 -1.606194 -0.445807 32.000000
1.472786 -1.608521 -0.440478 36.000000
1.452539 -1.620760 -0.437997 33.000000
1.428123 -1.629578 -0.434676 34.000000
1.406926 -1.641839 -0.432279 32.000000
1.404571 -1.676379 -0.435819 14.000000
1.383767 -1.687627 -0.433212 31.000000
1.368230 -1.706935 -0.432757 25.000000
1.346353 -1.718386 -0.430292 26.000000
1.322389 -1.724993 -0.426736 27.000000
1.309211 -1.747584 -0.427169 24.000000
1.295724 -1.770171 -0.427588 29.000000
1.265811 -1.767985 -0.422072 21.000000
1.263224 -1.806249 -0.426281 12.000000
1.232211 -1.804214 -0.420922 31.000000
1.225937 -1.838425 -0.424072 24.000000
1.206848 -1.851402 -0.422287 24.000000
1.183818 -1.860785 -0.419773 24.000000
1.173697 -1.890703 -0.421853 24.000000
1.147732 -1.895499 -0.418339 28.000000
1.130621 -1.911841 -0.417474 21.000000
1.129224 -1.958594 -0.423108 9.000000
0.746183 1.308027 -0.270439 7.000000
0.693371 1.184865 -0.247556 10.000000
0.720719 1.202735 -0.253924 12.000000
0.759647 1.236474 -0.263869 18.000000
0.783680 1.244480 -0.268450 24.000000
0.831940 1.289304 -0.281169 24.000000
0.846031 1.279878 -0.282169 33.000000
0.853758 1.262639 -0.281496 43.000000
0.873168 1.261025 -0.284359 26.000000
0.867074 1.223099 -0.278957 24.000000
0.874657 1.205324 -0.278052 26.000000
0.890068 1.199839 -0.280037 29.000000
0.909138 1.197600 -0.282860 35.000000
0.925272 1.191208 -0.284721 25.000000
0.925469 1.165840 -0.282028 41.000000
0.947472 1.166784 -0.285754 33.000000
0.960265 1.156091 -0.286688 29.000000
0.953842 1.122803 -0.281937 29.000000
0.968779 1.116166 -0.283841 25.000000
0.987515 1.112578 -0.286605 40.000000
0.996421 1.097754 -0.286535 33.000000
1.007942 1.086971 -0.287457 30.000000
1.023208 1.079105 -0.289241 65.000000
1.106779 1.141534 -0.310177 33.000000
1.900260 1.795752 -0.516197 33.000000
1.948759 1.800912 -0.525266 60.000000
1.967828 1.779614 -0.526834 37.000000
1.990983 1.760574 -0.529131 50.000000
2.014045 1.741285 -0.531351 68.000000
2.028778 1.716080 -0.531861 31.000000
2.047635 1.693171 -0.533101 30.000000
2.080909 1.683006 -0.538452 33.000000
2.091714 1.653433 -0.537642 31.000000
2.120944 1.639431 -0.541942 47.000000
2.131151 1.609570 -0.541125 35.000000
2.152225 1.589112 -0.543451 36.000000
2.181558 1.573382 -0.547526 55.000000
2.194391 1.546518 -0.547866 25.000000
2.231543 1.535652 -0.553878 37.000000
2.252062 1.513829 -0.556147 42.000000
2.264114 1.486289 -0.556325 35.000000
2.288647 1.466089 -0.559353 52.000000
2.308550 1.443448 -0.561548 35.000000
2.332351 1.423097 -0.564675 37.000000
2.368971 1.409304 -0.570680 54.000000
2.371387 1.375818 -0.568750 28.000000
2.403214 1.359225 -0.573931 35.000000
2.409184 1.327907 -0.572925 32.000000
2.410738 1.293950 -0.570720 24.000000
1.373846 0.642743 -0.319101 95.000000
1.394115 0.633632 -0.322667 30.000000
1.387517 0.612280 -0.320000 32.000000
1.398589 0.598833 -0.321507 60.000000
1.404900 0.583505 -0.321981 60.000000
1.402136 0.564240 -0.320335 34.000000
1.380828 0.538073 -0.314485 71.000000
1.386562 0.522908 -0.314947 43.000000
1.396797 0.509187 -0.316357 55.000000
1.388340 0.488960 -0.313649 32.000000
1.393622 0.473528 -0.313970 55.000000
1.403275 0.459709 -0.315382 88.000000
1.398880 0.441284 -0.313660 81.000000
1.408228 0.427277 -0.315027 91.000000
1.417468 0.413121 -0.316396 84.000000
1.421892 0.397453 -0.316672 86.000000
1.430854 0.383004 -0.317998 95.000000
1.401772 0.358709 -0.310923 25.000000
1.410315 0.344467 -0.312245 36.000000
1.413986 0.328832 -0.312472 75.000000
1.407930 0.311178 -0.310638 36.000000
1.411216 0.295648 -0.310863 72.000000
1.423910 0.282018 -0.313242 95.000000
2.522268 0.413462 -0.552559 19.000000
2.526578 0.385690 -0.552878 23.000000
2.516131 0.355707 -0.549945 21.000000
2.539244 0.330538 -0.554415 26.000000
2.532978 0.301319 -0.552538 27.000000
2.536084 0.273441 -0.552697 21.000000
2.548599 0.246425 -0.555055 29.000000
2.507340 0.214531 -0.545600 9.000000
2.553396 0.190215 -0.555375 24.000000
2.545562 0.161373 -0.553335 22.000000
2.542276 0.133080 -0.552434 25.000000
2.563076 0.105904 -0.556755 44.000000
2.534734 0.076738 -0.550392 71.000000
2.540332 0.048877 -0.551453 86.000000
2.545615 0.020908 -0.552593 84.000000
2.570125 -0.007224 -0.557816 56.000000
2.540570 -0.035071 -0.551373 20.000000
2.535209 -0.062959 -0.550234 9.000000
2.548987 -0.091439 -0.553414 9.000000
2.528348 -0.118640 -0.549015 9.000000
2.556195 -0.148159 -0.555215 10.000000
2.559311 -0.176640 -0.556114 27.000000
2.571841 -0.206008 -0.559050 91.000000
2.569504 -0.234368 -0.558889 82.000000
2.576488 -0.263641 -0.560764 95.000000
2.573495 -0.292027 -0.560521 85.000000
2.570180 -0.320332 -0.560278 95.000000
2.556855 -0.347322 -0.557842 48.000000
2.538483 -0.373386 -0.554432 10.000000
2.524583 -0.399815 -0.552001 8.000000
2.520114 -0.427587 -0.551602 8.000000
2.529754 -0.457890 -0.554364 8.000000
2.515098 -0.483894 -0.551857 10.000000
2.572005 -0.524168 -0.565056 53.000000
2.542212 -0.547375 -0.559308 63.000000
2.560042 -0.580707 -0.564073 42.000000
2.544058 -0.606708 -0.561564 24.000000
2.542107 -0.635813 -0.562041 15.000000
2.525532 -0.661307 -0.559455 17.000000
2.541778 -0.695627 -0.564118 13.000000
2.571741 -0.734330 -0.571906 22.000000
2.549585 -0.758442 -0.568188 16.000000
2.545872 -0.787862 -0.568568 16.000000
2.560501 -0.823372 -0.573029 22.000000
2.537520 -0.846758 -0.569235 15.000000
2.532794 -0.876486 -0.569607 10.000000
2.527782 -0.905813 -0.569892 16.000000
2.545246 -0.943998 -0.575443 19.000000
2.548702 -0.977028 -0.577617 21.000000
2.533340 -1.003409 -0.575902 16.000000
2.531348 -1.035075 -0.577117 18.000000
2.538122 -1.070229 -0.580302 20.000000
2.521865 -1.096284 -0.578413 13.000000
2.545500 -1.140069 -0.585777 13.000000
2.537420 -1.170125 -0.585847 21.000000
2.524525 -1.198093 -0.584888 16.000000
2.537758 -1.238768 -0.590066 23.000000
2.511075 -1.260092 -0.586034 13.000000
2.545182 -1.312358 -0.596194 14.000000
2.539463 -1.344970 -0.597157 21.000000
2.528716 -1.375613 -0.597187 15.000000
2.513732 -1.403426 -0.596111 10.000000
2.511137 -1.438362 -0.597980 11.000000
2.499668 -1.468347 -0.597727 10.000000
2.508395 -1.511425 -0.602781 17.000000
2.508640 -1.549276 -0.605527 10.000000
2.512433 -1.589837 -0.609167 11.000000
2.507072 -1.625897 -0.611061 14.000000
2.497549 -1.658776 -0.611664 10.000000
2.503930 -1.702574 -0.616246 9.000000
2.500965 -1.741877 -0.619001 16.000000
2.525973 -1.800403 -0.628402 18.000000
2.525774 -1.843148 -0.632003 26.000000
2.521527 -1.882427 -0.634398 27.000000
2.527828 -1.931472 -0.639830 35.000000
2.499306 -1.952965 -0.636180 68.000000
2.469928 -1.974781 -0.632835 57.000000
2.456262 -2.007856 -0.633021 36.000000
2.403855 -2.010135 -0.623633 37.000000
2.385937 -2.039453 -0.622852 41.000000
2.355896 -2.059657 -0.619348 69.000000
2.325705 -2.079499 -0.615853 36.000000
2.288994 -2.091398 -0.610148 40.000000
2.272923 -2.123749 -0.610434 95.000000
2.235992 -2.134767 -0.604660 42.000000
2.215856 -2.163093 -0.603983 81.000000
2.181460 -2.177436 -0.599387 31.000000
1.535956 -1.601477 -0.428785 31.000000
1.491359 -1.590002 -0.419908 35.000000
1.471169 -1.602373 -0.417543 33.000000
1.450178 -1.615145 -0.415319 35.000000
1.425891 -1.623883 -0.412164 31.000000
1.431115 -1.665269 -0.417221 30.000000
1.406446 -1.673639 -0.413996 26.000000
1.391096 -1.693120 -0.413565 26.000000
1.363217 -1.697144 -0.409432 28.000000
1.354551 -1.723268 -0.410639 26.000000
1.329507 -1.730581 -0.407375 27.000000
1.307518 -1.741419 -0.405038 29.000000
1.292245 -1.759307 -0.404394 25.000000
1.281537 -1.785654 -0.405626 23.000000
1.259003 -1.795882 -0.403221 21.000000
1.241977 -1.813959 -0.402693 21.000000
1.223152 -1.827123 -0.400988 28.000000
1.203031 -1.840765 -0.399487 22.000000
1.188066 -1.862429 -0.399767 23.000000
1.170181 -1.879898 -0.399078 26.000000
1.149445 -1.892944 -0.397499 20.000000
1.132386 -1.909331 -0.396662 19.000000
1.121323 -1.938971 -0.398583 6.000000
0.744182 1.300544 -0.255313 7.000000
0.685989 1.168842 -0.231838 10.000000
0.718296 1.195331 -0.239619 18.000000
0.752055 1.220729 -0.247325 19.000000
0.789093 1.249695 -0.255936 16.000000
0.837520 1.294535 -0.268029 33.000000
0.840773 1.268656 -0.265547 34.000000
0.851117 1.255574 -0.265768 39.000000
0.864793 1.245986 -0.266708 39.000000
0.858458 1.208115 -0.261565 24.000000
0.877431 1.206387 -0.264228 32.000000
0.892898 1.200952 -0.266121 33.000000
0.900019 1.183051 -0.265245 35.000000
0.912968 1.172914 -0.266167 42.000000
0.931909 1.170290 -0.268811 35.000000
0.941558 1.155992 -0.268759 34.000000
0.953625 1.145867 -0.269730 37.000000
0.956589 1.123901 -0.267929 24.000000
0.968857 1.113098 -0.268753 52.000000
0.983798 1.106291 -0.270567 47.000000
0.999186 1.098861 -0.272250 76.000000
1.007865 1.084015 -0.272175 78.000000
1.036653 1.090489 -0.277490 59.000000
1.147422 1.181517 -0.304759 55.000000
1.909448 1.800343 -0.491255 73.000000
1.943617 1.792157 -0.496248 49.000000
1.973524 1.780852 -0.500418 82.000000
1.993088 1.758646 -0.501657 73.000000
1.989352 1.717590 -0.497562 72.000000
2.019470 1.704728 -0.501502 47.000000
2.038187 1.681989 -0.502651 31.000000
2.048358 1.653490 -0.502173 46.000000
2.078081 1.639552 -0.506053 40.000000
2.095517 1.616852 -0.507369 68.000000
2.125044 1.602116 -0.511268 47.000000
2.142081 1.578793 -0.512508 57.000000
2.167334 1.560464 -0.515478 38.000000
2.188033 1.539465 -0.517673 43.000000
2.217052 1.523188 -0.521527 31.000000
2.225123 1.493385 -0.520790 52.000000
2.245641 1.471081 -0.522661 59.000000
2.277869 1.456952 -0.527660 44.000000
2.285517 1.426197 -0.526667 67.000000
2.330099 1.418845 -0.534485 66.000000
2.362158 1.403247 -0.539355 47.000000
2.394435 1.386592 -0.544155 65.000000
2.405052 1.357760 -0.544221 33.000000
2.415272 1.328936 -0.544197 42.000000
2.425442 1.299521 -0.544085 66.000000
2.422001 1.263738 -0.541141 66.000000
2.361182 1.199295 -0.525531 56.000000
1.417747 0.624709 -0.309944 77.000000
1.415434 0.605184 -0.308413 79.000000
1.417421 0.587687 -0.307813 81.000000
1.419177 0.570194 -0.307258 77.000000
1.420703 0.552706 -0.306653 74.000000
1.426635 0.536999 -0.307033 58.000000
1.427724 0.519662 -0.306471 47.000000
1.433305 0.503864 -0.306802 35.000000
1.424728 0.483435 -0.304208 93.000000
1.425270 0.466125 -0.303497 75.000000
1.439567 0.453428 -0.305857 83.000000
1.435029 0.434748 -0.304198 81.000000
1.444356 0.420289 -0.305520 91.000000
1.439368 0.401774 -0.303809 95.000000
1.443649 0.385904 -0.304088 66.000000
1.443044 0.368774 -0.303369 59.000000
1.432662 0.349382 -0.300605 46.000000
1.431564 0.332520 -0.299881 54.000000
1.435135 0.316727 -0.300064 56.000000
1.452861 0.303943 -0.303296 100.000000
2.566765 0.420191 -0.532977 10.000000
2.561456 0.390438 -0.531212 23.000000
2.565573 0.362186 -0.531454 25.000000
2.579080 0.335197 -0.533706 29.000000
2.577701 0.306261 -0.532863 28.000000
2.566246 0.276302 -0.530088 22.000000
2.583766 0.249489 -0.533267 21.000000
2.586273 0.221022 -0.533429 22.000000
2.564117 0.190739 -0.528557 11.000000
2.585591 0.163779 -0.532745 31.000000
2.596987 0.135797 -0.534760 42.000000
2.588497 0.106791 -0.532826 39.000000
2.609127 0.078889 -0.536936 77.000000
2.575583 0.049521 -0.529885 62.000000
2.595492 0.021350 -0.533914 37.000000
2.585779 -0.007170 -0.531899 10.000000
2.590515 -0.035759 -0.532826 9.000000
2.604637 -0.064617 -0.535767 9.000000
2.569565 -0.092045 -0.528637 9.000000
2.602608 -0.121927 -0.535604 22.000000
2.601147 -0.150502 -0.535523 49.000000
2.618905 -0.180504 -0.539386 80.000000
2.607096 -0.208512 -0.537129 24.000000
2.599774 -0.236750 -0.535960 88.000000
2.601962 -0.265794 -0.536640 62.000000
2.603733 -0.294946 -0.537482 74.000000
2.605246 -0.324204 -0.538159 84.000000
2.606502 -0.353488 -0.538917 71.000000
2.641257 -0.387860 -0.546696 75.000000
2.598144 -0.410764 -0.538344 18.000000
2.535599 -0.429543 -0.525913 7.000000
2.574259 -0.465180 -0.534521 9.000000
2.554611 -0.490682 -0.531113 9.000000
2.568304 -0.522706 -0.534706 21.000000
2.605615 -0.560137 -0.543286 68.000000
2.599390 -0.588857 -0.542871 62.000000
2.607214 -0.620733 -0.545281 54.000000
2.581272 -0.644614 -0.540879 24.000000
2.574146 -0.673033 -0.540382 9.000000
2.576143 -0.703870 -0.541790 18.000000
2.582464 -0.736174 -0.544187 16.000000
2.597841 -0.771496 -0.548562 20.000000
2.580038 -0.797124 -0.545905 19.000000
2.580627 -0.828369 -0.547211 16.000000
2.580729 -0.859904 -0.548598 18.000000
2.594495 -0.896106 -0.552771 16.000000
2.519968 -0.901613 -0.538369 9.000000
2.569902 -0.951228 -0.550334 18.000000
2.554832 -0.977794 -0.548668 16.000000
2.575933 -1.018510 -0.554775 22.000000
2.560186 -1.045021 -0.553019 19.000000
2.566730 -1.080774 -0.556161 18.000000
2.590840 -1.124560 -0.563115 19.000000
2.573971 -1.151123 -0.561348 14.000000
2.539064 -1.169119 -0.555510 10.000000
2.566167 -1.215850 -0.563398 23.000000
2.548418 -1.241885 -0.561454 20.000000
2.578691 -1.291813 -0.570181 21.000000
2.568876 -1.322320 -0.570162 22.000000
2.567507 -1.357419 -0.571982 18.000000
2.578200 -1.400011 -0.576867 20.000000
2.554390 -1.423521 -0.573846 15.000000
2.538839 -1.451440 -0.572664 9.000000
2.552279 -1.497103 -0.578378 20.000000
2.569638 -1.545214 -0.584839 17.000000
2.557035 -1.575945 -0.584583 17.000000
2.556077 -1.614913 -0.587275 16.000000
2.550957 -1.650830 -0.588813 15.000000
2.548904 -1.690112 -0.591477 19.000000
2.542743 -1.726142 -0.592893 16.000000
2.547731 -1.771328 -0.597418 17.000000
2.572549 -1.830415 -0.606345 32.000000
2.568117 -1.870629 -0.608734 38.000000
2.551816 -1.901503 -0.608192 88.000000
2.515035 -1.918066 -0.603062 84.000000
2.490526 -1.942363 -0.600556 77.000000
2.442063 -1.948682 -0.592659 79.000000
2.424908 -1.978281 -0.591939 55.000000
2.391624 -1.995858 -0.587700 33.000000
2.380682 -2.032129 -0.589023 93.000000
2.355207 -2.054656 -0.586351 73.000000
2.325066 -2.074314 -0.583056 61.000000
2.292016 -2.089533 -0.578468 79.000000
2.265312 -2.111696 -0.576013 84.000000
2.238298 -2.133586 -0.573563 93.000000
2.194512 -2.137000 -0.566286 52.000000
2.156904 -2.147553 -0.561044 27.000000
1.540784 -1.602443 -0.407128 28.000000
1.499539 -1.594466 -0.399669 34.000000
1.475292 -1.603928 -0.396656 56.000000
1.447711 -1.609314 -0.392761 33.000000
1.430725 -1.624823 -0.391351 47.000000
1.412799 -1.640735 -0.390076 36.000000
1.394672 -1.656378 -0.388867 25.000000
1.371022 -1.663619 -0.385629 32.000000
1.346533 -1.671191 -0.382604 31.000000
1.331218 -1.690028 -0.382148 34.000000
1.318621 -1.712566 -0.382625 32.000000
1.296837 -1.723302 -0.380416 33.000000
1.281779 -1.740968 -0.379744 33.000000
1.262621 -1.755169 -0.378404 29.000000
1.254590 -1.785357 -0.380433 24.000000
1.237775 -1.803344 -0.379869 29.000000
1.221822 -1.820442 -0.379163 25.000000
1.201791 -1.834022 -0.377737 31.000000
1.184279 -1.851551 -0.377156 28.000000
1.163931 -1.864685 -0.375659 26.000000
1.140815 -1.873473 -0.373391 28.000000
1.134064 -1.906609 -0.375938 23.000000
1.118137 -1.927704 -0.376023 8.000000
0.742005 1.292956 -0.240269 6.000000
0.692754 1.178653 -0.221351 10.000000
0.723434 1.200465 -0.227812 10.000000
0.762455 1.234256 -0.236731 19.000000
0.818187 1.292345 -0.250560 18.000000
0.853761 1.316282 -0.257996 25.000000
0.865394 1.302517 -0.258104 25.000000
0.876069 1.289247 -0.258351 25.000000
0.867566 1.246973 -0.252703 30.000000
0.855446 1.201092 -0.246186 14.000000
0.877254 1.203419 -0.249532 33.000000
0.887439 1.189606 -0.249532 35.000000
0.899748 1.180099 -0.250497 31.000000
0.915640 1.173881 -0.252158 47.000000
0.931525 1.167458 -0.253825 34.000000
0.944286 1.157009 -0.254658 37.000000
0.953151 1.143053 -0.254739 38.000000
0.949651 1.113614 -0.251292 15.000000
0.961797 1.102964 -0.252062 41.000000
0.977130 1.095856 -0.253684 52.000000
0.985317 1.081664 -0.253694 52.000000
1.003814 1.077816 -0.256178 89.000000
1.073328 1.127187 -0.271514 48.000000
1.866635 1.795363 -0.457168 55.000000
1.896331 1.785262 -0.461148 59.000000
1.944839 1.790628 -0.469351 65.000000
1.957106 1.762163 -0.468745 65.000000
1.968983 1.733698 -0.468132 85.000000
1.983635 1.709095 -0.468633 58.000000
2.009833 1.693195 -0.471536 60.000000
2.031638 1.674406 -0.473643 41.000000
2.050006 1.651548 -0.474786 35.000000
2.064182 1.625483 -0.474958 52.000000
2.077558 1.599992 -0.475289 57.000000
2.106836 1.585525 -0.478945 45.000000
2.127728 1.565376 -0.481068 63.000000
2.164824 1.555885 -0.486540 46.000000
2.177753 1.528827 -0.486550 55.000000
2.202209 1.510534 -0.489509 41.000000
2.222783 1.488579 -0.491323 42.000000
2.242836 1.466866 -0.493307 53.000000
2.258803 1.441752 -0.494222 59.000000
2.282533 1.422253 -0.497121 65.000000
2.310326 1.404793 -0.500854 82.000000
2.334141 1.383959 -0.503518 52.000000
2.353220 1.360814 -0.505443 46.000000
2.393764 1.348966 -0.511780 47.000000
2.416796 1.327427 -0.514552 60.000000
2.431005 1.300891 -0.515494 61.000000
2.414705 1.257777 -0.509823 62.000000
2.432528 1.233456 -0.511590 78.000000
2.410486 1.189301 -0.505050 95.000000
2.356805 1.130873 -0.492012 63.000000
2.275391 1.061360 -0.473370 34.000000
1.452441 0.601172 -0.298047 98.000000
1.440651 0.577890 -0.294707 84.000000
1.446871 0.561978 -0.295093 95.000000
1.448204 0.544434 -0.294592 62.000000
1.449452 0.526799 -0.293992 67.000000
1.455106 0.510796 -0.294327 26.000000
1.451217 0.491689 -0.292833 62.000000
1.451786 0.474169 -0.292227 95.000000
1.452179 0.456656 -0.291571 79.000000
1.461751 0.442137 -0.292796 95.000000
1.457019 0.423357 -0.291243 71.000000
1.456768 0.406008 -0.290583 77.000000
1.461092 0.390029 -0.290865 87.000000
1.460470 0.372742 -0.290202 29.000000
1.440601 0.350819 -0.285706 43.000000
1.449116 0.336076 -0.286837 58.000000
1.486237 0.327568 -0.293747 105.000000
2.311678 0.430205 -0.454763 34.000000
2.470946 0.431811 -0.485456 19.000000
2.611110 0.426851 -0.512386 18.000000
2.596223 0.395193 -0.508828 20.000000
2.605246 0.367306 -0.510024 22.000000
2.623694 0.340576 -0.513126 27.000000
2.617400 0.310551 -0.511468 25.000000
2.606036 0.280216 -0.508773 21.000000
2.618659 0.252477 -0.510842 25.000000
2.611496 0.222853 -0.509099 18.000000
2.638251 0.195990 -0.513948 28.000000
2.640225 0.166957 -0.514030 40.000000
2.632067 0.137413 -0.512205 36.000000
2.633378 0.108488 -0.512287 46.000000
2.644255 0.079860 -0.514277 85.000000
2.630273 0.050544 -0.511415 62.000000
2.635508 0.021632 -0.512369 70.000000
2.655222 -0.007347 -0.516185 33.000000
2.615796 -0.036029 -0.508471 11.000000
2.620133 -0.064860 -0.509344 12.000000
2.663381 -0.095201 -0.517845 35.000000
2.672027 -0.124907 -0.519669 63.000000
2.670530 -0.154263 -0.519503 65.000000
2.678494 -0.184292 -0.521242 35.000000
2.671431 -0.213365 -0.520206 32.000000
2.644573 -0.240468 -0.515195 63.000000
2.680831 -0.273511 -0.522646 82.000000
2.677732 -0.302915 -0.522394 89.000000
2.664555 -0.331108 -0.520241 59.000000
2.680256 -0.363040 -0.523793 93.000000
2.676137 -0.392466 -0.523457 81.000000
2.676614 -0.422574 -0.524070 42.000000
2.623493 -0.443700 -0.514162 19.000000
2.604037 -0.469865 -0.510987 11.000000
2.627702 -0.504035 -0.516343 32.000000
2.641376 -0.536719 -0.519714 57.000000
2.640144 -0.566818 -0.520241 55.000000
2.638639 -0.596771 -0.520682 66.000000
2.636858 -0.626913 -0.521206 63.000000
2.644160 -0.659367 -0.523615 36.000000
2.622623 -0.684694 -0.520280 19.000000
2.633992 -0.718585 -0.523456 20.000000
2.621294 -0.746086 -0.521922 15.000000
2.636621 -0.781775 -0.526025 23.000000
2.623383 -0.809124 -0.524489 16.000000
2.637812 -0.845535 -0.528578 21.000000
2.633092 -0.876088 -0.528912 23.000000
2.637452 -0.909601 -0.531027 12.000000
2.618147 -0.935330 -0.528552 11.000000
2.603262 -0.962386 -0.526929 16.000000
2.620278 -1.001184 -0.531653 18.000000
2.618439 -1.033544 -0.532816 22.000000
2.629822 -1.071579 -0.536671 19.000000
2.622534 -1.102323 -0.536805 20.000000
2.623955 -1.136896 -0.538787 20.000000
2.602548 -1.161664 -0.536050 12.000000
2.629811 -1.208989 -0.543649 13.000000
2.612067 -1.235737 -0.541829 21.000000
2.620615 -1.275019 -0.545532 20.000000
2.611077 -1.305901 -0.545455 24.000000
2.605590 -1.338945 -0.546291 16.000000
2.625450 -1.386225 -0.552794 20.000000
2.610335 -1.414888 -0.551688 21.000000
2.612129 -1.453018 -0.554321 10.000000
2.587447 -1.477088 -0.551573 10.000000
2.596816 -1.520288 -0.555820 16.000000
2.596776 -1.559269 -0.558513 15.000000
2.592422 -1.595293 -0.560005 18.000000
2.591682 -1.634025 -0.562388 16.000000
2.594275 -1.676174 -0.565752 20.000000
2.596579 -1.717916 -0.569001 22.000000
2.618172 -1.774392 -0.576812 26.000000
2.586914 -1.794433 -0.572754 35.000000
2.603091 -1.848782 -0.579521 63.000000
2.566576 -1.866225 -0.574768 88.000000
2.530706 -1.882331 -0.569736 86.000000
2.509775 -1.910500 -0.568465 78.000000
2.477585 -1.928525 -0.564247 82.000000
2.456167 -1.956075 -0.562884 84.000000
2.415380 -1.967887 -0.557217 50.000000
2.386662 -1.987665 -0.553820 35.000000
2.375952 -2.023816 -0.555098 83.000000
2.346855 -2.042891 -0.551708 57.000000
2.327871 -2.072298 -0.551132 95.000000
2.294055 -2.088240 -0.547078 78.000000
2.260074 -2.103649 -0.543038 92.000000
2.237687 -2.127950 -0.541316 76.000000
2.210620 -2.149296 -0.538924 31.000000
2.179849 -2.166899 -0.535679 13.000000
1.561942 -1.621633 -0.389875 21.000000
1.503477 -1.595891 -0.378551 34.000000
1.475874 -1.601724 -0.374853 35.000000
1.452344 -1.610120 -0.371814 46.000000
1.431359 -1.622537 -0.369830 59.000000
1.400594 -1.623418 -0.365266 32.000000
1.392275 -1.650253 -0.366582 26.000000
1.378105 -1.668824 -0.366079 30.000000
1.347361 -1.668752 -0.361482 31.000000
1.325920 -1.679750 -0.359459 31.000000
1.310456 -1.698356 -0.359026 30.000000
1.298744 -1.720034 -0.359277 31.000000
1.273949 -1.726499 -0.356371 30.000000
1.263621 -1.752575 -0.357559 25.000000
1.264260 -1.794775 -0.361916 24.000000
1.238975 -1.800634 -0.358937 27.000000
1.223073 -1.817774 -0.358257 28.000000
1.192249 -1.814758 -0.353687 23.000000
1.180301 -1.840448 -0.354746 24.000000
1.157471 -1.849378 -0.352596 25.000000
1.142316 -1.870618 -0.352769 26.000000
1.131895 -1.900186 -0.354512 20.000000
1.119792 -1.924815 -0.355303 9.000000
0.738922 1.285721 -0.225494 6.000000
0.736216 1.218164 -0.218145 10.000000
0.796330 1.285521 -0.232666 10.000000
0.820930 1.293243 -0.236606 12.000000
0.867350 1.333773 -0.246698 13.000000
0.886580 1.332762 -0.249219 21.000000
0.892722 1.310528 -0.247842 20.000000
0.909850 1.304587 -0.249499 13.000000
0.883874 1.238138 -0.239497 10.000000
0.888622 1.216258 -0.237955 10.000000
0.892968 1.194434 -0.236444 19.000000
0.893372 1.169201 -0.234177 22.000000
0.915226 1.170867 -0.237361 23.000000
0.931078 1.164481 -0.238933 32.000000
0.940625 1.150245 -0.238922 26.000000
0.962664 1.151086 -0.242046 26.000000
0.949028 1.110768 -0.236534 28.000000
0.961133 1.100109 -0.237257 22.000000
0.976389 1.093039 -0.238784 34.000000
0.985026 1.078474 -0.238702 32.000000
1.013147 1.085898 -0.243515 34.000000
1.885359 1.810634 -0.435008 35.000000
1.897983 1.782773 -0.434495 30.000000
1.921112 1.764840 -0.436448 56.000000
1.954344 1.757202 -0.441049 32.000000
1.969916 1.732068 -0.441358 37.000000
1.988830 1.709988 -0.442413 52.000000
2.006933 1.688395 -0.443631 24.000000
2.013939 1.656596 -0.442179 29.000000
2.043625 1.643261 -0.445742 33.000000
2.053329 1.614925 -0.445198 27.000000
2.086589 1.603972 -0.449536 36.000000
2.104108 1.580668 -0.450514 31.000000
2.120893 1.557690 -0.451654 30.000000
2.145930 1.539724 -0.454246 36.000000
2.174472 1.524738 -0.457857 21.000000
2.187021 1.497692 -0.457911 32.000000
2.207452 1.475966 -0.459667 34.000000
2.247992 1.468030 -0.465865 30.000000
2.247342 1.432326 -0.463271 40.000000
2.270979 1.412930 -0.465978 31.000000
2.324286 1.410575 -0.474543 33.000000
2.318173 1.372591 -0.471163 47.000000
2.350174 1.356565 -0.475365 21.000000
2.390470 1.345330 -0.481477 34.000000
2.405088 1.318727 -0.482241 37.000000
2.419197 1.292295 -0.483176 31.000000
2.441701 1.270323 -0.485764 37.000000
2.455519 1.243113 -0.486447 35.000000
2.442327 1.203190 -0.482069 32.000000
2.459677 1.178484 -0.483702 71.000000
2.449959 1.141041 -0.480090 29.000000
2.390595 1.081355 -0.466668 36.000000
1.486615 0.576700 -0.285705 75.000000
1.469758 0.551737 -0.281637 34.000000
1.475696 0.535528 -0.281977 36.000000
1.481391 0.519319 -0.282318 31.000000
1.472908 0.498379 -0.280049 37.000000
1.496973 0.488281 -0.283887 59.000000
1.502197 0.471777 -0.284131 55.000000
1.497806 0.452476 -0.282695 48.000000
1.483709 0.430495 -0.279378 73.000000
1.507268 0.419481 -0.283228 54.000000
1.483162 0.395380 -0.278170 78.000000
1.477864 0.376668 -0.276624 22.000000
1.472277 0.358071 -0.275074 31.000000
1.519216 0.351894 -0.283354 98.000000
2.514783 0.467426 -0.466077 27.000000
2.456709 0.428818 -0.454734 8.000000
2.645665 0.431935 -0.489066 14.000000
2.645376 0.402173 -0.488501 13.000000
2.644656 0.372434 -0.487852 12.000000
2.663183 0.345249 -0.490714 20.000000
2.656997 0.314849 -0.489082 14.000000
2.630976 0.282562 -0.483934 17.000000
2.668118 0.256966 -0.490314 25.000000
2.621774 0.223515 -0.481480 9.000000
2.668203 0.197974 -0.489746 33.000000
2.665287 0.168362 -0.488929 33.000000
2.662033 0.138858 -0.488111 34.000000
2.687925 0.110675 -0.492614 59.000000
2.669347 0.080535 -0.489094 33.000000
2.665175 0.051193 -0.488194 35.000000
2.685178 0.022078 -0.491880 69.000000
2.695097 -0.007442 -0.493598 32.000000
2.665423 -0.036637 -0.488111 16.000000
2.650094 -0.065467 -0.485327 10.000000
2.688509 -0.095985 -0.492530 32.000000
2.711905 -0.126595 -0.496948 60.000000
2.705479 -0.156045 -0.495880 37.000000
2.703629 -0.185808 -0.495712 31.000000
2.711249 -0.216184 -0.497342 62.000000
2.689209 -0.244192 -0.493577 34.000000
2.701040 -0.275175 -0.496106 45.000000
2.702811 -0.305291 -0.496752 40.000000
2.694470 -0.334387 -0.495601 34.000000
2.705303 -0.365929 -0.498040 70.000000
2.696287 -0.394857 -0.496805 35.000000
2.677314 -0.422061 -0.493778 30.000000
2.638569 -0.445669 -0.487256 10.000000
2.614224 -0.471066 -0.483344 8.000000
2.686338 -0.514548 -0.497241 25.000000
2.680569 -0.543902 -0.496816 35.000000
2.688976 -0.576435 -0.499156 34.000000
2.677780 -0.604863 -0.497837 50.000000
2.685414 -0.637562 -0.500086 30.000000
2.687857 -0.669387 -0.501353 30.000000
2.675709 -0.697526 -0.499948 31.000000
2.658496 -0.724182 -0.497656 22.000000
2.664748 -0.757270 -0.499807 19.000000
2.670484 -0.790756 -0.501952 10.000000
2.680659 -0.825655 -0.504890 13.000000
2.666840 -0.853639 -0.503397 14.000000
2.662047 -0.884450 -0.503760 10.000000
2.661699 -0.916617 -0.504742 10.000000
2.665482 -0.950729 -0.506775 10.000000
2.641188 -0.974833 -0.503520 10.000000
2.648848 -1.010830 -0.506338 12.000000
2.651423 -1.045250 -0.508268 10.000000
2.644498 -1.076083 -0.508438 10.000000
2.669040 -1.120265 -0.514644 15.000000
2.647712 -1.145515 -0.512088 10.000000
2.653182 -1.182503 -0.514774 10.000000
2.662411 -1.222121 -0.518410 11.000000
2.644522 -1.249071 -0.516723 10.000000
2.661930 -1.293045 -0.521895 15.000000
2.638996 -1.317624 -0.519153 10.000000
2.676947 -1.373855 -0.528807 13.000000
2.675007 -1.409925 -0.530373 17.000000
2.663974 -1.441406 -0.530205 10.000000
2.639409 -1.466089 -0.527545 10.000000
2.631974 -1.499776 -0.528234 10.000000
2.615364 -1.528867 -0.527296 10.000000
2.641010 -1.582718 -0.534725 16.000000
2.640253 -1.622216 -0.537188 10.000000
2.655949 -1.671911 -0.542756 13.000000
2.645664 -1.706704 -0.543388 24.000000
2.643682 -1.746331 -0.545514 29.000000
2.624354 -1.775569 -0.544435 34.000000
2.616785 -1.813129 -0.545891 35.000000
2.565006 -1.818615 -0.537767 33.000000
2.548843 -1.850034 -0.537440 62.000000
2.509164 -1.862839 -0.531880 32.000000
2.492387 -1.893683 -0.531460 33.000000
2.467566 -1.918272 -0.529365 38.000000
2.423707 -1.926566 -0.523014 31.000000
2.421561 -1.968949 -0.525826 32.000000
2.392150 -1.989495 -0.522913 35.000000
2.374629 -2.018396 -0.522198 35.000000
2.348534 -2.041487 -0.520121 52.000000
2.318631 -2.061027 -0.517032 33.000000
2.278301 -2.069304 -0.511399 29.000000
2.284365 -2.121389 -0.516605 28.000000
2.253777 -2.139862 -0.513528 20.000000
2.269067 -2.202655 -0.521028 21.000000
1.562421 -1.619337 -0.367244 10.000000
1.490411 -1.579236 -0.353284 17.000000
1.470345 -1.591455 -0.351275 28.000000
1.452794 -1.607733 -0.350203 33.000000
1.425303 -1.612647 -0.346679 26.000000
1.410835 -1.632149 -0.346407 24.000000
1.390508 -1.643316 -0.344351 24.000000
1.359822 -1.643401 -0.340005 22.000000
1.344866 -1.662269 -0.339669 25.000000
1.326631 -1.677135 -0.338546 24.000000
1.323303 -1.711272 -0.341252 25.000000
1.296517 -1.713357 -0.337587 29.000000
1.271858 -1.719751 -0.334846 19.000000
1.267497 -1.753778 -0.337442 18.000000
1.256799 -1.779854 -0.338542 18.000000
1.237284 -1.793716 -0.337264 21.000000
1.220396 -1.811474 -0.336747 25.000000
1.193424 -1.811907 -0.333122 19.000000
1.184222 -1.841665 -0.334805 24.000000
1.153567 -1.837964 -0.330509 21.000000
1.146314 -1.871770 -0.332986 17.000000
1.128321 -1.888683 -0.332378 16.000000
1.105122 -1.896905 -0.330276 7.000000
0.810741 1.406572 -0.231976 6.000000
0.727836 1.231302 -0.205188 9.000000
0.754066 1.244305 -0.209545 10.000000
0.788501 1.269454 -0.216076 16.000000
0.849316 1.336279 -0.229883 11.000000
0.888163 1.364123 -0.237252 20.000000
0.905768 1.358249 -0.238829 20.000000
0.912203 1.335872 -0.237556 21.000000
0.912553 1.305423 -0.234759 21.000000
0.906605 1.267094 -0.230473 9.000000
0.914556 1.248972 -0.229773 16.000000
0.897821 1.199637 -0.223311 14.000000
0.913911 1.193530 -0.224790 17.000000
0.920801 1.175540 -0.224048 29.000000
0.927383 1.157593 -0.223297 21.000000
0.943151 1.151026 -0.224776 30.000000
0.958865 1.144297 -0.226260 29.000000
0.967539 1.130312 -0.226292 16.000000
0.963572 1.100922 -0.223256 56.000000
0.965698 1.079123 -0.221664 30.000000
0.984129 1.075641 -0.223852 33.000000
1.036340 1.107919 -0.233613 42.000000
1.164018 1.218288 -0.260370 51.000000
1.294670 1.325455 -0.287132 46.000000
1.874008 1.835684 -0.408848 26.000000
1.857637 1.781318 -0.402341 32.000000
1.895128 1.777465 -0.407326 56.000000
1.914551 1.756276 -0.408369 33.000000
1.937330 1.738225 -0.410191 56.000000
1.952033 1.713979 -0.410616 42.000000
1.970734 1.692147 -0.411580 37.000000
2.000540 1.679682 -0.414976 50.000000
2.015046 1.654189 -0.415159 14.000000
2.040309 1.638539 -0.417863 33.000000
2.062065 1.618782 -0.419543 60.000000
2.083645 1.598776 -0.421307 34.000000
2.104559 1.579091 -0.423157 40.000000
2.133744 1.564424 -0.426438 43.000000
2.154850 1.543498 -0.428135 32.000000
2.183368 1.528473 -0.431516 36.000000
2.208243 1.509737 -0.434023 18.000000
2.207872 1.474706 -0.431805 46.000000
2.240497 1.460859 -0.435843 57.000000
2.252213 1.433234 -0.435782 34.000000
2.280059 1.416528 -0.439194 71.000000
2.299718 1.393685 -0.440750 38.000000
2.323097 1.373593 -0.443286 35.000000
2.346586 1.352646 -0.445660 40.000000
2.365295 1.329430 -0.447311 22.000000
2.401449 1.315009 -0.452055 40.000000
2.424126 1.293400 -0.454534 74.000000
2.442612 1.268731 -0.456032 36.000000
2.473757 1.250899 -0.460158 56.000000
2.491560 1.225978 -0.461750 68.000000
2.504790 1.198316 -0.462351 34.000000
2.535563 1.179231 -0.466415 49.000000
2.548109 1.151373 -0.467194 24.000000
2.592179 1.137034 -0.473487 35.000000
2.617965 1.114363 -0.476666 53.000000
2.616177 1.080016 -0.474888 26.000000
2.554492 1.022069 -0.462247 26.000000
1.475054 0.516499 -0.263957 37.000000
1.494580 0.505029 -0.266748 95.000000
1.504639 0.490101 -0.267876 83.000000
1.495768 0.469168 -0.265615 78.000000
1.500766 0.452816 -0.265954 95.000000
1.500836 0.434946 -0.265360 84.000000
1.500730 0.417132 -0.264716 86.000000
1.514692 0.403226 -0.266682 88.000000
1.509409 0.384199 -0.265246 52.000000
2.677780 0.557998 -0.467299 22.000000
2.683708 0.528612 -0.467638 23.000000
2.698988 0.501025 -0.469663 21.000000
2.689693 0.468908 -0.467387 21.000000
2.694596 0.439406 -0.467640 10.000000
2.733351 0.414998 -0.473806 25.000000
2.722992 0.382978 -0.471528 26.000000
2.717219 0.351912 -0.470092 24.000000
2.720867 0.322048 -0.470262 27.000000
2.743860 0.294287 -0.473816 33.000000
2.722325 0.261850 -0.469670 74.000000
2.715215 0.231204 -0.468146 72.000000
2.727406 0.202146 -0.470009 28.000000
2.734357 0.172562 -0.470941 65.000000
2.740974 0.142871 -0.471873 85.000000
2.693184 0.110759 -0.463401 58.000000
2.713887 0.081806 -0.466874 89.000000
2.704790 0.051854 -0.465179 70.000000
2.729846 0.022401 -0.469416 34.000000
2.685582 -0.007401 -0.461790 10.000000
2.650842 -0.036367 -0.455776 8.000000
2.645341 -0.065306 -0.454929 8.000000
2.659296 -0.094757 -0.457306 9.000000
2.667904 -0.124385 -0.458917 17.000000
2.720531 -0.156780 -0.468146 37.000000
2.733423 -0.187579 -0.470516 35.000000
2.687007 -0.214006 -0.462733 10.000000
2.718942 -0.246500 -0.468486 67.000000
2.725873 -0.277338 -0.469922 51.000000
2.722734 -0.307202 -0.469753 51.000000
2.719255 -0.336980 -0.469583 50.000000
2.710554 -0.366099 -0.468484 32.000000
2.706404 -0.395739 -0.468146 16.000000
2.702000 -0.425379 -0.467892 8.000000
2.663155 -0.449280 -0.461656 6.000000
2.696943 -0.485363 -0.468056 9.000000
2.696439 -0.515728 -0.468473 8.000000
2.695490 -0.546284 -0.469059 13.000000
2.737556 -0.586149 -0.477031 39.000000
2.731056 -0.616050 -0.476685 33.000000
2.733801 -0.648225 -0.477928 38.000000
2.726669 -0.678058 -0.477406 33.000000
2.709648 -0.705406 -0.475211 18.000000
2.706605 -0.736255 -0.475527 76.000000
2.712671 -0.769987 -0.477598 34.000000
2.699390 -0.798264 -0.476327 26.000000
2.718951 -0.836411 -0.480716 23.000000
2.719098 -0.869171 -0.481764 16.000000
2.714148 -0.900497 -0.482065 18.000000
2.713561 -0.933353 -0.483105 12.000000
2.693969 -0.959793 -0.480826 9.000000
2.725078 -1.004615 -0.487658 23.000000
2.695592 -1.027338 -0.483721 15.000000
2.707198 -1.065828 -0.487135 20.000000
2.700153 -1.097213 -0.487240 18.000000
2.706262 -1.134328 -0.489811 17.000000
2.720989 -1.175570 -0.493925 18.000000
2.721484 -1.211668 -0.495745 13.000000
2.676826 -1.226958 -0.489180 9.000000
2.708048 -1.277149 -0.496540 24.000000
2.720505 -1.319892 -0.500700 16.000000
2.728173 -1.360551 -0.503841 21.000000
2.717759 -1.392504 -0.503712 19.000000
2.711095 -1.427136 -0.504581 16.000000
2.717258 -1.468238 -0.507593 22.000000
2.696609 -1.495934 -0.505924 13.000000
2.723283 -1.549615 -0.512953 10.000000
2.727344 -1.592187 -0.516113 27.000000
2.710156 -1.621680 -0.514941 27.000000
2.746872 -1.685209 -0.524504 39.000000
2.711825 -1.704496 -0.520103 56.000000
2.693009 -1.734502 -0.519014 58.000000
2.649078 -1.747999 -0.513234 91.000000
2.621961 -1.771025 -0.510366 46.000000
2.578040 -1.783224 -0.504523 27.000000
2.566818 -1.816834 -0.504849 89.000000
2.550695 -1.848113 -0.504571 72.000000
2.522320 -1.870366 -0.501921 75.000000
2.498297 -1.894652 -0.499776 95.000000
2.449963 -1.901076 -0.493116 43.000000
2.425109 -1.925124 -0.491183 61.000000
2.412114 -1.957371 -0.491310 45.000000
2.356314 -1.955664 -0.483145 27.000000
2.349712 -1.994465 -0.485024 74.000000
2.323892 -2.017316 -0.483011 34.000000
2.317191 -2.055239 -0.484582 33.000000
2.316377 -2.100792 -0.487963 31.000000
2.304064 -2.136465 -0.488917 24.000000
2.298410 -2.178887 -0.491392 30.000000
2.278877 -2.206875 -0.490591 20.000000
2.282578 -2.259865 -0.495316 10.000000
1.504899 -1.590477 -0.334400 21.000000
1.477319 -1.596222 -0.331128 36.000000
1.449843 -1.601475 -0.327870 35.000000
1.422407 -1.606375 -0.324560 59.000000
1.395015 -1.610791 -0.321264 34.000000
1.387706 -1.636837 -0.322308 25.000000
1.366603 -1.648328 -0.320508 35.000000
1.348500 -1.663326 -0.319451 32.000000
1.339481 -1.689819 -0.320533 34.000000
1.311897 -1.692794 -0.317271 32.000000
1.293331 -1.707263 -0.316148 30.000000
1.278438 -1.724782 -0.315619 34.000000
1.259564 -1.738821 -0.314427 26.000000
1.251992 -1.768815 -0.316189 23.000000
1.229796 -1.778513 -0.314267 31.000000
1.207489 -1.787949 -0.312417 27.000000
1.190654 -1.805386 -0.311933 27.000000
1.170850 -1.818455 -0.310733 26.000000
1.157319 -1.839036 -0.310815 27.000000
1.132042 -1.843327 -0.308132 31.000000
1.111837 -1.855796 -0.306932 22.000000
1.113979 -1.906470 -0.311960 9.000000
0.763937 1.321464 -0.204108 6.000000
0.721939 1.219611 -0.190358 10.000000
0.753200 1.241146 -0.195777 13.000000
0.800766 1.287436 -0.205211 14.000000
0.852002 1.337012 -0.215430 20.000000
0.896340 1.373123 -0.223694 21.000000
0.922303 1.379595 -0.227215 25.000000
0.926089 1.352971 -0.225310 21.000000
0.929417 1.326392 -0.223385 21.000000
0.925784 1.292405 -0.220168 10.000000
0.933986 1.274131 -0.219527 18.000000
0.933002 1.243907 -0.216852 18.000000
0.934456 1.217796 -0.214799 26.000000
0.941586 1.199600 -0.214119 24.000000
0.939108 1.169816 -0.211336 26.000000
0.945539 1.151714 -0.210630 26.000000
0.947983 1.130277 -0.209304 28.000000
0.957084 1.115971 -0.209236 20.000000
0.956175 1.090434 -0.207044 37.000000
0.958112 1.068738 -0.205588 52.000000
0.983125 1.072667 -0.209007 74.000000
1.325329 1.354608 -0.274790 62.000000
1.842850 1.802385 -0.375868 36.000000
1.873210 1.792055 -0.379072 66.000000
1.892080 1.771906 -0.380191 64.000000
1.907702 1.747457 -0.380503 53.000000
1.930459 1.729529 -0.382190 58.000000
1.953049 1.711281 -0.383881 66.000000
1.963644 1.683773 -0.383535 52.000000
1.993368 1.671440 -0.386618 36.000000
2.023060 1.658614 -0.389792 36.000000
2.029566 1.626815 -0.388464 39.000000
2.050713 1.607874 -0.390248 49.000000
2.080017 1.594060 -0.393278 42.000000
2.101362 1.573895 -0.394912 51.000000
2.134008 1.562811 -0.398866 55.000000
2.159111 1.544809 -0.401177 65.000000
2.175909 1.520801 -0.401996 34.000000
2.188378 1.493760 -0.402065 42.000000
2.204326 1.469960 -0.402965 54.000000
2.228559 1.450899 -0.405290 52.000000
2.248163 1.429251 -0.406948 69.000000
2.276307 1.412148 -0.409957 56.000000
2.300147 1.391958 -0.412134 57.000000
2.336282 1.379453 -0.416843 62.000000
2.342712 1.348637 -0.415992 37.000000
2.369995 1.330353 -0.419113 42.000000
2.375759 1.299259 -0.418258 70.000000
2.394001 1.275661 -0.419775 62.000000
2.420980 1.255931 -0.422743 78.000000
2.452013 1.238478 -0.426570 62.000000
2.478720 1.217865 -0.429469 44.000000
2.496228 1.192871 -0.430920 90.000000
2.527053 1.173594 -0.434601 35.000000
2.571138 1.160192 -0.440692 38.000000
2.569937 1.126102 -0.439070 63.000000
2.604800 1.107337 -0.443459 46.000000
2.616603 1.078834 -0.444072 52.000000
2.614384 1.044745 -0.442442 56.000000
2.588668 1.001783 -0.436747 37.000000
1.530960 0.498033 -0.254837 103.000000
1.526858 0.478317 -0.253521 95.000000
1.527173 0.460232 -0.253034 92.000000
1.522614 0.440728 -0.251712 88.000000
1.527317 0.424026 -0.251957 90.000000
1.536595 0.408593 -0.252987 95.000000
2.681332 0.588782 -0.438278 21.000000
2.731029 0.568483 -0.445717 21.000000
2.741908 0.539521 -0.446765 20.000000
2.747608 0.509466 -0.447024 21.000000
2.718915 0.473482 -0.441837 10.000000
2.753099 0.448476 -0.446838 21.000000
2.752959 0.417561 -0.446305 25.000000
2.767126 0.388728 -0.448060 23.000000
2.761307 0.357233 -0.446649 28.000000
2.765094 0.326940 -0.446907 36.000000
2.778267 0.297699 -0.448578 57.000000
2.786291 0.267771 -0.449544 93.000000
2.749622 0.233883 -0.443372 24.000000
2.781549 0.205961 -0.448131 69.000000
2.778691 0.175217 -0.447510 85.000000
2.780499 0.144752 -0.447510 80.000000
2.767078 0.113679 -0.445215 72.000000
2.763171 0.083228 -0.444507 46.000000
2.744198 0.052600 -0.441247 19.000000
2.734749 0.022486 -0.439744 9.000000
2.715088 -0.007385 -0.436569 8.000000
2.709900 -0.037110 -0.435692 8.000000
2.719268 -0.067009 -0.437195 8.000000
2.703542 -0.096245 -0.434731 8.000000
2.697440 -0.125616 -0.433854 9.000000
2.705711 -0.155730 -0.435357 9.000000
2.743354 -0.188001 -0.441531 17.000000
2.750987 -0.218786 -0.442945 32.000000
2.748428 -0.248896 -0.442860 34.000000
2.755351 -0.280003 -0.444188 35.000000
2.757089 -0.310688 -0.444808 47.000000
2.743774 -0.339661 -0.442969 18.000000
2.700787 -0.364288 -0.436388 9.000000
2.735742 -0.399561 -0.442456 8.000000
2.745931 -0.431768 -0.444569 8.000000
2.721560 -0.458555 -0.441154 8.000000
2.731020 -0.490858 -0.443093 8.000000
2.754630 -0.526346 -0.447563 8.000000
2.734305 -0.553482 -0.444855 8.000000
2.757068 -0.589593 -0.449230 9.000000
2.779436 -0.626163 -0.453511 32.000000
2.777286 -0.657676 -0.453856 35.000000
2.789223 -0.692688 -0.456552 33.000000
2.757601 -0.717024 -0.452278 36.000000
2.744912 -0.745752 -0.450967 29.000000
2.788913 -0.790626 -0.459131 48.000000
2.775488 -0.819770 -0.457812 34.000000
2.771178 -0.851354 -0.457967 26.000000
2.766478 -0.883130 -0.458209 20.000000
2.752100 -0.911813 -0.456892 13.000000
2.774767 -0.953050 -0.461797 12.000000
2.745639 -0.976701 -0.458057 13.000000
2.753468 -1.013505 -0.460528 21.000000
2.765311 -1.052564 -0.463856 22.000000
2.762898 -1.086341 -0.464763 18.000000
2.778533 -1.127566 -0.468661 24.000000
2.752450 -1.152131 -0.465700 19.000000
2.762412 -1.192241 -0.468905 19.000000
2.762853 -1.228277 -0.470468 11.000000
2.767469 -1.266571 -0.472697 16.000000
2.766780 -1.303342 -0.474337 19.000000
2.752612 -1.333378 -0.473487 19.000000
2.755570 -1.372509 -0.475787 20.000000
2.753747 -1.409207 -0.477122 21.000000
2.760047 -1.450984 -0.480163 25.000000
2.770351 -1.495010 -0.483757 24.000000
2.753828 -1.525627 -0.482979 24.000000
2.754395 -1.565235 -0.485034 26.000000
2.762702 -1.610491 -0.488686 35.000000
2.753813 -1.645475 -0.489107 79.000000
2.735592 -1.675778 -0.488216 85.000000
2.712788 -1.703353 -0.486475 88.000000
2.681923 -1.724698 -0.483140 86.000000
2.658701 -1.751504 -0.481408 81.000000
2.623437 -1.769140 -0.477246 61.000000
2.587535 -1.786906 -0.473293 74.000000
2.575909 -1.821146 -0.473710 95.000000
2.543740 -1.840876 -0.470417 89.000000
2.519902 -1.865258 -0.468515 93.000000
2.499296 -1.893119 -0.467451 91.000000
2.458855 -1.905543 -0.462613 81.000000
2.426781 -1.922722 -0.459165 77.000000
2.409419 -1.952582 -0.458750 42.000000
2.372564 -1.966553 -0.454683 34.000000
2.369757 -2.008784 -0.457182 32.000000
2.374467 -2.056754 -0.460921 37.000000
2.373918 -2.102597 -0.464005 34.000000
2.358072 -2.135452 -0.464276 32.000000
2.345417 -2.171536 -0.465160 29.000000
2.336731 -2.210075 -0.466553 13.000000
2.344349 -2.266821 -0.471705 9.000000
2.252539 -2.226562 -0.456738 9.000000
1.532249 -1.616638 -0.318192 12.000000
1.480878 -1.597162 -0.310114 32.000000
1.446659 -1.595075 -0.305660 51.000000
1.422631 -1.603598 -0.303264 56.000000
1.379032 -1.589340 -0.296688 36.000000
1.384014 -1.630876 -0.300586 30.000000
1.379598 -1.660680 -0.302238 37.000000
1.345757 -1.656564 -0.297786 34.000000
1.324525 -1.667483 -0.296045 34.000000
1.315399 -1.693719 -0.297119 36.000000
1.293838 -1.704243 -0.295378 36.000000
1.269279 -1.710460 -0.292961 35.000000
1.256330 -1.732390 -0.293203 31.000000
1.241268 -1.749548 -0.292693 24.000000
1.224929 -1.767231 -0.292309 34.000000
1.208370 -1.784777 -0.291854 32.000000
1.180657 -1.785586 -0.288721 35.000000
1.169142 -1.811062 -0.289597 32.000000
1.149362 -1.823872 -0.288469 31.000000
1.131979 -1.840706 -0.288001 32.000000
1.119404 -1.865897 -0.288844 30.000000
1.127815 -1.924530 -0.294777 9.000000
0.770601 1.331085 -0.191716 6.000000
0.760772 1.250203 -0.183835 11.000000
0.808491 1.296414 -0.192688 10.000000
0.862651 1.350138 -0.202811 15.000000
0.909064 1.390892 -0.211215 22.000000
0.943506 1.409623 -0.216411 20.000000
0.939172 1.370445 -0.212749 22.000000
0.954098 1.360017 -0.213515 18.000000
0.937057 1.305126 -0.207246 10.000000
0.942389 1.282707 -0.206013 16.000000
0.950341 1.264347 -0.205459 19.000000
0.961046 1.249854 -0.205495 20.000000
0.965437 1.227489 -0.204229 18.000000
0.953332 1.186337 -0.199792 17.000000
0.959920 1.168090 -0.199142 21.000000
0.972625 1.157433 -0.199793 25.000000
0.965810 1.124079 -0.196456 10.000000
0.955140 1.087292 -0.192436 28.000000
0.966947 1.076688 -0.193060 37.000000
1.002126 1.091503 -0.198281 86.000000
1.843201 1.799957 -0.349915 36.000000
1.862799 1.779486 -0.350867 64.000000
1.885143 1.762875 -0.352575 72.000000
1.904382 1.741887 -0.353529 75.000000
1.923382 1.720741 -0.354403 54.000000
1.942064 1.699355 -0.355278 47.000000
1.968113 1.684252 -0.357520 60.000000
1.997301 1.672564 -0.360614 54.000000
2.007856 1.644056 -0.360042 29.000000
2.025767 1.621749 -0.360922 69.000000
2.047337 1.602333 -0.362411 52.000000
2.072184 1.586163 -0.364757 58.000000
2.101367 1.572063 -0.367642 67.000000
2.130503 1.557457 -0.370537 55.000000
2.155478 1.539627 -0.372662 67.000000
2.163686 1.510611 -0.372163 36.000000
2.176024 1.483749 -0.372195 35.000000
2.196299 1.462383 -0.373627 71.000000
2.220132 1.443951 -0.375927 72.000000
2.244246 1.424604 -0.377988 69.000000
2.268067 1.404989 -0.380136 69.000000
2.304214 1.393120 -0.384409 60.000000
2.319404 1.367637 -0.385073 62.000000
2.334180 1.341904 -0.385737 55.000000
2.348540 1.316504 -0.386567 41.000000
2.367161 1.292895 -0.387860 93.000000
2.380882 1.267115 -0.388609 75.000000
2.420966 1.254497 -0.393475 76.000000
2.425750 1.223220 -0.392633 80.000000
2.443260 1.199013 -0.394020 65.000000
2.474047 1.180513 -0.397477 76.000000
2.495620 1.157711 -0.399591 47.000000
2.553287 1.150465 -0.407296 35.000000
2.556486 1.118688 -0.406459 72.000000
2.563808 1.088871 -0.406340 48.000000
2.621325 1.079359 -0.414082 59.000000
2.614486 1.043433 -0.411799 63.000000
2.634828 1.018435 -0.413769 66.000000
2.636539 0.985956 -0.412754 81.000000
2.600523 0.940310 -0.406012 65.000000
1.577197 0.474734 -0.243236 103.000000
1.553769 0.449216 -0.239103 95.000000
1.558559 0.432201 -0.239302 105.000000
2.722752 0.628487 -0.414939 22.000000
2.763206 0.606161 -0.420429 21.000000
2.784103 0.578896 -0.422985 21.000000
2.785392 0.547497 -0.422512 20.000000
2.791173 0.517017 -0.422775 20.000000
2.786859 0.484755 -0.421476 12.000000
2.811445 0.457471 -0.424687 16.000000
2.826058 0.428191 -0.426338 24.000000
2.796276 0.392423 -0.421437 26.000000
2.805275 0.362475 -0.422349 37.000000
2.813939 0.332420 -0.423262 75.000000
2.822353 0.302170 -0.424176 65.000000
2.810652 0.269834 -0.422047 52.000000
2.793731 0.237404 -0.419263 10.000000
2.786291 0.206133 -0.417870 17.000000
2.808100 0.176857 -0.420916 46.000000
2.824651 0.146893 -0.423222 83.000000
2.791464 0.114576 -0.418043 26.000000
2.782699 0.083759 -0.416649 10.000000
2.758752 0.052874 -0.412949 8.000000
2.803681 0.023014 -0.419609 8.000000
2.769153 -0.007520 -0.414429 8.000000
2.759007 -0.037719 -0.412863 8.000000
2.773242 -0.068225 -0.414998 8.000000
2.757560 -0.098001 -0.412693 8.000000
2.766162 -0.128601 -0.414087 8.000000
