x y z intensity
1.102100 1.745407 -0.357457 27.000000
1.113125 1.720532 -0.356230 35.000000
1.134635 1.712070 -0.358359 35.000000
1.157851 1.708069 -0.361549 35.000000
1.173648 1.690981 -0.361961 31.000000
1.180736 1.661660 -0.359761 28.000000
1.201762 1.652313 -0.361897 29.000000
1.227735 1.651309 -0.365916 34.000000
1.236781 1.625716 -0.364493 30.000000
1.257598 1.615669 -0.366641 33.000000
1.284441 1.612999 -0.370499 34.000000
1.295808 1.590920 -0.369876 32.000000
1.315562 1.580767 -0.372103 34.000000
1.326470 1.558476 -0.371528 32.000000
1.353170 1.554627 -0.375358 36.000000
1.369473 1.539986 -0.376637 35.000000
1.389596 1.528216 -0.378625 37.000000
1.402975 1.508978 -0.378875 43.000000
1.436409 1.511005 -0.384496 39.000000
1.459110 1.502466 -0.387545 42.000000
1.468693 1.479044 -0.386825 42.000000
1.481365 1.459097 -0.386945 30.000000
1.486111 1.432727 -0.385355 49.000000
1.512540 1.426115 -0.389140 64.000000
1.542611 1.422399 -0.393862 41.000000
1.572253 1.418756 -0.398670 90.000000
1.587839 1.401066 -0.399656 57.000000
1.602637 1.383704 -0.400840 52.000000
1.625336 1.372021 -0.403625 59.000000
1.647977 1.359972 -0.406419 25.000000
1.670023 1.348088 -0.409421 40.000000
1.688682 1.332326 -0.411227 35.000000
1.702851 1.313880 -0.412296 52.000000
1.732970 1.306522 -0.416938 47.000000
1.746863 1.287503 -0.417950 37.000000
1.772911 1.276482 -0.421669 36.000000
1.794589 1.262644 -0.424587 37.000000
1.804389 1.239675 -0.424454 24.000000
1.825742 1.225342 -0.427314 39.000000
1.843314 1.207523 -0.429022 42.000000
1.868597 1.195176 -0.432854 36.000000
1.894190 1.182003 -0.436491 50.000000
1.915208 1.166209 -0.439316 44.000000
1.940344 1.152667 -0.443042 48.000000
1.961399 1.135825 -0.445744 57.000000
1.994954 1.126241 -0.451423 26.000000
2.015592 1.109023 -0.454143 42.000000
2.036333 1.091042 -0.456799 59.000000
2.061093 1.075425 -0.460504 55.000000
2.076965 1.054935 -0.462273 52.000000
2.101534 1.038477 -0.465922 40.000000
2.125880 1.021655 -0.469653 45.000000
2.141258 1.000318 -0.471365 44.000000
2.178784 0.988793 -0.477903 26.000000
2.202892 0.970672 -0.481590 35.000000
2.235845 0.955959 -0.487175 58.000000
2.268780 0.940675 -0.492698 35.000000
2.283420 0.917428 -0.494371 37.000000
2.316065 0.901036 -0.499914 64.000000
2.353259 0.885789 -0.506456 35.000000
2.385680 0.868339 -0.512104 35.000000
2.418125 0.850067 -0.517605 28.000000
2.450346 0.831445 -0.523198 52.000000
2.482578 0.811911 -0.528641 72.000000
2.505221 0.789082 -0.532270 36.000000
2.532404 0.767203 -0.536819 50.000000
2.568789 0.747484 -0.543367 48.000000
2.609739 0.728462 -0.550840 36.000000
2.641168 0.706014 -0.556331 35.000000
2.672480 0.682960 -0.561832 27.000000
2.713014 0.661620 -0.569252 34.000000
2.743832 0.637329 -0.574772 37.000000
2.765026 0.610227 -0.578123 36.000000
2.809824 0.587824 -0.586572 35.000000
2.840021 0.561638 -0.592028 28.000000
2.841158 0.529448 -0.591386 27.000000
2.841914 0.497364 -0.590744 26.000000
2.827791 0.462923 -0.587178 15.000000
2.822928 0.430293 -0.585437 24.000000
2.832314 0.399843 -0.586709 31.000000
2.812217 0.365497 -0.581951 69.000000
2.806289 0.333420 -0.580117 77.000000
2.804853 0.301992 -0.579375 58.000000
2.817768 0.272084 -0.581563 66.000000
2.800982 0.239371 -0.577714 40.000000
2.793667 0.207814 -0.575875 18.000000
2.761548 0.174924 -0.569000 11.000000
2.738818 0.143213 -0.563965 9.000000
2.730399 0.112646 -0.562036 9.000000
2.726611 0.082442 -0.561114 9.000000
2.722479 0.052346 -0.560106 9.000000
2.761996 0.022720 -0.568165 29.000000
2.742493 -0.007605 -0.564136 16.000000
2.732528 -0.037719 -0.562036 9.000000
2.751515 -0.068260 -0.565979 9.000000
2.735975 -0.098006 -0.562872 9.000000
2.739587 -0.128345 -0.563794 9.000000
2.747828 -0.158989 -0.565722 9.000000
2.750827 -0.189597 -0.566557 9.000000
2.704740 -0.216322 -0.557246 6.000000
2.721714 -0.247854 -0.561099 9.000000
2.689669 -0.274753 -0.554729 9.000000
2.715669 -0.307625 -0.560588 13.000000
2.726760 -0.339326 -0.563260 59.000000
2.722993 -0.369286 -0.563003 62.000000
2.718799 -0.399247 -0.562746 71.000000
2.719100 -0.429887 -0.563406 73.000000
2.694979 -0.456542 -0.558971 18.000000
2.699597 -0.487830 -0.560547 70.000000
2.684506 -0.515632 -0.558119 53.000000
2.688318 -0.547131 -0.559692 62.000000
2.710989 -0.582789 -0.565257 41.000000
2.666286 -0.604012 -0.556842 22.000000
2.631046 -0.626407 -0.550265 10.000000
2.685854 -0.670731 -0.562793 35.000000
2.649996 -0.692864 -0.556305 21.000000
2.675407 -0.730991 -0.562666 71.000000
2.676714 -0.763042 -0.564048 46.000000
2.673005 -0.793818 -0.564433 59.000000
2.664322 -0.823164 -0.563739 52.000000
2.627293 -0.843349 -0.557107 21.000000
2.650479 -0.883145 -0.563425 20.000000
2.659357 -0.918509 -0.566590 16.000000
2.579967 -0.923080 -0.551187 9.000000
2.606681 -0.964841 -0.558210 21.000000
2.596039 -0.993565 -0.557518 17.000000
2.589611 -1.023918 -0.557721 19.000000
2.578343 -1.052433 -0.556941 20.000000
2.580287 -1.086482 -0.559098 16.000000
2.604334 -1.130418 -0.566048 21.000000
2.582924 -1.155127 -0.563300 15.000000
2.543519 -1.171170 -0.556485 9.000000
2.561735 -1.213751 -0.562425 24.000000
2.548418 -1.241885 -0.561454 21.000000
2.561149 -1.283025 -0.566302 18.000000
2.547069 -1.311095 -0.565322 21.000000
2.563170 -1.355127 -0.571016 20.000000
2.560954 -1.390647 -0.573008 21.000000
2.550104 -1.421133 -0.572884 20.000000
2.487721 -1.422217 -0.561134 9.000000
2.501487 -1.467310 -0.566868 17.000000
2.506554 -1.507279 -0.570482 14.000000
2.494362 -1.537319 -0.570255 16.000000
2.493834 -1.575589 -0.572975 16.000000
2.480898 -1.605493 -0.572642 13.000000
2.471169 -1.638567 -0.573439 16.000000
2.477753 -1.682024 -0.577739 16.000000
2.430825 -1.690049 -0.570005 9.000000
2.444522 -1.739321 -0.576169 16.000000
2.433162 -1.772327 -0.576745 17.000000
2.437615 -1.816405 -0.580974 17.000000
2.421307 -1.846585 -0.580588 16.000000
2.436300 -1.900072 -0.587480 18.000000
2.415185 -1.927234 -0.586136 18.000000
2.398260 -1.956541 -0.585434 13.000000
2.365218 -1.973822 -0.581211 9.000000
2.384420 -2.035319 -0.589947 19.000000
2.370019 -2.067578 -0.590039 14.000000
2.350738 -2.097217 -0.589494 13.000000
2.346501 -2.139205 -0.592219 19.000000
2.348014 -2.188789 -0.597042 21.000000
2.291675 -2.184467 -0.587241 18.000000
2.176900 -2.119848 -0.561741 13.000000
1.968741 -1.960206 -0.512100 9.000000
1.888433 -1.922549 -0.495270 13.000000
1.803262 -1.875425 -0.476484 22.000000
1.765749 -1.877528 -0.470621 33.000000
1.718399 -1.868232 -0.462019 65.000000
1.697770 -1.887286 -0.460602 37.000000
1.671347 -1.898089 -0.457169 46.000000
1.653617 -1.920406 -0.456566 35.000000
1.651418 -1.961302 -0.460454 25.000000
1.630828 -1.978871 -0.458705 34.000000
1.602869 -1.989331 -0.455440 31.000000
1.584058 -2.011017 -0.454730 33.000000
1.570931 -2.040256 -0.455837 31.000000
1.548506 -2.057732 -0.454241 33.000000
1.527039 -2.074092 -0.452406 33.000000
1.509968 -2.099007 -0.452534 32.000000
1.483984 -2.111799 -0.449993 23.000000
1.483099 -2.160763 -0.455158 31.000000
1.457949 -2.172258 -0.452439 26.000000
1.436747 -2.192584 -0.451586 29.000000
1.420604 -2.221030 -0.452419 29.000000
1.396195 -2.236786 -0.450623 29.000000
1.376669 -2.260798 -0.450586 29.000000
1.378517 -2.317589 -0.456974 24.000000
1.360565 -2.345657 -0.457550 9.000000
1.009815 1.759619 -0.326989 8.000000
1.027876 1.748832 -0.328431 28.000000
1.057130 1.754201 -0.332894 27.000000
1.078848 1.746431 -0.334966 30.000000
1.097954 1.734243 -0.336235 31.000000
1.119555 1.726068 -0.338316 31.000000
1.135659 1.709297 -0.338711 32.000000
1.158850 1.705396 -0.341743 32.000000
1.171777 1.684224 -0.341313 31.000000
1.181602 1.659033 -0.340049 29.000000
1.205499 1.653706 -0.342899 32.000000
1.226494 1.644106 -0.344868 34.000000
1.243506 1.630967 -0.346201 32.000000
1.258247 1.613115 -0.346509 32.000000
1.288149 1.614406 -0.350999 42.000000
1.299562 1.592319 -0.350469 34.000000
1.319261 1.582106 -0.352585 32.000000
1.326954 1.556060 -0.351131 30.000000
1.347163 1.544893 -0.353057 33.000000
1.367327 1.533463 -0.354987 40.000000
1.383425 1.518701 -0.356196 38.000000
1.406683 1.510385 -0.358991 42.000000
1.433368 1.505294 -0.362592 35.000000
1.453288 1.492725 -0.364484 35.000000
1.465500 1.473484 -0.364781 34.000000
1.481598 1.457000 -0.365747 34.000000
1.486921 1.430147 -0.364170 38.000000
1.519933 1.430909 -0.369615 64.000000
1.542833 1.420498 -0.372334 52.000000
1.565685 1.409730 -0.374996 71.000000
1.577403 1.388910 -0.375032 66.000000
1.599586 1.378199 -0.377902 48.000000
1.622169 1.366605 -0.380584 56.000000
1.648095 1.358303 -0.384227 32.000000
1.662995 1.339760 -0.385154 34.000000
1.681496 1.324129 -0.386904 36.000000
1.699466 1.308812 -0.388792 54.000000
1.725561 1.298592 -0.392271 42.000000
1.747352 1.285532 -0.395067 45.000000
1.773399 1.274562 -0.398567 37.000000
1.799363 1.263190 -0.402011 56.000000
1.808813 1.240696 -0.402064 33.000000
1.814183 1.214943 -0.401006 35.000000
1.839537 1.203099 -0.404603 37.000000
1.865067 1.190437 -0.408073 36.000000
1.894461 1.180444 -0.412601 60.000000
1.919670 1.167255 -0.416165 72.000000
1.945117 1.153299 -0.419598 41.000000
1.961726 1.134422 -0.421355 37.000000
1.995517 1.124541 -0.426636 34.000000
1.998918 1.097908 -0.425583 39.000000
2.032338 1.087554 -0.430957 56.000000
2.057294 1.071608 -0.434362 40.000000
2.086277 1.057883 -0.438769 53.000000
2.102014 1.037105 -0.440419 56.000000
2.117580 1.016086 -0.442071 40.000000
2.137353 0.996973 -0.444653 35.000000
2.175046 0.985259 -0.450731 30.000000
2.194570 0.965262 -0.453256 36.000000
2.222994 0.948851 -0.457646 45.000000
2.255823 0.933695 -0.462904 44.000000
2.288629 0.918040 -0.468174 42.000000
2.307667 0.896320 -0.470654 44.000000
2.363101 0.888379 -0.480699 36.000000
2.363437 0.858984 -0.479375 35.000000
2.414363 0.847531 -0.488358 32.000000
2.437300 0.825786 -0.491810 36.000000
2.474104 0.808069 -0.498007 67.000000
2.496811 0.785154 -0.501314 45.000000
2.523988 0.763432 -0.505568 35.000000
2.550961 0.741217 -0.509912 38.000000
2.610831 0.727650 -0.520785 40.000000
2.623324 0.700279 -0.522235 32.000000
2.649778 0.676277 -0.526522 33.000000
2.676084 0.651686 -0.530731 34.000000
2.735626 0.634440 -0.541487 36.000000
2.761523 0.608643 -0.545801 43.000000
2.787161 0.582248 -0.549945 35.000000
2.836701 0.560186 -0.558838 36.000000
2.871500 0.534389 -0.564894 29.000000
2.877129 0.502794 -0.565257 19.000000
2.882394 0.471199 -0.565620 27.000000
2.887388 0.439513 -0.565893 37.000000
2.887158 0.407052 -0.565214 61.000000
2.857343 0.370906 -0.558822 64.000000
2.870854 0.340623 -0.560995 81.000000
2.835407 0.304880 -0.553553 45.000000
2.843395 0.274145 -0.554683 24.000000
2.777771 0.237042 -0.541514 9.000000
2.814461 0.209080 -0.548275 8.000000
2.811668 0.177798 -0.547409 9.000000
2.798716 0.146113 -0.544635 9.000000
2.785398 0.114751 -0.541860 10.000000
2.815960 0.085045 -0.547672 21.000000
2.802026 0.053845 -0.544809 35.000000
2.807283 0.023042 -0.545764 40.000000
2.812278 -0.007782 -0.546718 25.000000
2.792472 -0.038462 -0.542814 9.000000
2.786958 -0.068989 -0.541774 9.000000
2.776195 -0.099233 -0.539780 8.000000
2.784791 -0.130178 -0.541600 9.000000
2.768531 -0.159924 -0.538567 8.000000
2.781324 -0.191367 -0.541254 8.000000
2.735036 -0.218445 -0.532592 7.000000
2.747228 -0.249803 -0.535193 8.000000
2.768728 -0.282479 -0.539782 9.000000
2.750894 -0.311191 -0.536667 9.000000
2.727881 -0.338977 -0.532605 13.000000
2.792136 -0.378194 -0.545657 65.000000
2.787845 -0.408849 -0.545307 65.000000
2.773592 -0.437885 -0.543058 34.000000
2.749343 -0.464984 -0.538827 26.000000
2.748974 -0.496017 -0.539428 32.000000
2.709667 -0.519757 -0.532449 16.000000
2.675054 -0.543563 -0.526340 10.000000
2.697747 -0.579185 -0.531591 9.000000
2.676949 -0.605435 -0.528242 9.000000
2.675073 -0.635999 -0.528760 9.000000
2.672745 -0.666496 -0.529276 10.000000
2.703393 -0.705780 -0.536303 29.000000
2.705053 -0.737971 -0.537578 40.000000
2.701586 -0.768939 -0.537908 40.000000
2.707245 -0.802715 -0.540115 80.000000
2.698471 -0.832283 -0.539501 47.000000
2.698612 -0.865025 -0.540761 36.000000
2.693676 -0.896246 -0.541081 24.000000
2.674599 -0.922412 -0.538506 13.000000
2.641276 -0.943593 -0.533221 10.000000
2.617085 -0.967496 -0.529727 13.000000
2.634045 -1.006444 -0.534446 15.000000
2.645858 -1.044366 -0.538395 21.000000
2.629822 -1.071579 -0.536671 14.000000
2.645180 -1.111842 -0.541440 19.000000
2.623955 -1.136896 -0.538787 20.000000
2.598061 -1.159661 -0.535126 10.000000
2.620881 -1.204883 -0.541803 12.000000
2.616509 -1.237838 -0.542751 20.000000
2.616196 -1.272869 -0.544612 20.000000
2.606681 -1.303702 -0.544536 22.000000
2.592475 -1.332205 -0.543541 17.000000
2.608063 -1.377045 -0.549133 24.000000
2.584405 -1.400833 -0.546208 21.000000
2.564870 -1.426729 -0.544292 10.000000
2.557559 -1.460026 -0.545202 10.000000
2.558628 -1.497931 -0.547646 18.000000
2.563052 -1.539019 -0.551260 16.000000
2.546353 -1.566943 -0.550054 16.000000
2.529282 -1.594683 -0.548848 13.000000
2.515786 -1.625462 -0.548635 14.000000
2.522743 -1.669066 -0.552821 16.000000
2.504162 -1.697124 -0.551695 11.000000
2.502031 -1.735554 -0.553960 10.000000
2.478752 -1.760474 -0.551840 15.000000
2.475054 -1.799677 -0.554272 19.000000
2.483329 -1.847092 -0.559071 18.000000
2.466705 -1.877714 -0.558710 15.000000
2.465935 -1.919456 -0.561594 16.000000
2.460017 -1.959141 -0.563766 20.000000
2.430643 -1.980322 -0.560738 10.000000
2.413138 -2.009716 -0.559963 10.000000
2.435913 -2.074890 -0.569107 16.000000
2.421123 -2.107539 -0.569167 13.000000
2.412454 -2.147595 -0.571157 19.000000
2.403296 -2.187680 -0.573129 19.000000
2.389839 -2.224433 -0.574217 24.000000
2.334046 -2.219584 -0.564626 18.000000
2.207088 -2.145863 -0.538063 10.000000
2.022648 -2.010633 -0.497048 9.000000
1.908029 -1.937509 -0.472354 11.000000
1.818278 -1.887765 -0.453859 19.000000
1.767008 -1.875621 -0.444904 32.000000
1.716287 -1.862638 -0.435915 33.000000
1.703203 -1.888231 -0.436036 55.000000
1.669375 -1.892344 -0.431328 50.000000
1.638856 -1.899585 -0.427403 32.000000
1.643394 -1.947901 -0.432700 28.000000
1.632379 -1.976739 -0.433624 31.000000
1.598249 -1.979485 -0.428793 31.000000
1.582549 -2.004863 -0.429032 32.000000
1.560497 -2.022410 -0.427530 29.000000
1.542444 -2.042786 -0.426693 30.000000
1.514096 -2.051954 -0.423549 30.000000
1.508844 -2.092686 -0.426949 26.000000
1.494384 -2.121465 -0.427792 22.000000
1.476702 -2.146128 -0.427808 27.000000
1.454465 -2.161677 -0.426035 28.000000
1.430698 -2.177710 -0.424424 26.000000
1.412099 -2.201890 -0.424414 25.000000
1.395774 -2.230132 -0.425190 29.000000
1.376440 -2.254011 -0.425071 28.000000
1.366864 -2.294644 -0.428105 23.000000
1.355669 -2.330264 -0.430145 9.000000
1.029565 1.791438 -0.314189 8.000000
1.049082 1.779829 -0.315401 16.000000
1.063423 1.759570 -0.315098 23.000000
1.082593 1.747637 -0.316304 21.000000
1.091043 1.718762 -0.314457 26.000000
1.117858 1.718993 -0.317950 23.000000
1.138325 1.711201 -0.319985 26.000000
1.159705 1.702462 -0.321964 30.000000
1.178285 1.689481 -0.323109 13.000000
1.179455 1.652190 -0.319589 20.000000
1.194540 1.634970 -0.319875 24.000000
1.221178 1.633447 -0.323349 21.000000
1.241128 1.624326 -0.325333 27.000000
1.261857 1.614318 -0.327258 21.000000
1.282544 1.604053 -0.329126 25.000000
1.296875 1.585886 -0.329411 28.000000
1.320496 1.578957 -0.332017 18.000000
1.320945 1.546069 -0.329230 28.000000
1.347534 1.542382 -0.332641 26.000000
1.364315 1.527311 -0.333654 25.000000
1.384360 1.515693 -0.335474 35.000000
1.403595 1.504384 -0.337362 30.000000
1.423417 1.492237 -0.339191 30.000000
1.450014 1.486952 -0.342589 32.000000
1.466267 1.470699 -0.343553 21.000000
1.481748 1.454832 -0.344645 34.000000
1.494058 1.434842 -0.344723 28.000000
1.506165 1.414739 -0.344798 30.000000
1.547058 1.421213 -0.351468 47.000000
1.558342 1.401146 -0.351681 29.000000
1.573711 1.383701 -0.352589 34.000000
1.600037 1.375705 -0.355926 35.000000
1.610828 1.355159 -0.356072 24.000000
1.640846 1.349703 -0.360263 30.000000
1.663326 1.337466 -0.362793 29.000000
1.673657 1.316316 -0.362878 27.000000
1.699750 1.306606 -0.366195 36.000000
1.725841 1.296503 -0.369522 30.000000
1.735637 1.274739 -0.369612 31.000000
1.761585 1.263953 -0.372888 32.000000
1.783148 1.250342 -0.375460 24.000000
1.800837 1.233229 -0.377053 32.000000
1.810193 1.210347 -0.376944 29.000000
1.835516 1.198667 -0.380385 30.000000
1.861016 1.186103 -0.383633 35.000000
1.873662 1.165732 -0.384453 26.000000
1.911641 1.160147 -0.390295 34.000000
1.936755 1.146754 -0.393641 37.000000
1.966298 1.134985 -0.397719 23.000000
1.969884 1.108629 -0.396764 32.000000
2.012156 1.103280 -0.403455 32.000000
2.032646 1.085806 -0.405972 33.000000
2.052951 1.068071 -0.408424 37.000000
2.068962 1.047417 -0.409868 31.000000
2.084590 1.026954 -0.411459 29.000000
2.113369 1.012560 -0.415599 35.000000
2.128653 0.991397 -0.417128 26.000000
2.175307 0.983972 -0.424641 31.000000
2.185815 0.960068 -0.425307 28.000000
2.214214 0.943811 -0.429487 28.000000
2.247031 0.928813 -0.434481 35.000000
2.279824 0.913316 -0.439412 31.000000
2.330865 0.904208 -0.447957 32.000000
2.349770 0.882088 -0.450265 32.000000
2.350012 0.852816 -0.449042 19.000000
2.396232 0.840027 -0.456665 31.000000
2.414451 0.816963 -0.459067 35.000000
2.465327 0.804138 -0.467526 31.000000
2.488014 0.781381 -0.470592 35.000000
2.515184 0.759819 -0.474714 33.000000
2.551602 0.740341 -0.480460 35.000000
2.578472 0.717603 -0.484517 34.000000
2.600286 0.693182 -0.487689 19.000000
2.641086 0.673142 -0.494353 30.000000
2.667307 0.648712 -0.498348 32.000000
2.712544 0.628304 -0.505925 27.000000
2.738411 0.602737 -0.509848 32.000000
2.778556 0.579677 -0.516461 32.000000
2.803935 0.553021 -0.520396 29.000000
2.862983 0.532146 -0.530610 35.000000
2.883121 0.503248 -0.533662 19.000000
2.932076 0.478695 -0.542011 60.000000
2.917694 0.443573 -0.538788 35.000000
2.907660 0.409472 -0.536367 31.000000
2.916820 0.378130 -0.537448 41.000000
2.920743 0.346102 -0.537631 35.000000
2.895051 0.310923 -0.532507 28.000000
2.888422 0.278183 -0.530798 9.000000
2.842297 0.242316 -0.521979 6.000000
2.825156 0.209619 -0.518555 8.000000
2.846899 0.179834 -0.522244 9.000000
2.853581 0.148849 -0.523233 19.000000
2.889397 0.118971 -0.529537 35.000000
2.885647 0.087061 -0.528726 32.000000
2.876619 0.055254 -0.526925 34.000000
2.852386 0.023453 -0.522510 56.000000
2.852475 -0.007877 -0.522421 30.000000
2.847380 -0.039138 -0.521432 26.000000
2.817262 -0.069597 -0.515941 8.000000
2.840875 -0.101425 -0.520443 8.000000
2.819988 -0.131641 -0.516754 8.000000
2.823322 -0.162842 -0.517479 8.000000
2.816485 -0.193564 -0.516404 8.000000
2.789694 -0.222439 -0.511732 8.000000
2.777380 -0.252198 -0.509760 7.000000
2.798904 -0.285145 -0.514081 8.000000
2.800562 -0.316332 -0.514717 8.000000
2.757927 -0.342262 -0.507272 8.000000
2.773545 -0.375160 -0.510603 18.000000
2.793625 -0.409112 -0.514740 26.000000
2.755058 -0.434317 -0.508116 11.000000
2.754977 -0.465331 -0.508752 9.000000
2.740094 -0.493747 -0.506616 8.000000
2.749148 -0.526579 -0.508867 8.000000
2.748065 -0.557597 -0.509326 8.000000
2.703407 -0.579528 -0.501835 8.000000
2.754562 -0.622207 -0.512112 8.000000
2.733283 -0.648927 -0.509000 8.000000
2.726051 -0.678899 -0.508477 8.000000
2.713797 -0.707455 -0.507065 20.000000
2.734453 -0.744873 -0.511875 32.000000
2.754678 -0.782826 -0.516674 71.000000
2.731821 -0.808918 -0.513481 35.000000
2.722986 -0.838691 -0.512862 35.000000
2.746517 -0.879143 -0.518437 36.000000
2.713420 -0.901518 -0.513481 15.000000
2.694273 -0.927835 -0.510919 10.000000
2.684024 -0.957343 -0.510300 10.000000
2.659658 -0.981650 -0.507041 10.000000
2.667242 -1.017850 -0.509854 13.000000
2.660582 -1.048860 -0.510024 10.000000
2.667295 -1.085360 -0.512821 10.000000
2.655423 -1.114549 -0.512018 13.000000
2.665785 -1.153334 -0.515584 10.000000
2.644187 -1.178494 -0.513029 10.000000
2.644512 -1.213905 -0.514925 10.000000
2.631166 -1.242763 -0.514113 10.000000
2.639785 -1.282288 -0.517553 14.000000
2.621374 -1.308826 -0.515686 11.000000
2.624372 -1.346872 -0.518422 13.000000
2.622727 -1.382370 -0.520008 18.000000
2.620657 -1.417969 -0.521584 10.000000
2.604964 -1.446956 -0.520660 9.000000
2.593457 -1.477828 -0.520504 10.000000
2.581343 -1.508979 -0.520437 9.000000
2.573400 -1.542200 -0.521036 10.000000
2.564697 -1.575794 -0.521815 10.000000
2.560051 -1.611544 -0.523159 10.000000
2.550437 -1.645273 -0.523829 10.000000
2.549118 -1.683865 -0.526001 10.000000
2.530481 -1.712057 -0.524960 9.000000
2.527668 -1.751382 -0.527300 9.000000
2.516761 -1.784409 -0.527653 9.000000
2.520921 -1.829768 -0.531553 11.000000
2.505206 -1.859901 -0.531042 10.000000
2.519862 -1.914558 -0.537318 10.000000
2.494810 -1.939451 -0.535210 12.000000
2.493176 -1.981786 -0.538005 10.000000
2.490421 -2.024938 -0.540778 9.000000
2.471762 -2.055706 -0.540316 9.000000
2.453533 -2.085463 -0.539550 9.000000
2.456470 -2.135312 -0.544025 10.000000
2.447649 -2.175710 -0.545802 10.000000
2.420694 -2.198636 -0.543361 14.000000
2.418102 -2.245584 -0.546850 16.000000
2.375409 -2.255347 -0.541243 10.000000
2.276147 -2.209527 -0.522653 9.000000
2.028479 -2.011516 -0.469042 9.000000
1.940466 -1.967212 -0.452368 9.000000
1.843382 -1.910534 -0.433283 10.000000
1.751233 -1.855602 -0.415108 16.000000
1.724892 -1.866969 -0.412088 27.000000
1.684447 -1.864091 -0.406044 33.000000
1.657405 -1.875256 -0.403134 27.000000
1.640055 -1.897326 -0.402689 26.000000
1.620134 -1.914689 -0.401216 18.000000
1.611641 -1.947734 -0.402969 22.000000
1.593340 -1.969386 -0.402425 26.000000
1.574799 -1.990872 -0.401876 23.000000
1.561981 -2.019926 -0.402802 24.000000
1.540918 -2.036335 -0.401224 28.000000
1.515656 -2.049402 -0.399031 23.000000
1.504791 -2.082110 -0.400616 20.000000
1.484790 -2.102730 -0.399956 17.000000
1.467346 -2.127241 -0.399975 20.000000
1.455088 -2.159835 -0.401506 27.000000
1.424497 -2.162731 -0.397621 21.000000
1.411443 -2.195032 -0.399045 24.000000
1.387434 -2.210581 -0.397515 24.000000
1.373511 -2.242751 -0.398984 19.000000
1.351450 -2.262176 -0.398107 17.000000
1.344067 -2.307047 -0.401688 8.000000
1.060390 1.839694 -0.303408 7.000000
1.052718 1.780914 -0.296776 16.000000
1.072107 1.769114 -0.297924 19.000000
1.083537 1.744449 -0.296926 27.000000
1.104111 1.737163 -0.298848 19.000000
1.128426 1.733141 -0.301432 26.000000
1.141816 1.712217 -0.301069 24.000000
1.163268 1.703543 -0.302938 25.000000
1.178950 1.686509 -0.303291 27.000000
1.188661 1.661302 -0.302175 14.000000
1.209669 1.651995 -0.303918 24.000000
1.217836 1.627230 -0.302907 25.000000
1.241596 1.621474 -0.305389 22.000000
1.265340 1.615395 -0.307881 32.000000
1.279789 1.597478 -0.308150 26.000000
1.300358 1.586962 -0.309908 23.000000
1.323995 1.580039 -0.312419 29.000000
1.337197 1.562158 -0.312749 11.000000
1.354209 1.547241 -0.313765 31.000000
1.367798 1.528451 -0.313960 32.000000
1.391124 1.520482 -0.316428 26.000000
1.407668 1.504893 -0.317319 32.000000
1.433688 1.500531 -0.320691 31.000000
1.443126 1.477440 -0.320057 28.000000
1.469736 1.471856 -0.323253 36.000000
1.482266 1.451953 -0.323383 13.000000
1.493953 1.432576 -0.323572 34.000000
1.520426 1.426027 -0.326790 36.000000
1.536009 1.409028 -0.327627 31.000000
1.558686 1.398496 -0.330021 43.000000
1.580924 1.388127 -0.332552 35.000000
1.599817 1.373663 -0.334115 36.000000
1.626147 1.365337 -0.337315 41.000000
1.629592 1.337763 -0.335744 19.000000
1.655345 1.329381 -0.339021 33.000000
1.677612 1.316975 -0.341323 51.000000
1.691982 1.298254 -0.342114 32.000000
1.717605 1.288751 -0.345353 39.000000
1.743619 1.278391 -0.348470 34.000000
1.769626 1.267565 -0.351597 32.000000
1.795214 1.256744 -0.354802 35.000000
1.784521 1.220045 -0.350742 15.000000
1.809798 1.208820 -0.353952 45.000000
1.843656 1.202109 -0.358646 36.000000
1.852560 1.178908 -0.358453 33.000000
1.886078 1.171761 -0.363304 71.000000
1.903069 1.153306 -0.364731 35.000000
1.928128 1.140057 -0.367919 35.000000
1.944803 1.121046 -0.369354 35.000000
1.973946 1.109469 -0.373302 21.000000
1.994717 1.092286 -0.375491 51.000000
2.010676 1.072802 -0.377010 72.000000
2.053020 1.066371 -0.383295 37.000000
2.073202 1.048352 -0.385648 54.000000
2.093265 1.029996 -0.387936 48.000000
2.117726 1.013141 -0.390905 35.000000
2.137565 0.994131 -0.393203 37.000000
2.143647 0.968615 -0.393036 20.000000
2.190256 0.960735 -0.400072 33.000000
2.223228 0.946339 -0.404794 49.000000
2.242438 0.925728 -0.407047 34.000000
2.266081 0.906674 -0.410058 35.000000
2.285020 0.885312 -0.412321 49.000000
2.322123 0.870671 -0.417836 33.000000
2.368568 0.858554 -0.424950 37.000000
2.349849 0.822813 -0.420499 15.000000
2.419351 0.817516 -0.431798 44.000000
2.456170 0.800040 -0.437280 56.000000
2.478836 0.777521 -0.440185 47.000000
2.515435 0.758965 -0.445766 56.000000
2.551894 0.739546 -0.451195 69.000000
2.564539 0.712820 -0.452362 42.000000
2.624514 0.698671 -0.462081 46.000000
2.636689 0.671133 -0.463341 25.000000
2.677376 0.650387 -0.469643 37.000000
2.703493 0.625489 -0.473347 52.000000
2.767872 0.608551 -0.483875 59.000000
2.798401 0.583133 -0.488348 47.000000
2.833609 0.558138 -0.493758 54.000000
2.868584 0.532507 -0.499175 37.000000
2.903315 0.506150 -0.504508 64.000000
2.952382 0.481443 -0.512379 72.000000
2.986710 0.453464 -0.517724 98.000000
2.986507 0.420040 -0.517159 95.000000
2.981122 0.386090 -0.515749 95.000000
2.965550 0.351010 -0.512552 95.000000
2.979048 0.319512 -0.514429 95.000000
2.967580 0.285440 -0.511983 62.000000
2.941074 0.250436 -0.507088 20.000000
2.968204 0.219993 -0.511505 26.000000
2.955662 0.186529 -0.509056 78.000000
2.952576 0.153900 -0.508301 95.000000
2.934438 0.120681 -0.504912 77.000000
2.940454 0.088635 -0.505850 95.000000
2.936348 0.056293 -0.505003 95.000000
2.931875 0.024059 -0.504156 95.000000
2.931966 -0.008080 -0.504156 95.000000
2.907057 -0.039882 -0.499829 45.000000
2.886722 -0.071265 -0.496440 32.000000
2.851356 -0.101601 -0.490334 9.000000
2.850031 -0.132876 -0.490245 8.000000
2.838601 -0.163584 -0.488464 9.000000
2.851413 -0.195676 -0.490826 8.000000
2.780340 -0.221439 -0.478806 6.000000
2.822006 -0.255844 -0.486244 9.000000
2.814120 -0.286317 -0.485136 9.000000
2.830468 -0.319357 -0.488340 10.000000
2.821961 -0.349708 -0.487319 21.000000
2.832651 -0.382590 -0.489587 32.000000
2.833191 -0.414278 -0.490077 29.000000
2.828581 -0.445307 -0.489811 8.000000
2.760350 -0.465677 -0.478505 6.000000
2.793955 -0.502822 -0.484893 9.000000
2.769054 -0.529617 -0.481089 8.000000
2.782441 -0.563906 -0.484189 8.000000
2.756835 -0.590276 -0.480391 8.000000
2.779138 -0.626896 -0.485077 8.000000
2.781763 -0.659598 -0.486313 8.000000
2.769722 -0.688764 -0.484944 8.000000
2.738271 -0.712858 -0.480231 6.000000
2.754173 -0.749194 -0.483884 34.000000
2.788550 -0.791525 -0.490957 43.000000
2.793939 -0.826224 -0.493011 74.000000
2.780209 -0.855255 -0.491547 53.000000
2.775453 -0.887185 -0.491748 36.000000
2.765623 -0.917576 -0.491207 35.000000
2.750861 -0.946182 -0.489746 18.000000
2.712549 -0.966412 -0.484142 9.000000
2.738958 -1.009731 -0.490142 23.000000
2.709415 -1.032607 -0.486202 15.000000
2.693432 -1.060408 -0.484658 17.000000
2.718428 -1.104639 -0.490537 18.000000
2.715359 -1.138141 -0.491457 15.000000
2.702879 -1.167746 -0.490637 18.000000
2.703461 -1.203644 -0.492462 14.000000
2.663374 -1.220793 -0.486722 9.000000
2.685742 -1.266629 -0.492450 24.000000
2.671687 -1.296207 -0.491715 16.000000
2.657541 -1.325326 -0.490797 19.000000
2.660682 -1.363260 -0.493133 18.000000
2.649975 -1.394963 -0.493206 11.000000
2.660829 -1.437748 -0.497052 19.000000
2.644835 -1.467211 -0.496210 11.000000
2.624645 -1.493487 -0.494374 8.000000
2.633591 -1.537456 -0.498372 19.000000
2.621229 -1.568468 -0.498045 13.000000
2.633296 -1.615530 -0.502817 21.000000
2.607363 -1.638838 -0.500068 16.000000
2.610020 -1.681051 -0.503020 10.000000
2.595520 -1.712659 -0.502858 17.000000
2.589238 -1.748921 -0.503997 10.000000
2.573980 -1.780416 -0.503729 8.000000
2.566818 -1.816834 -0.504849 17.000000
2.558691 -1.853906 -0.506152 14.000000
2.569911 -1.905656 -0.511392 18.000000
2.545509 -1.930456 -0.509220 18.000000
2.531888 -1.964647 -0.509606 11.000000
2.533407 -2.011095 -0.513118 16.000000
2.515654 -2.041392 -0.512400 10.000000
2.531137 -2.100762 -0.518991 9.000000
2.519162 -2.138297 -0.520002 20.000000
2.514130 -2.182457 -0.522552 21.000000
2.513062 -2.228967 -0.525543 22.000000
2.499345 -2.266731 -0.526507 23.000000
2.485201 -2.304426 -0.527354 23.000000
2.449008 -2.321654 -0.523589 25.000000
2.346320 -2.272187 -0.505110 19.000000
2.331741 -2.308539 -0.505984 18.000000
2.014548 -2.038974 -0.440646 17.000000
1.902853 -1.968790 -0.419625 18.000000
1.786856 -1.888466 -0.397052 26.000000
1.735850 -1.875561 -0.389075 35.000000
1.695354 -1.872663 -0.383390 35.000000
1.661660 -1.876571 -0.379151 62.000000
1.631294 -1.883617 -0.375677 34.000000
1.627517 -1.919701 -0.378006 23.000000
1.606469 -1.937642 -0.376764 33.000000
1.578960 -1.947590 -0.374046 28.000000
1.579113 -1.992126 -0.377877 34.000000
1.554280 -2.005550 -0.375889 30.000000
1.529297 -2.018750 -0.373828 32.000000
1.514094 -2.042714 -0.373798 33.000000
1.488840 -2.055335 -0.371662 25.000000
1.480666 -2.091887 -0.373941 20.000000
1.466187 -2.120378 -0.374675 31.000000
1.440125 -2.132416 -0.372607 26.000000
1.419521 -2.152416 -0.371893 29.000000
1.401269 -2.176320 -0.371884 26.000000
1.381401 -2.195113 -0.370996 27.000000
1.360004 -2.214523 -0.370182 31.000000
1.338276 -2.233750 -0.369442 24.000000
1.346266 -2.304008 -0.377010 9.000000
1.041733 1.801996 -0.278329 8.000000
1.047569 1.769715 -0.276219 20.000000
1.066819 1.757937 -0.277296 29.000000
1.086006 1.746032 -0.278309 26.000000
1.099615 1.725581 -0.278039 27.000000
1.121103 1.717440 -0.279786 28.000000
1.142555 1.709051 -0.281475 29.000000
1.158311 1.692235 -0.281808 30.000000
1.173851 1.675229 -0.282135 26.000000
1.182466 1.650735 -0.281212 24.000000
1.206277 1.645586 -0.283527 29.000000
1.218251 1.624210 -0.283151 28.000000
1.244936 1.622419 -0.286168 35.000000
1.262582 1.608555 -0.287114 30.000000
1.280038 1.594502 -0.288059 34.000000
1.300509 1.584086 -0.289704 32.000000
1.320178 1.574044 -0.291480 29.000000
1.327672 1.548080 -0.290253 27.000000
1.347783 1.537029 -0.291840 35.000000
1.367787 1.525715 -0.293494 34.000000
1.381057 1.506842 -0.293605 49.000000
1.404209 1.498689 -0.295913 34.000000
1.433599 1.497917 -0.299788 37.000000
1.449903 1.481934 -0.300619 36.000000
1.466078 1.465822 -0.301450 33.000000
1.474987 1.442600 -0.300839 32.000000
1.501428 1.436380 -0.303836 45.000000
1.520164 1.423612 -0.305459 43.000000
1.535645 1.406652 -0.306294 47.000000
1.550999 1.389565 -0.307065 36.000000
1.573599 1.378803 -0.309298 59.000000
1.588186 1.361828 -0.310202 37.000000
1.621980 1.360031 -0.314587 36.000000
1.632980 1.338806 -0.314634 32.000000
1.647575 1.320627 -0.315350 41.000000
1.653801 1.296673 -0.314716 67.000000
1.691486 1.296301 -0.319817 36.000000
1.713540 1.283421 -0.322028 37.000000
1.751083 1.282382 -0.327294 53.000000
1.773125 1.268642 -0.329458 52.000000
1.782867 1.246094 -0.329382 31.000000
1.796430 1.226221 -0.330054 36.000000
1.809522 1.206683 -0.330792 45.000000
1.830898 1.192003 -0.332970 47.000000
1.856090 1.179994 -0.335977 62.000000
1.885723 1.169842 -0.339614 39.000000
1.906923 1.153995 -0.341677 58.000000
1.932008 1.140750 -0.344712 60.000000
1.961539 1.129206 -0.348308 37.000000
1.986487 1.115077 -0.351293 36.000000
1.981244 1.083506 -0.348803 47.000000
1.997181 1.064213 -0.350195 66.000000
2.021869 1.048885 -0.353052 81.000000
2.063925 1.042460 -0.359055 52.000000
2.079642 1.021787 -0.360323 36.000000
2.117336 1.011810 -0.365513 83.000000
2.128281 0.988400 -0.366020 35.000000
2.179388 0.983420 -0.373546 36.000000
2.194400 0.961549 -0.374910 42.000000
2.213852 0.941140 -0.376902 36.000000
2.242150 0.924446 -0.380522 45.000000
2.261213 0.903613 -0.382674 50.000000
2.289267 0.885918 -0.386234 37.000000
2.308149 0.864128 -0.388245 54.000000
2.331294 0.843893 -0.391039 31.000000
2.358904 0.824829 -0.394618 46.000000
2.400460 0.810017 -0.400546 59.000000
2.446719 0.795937 -0.407270 44.000000
2.474075 0.775051 -0.410797 55.000000
2.510615 0.756604 -0.415978 62.000000
2.528204 0.731801 -0.417951 43.000000
2.564559 0.711994 -0.423068 62.000000
2.610302 0.694100 -0.429764 34.000000
2.636789 0.670337 -0.433243 45.000000
2.677525 0.649649 -0.439173 79.000000
2.708389 0.625918 -0.443452 63.000000
2.744025 0.602548 -0.448525 43.000000
2.789033 0.580557 -0.455183 60.000000
2.829106 0.556678 -0.460973 49.000000
2.864115 0.531068 -0.465979 51.000000
2.903743 0.505668 -0.471872 30.000000
2.943136 0.479432 -0.477681 95.000000
2.972610 0.450877 -0.481914 95.000000
3.011572 0.423068 -0.487642 95.000000
3.030584 0.392070 -0.490205 98.000000
3.020032 0.357084 -0.488112 95.000000
3.018789 0.323472 -0.487413 36.000000
2.992682 0.287606 -0.482844 12.000000
2.975888 0.253130 -0.479857 8.000000
3.008011 0.222729 -0.484616 31.000000
2.990542 0.188576 -0.481628 88.000000
2.987557 0.155532 -0.480835 79.000000
2.989037 0.122798 -0.480927 95.000000
2.980278 0.089767 -0.479432 76.000000
2.981107 0.057141 -0.479340 95.000000
2.976631 0.024475 -0.478639 95.000000
2.942168 -0.008003 -0.473082 39.000000
2.946831 -0.040355 -0.473785 61.000000
2.941350 -0.072481 -0.472900 52.000000
2.950216 -0.105026 -0.474396 30.000000
2.894694 -0.134801 -0.465580 9.000000
2.907778 -0.167360 -0.467870 8.000000
2.900962 -0.198802 -0.466897 8.000000
2.859255 -0.227396 -0.460378 9.000000
2.900845 -0.262698 -0.467419 18.000000
2.897784 -0.294478 -0.467149 35.000000
2.904265 -0.327273 -0.468552 58.000000
2.895662 -0.358463 -0.467490 37.000000
2.896497 -0.390686 -0.468010 50.000000
2.892070 -0.422393 -0.467739 42.000000
2.882496 -0.453242 -0.466679 20.000000
2.853012 -0.480703 -0.462462 8.000000
2.842788 -0.510947 -0.461227 8.000000
2.856474 -0.545806 -0.464111 8.000000
2.835934 -0.574054 -0.461389 8.000000
2.839153 -0.607147 -0.462605 8.000000
2.837241 -0.639186 -0.462942 8.000000
2.815726 -0.666779 -0.460137 8.000000
2.832356 -0.703400 -0.463612 8.000000
2.776718 -0.721995 -0.455413 8.000000
2.759208 -0.749636 -0.453316 10.000000
2.826922 -0.801401 -0.465388 44.000000
2.832324 -0.836558 -0.467187 66.000000
2.813666 -0.864407 -0.464988 34.000000
2.808822 -0.896648 -0.465222 36.000000
2.798984 -0.927347 -0.464675 33.000000
2.788781 -0.957864 -0.464129 26.000000
2.750293 -0.978357 -0.458833 14.000000
2.772010 -1.020330 -0.463629 21.000000
2.788394 -1.061350 -0.467728 21.000000
2.744509 -1.079111 -0.461669 18.000000
2.737335 -1.110848 -0.461713 18.000000
2.757007 -1.154038 -0.466471 19.000000
2.748804 -1.186368 -0.466595 18.000000
2.735766 -1.216235 -0.465855 14.000000
2.722543 -1.246010 -0.465023 17.000000
2.717612 -1.280181 -0.465908 18.000000
2.712590 -1.313991 -0.466603 20.000000
2.698070 -1.343869 -0.465858 18.000000
2.718555 -1.391198 -0.471025 21.000000
2.698810 -1.418791 -0.469510 21.000000
2.696417 -1.455112 -0.470847 20.000000
2.684658 -1.487307 -0.470848 16.000000
2.668454 -1.516398 -0.469900 12.000000
2.660222 -1.550751 -0.470558 15.000000
2.651978 -1.584625 -0.471020 18.000000
2.659720 -1.629300 -0.474675 14.000000
2.670924 -1.677067 -0.478967 19.000000
2.648659 -1.703306 -0.477147 19.000000
2.638059 -1.737905 -0.477670 15.000000
2.619338 -1.766376 -0.476500 10.000000
2.620082 -1.809383 -0.479246 12.000000
2.608209 -1.843982 -0.479650 18.000000
2.603828 -1.884361 -0.481529 20.000000
2.591445 -1.918215 -0.481817 19.000000
2.593907 -1.964783 -0.485146 16.000000
2.583947 -2.002486 -0.486148 18.000000
2.570217 -2.036366 -0.486304 18.000000
2.570816 -2.083377 -0.489480 14.000000
2.562978 -2.124382 -0.491174 17.000000
2.558432 -2.168719 -0.493582 25.000000
2.561433 -2.218704 -0.497214 29.000000
2.562795 -2.269886 -0.500923 31.000000
2.548772 -2.308147 -0.501822 37.000000
2.519689 -2.332889 -0.499723 81.000000
2.484125 -2.349480 -0.495981 40.000000
2.411940 -2.332177 -0.485305 32.000000
2.382764 -2.355286 -0.483143 24.000000
1.941676 -2.005618 -0.400091 27.000000
1.838699 -1.939966 -0.381830 28.000000
1.740031 -1.876665 -0.364383 34.000000
1.686106 -1.859088 -0.356252 52.000000
1.655903 -1.866544 -0.352991 53.000000
1.628880 -1.877291 -0.350441 42.000000
1.614683 -1.902689 -0.350684 27.000000
1.610585 -1.938729 -0.352842 35.000000
1.586182 -1.952516 -0.350986 35.000000
1.561708 -1.966079 -0.349058 34.000000
1.549315 -1.994911 -0.349956 35.000000
1.530442 -2.015899 -0.349394 37.000000
1.502473 -2.024707 -0.346784 32.000000
1.488984 -2.053203 -0.347500 29.000000
1.467734 -2.068750 -0.346094 22.000000
1.447901 -2.088916 -0.345517 34.000000
1.444489 -2.133527 -0.348883 32.000000
1.415695 -2.141050 -0.346197 35.000000
1.400283 -2.169111 -0.346851 32.000000
1.384519 -2.197032 -0.347489 34.000000
1.357856 -2.208002 -0.345469 32.000000
1.343795 -2.239927 -0.346744 29.000000
1.350872 -2.305159 -0.353077 10.000000
1.046526 1.807700 -0.260363 8.000000
1.043391 1.757676 -0.255740 18.000000
1.059923 1.741808 -0.256122 26.000000
1.084112 1.738374 -0.258377 25.000000
1.100347 1.722157 -0.258694 24.000000
1.123440 1.718893 -0.261024 31.000000
1.142139 1.706385 -0.261972 26.000000
1.160648 1.693625 -0.262919 31.000000
1.173398 1.672618 -0.262592 24.000000
1.182890 1.647520 -0.261616 23.000000
1.200738 1.634352 -0.262490 32.000000
1.221442 1.625023 -0.264070 29.000000
1.239084 1.611447 -0.264946 27.000000
1.262731 1.605477 -0.267119 29.000000
1.282496 1.595951 -0.268775 27.000000
1.296678 1.577879 -0.269005 32.000000
1.323408 1.574867 -0.271850 31.000000
1.324355 1.541379 -0.269388 27.000000
1.341121 1.526677 -0.270201 36.000000
1.364322 1.519162 -0.272399 32.000000
1.377505 1.500361 -0.272553 34.000000
1.403352 1.496467 -0.275427 36.000000
1.429938 1.491658 -0.278250 35.000000
1.446163 1.475751 -0.279014 36.000000
1.465768 1.463153 -0.280512 34.000000
1.471016 1.436504 -0.279259 29.000000
1.500986 1.433855 -0.282718 59.000000
1.516075 1.417744 -0.283549 57.000000
1.538857 1.407552 -0.285673 71.000000
1.554211 1.390464 -0.286380 46.000000
1.576762 1.379707 -0.288450 55.000000
1.588038 1.358995 -0.288477 52.000000
1.613789 1.351406 -0.291370 35.000000
1.624678 1.330305 -0.291332 24.000000
1.627572 1.302970 -0.289977 56.000000
1.641769 1.284919 -0.290620 49.000000
1.690776 1.294212 -0.297620 64.000000
1.716777 1.284346 -0.300357 56.000000
1.750770 1.279861 -0.304493 43.000000
1.772730 1.266235 -0.306488 57.000000
1.790217 1.249868 -0.307925 38.000000
1.787448 1.218794 -0.305732 33.000000
1.804839 1.201733 -0.307033 59.000000
1.825903 1.187549 -0.309174 62.000000
1.855578 1.177885 -0.312526 68.000000
1.876731 1.162570 -0.314547 63.000000
1.918766 1.160080 -0.320105 62.000000
1.931416 1.138859 -0.320658 46.000000
1.939429 1.114965 -0.320502 42.000000
1.955678 1.096280 -0.321903 35.000000
1.980597 1.081761 -0.324521 82.000000
1.992078 1.060192 -0.325148 59.000000
2.025527 1.049588 -0.329205 62.000000
2.041341 1.029377 -0.330413 76.000000
2.061223 1.011531 -0.332410 54.000000
2.112319 1.007911 -0.339363 69.000000
2.132050 0.989052 -0.341377 42.000000
2.178865 0.981757 -0.347569 32.000000
2.162134 0.946125 -0.343761 66.000000
2.208609 0.938015 -0.350044 37.000000
2.232472 0.919244 -0.352656 52.000000
2.260681 0.902230 -0.356072 52.000000
2.284133 0.882882 -0.358697 46.000000
2.307551 0.862928 -0.361251 52.000000
2.326050 0.841064 -0.363159 36.000000
2.363073 0.825369 -0.367980 37.000000
2.381250 0.802742 -0.369900 62.000000
2.441524 0.793515 -0.378306 62.000000
2.478321 0.775612 -0.383080 59.000000
2.500781 0.752732 -0.385671 67.000000
2.532596 0.732208 -0.389730 62.000000
2.554702 0.708440 -0.392251 58.000000
2.590826 0.688251 -0.397055 35.000000
2.626948 0.667106 -0.401785 34.000000
2.662896 0.645330 -0.406523 52.000000
2.693838 0.621812 -0.410533 48.000000
2.724560 0.597684 -0.414549 37.000000
2.779261 0.577889 -0.422249 42.000000
2.809655 0.552266 -0.426193 43.000000
2.854388 0.528726 -0.432350 43.000000
2.869685 0.499162 -0.434003 34.000000
2.943232 0.478915 -0.444595 77.000000
2.962960 0.448933 -0.446992 35.000000
3.026442 0.424724 -0.456126 39.000000
3.040683 0.392892 -0.457791 95.000000
3.084038 0.364327 -0.463890 98.000000
3.082954 0.330070 -0.463342 74.000000
3.027235 0.290627 -0.454568 15.000000
3.015456 0.256245 -0.452538 8.000000
2.988482 0.221092 -0.448194 8.000000
3.005506 0.189290 -0.450505 19.000000
3.061685 0.159219 -0.458737 90.000000
3.053318 0.125324 -0.457257 58.000000
3.049601 0.091793 -0.456612 85.000000
3.025728 0.057991 -0.452911 90.000000
3.011361 0.024718 -0.450691 82.000000
2.991674 -0.008124 -0.447731 44.000000
3.011175 -0.041166 -0.450598 48.000000
2.966034 -0.072968 -0.443848 35.000000
2.999711 -0.106607 -0.448933 41.000000
2.983503 -0.138705 -0.446622 29.000000
2.952224 -0.169629 -0.442094 16.000000
2.979817 -0.203957 -0.446346 28.000000
2.942914 -0.233750 -0.441082 22.000000
2.959881 -0.267688 -0.443854 60.000000
2.986374 -0.303055 -0.448100 54.000000
2.963198 -0.333538 -0.444963 35.000000
2.969241 -0.367139 -0.446162 51.000000
2.960186 -0.398790 -0.445148 37.000000
2.960656 -0.431853 -0.445608 45.000000
2.945992 -0.462721 -0.443951 34.000000
2.867684 -0.482523 -0.432548 8.000000
2.891418 -0.519170 -0.436690 8.000000
2.885617 -0.550712 -0.436328 8.000000
2.894087 -0.585194 -0.438258 8.000000
2.882692 -0.615680 -0.437069 8.000000
2.880696 -0.648232 -0.437438 8.000000
2.883126 -0.681845 -0.438446 8.000000
2.866030 -0.710996 -0.436618 8.000000
2.829380 -0.734872 -0.431869 8.000000
2.840359 -0.770805 -0.434248 11.000000
2.850862 -0.807246 -0.436710 29.000000
2.832507 -0.835523 -0.434796 10.000000
2.818486 -0.864953 -0.433613 9.000000
2.813650 -0.897285 -0.433794 9.000000
2.841384 -0.940327 -0.439053 34.000000
2.854442 -0.979280 -0.442123 37.000000
2.801689 -0.995461 -0.435050 10.000000
2.818638 -1.036242 -0.438745 18.000000
2.793279 -1.061903 -0.436024 20.000000
2.800088 -1.099551 -0.438262 16.000000
2.810955 -1.139273 -0.441211 23.000000
2.789198 -1.166322 -0.439212 17.000000
2.790057 -1.202498 -0.440619 19.000000
2.785986 -1.236775 -0.441302 18.000000
2.749854 -1.257129 -0.437068 10.000000
2.771975 -1.303814 -0.442035 21.000000
2.766433 -1.338539 -0.442800 22.000000
2.765134 -1.375093 -0.444082 20.000000
2.758809 -1.409971 -0.444837 25.000000
2.738762 -1.438046 -0.443363 19.000000
2.736288 -1.474750 -0.444629 21.000000
2.728564 -1.509631 -0.445276 20.000000
2.707917 -1.536604 -0.443609 10.000000
2.729432 -1.588867 -0.449178 20.000000
2.716159 -1.621388 -0.449004 19.000000
2.698609 -1.650737 -0.448029 16.000000
2.705544 -1.696255 -0.451350 21.000000
2.690911 -1.728653 -0.451163 18.000000
2.684691 -1.765796 -0.452169 13.000000
2.669289 -1.798172 -0.451874 13.000000
2.649353 -1.827530 -0.450981 10.000000
2.653989 -1.873127 -0.453943 15.000000
2.653340 -1.916856 -0.456394 16.000000
2.644105 -1.954938 -0.457452 16.000000
2.638323 -1.995968 -0.459087 19.000000
2.644341 -2.045517 -0.462662 21.000000
2.614016 -2.068415 -0.460161 23.000000
2.614320 -2.115866 -0.463124 25.000000
2.598536 -2.150986 -0.463345 21.000000
2.605828 -2.204325 -0.467422 40.000000
2.596529 -2.245990 -0.468866 60.000000
2.568074 -2.271259 -0.467028 85.000000
2.539374 -2.296234 -0.465088 88.000000
2.514069 -2.324175 -0.463823 95.000000
2.485689 -2.347449 -0.461678 77.000000
2.420678 -2.336860 -0.452971 31.000000
2.380875 -2.349564 -0.449066 20.000000
2.107309 -2.125834 -0.400633 23.000000
1.976944 -2.038672 -0.378934 24.000000
1.859051 -1.959758 -0.359336 26.000000
1.747349 -1.881244 -0.340269 32.000000
1.686718 -1.856425 -0.331383 35.000000
1.653162 -1.860056 -0.327691 58.000000
1.622953 -1.866986 -0.324667 52.000000
1.592913 -1.873396 -0.321655 25.000000
1.585007 -1.906128 -0.323181 33.000000
1.576692 -1.938834 -0.324690 33.000000
1.553378 -1.951489 -0.322818 32.000000
1.544147 -1.984105 -0.324224 36.000000
1.522485 -2.001047 -0.323064 33.000000
1.500592 -2.017680 -0.321904 31.000000
1.481460 -2.038093 -0.321376 33.000000
1.450519 -2.042161 -0.318322 22.000000
1.439484 -2.074337 -0.319601 35.000000
1.441857 -2.127059 -0.324066 31.000000
1.407665 -2.126242 -0.320309 29.000000
1.393792 -2.153325 -0.320758 33.000000
1.375505 -2.176939 -0.320811 30.000000
1.356956 -2.200433 -0.320696 33.000000
1.332868 -2.215299 -0.319424 26.000000
1.348809 -2.298326 -0.327923 9.000000
1.046283 1.804687 -0.241031 6.000000
1.045591 1.758934 -0.237383 15.000000
1.072455 1.760027 -0.239998 16.000000
1.086318 1.739697 -0.239787 21.000000
1.105224 1.727597 -0.240669 16.000000
1.124003 1.715309 -0.241551 22.000000
1.142594 1.702894 -0.242433 21.000000
1.163870 1.694320 -0.243905 17.000000
1.170830 1.665124 -0.242424 24.000000
1.174411 1.632026 -0.240333 10.000000
1.202985 1.635663 -0.243643 21.000000
1.220709 1.622307 -0.244454 26.000000
1.232315 1.600898 -0.244066 16.000000
1.261924 1.602835 -0.247280 25.000000
1.279358 1.588850 -0.248095 23.000000
1.296604 1.574739 -0.248910 24.000000
1.316859 1.564174 -0.250333 26.000000
1.314470 1.527022 -0.247431 10.000000
1.343436 1.527928 -0.250745 30.000000
1.363394 1.516729 -0.252171 32.000000
1.379825 1.501615 -0.252924 22.000000
1.399590 1.489929 -0.254294 32.000000
1.422620 1.481622 -0.256223 26.000000
1.445742 1.472910 -0.258223 26.000000
1.458225 1.453349 -0.258298 26.000000
1.481159 1.444127 -0.260307 10.000000
1.489127 1.421433 -0.259818 32.000000
1.515454 1.415062 -0.262398 32.000000
1.527227 1.394942 -0.262470 25.000000
1.557166 1.391171 -0.265630 38.000000
1.572326 1.373955 -0.266337 30.000000
1.583011 1.353836 -0.266473 31.000000
1.613032 1.349003 -0.269658 34.000000
1.627718 1.331082 -0.270305 14.000000
1.618972 1.294450 -0.267054 35.000000
1.656509 1.294851 -0.271534 32.000000
1.686308 1.288519 -0.274684 29.000000
1.703929 1.273266 -0.276046 35.000000
1.725815 1.260262 -0.277925 27.000000
1.755638 1.252643 -0.281101 30.000000
1.781447 1.241700 -0.283575 31.000000
1.790516 1.219660 -0.283661 17.000000
1.799658 1.197111 -0.283544 35.000000
1.821012 1.182552 -0.285379 35.000000
1.842218 1.167743 -0.287219 29.000000
1.871499 1.158170 -0.290440 37.000000
1.896762 1.145192 -0.292948 35.000000
1.926260 1.134313 -0.296120 29.000000
1.938372 1.113392 -0.296671 33.000000
1.954740 1.094412 -0.297880 21.000000
1.970954 1.075198 -0.299023 35.000000
1.991111 1.058422 -0.300899 42.000000
2.033375 1.052429 -0.305951 32.000000
2.049080 1.032523 -0.307178 36.000000
2.078042 1.018641 -0.310331 34.000000
2.093489 0.997899 -0.311424 29.000000
2.131105 0.987620 -0.315923 36.000000
2.137219 0.962080 -0.315689 18.000000
2.174708 0.950676 -0.320206 32.000000
2.203260 0.934515 -0.323248 36.000000
2.226956 0.916144 -0.325775 32.000000
2.241422 0.893433 -0.326817 32.000000
2.278666 0.879766 -0.331295 35.000000
2.306633 0.861802 -0.334438 29.000000
2.325205 0.839839 -0.336164 34.000000
2.310725 0.806248 -0.333173 10.000000
2.394438 0.806369 -0.344353 35.000000
2.436060 0.790931 -0.349552 35.000000
2.468142 0.771658 -0.353252 36.000000
2.490578 0.749016 -0.355682 37.000000
2.517625 0.727117 -0.358635 35.000000
2.539615 0.703721 -0.361155 32.000000
2.590255 0.687312 -0.367595 35.000000
2.587917 0.656561 -0.366483 13.000000
2.657494 0.643422 -0.375659 35.000000
2.702930 0.623352 -0.381445 37.000000
2.694994 0.590521 -0.379657 29.000000
2.774029 0.576224 -0.390143 35.000000
2.799492 0.549756 -0.393135 31.000000
2.829644 0.523677 -0.396813 31.000000
2.869389 0.498673 -0.401863 36.000000
2.923481 0.475217 -0.408880 30.000000
2.943191 0.445504 -0.411115 12.000000
2.977297 0.417442 -0.415497 10.000000
3.040596 0.392542 -0.423900 28.000000
3.093844 0.365099 -0.430940 95.000000
3.127135 0.334476 -0.435148 92.000000
3.110902 0.298381 -0.432599 37.000000
3.104113 0.263555 -0.431324 18.000000
3.042590 0.224834 -0.422504 7.000000
3.059675 0.192587 -0.424656 8.000000
3.056618 0.158800 -0.423970 10.000000
3.063075 0.125621 -0.424750 31.000000
3.074204 0.092483 -0.426123 38.000000
3.075057 0.058844 -0.426123 39.000000
3.065531 0.025219 -0.424750 33.000000
3.070578 -0.008325 -0.425436 55.000000
3.040675 -0.041504 -0.421226 32.000000
3.005361 -0.073819 -0.416423 24.000000
2.959797 -0.105117 -0.410158 10.000000
2.958520 -0.137419 -0.410067 8.000000
2.971711 -0.170572 -0.412032 9.000000
3.009223 -0.205738 -0.417331 24.000000
