x y z intensity
1.773029 1.825322 -0.871902 53.000000
1.789399 1.801444 -0.872822 49.000000
1.812269 1.784030 -0.876910 57.000000
1.828157 1.759737 -0.877656 62.000000
1.860926 1.751464 -0.886670 55.000000
1.883387 1.733034 -0.890625 82.000000
1.912772 1.720589 -0.897883 37.000000
1.931483 1.698385 -0.900211 50.000000
1.938467 1.667368 -0.897820 27.000000
1.902511 1.599270 -0.875063 21.000000
1.876242 1.541244 -0.857181 32.000000
1.775432 1.424989 -0.805762 33.000000
1.117214 0.817050 -0.495129 95.000000
1.103203 0.787588 -0.485991 34.000000
1.123131 0.783137 -0.492208 73.000000
1.120078 0.762100 -0.488057 91.000000
1.128208 0.749312 -0.489111 91.000000
1.132261 0.733835 -0.488464 95.000000
1.124469 0.710609 -0.482477 58.000000
1.132069 0.697741 -0.483470 85.000000
1.119449 0.672687 -0.475861 87.000000
1.118555 0.655087 -0.473322 52.000000
1.125630 0.642285 -0.474164 95.000000
1.120227 0.622515 -0.469844 79.000000
1.126933 0.609643 -0.470635 98.000000
1.121059 0.590131 -0.466246 98.000000
1.123269 0.575098 -0.465258 95.000000
1.125309 0.560119 -0.464224 98.000000
1.131402 0.547156 -0.464878 95.000000
1.128722 0.530328 -0.462220 58.000000
1.143016 0.521188 -0.466268 49.000000
1.148536 0.508225 -0.467004 81.000000
1.128140 0.484054 -0.457269 75.000000
1.124765 0.467426 -0.454254 58.000000
1.134109 0.456360 -0.456638 71.000000
1.134644 0.441718 -0.455444 95.000000
1.143747 0.430394 -0.457754 66.000000
1.143887 0.415851 -0.456674 69.000000
1.148370 0.402759 -0.457150 88.000000
1.148301 0.388089 -0.455866 87.000000
1.165759 0.379391 -0.461706 100.000000
1.160828 0.363364 -0.458697 95.000000
1.160236 0.348766 -0.457408 91.000000
1.163951 0.335567 -0.457842 98.000000
1.167547 0.322288 -0.458237 98.000000
1.166464 0.307776 -0.456822 90.000000
1.133423 0.285378 -0.443115 71.000000
1.849920 0.377394 -0.718047 37.000000
1.977762 0.380255 -0.766627 26.000000
2.023157 0.365234 -0.783173 25.000000
2.077658 0.350761 -0.803234 12.000000
2.062914 0.324255 -0.796519 21.000000
2.057079 0.299446 -0.793294 24.000000
2.050943 0.274847 -0.790135 19.000000
2.063055 0.252662 -0.794041 23.000000
2.070345 0.229683 -0.796098 27.000000
2.068079 0.205674 -0.794517 24.000000
2.051576 0.180610 -0.787711 18.000000
2.062705 0.157973 -0.791487 10.000000
2.050348 0.133606 -0.786261 18.000000
2.051624 0.110376 -0.786462 21.000000
2.043434 0.086616 -0.782821 16.000000
2.058305 0.063859 -0.788250 20.000000
2.058776 0.040509 -0.788452 22.000000
2.068451 0.017169 -0.792095 23.000000
2.068518 -0.006286 -0.792027 24.000000
2.063714 -0.029743 -0.790172 24.000000
2.067978 -0.053266 -0.791757 27.000000
2.067234 -0.076722 -0.791622 23.000000
2.066220 -0.100246 -0.791689 24.000000
2.065071 -0.123701 -0.791419 29.000000
2.063584 -0.147157 -0.791216 16.000000
2.047931 -0.169391 -0.785590 14.000000
2.064584 -0.194372 -0.792393 25.000000
2.043768 -0.215851 -0.785052 17.000000
2.064481 -0.241798 -0.793702 26.000000
2.052498 -0.264032 -0.789729 24.000000
2.058845 -0.288582 -0.792819 24.000000
2.060137 -0.312709 -0.794261 29.000000
2.038221 -0.333105 -0.786665 13.000000
2.034511 -0.356238 -0.786193 14.000000
2.021344 -0.377588 -0.782031 21.000000
2.017181 -0.400415 -0.781360 18.000000
2.026406 -0.426263 -0.786147 24.000000
2.017111 -0.448232 -0.783832 21.000000
2.016740 -0.472161 -0.784930 21.000000
2.020480 -0.497379 -0.787930 21.000000
2.005992 -0.517924 -0.783578 10.000000
2.018239 -0.545654 -0.789971 14.000000
1.985227 -0.560940 -0.778627 21.000000
1.983456 -0.584806 -0.779651 15.000000
2.017305 -0.619698 -0.794631 22.000000
1.997119 -0.638272 -0.788389 16.000000
1.999031 -0.663849 -0.790947 16.000000
2.004962 -0.691223 -0.795390 21.000000
1.975176 -0.706221 -0.785723 10.000000
1.980764 -0.733384 -0.789814 11.000000
1.977017 -0.757563 -0.790600 23.000000
1.981738 -0.785225 -0.794736 16.000000
1.986139 -0.813045 -0.798858 21.000000
1.981370 -0.837653 -0.799692 20.000000
1.976492 -0.862009 -0.800171 17.000000
1.975710 -0.888174 -0.802381 22.000000
1.944495 -0.901016 -0.792581 10.000000
1.960205 -0.935029 -0.801574 13.000000
1.958242 -0.961631 -0.803831 22.000000
1.960164 -0.990401 -0.807803 19.000000
1.949238 -1.012753 -0.806446 18.000000
1.946309 -1.039456 -0.808601 19.000000
1.943140 -1.066206 -0.810602 18.000000
1.939656 -1.092928 -0.812518 21.000000
1.907316 -1.103298 -0.802444 10.000000
1.911386 -1.134576 -0.807700 12.000000
1.907074 -1.161190 -0.809521 24.000000
1.910343 -1.192822 -0.814657 12.000000
1.916769 -1.227651 -0.821683 17.000000
1.903475 -1.249363 -0.819911 16.000000
1.897770 -1.276180 -0.821445 15.000000
1.906785 -1.314232 -0.829935 21.000000
1.869516 -1.319414 -0.817885 10.000000
1.854833 -1.341068 -0.816180 10.000000
1.870742 -1.384400 -0.827504 16.000000
1.855364 -1.405958 -0.825695 16.000000
1.858382 -1.441889 -0.832225 21.000000
1.861468 -1.477408 -0.838257 21.000000
1.845088 -1.498865 -0.836334 20.000000
1.843066 -1.532232 -0.840879 23.000000
1.829762 -1.556529 -0.840515 10.000000
1.834672 -1.595544 -0.847908 17.000000
1.820676 -1.619744 -0.847350 22.000000
1.739991 -1.583454 -0.815587 16.000000
1.618890 -1.506846 -0.764385 25.000000
1.578427 -1.502668 -0.750841 32.000000
1.555190 -1.514148 -0.745483 33.000000
1.535309 -1.528670 -0.741692 61.000000
1.505413 -1.532707 -0.733067 27.000000
1.511672 -1.573855 -0.742119 35.000000
1.484852 -1.580804 -0.735053 38.000000
1.474139 -1.604764 -0.735947 37.000000
1.447232 -1.611034 -0.728846 56.000000
1.432997 -1.631122 -0.728065 37.000000
1.408301 -1.640977 -0.722798 36.000000
1.393677 -1.660683 -0.722012 49.000000
1.378766 -1.680251 -0.721146 30.000000
1.348852 -1.681094 -0.712354 25.000000
1.333702 -1.700210 -0.711423 28.000000
1.323138 -1.727424 -0.713878 27.000000
1.301769 -1.738644 -0.709739 30.000000
1.286028 -1.757335 -0.708706 27.000000
1.261696 -1.764203 -0.702968 29.000000
1.249895 -1.790938 -0.705211 29.000000
1.238890 -1.816954 -0.707141 24.000000
1.219503 -1.831053 -0.704392 20.000000
1.196253 -1.841651 -0.700335 26.000000
1.179180 -1.859251 -0.699105 24.000000
1.158243 -1.873350 -0.696567 26.000000
1.143291 -1.894700 -0.696680 25.000000
1.130517 -1.920061 -0.698334 24.000000
1.111157 -1.937812 -0.697187 26.000000
1.097582 -1.962955 -0.698709 16.000000
1.089001 -2.001426 -0.704844 9.000000
0.691812 1.280320 -0.438772 8.000000
0.698350 1.259739 -0.436279 13.000000
0.695926 1.222099 -0.427748 16.000000
0.711167 1.218198 -0.430959 17.000000
0.721542 1.205904 -0.431247 24.000000
0.732545 1.193084 -0.431345 20.000000
0.739977 1.176593 -0.430133 27.000000
0.760930 1.179661 -0.436092 26.000000
0.786554 1.190826 -0.445197 18.000000
0.777764 1.150173 -0.434973 10.000000
0.825962 1.191768 -0.455935 10.000000
0.877198 1.236704 -0.478679 11.000000
0.923895 1.272899 -0.498555 16.000000
0.986474 1.326771 -0.525932 12.000000
1.055344 1.387467 -0.556740 17.000000
1.108096 1.424199 -0.578539 11.000000
1.604577 1.925750 -0.812340 31.000000
1.628247 1.910874 -0.816540 26.000000
1.662175 1.905705 -0.825081 34.000000
1.682551 1.886629 -0.827678 29.000000
1.709165 1.874247 -0.833397 30.000000
1.732448 1.858083 -0.837570 36.000000
1.758999 1.844954 -0.843241 18.000000
1.762266 1.807725 -0.837825 29.000000
1.788447 1.794069 -0.843419 35.000000
1.807758 1.773454 -0.845864 29.000000
1.837170 1.762441 -0.852992 36.000000
1.866632 1.750946 -0.860065 34.000000
1.878600 1.722953 -0.859178 31.000000
1.900761 1.704443 -0.863078 41.000000
1.940631 1.701129 -0.874931 21.000000
1.937525 1.660195 -0.867437 29.000000
1.948280 1.631747 -0.866348 35.000000
1.936772 1.585160 -0.855460 20.000000
1.920801 1.536133 -0.842889 21.000000
1.851313 1.447561 -0.807731 20.000000
1.761899 1.345756 -0.763943 29.000000
1.128637 0.783936 -0.478088 22.000000
1.136941 0.771148 -0.479198 44.000000
1.141486 0.755356 -0.478436 36.000000
1.145575 0.739830 -0.477801 50.000000
1.153469 0.726777 -0.478815 81.000000
1.153413 0.708435 -0.476290 33.000000
1.152898 0.690452 -0.473927 70.000000
1.148121 0.670189 -0.469842 23.000000
1.155307 0.657108 -0.470703 33.000000
1.141754 0.632481 -0.463202 74.000000
1.156852 0.623893 -0.467356 34.000000
1.142726 0.599709 -0.459733 88.000000
1.140818 0.582341 -0.457124 82.000000
1.138692 0.565082 -0.454463 49.000000
1.140549 0.550018 -0.453437 78.000000
1.129452 0.528941 -0.447301 26.000000
1.156490 0.525902 -0.456523 35.000000
1.162216 0.512636 -0.457100 57.000000
1.159005 0.495753 -0.454409 35.000000
1.168748 0.484262 -0.456638 62.000000
1.169556 0.469213 -0.455554 67.000000
1.174545 0.455922 -0.456168 52.000000
1.153046 0.432642 -0.446515 69.000000
1.179777 0.427536 -0.455565 29.000000
1.157765 0.404786 -0.445806 59.000000
1.162027 0.391683 -0.446403 85.000000
1.166248 0.378421 -0.446841 81.000000
1.170231 0.365239 -0.447359 95.000000
1.169635 0.350589 -0.446121 85.000000
1.173364 0.337338 -0.446558 91.000000
1.181461 0.325254 -0.448673 95.000000
1.171346 0.308210 -0.443871 34.000000
1.990904 0.405145 -0.747853 22.000000
2.022846 0.387849 -0.758684 25.000000
2.059184 0.370759 -0.771326 16.000000
2.090955 0.351953 -0.781979 13.000000
2.108582 0.330475 -0.787585 19.000000
2.107273 0.305918 -0.786409 19.000000
2.087285 0.278912 -0.778022 19.000000
2.094818 0.255844 -0.780098 21.000000
2.078852 0.230023 -0.773436 16.000000
2.081234 0.206476 -0.773640 21.000000
2.092685 0.183682 -0.777383 10.000000
2.099206 0.160387 -0.779392 15.000000
2.100851 0.136544 -0.779529 17.000000
2.111585 0.113273 -0.783208 21.000000
2.103317 0.088929 -0.779735 19.000000
2.094835 0.064865 -0.776330 21.000000
2.076630 0.040761 -0.769518 16.000000
2.086277 0.017315 -0.773060 19.000000
2.105098 -0.006372 -0.780009 23.000000
2.081521 -0.029877 -0.771187 20.000000
2.076427 -0.053334 -0.769247 17.000000
2.094494 -0.077551 -0.776125 24.000000
2.102838 -0.101672 -0.779598 59.000000
2.101604 -0.125514 -0.779324 64.000000
2.072101 -0.147293 -0.768707 16.000000
2.098384 -0.173061 -0.778844 22.000000
2.087128 -0.195890 -0.775034 21.000000
2.084877 -0.219558 -0.774829 21.000000
2.082353 -0.243157 -0.774488 24.000000
2.061015 -0.264302 -0.767152 17.000000
2.090492 -0.292236 -0.778999 23.000000
2.054796 -0.310944 -0.766341 16.000000
2.051349 -0.334197 -0.765868 9.000000
2.052118 -0.358257 -0.767325 19.000000
2.048188 -0.381495 -0.766716 15.000000
2.043853 -0.404665 -0.766241 18.000000
2.053229 -0.430589 -0.770668 18.000000
2.039221 -0.451953 -0.766813 18.000000
2.052481 -0.479241 -0.773020 22.000000
2.047206 -0.502398 -0.772267 17.000000
2.014306 -0.518600 -0.761339 9.000000
2.035764 -0.548781 -0.770965 16.000000
2.025146 -0.570596 -0.768496 11.000000
2.032377 -0.597470 -0.772885 18.000000
2.021347 -0.619080 -0.770279 11.000000
2.027979 -0.646155 -0.774446 15.000000
2.025252 -0.670720 -0.775394 16.000000
2.017978 -0.693511 -0.774355 14.000000
1.992577 -0.710129 -0.766640 9.000000
2.011212 -0.742489 -0.775957 14.000000
2.007464 -0.766920 -0.776613 11.000000
2.020897 -0.798292 -0.784052 19.000000
1.990379 -0.812246 -0.774451 10.000000
1.998656 -0.842358 -0.780315 14.000000
2.002458 -0.870496 -0.784119 17.000000
1.984169 -0.889514 -0.779681 12.000000
1.978785 -0.913834 -0.780027 9.000000
1.985691 -0.944461 -0.785625 14.000000
1.958297 -0.958837 -0.777695 10.000000
1.981426 -0.998043 -0.789911 14.000000
1.961991 -1.016276 -0.785269 13.000000
1.954986 -1.040819 -0.785580 10.000000
1.960125 -1.072098 -0.790820 15.000000
1.964850 -1.103537 -0.796035 12.000000
1.936402 -1.116434 -0.787854 9.000000
1.952668 -1.155160 -0.797948 12.000000
1.928017 -1.169910 -0.791367 10.000000
1.946936 -1.212108 -0.803202 13.000000
1.933811 -1.234058 -0.801497 10.000000
1.916511 -1.253351 -0.798071 10.000000
1.918215 -1.285923 -0.803086 13.000000
1.912125 -1.312835 -0.804498 10.000000
1.912974 -1.345736 -0.809390 9.000000
1.909522 -1.376081 -0.812624 10.000000
1.890975 -1.394627 -0.808869 10.000000
1.898146 -1.433492 -0.816868 14.000000
1.889820 -1.461076 -0.818267 13.000000
1.870543 -1.479254 -0.814416 10.000000
1.861598 -1.506666 -0.815718 13.000000
1.848644 -1.531072 -0.815319 10.000000
1.875135 -1.589010 -0.832557 10.000000
1.857712 -1.610471 -0.830419 11.000000
1.847063 -1.638062 -0.831393 11.000000
1.776435 -1.611362 -0.805295 10.000000
1.640649 -1.522030 -0.749167 10.000000
1.582724 -1.501654 -0.728085 18.000000
1.562964 -1.516389 -0.724401 33.000000
1.532959 -1.520879 -0.716006 31.000000
1.526434 -1.548517 -0.718630 23.000000
1.509591 -1.565849 -0.716464 32.000000
1.482832 -1.572671 -0.709549 28.000000
1.462601 -1.586049 -0.705773 33.000000
1.439122 -1.595615 -0.700457 30.000000
1.431317 -1.622659 -0.702814 32.000000
1.403603 -1.628789 -0.696111 32.000000
1.386085 -1.644721 -0.693766 30.000000
1.371456 -1.664050 -0.692951 23.000000
1.347646 -1.672188 -0.687552 21.000000
1.340506 -1.703126 -0.691428 21.000000
1.322316 -1.718261 -0.688998 26.000000
1.295389 -1.721829 -0.681973 21.000000
1.278763 -1.740984 -0.681200 21.000000
1.262951 -1.759375 -0.680210 26.000000
1.241437 -1.769739 -0.676154 18.000000
1.232316 -1.800218 -0.679754 19.000000
1.213139 -1.814165 -0.677104 17.000000
1.196505 -1.831832 -0.675930 19.000000
1.180954 -1.854150 -0.676425 24.000000
1.156321 -1.859367 -0.670829 16.000000
1.145272 -1.889423 -0.674149 20.000000
1.127757 -1.906512 -0.672783 16.000000
1.109944 -1.923445 -0.671475 16.000000
1.092970 -1.945032 -0.671738 15.000000
1.074650 -1.961676 -0.670329 8.000000
0.687149 1.265305 -0.420410 7.000000
0.688796 1.236429 -0.415114 9.000000
0.712187 1.244708 -0.422385 21.000000
0.715533 1.220044 -0.418445 27.000000
0.734071 1.219614 -0.422823 18.000000
0.741866 1.203074 -0.421686 30.000000
0.747644 1.181973 -0.418912 18.000000
0.778296 1.201594 -0.430643 25.000000
0.786414 1.184266 -0.429258 20.000000
0.806946 1.187164 -0.435242 9.000000
0.852268 1.225034 -0.454365 25.000000
0.899286 1.261571 -0.473423 24.000000
0.963284 1.320804 -0.501551 22.000000
1.005845 1.348091 -0.518096 28.000000
1.073144 1.404381 -0.546283 17.000000
1.123279 1.437280 -0.565982 15.000000
1.610809 1.968577 -0.794832 10.000000
1.610361 1.924584 -0.787042 28.000000
1.643230 1.920619 -0.795695 34.000000
1.666829 1.905445 -0.799790 28.000000
1.675502 1.871390 -0.795936 32.000000
1.711612 1.869825 -0.806004 36.000000
1.728327 1.846703 -0.807001 31.000000
1.764557 1.844136 -0.817053 36.000000
1.777691 1.817047 -0.816449 10.000000
1.793881 1.793312 -0.817279 35.000000
1.814051 1.772004 -0.819312 41.000000
1.836521 1.754469 -0.823212 32.000000
1.872798 1.749595 -0.833141 59.000000
1.895224 1.731253 -0.836993 37.000000
1.903295 1.700003 -0.834474 32.000000
1.928889 1.684375 -0.839802 42.000000
1.943535 1.659085 -0.840297 11.000000
1.968805 1.642758 -0.845563 31.000000
1.993299 1.626761 -0.851010 38.000000
2.010997 1.603770 -0.853078 31.000000
2.028448 1.580530 -0.854980 30.000000
2.045650 1.557208 -0.856882 20.000000
2.058798 1.530725 -0.857200 18.000000
2.074978 1.507612 -0.859346 25.000000
1.154437 0.761634 -0.467656 75.000000
1.146621 0.738325 -0.462261 64.000000
1.146688 0.720019 -0.459880 64.000000
1.146296 0.702113 -0.457574 90.000000
1.145883 0.684001 -0.455126 36.000000
1.153198 0.671006 -0.455987 73.000000
1.168614 0.662548 -0.460087 56.000000
1.171581 0.647002 -0.459331 60.000000
1.145218 0.615746 -0.447144 98.000000
1.143471 0.598312 -0.444600 81.000000
1.141462 0.580986 -0.442087 95.000000
1.143512 0.565865 -0.441156 95.000000
1.149609 0.552846 -0.441815 91.000000
1.151303 0.537704 -0.440795 92.000000
1.178640 0.534320 -0.449615 50.000000
1.166995 0.513419 -0.443793 74.000000
1.168255 0.498218 -0.442683 98.000000
1.164825 0.481395 -0.440043 95.000000
1.165658 0.466320 -0.438882 67.000000
1.166249 0.451425 -0.437839 95.000000
1.140127 0.426627 -0.426785 78.000000
1.144694 0.413715 -0.427336 79.000000
1.166919 0.406896 -0.434441 39.000000
1.166846 0.392161 -0.433221 93.000000
1.170987 0.379019 -0.433779 89.000000
1.170547 0.364276 -0.432513 95.000000
1.174396 0.351065 -0.432989 98.000000
1.164531 0.333877 -0.428425 98.000000
1.181735 0.324445 -0.433862 103.000000
2.148477 0.537944 -0.785580 23.000000
2.145047 0.511375 -0.782737 20.000000
2.145809 0.486126 -0.781778 20.000000
2.155545 0.462887 -0.784023 24.000000
2.128158 0.431906 -0.772859 26.000000
2.137356 0.408663 -0.774958 26.000000
2.132385 0.382889 -0.772235 23.000000
2.113234 0.354844 -0.764119 10.000000
2.140247 0.334598 -0.772937 27.000000
2.148417 0.311057 -0.774969 29.000000
2.146915 0.286166 -0.773779 26.000000
2.154536 0.262450 -0.775813 30.000000
2.147920 0.237078 -0.772727 27.000000
2.126947 0.210457 -0.764518 19.000000
2.138544 0.187240 -0.768025 24.000000
2.102871 0.160234 -0.754756 9.000000
2.132697 0.138273 -0.765003 22.000000
2.129313 0.113983 -0.763594 26.000000
2.139894 0.090256 -0.766965 28.000000
2.140727 0.066095 -0.767035 28.000000
2.145989 0.042026 -0.768860 29.000000
2.141630 0.017773 -0.767243 27.000000
2.113457 -0.006372 -0.757126 26.000000
2.108613 -0.030146 -0.755303 26.000000
2.117615 -0.054176 -0.758469 62.000000
2.126268 -0.078488 -0.761771 91.000000
2.125302 -0.102489 -0.761702 81.000000
2.138158 -0.127330 -0.766479 95.000000
2.122543 -0.150423 -0.761288 58.000000
2.087975 -0.171723 -0.749226 23.000000
2.071943 -0.193969 -0.744041 27.000000
2.088379 -0.219339 -0.750502 21.000000
2.081252 -0.242409 -0.748479 19.000000
2.092549 -0.267627 -0.753115 25.000000
2.080213 -0.289911 -0.749277 19.000000
2.086260 -0.314863 -0.752295 21.000000
2.092072 -0.339890 -0.755173 20.000000
2.060316 -0.358731 -0.744765 10.000000
2.088806 -0.387922 -0.755887 22.000000
2.084471 -0.411526 -0.755406 21.000000
2.084472 -0.436027 -0.756529 24.000000
2.084245 -0.460562 -0.757581 23.000000
2.092969 -0.487269 -0.761902 18.000000
2.096627 -0.513167 -0.764684 20.000000
2.100098 -0.539203 -0.767392 18.000000
2.034949 -0.547018 -0.745023 10.000000
2.056112 -0.577655 -0.754263 24.000000
2.054278 -0.602137 -0.755096 19.000000
2.052207 -0.626652 -0.755857 20.000000
2.067670 -0.657123 -0.763461 24.000000
2.056031 -0.678807 -0.760821 21.000000
2.053000 -0.703659 -0.761636 18.000000
2.058547 -0.731562 -0.765685 15.000000
2.015063 -0.741833 -0.751483 10.000000
2.046638 -0.779658 -0.765356 21.000000
2.024894 -0.797549 -0.759353 16.000000
2.029150 -0.825962 -0.763374 20.000000
2.037574 -0.856077 -0.768812 23.000000
2.023743 -0.877406 -0.766172 13.000000
2.018507 -0.902065 -0.766456 18.000000
1.999926 -0.921035 -0.762114 13.000000
1.985488 -0.941693 -0.759343 10.000000
2.017605 -0.984993 -0.774513 24.000000
1.998284 -1.003580 -0.769953 15.000000
1.991442 -1.028413 -0.770279 17.000000
1.996869 -1.059848 -0.775466 19.000000
1.993579 -1.086914 -0.777246 16.000000
1.973457 -1.104850 -0.772549 17.000000
1.990146 -1.143601 -0.782382 15.000000
1.957324 -1.154004 -0.772778 10.000000
1.984943 -1.200999 -0.787532 23.000000
1.971858 -1.223355 -0.785812 18.000000
1.962247 -1.248553 -0.785993 17.000000
1.960668 -1.278343 -0.789061 18.000000
1.946422 -1.300805 -0.787554 12.000000
1.936388 -1.325267 -0.787260 13.000000
1.937188 -1.358362 -0.791946 10.000000
1.918260 -1.377752 -0.788687 9.000000
1.949387 -1.432896 -0.805669 22.000000
1.918424 -1.443817 -0.797574 14.000000
1.936279 -1.491815 -0.809874 18.000000
1.912400 -1.508096 -0.804850 18.000000
1.888414 -1.523971 -0.799763 12.000000
1.901585 -1.569053 -0.809987 21.000000
1.895213 -1.599947 -0.812598 12.000000
1.884884 -1.627745 -0.813633 10.000000
1.899122 -1.677580 -0.825411 24.000000
1.856121 -1.676818 -0.812404 15.000000
1.753967 -1.620454 -0.773192 17.000000
1.601383 -1.513002 -0.711145 24.000000
1.557536 -1.504702 -0.696844 29.000000
1.533755 -1.516267 -0.691983 33.000000
1.510536 -1.526915 -0.686864 31.000000
1.494020 -1.544050 -0.684799 30.000000
1.467471 -1.550596 -0.678125 75.000000
1.457199 -1.574135 -0.679024 41.000000
1.433838 -1.583613 -0.673818 39.000000
1.422249 -1.607574 -0.674904 65.000000
1.404945 -1.623642 -0.672707 32.000000
1.390588 -1.643147 -0.671930 60.000000
1.366882 -1.651481 -0.666621 29.000000
1.354252 -1.674940 -0.667526 26.000000
1.333397 -1.686470 -0.663712 35.000000
1.318330 -1.705220 -0.662778 28.000000
1.290488 -1.709326 -0.656250 32.000000
1.277916 -1.731514 -0.656776 32.000000
1.259514 -1.745865 -0.654305 26.000000
1.245386 -1.768522 -0.655006 33.000000
1.223844 -1.778579 -0.651010 25.000000
1.213004 -1.804265 -0.652847 22.000000
1.195333 -1.822610 -0.651924 34.000000
1.178686 -1.840045 -0.650782 26.000000
1.163030 -1.862093 -0.651191 31.000000
1.140896 -1.871067 -0.647119 26.000000
1.124808 -1.892843 -0.647500 23.000000
1.107254 -1.909601 -0.646173 27.000000
1.083345 -1.918546 -0.642317 15.000000
1.090826 -1.981282 -0.656307 9.000000
0.682323 1.250150 -0.402294 7.000000
0.688418 1.229790 -0.399915 11.000000
0.692558 1.204799 -0.395955 24.000000
0.715779 1.213024 -0.402955 28.000000
0.723459 1.196707 -0.401848 27.000000
0.741084 1.196661 -0.406219 27.000000
0.746683 1.175603 -0.403520 29.000000
0.772160 1.187229 -0.412098 28.000000
0.796044 1.193974 -0.419146 16.000000
0.827520 1.212682 -0.430593 14.000000
0.863050 1.234276 -0.443335 22.000000
0.915093 1.279048 -0.464854 31.000000
0.977525 1.333916 -0.490578 27.000000
1.031818 1.376488 -0.512294 23.000000
1.101769 1.436995 -0.541368 24.000000
1.594242 1.942154 -0.759510 34.000000
1.609796 1.915922 -0.758851 33.000000
1.642613 1.912160 -0.767148 37.000000
1.659802 1.889831 -0.768260 39.000000
1.683142 1.874527 -0.772133 34.000000
1.713750 1.865141 -0.778712 44.000000
1.736996 1.849134 -0.782612 35.000000
1.750149 1.822393 -0.782006 31.000000
1.773028 1.805862 -0.785829 39.000000
1.786479 1.778181 -0.784878 34.000000
1.812413 1.764456 -0.790115 36.000000
1.841703 1.753623 -0.796784 62.000000
1.860571 1.732559 -0.799061 38.000000
1.882803 1.714461 -0.802678 52.000000
1.904860 1.696120 -0.806304 70.000000
1.926741 1.677454 -0.809938 35.000000
1.955783 1.664636 -0.816527 37.000000
1.966471 1.636090 -0.815546 35.000000
1.991642 1.619566 -0.820557 48.000000
2.020343 1.605589 -0.827109 70.000000
2.041553 1.585352 -0.830541 51.000000
2.073953 1.573410 -0.838495 56.000000
2.098122 1.555874 -0.843739 31.000000
2.091929 1.515008 -0.836341 19.000000
2.023072 1.430572 -0.804125 27.000000
1.183743 0.741191 -0.458433 95.000000
1.171593 0.715224 -0.451430 88.000000
1.162900 0.692278 -0.446095 64.000000
1.174400 0.681484 -0.448533 34.000000
1.185995 0.670335 -0.450802 95.000000
1.184862 0.652313 -0.448487 95.000000
1.191863 0.638876 -0.449270 95.000000
1.165043 0.607840 -0.437420 98.000000
1.167365 0.592463 -0.436556 95.000000
1.156714 0.570803 -0.430935 98.000000
1.162856 0.557688 -0.431599 98.000000
1.177469 0.548452 -0.435400 77.000000
1.200682 0.542884 -0.442392 95.000000
1.193516 0.523514 -0.438206 77.000000
1.190334 0.506376 -0.435685 81.000000
1.191453 0.490991 -0.434629 95.000000
1.192283 0.475830 -0.433651 83.000000
1.184196 0.457108 -0.429341 95.000000
1.184625 0.442080 -0.428310 95.000000
1.198260 0.431888 -0.432011 66.000000
1.184971 0.412122 -0.426112 95.000000
1.193866 0.400242 -0.428167 95.000000
1.180151 0.380871 -0.422168 84.000000
1.188669 0.369001 -0.424301 98.000000
1.188107 0.354165 -0.423047 98.000000
1.214610 0.347317 -0.431569 113.000000
2.169149 0.567764 -0.767603 21.000000
2.170563 0.542099 -0.766633 26.000000
2.167207 0.515372 -0.763894 26.000000
2.181822 0.493093 -0.767860 29.000000
2.182467 0.467347 -0.766669 26.000000
2.187436 0.442788 -0.767245 27.000000
2.164252 0.412770 -0.757918 28.000000
2.173172 0.389214 -0.760186 21.000000
2.167980 0.363139 -0.757214 23.000000
2.167141 0.337932 -0.756011 26.000000
2.170681 0.313506 -0.756365 26.000000
2.169323 0.288386 -0.755088 27.000000
2.162907 0.262802 -0.752178 24.000000
2.170278 0.238980 -0.754092 26.000000
2.168042 0.213983 -0.752741 28.000000
2.160807 0.188752 -0.749755 22.000000
2.158056 0.164021 -0.748192 17.000000
2.183312 0.141226 -0.756501 28.000000
2.165780 0.115632 -0.750175 24.000000
2.171622 0.091458 -0.752020 30.000000
2.163088 0.066671 -0.748820 26.000000
2.173166 0.042465 -0.752020 29.000000
2.173447 0.017969 -0.752090 28.000000
2.173517 -0.006458 -0.752090 28.000000
2.149753 -0.030618 -0.743846 62.000000
2.153991 -0.054968 -0.745411 73.000000
2.148503 -0.079078 -0.743707 86.000000
2.152321 -0.103466 -0.745133 86.000000
2.155785 -0.128029 -0.746488 84.000000
2.154321 -0.152296 -0.746279 34.000000
2.128889 -0.174631 -0.738045 52.000000
2.131663 -0.199003 -0.739332 36.000000
2.124681 -0.222565 -0.737424 26.000000
2.126824 -0.246974 -0.738710 24.000000
2.109993 -0.269096 -0.733406 22.000000
2.116336 -0.294225 -0.736390 23.000000
2.113025 -0.318019 -0.735976 20.000000
2.123440 -0.344083 -0.740375 10.000000
2.105577 -0.365609 -0.735148 18.000000
2.115455 -0.391849 -0.739403 23.000000
2.129641 -0.419317 -0.745413 21.000000
2.106499 -0.439407 -0.738361 24.000000
2.124664 -0.468311 -0.745984 21.000000
2.128685 -0.494315 -0.748522 24.000000
2.123187 -0.518284 -0.747958 21.000000
2.112823 -0.541079 -0.745706 10.000000
2.093133 -0.561179 -0.740155 22.000000
2.091540 -0.586007 -0.741000 22.000000
2.089639 -0.610797 -0.741772 22.000000
2.082831 -0.634451 -0.741071 24.000000
2.071439 -0.656325 -0.738549 21.000000
2.068652 -0.681198 -0.739386 20.000000
2.079065 -0.710698 -0.744966 21.000000
2.062279 -0.730898 -0.740838 10.000000
2.058688 -0.755794 -0.741453 16.000000
2.059280 -0.782261 -0.743662 18.000000
2.059372 -0.809141 -0.746006 19.000000
2.050536 -0.832229 -0.744866 22.000000
2.050086 -0.859122 -0.747125 17.000000
2.040711 -0.882094 -0.745909 17.000000
2.048300 -0.912858 -0.751188 18.000000
2.029578 -0.932068 -0.746933 10.000000
2.036449 -0.963177 -0.752117 18.000000
2.038662 -0.992381 -0.755700 21.000000
2.032037 -1.017553 -0.756039 21.000000
2.029292 -1.044848 -0.757874 23.000000
2.009452 -1.063234 -0.753408 16.000000
2.022856 -1.099494 -0.761439 22.000000
2.035744 -1.136097 -0.769360 22.000000
2.002481 -1.147591 -0.760339 10.000000
2.002306 -1.177283 -0.763466 18.000000
1.997684 -1.204649 -0.764940 21.000000
1.984273 -1.227500 -0.763591 20.000000
1.987070 -1.259857 -0.768075 22.000000
1.984979 -1.290365 -0.771286 16.000000
1.990479 -1.326193 -0.777495 19.000000
1.960488 -1.337651 -0.769485 14.000000
1.961313 -1.370939 -0.774041 10.000000
1.953854 -1.398814 -0.775423 13.000000
1.961474 -1.437967 -0.782921 21.000000
1.957539 -1.468291 -0.785478 19.000000
1.956490 -1.502165 -0.789773 22.000000
1.947461 -1.530341 -0.790918 22.000000
1.926927 -1.549492 -0.787496 21.000000
1.928300 -1.586488 -0.793084 21.000000
1.932831 -1.626813 -0.800143 12.000000
1.922266 -1.654950 -0.801052 17.000000
1.918480 -1.689313 -0.804949 23.000000
1.903623 -1.714260 -0.804238 23.000000
1.797187 -1.655000 -0.764687 19.000000
1.647095 -1.550973 -0.705908 25.000000
1.564965 -1.506646 -0.675668 30.000000
1.528159 -1.504249 -0.664840 42.000000
1.521265 -1.532300 -0.667558 33.000000
1.491397 -1.535693 -0.659600 35.000000
1.471493 -1.549044 -0.656081 78.000000
1.448273 -1.558614 -0.651109 50.000000
1.427472 -1.571981 -0.647748 69.000000
1.407425 -1.584460 -0.644194 48.000000
1.399807 -1.611115 -0.646379 61.000000
1.379421 -1.623188 -0.642757 55.000000
1.351979 -1.628229 -0.636535 33.000000
1.355715 -1.669431 -0.644355 32.000000
1.325983 -1.669565 -0.636306 32.000000
1.315986 -1.696475 -0.638545 34.000000
1.297939 -1.711172 -0.636221 36.000000
1.268330 -1.710324 -0.628237 34.000000
1.257597 -1.736818 -0.630367 33.000000
1.244657 -1.758702 -0.630790 34.000000
1.222197 -1.769346 -0.627197 32.000000
1.216898 -1.802917 -0.631709 27.000000
1.194073 -1.813145 -0.628038 32.000000
1.180029 -1.834607 -0.628323 32.000000
1.162008 -1.852534 -0.627416 32.000000
1.139988 -1.861417 -0.623405 30.000000
1.122920 -1.878222 -0.622209 32.000000
1.099393 -1.887256 -0.618486 27.000000
1.092444 -1.925394 -0.624204 26.000000
1.088474 -1.967092 -0.630994 9.000000
0.677335 1.234860 -0.384471 6.000000
0.693470 1.230952 -0.387263 10.000000
0.701524 1.214735 -0.386218 19.000000
0.715067 1.206387 -0.387683 20.000000
0.725133 1.194188 -0.387944 26.000000
0.735862 1.181471 -0.388017 23.000000
0.748253 1.173180 -0.389605 27.000000
0.774477 1.184416 -0.397736 21.000000
0.821699 1.227653 -0.416916 10.000000
0.843541 1.229811 -0.422456 10.000000
0.884082 1.259668 -0.437744 25.000000
0.947788 1.319951 -0.464121 20.000000
0.993811 1.351353 -0.480823 26.000000
1.068741 1.420753 -0.511562 23.000000
1.128458 1.465192 -0.534063 26.000000
1.542812 1.913594 -0.714922 29.000000
1.590522 1.929503 -0.729953 27.000000
1.617217 1.918874 -0.735309 50.000000
1.641658 1.903434 -0.738874 35.000000
1.658715 1.881287 -0.739858 37.000000
1.678746 1.862453 -0.742252 37.000000
1.712493 1.856835 -0.750020 39.000000
1.732274 1.837375 -0.752352 45.000000
1.751976 1.817754 -0.754603 30.000000
1.764633 1.791069 -0.754063 31.000000
1.797451 1.784536 -0.761987 71.000000
1.820824 1.766721 -0.765369 50.000000
1.836276 1.742723 -0.766104 42.000000
1.869030 1.734836 -0.774011 82.000000
1.877029 1.703883 -0.771757 61.000000
1.906116 1.692057 -0.778241 62.000000
1.920804 1.667208 -0.778810 35.000000
1.946033 1.651476 -0.783693 29.000000
1.949167 1.617027 -0.779764 73.000000
1.981559 1.606824 -0.787604 37.000000
2.010145 1.593072 -0.793914 67.000000
2.042536 1.581824 -0.801726 57.000000
2.067321 1.564224 -0.806513 33.000000
2.088145 1.543447 -0.809741 53.000000
2.112651 1.525128 -0.814468 33.000000
2.062935 1.454233 -0.790804 21.000000
2.063038 1.419846 -0.786427 31.000000
1.994897 1.340826 -0.756738 34.000000
1.196275 0.710217 -0.442750 79.000000
1.199904 0.694109 -0.441944 53.000000
1.207320 0.680610 -0.442787 71.000000
1.206430 0.662174 -0.440450 98.000000
1.205132 0.644103 -0.438190 95.000000
1.207784 0.628287 -0.437405 94.000000
1.210258 0.612522 -0.436615 98.000000
1.204016 0.592520 -0.432751 98.000000
1.188924 0.568616 -0.425712 100.000000
1.190739 0.553171 -0.424849 80.000000
1.205391 0.543605 -0.428521 44.000000
1.211244 0.529904 -0.429115 71.000000
1.221349 0.518059 -0.431212 94.000000
1.218130 0.500566 -0.428670 69.000000
1.214581 0.483398 -0.426205 78.000000
1.215390 0.467885 -0.425115 90.000000
1.207004 0.449241 -0.421039 94.000000
1.220744 0.438893 -0.424688 71.000000
1.198477 0.415762 -0.415843 84.000000
1.202918 0.402276 -0.416332 98.000000
1.202715 0.387213 -0.415179 98.000000
1.211392 0.375061 -0.417147 95.000000
1.233634 0.366786 -0.423810 118.000000
2.200289 0.574484 -0.751361 15.000000
2.201822 0.548559 -0.750376 23.000000
2.207657 0.523761 -0.750959 24.000000
2.203940 0.496729 -0.748326 24.000000
2.209170 0.472034 -0.748979 25.000000
2.209530 0.446255 -0.747986 23.000000
2.204918 0.419548 -0.745269 26.000000
2.204649 0.393885 -0.744126 21.000000
2.204147 0.368256 -0.742909 15.000000
2.193964 0.341345 -0.738605 26.000000
2.192839 0.315960 -0.737383 23.000000
2.191414 0.290681 -0.736160 24.000000
2.194401 0.266078 -0.736515 26.000000
2.183100 0.239780 -0.731915 22.000000
2.199663 0.216660 -0.737084 24.000000
2.178312 0.189856 -0.729316 19.000000
2.194399 0.166453 -0.734346 13.000000
2.205564 0.142354 -0.737653 26.000000
2.197515 0.117104 -0.734558 23.000000
2.189170 0.091997 -0.731533 25.000000
2.199497 0.067686 -0.734770 29.000000
2.204876 0.042998 -0.736354 35.000000
2.209973 0.018274 -0.738009 62.000000
2.205302 -0.006528 -0.736354 62.000000
2.171894 -0.030819 -0.725199 39.000000
2.185628 -0.055641 -0.729950 77.000000
2.175445 -0.079843 -0.726643 65.000000
2.179202 -0.104514 -0.728015 72.000000
2.177939 -0.129010 -0.727945 57.000000
2.190588 -0.154437 -0.732480 65.000000
2.165185 -0.177159 -0.724291 37.000000
2.163158 -0.201479 -0.724081 62.000000
2.170288 -0.226715 -0.726822 69.000000
2.139417 -0.247866 -0.717134 22.000000
2.141352 -0.272433 -0.718297 21.000000
2.142927 -0.297177 -0.719597 21.000000
2.163048 -0.324774 -0.727065 18.000000
2.140723 -0.346013 -0.720269 13.000000
2.141494 -0.370881 -0.721495 17.000000
2.146634 -0.396646 -0.724155 20.000000
2.151526 -0.422621 -0.726810 23.000000
2.151520 -0.447698 -0.727818 22.000000
2.151211 -0.472878 -0.728752 22.000000
2.145901 -0.497021 -0.728186 22.000000
2.135766 -0.520041 -0.726052 18.000000
2.153046 -0.549937 -0.733178 16.000000
2.110275 -0.564261 -0.719943 16.000000
2.122324 -0.593027 -0.725425 21.000000
2.125001 -0.619475 -0.727769 24.000000
2.090832 -0.635083 -0.717697 15.000000
2.097404 -0.662892 -0.721601 19.000000
2.103599 -0.690937 -0.725494 21.000000
2.091492 -0.713081 -0.723086 16.000000
2.110502 -0.745999 -0.731482 15.000000
2.102381 -0.769716 -0.730547 17.000000
2.098418 -0.794901 -0.731018 20.000000
2.098413 -0.822137 -0.733320 23.000000
2.076221 -0.840219 -0.727529 15.000000
2.084503 -0.870983 -0.732765 19.000000
2.092336 -0.901999 -0.737913 18.000000
2.082396 -0.925607 -0.736889 15.000000
2.085141 -0.955012 -0.740401 15.000000
2.053103 -0.968397 -0.731556 15.000000
2.042476 -0.991469 -0.730392 16.000000
2.074224 -1.035737 -0.744441 24.000000
2.075636 -1.065520 -0.747681 19.000000
2.080821 -1.097736 -0.752427 22.000000
2.064648 -1.118759 -0.749475 23.000000
2.043835 -1.137670 -0.745311 16.000000
2.048023 -1.169975 -0.749872 19.000000
2.035032 -1.193314 -0.748588 18.000000
2.022116 -1.215974 -0.747002 21.000000
2.037000 -1.256532 -0.756187 26.000000
2.019412 -1.276734 -0.752998 20.000000
2.025282 -1.312638 -0.759046 20.000000
2.010766 -1.335647 -0.757502 19.000000
2.008242 -1.366011 -0.760207 13.000000
2.008838 -1.399760 -0.764537 13.000000
1.997303 -1.425312 -0.764380 17.000000
1.989327 -1.453612 -0.765623 21.000000
1.988562 -1.487573 -0.769812 21.000000
1.991180 -1.524628 -0.775452 20.000000
1.974438 -1.547218 -0.773529 23.000000
1.972369 -1.581527 -0.777566 26.000000
1.973574 -1.618964 -0.782960 19.000000
1.959473 -1.644364 -0.782385 17.000000
1.945143 -1.669602 -0.781803 17.000000
1.948557 -1.710456 -0.788404 26.000000
1.940548 -1.742044 -0.790606 27.000000
1.861728 -1.708894 -0.763850 14.000000
1.693015 -1.588964 -0.699644 17.000000
1.579026 -1.515151 -0.657300 26.000000
1.544853 -1.516782 -0.648453 32.000000
1.504768 -1.510335 -0.636510 34.000000
1.491816 -1.530675 -0.635966 37.000000
1.475347 -1.547416 -0.633993 47.000000
1.442321 -1.546353 -0.624867 59.000000
1.421661 -1.559564 -0.621704 37.000000
1.408137 -1.579057 -0.621098 57.000000
1.388025 -1.591187 -0.617609 49.000000
1.376394 -1.614673 -0.618528 42.000000
1.359128 -1.629983 -0.616369 37.000000
1.356974 -1.663768 -0.621159 29.000000
1.326310 -1.664495 -0.613708 34.000000
1.311553 -1.683089 -0.612858 36.000000
1.301385 -1.709808 -0.614952 32.000000
1.277501 -1.716553 -0.609960 37.000000
1.255457 -1.727532 -0.606557 29.000000
1.237097 -1.741556 -0.604254 28.000000
1.218737 -1.755242 -0.601882 30.000000
1.215294 -1.793381 -0.607887 23.000000
1.204318 -1.818954 -0.609521 32.000000
1.176086 -1.820847 -0.603287 30.000000
1.164642 -1.846119 -0.604820 31.000000
1.138924 -1.851525 -0.599879 30.000000
1.121930 -1.868252 -0.598726 33.000000
1.105905 -1.889750 -0.599020 29.000000
1.086092 -1.902012 -0.596526 26.000000
1.085863 -1.952716 -0.605950 9.000000
0.711865 1.291419 -0.388557 5.000000
0.706290 1.249751 -0.379997 9.000000
0.708079 1.220469 -0.375025 10.000000
0.719152 1.207897 -0.375162 11.000000
0.726689 1.191613 -0.374082 10.000000
0.742523 1.187064 -0.376793 22.000000
0.749707 1.170615 -0.375688 10.000000
0.770660 1.173840 -0.380934 9.000000
0.836771 1.245262 -0.408728 10.000000
0.866990 1.259226 -0.418065 9.000000
0.910739 1.292861 -0.434174 12.000000
0.961768 1.332968 -0.452943 11.000000
1.044440 1.415199 -0.486604 13.000000
1.092096 1.445227 -0.502875 15.000000
1.499658 1.895752 -0.675987 26.000000
1.562031 1.931299 -0.697280 23.000000
1.594769 1.928577 -0.705066 23.000000
1.609976 1.902505 -0.704488 26.000000
1.636426 1.891681 -0.709589 33.000000
1.659686 1.876875 -0.713259 29.000000
1.680514 1.857398 -0.715326 32.000000
1.706837 1.845535 -0.720306 32.000000
1.736371 1.836698 -0.726765 25.000000
1.750158 1.809485 -0.725921 32.000000
1.772804 1.793152 -0.729469 21.000000
1.785204 1.766290 -0.728845 31.000000
1.822090 1.762148 -0.737666 47.000000
1.837536 1.738225 -0.738440 31.000000
1.852590 1.714139 -0.739045 35.000000
1.881721 1.702767 -0.745278 35.000000
1.892780 1.675100 -0.744471 28.000000
1.925377 1.666181 -0.752147 36.000000
1.940271 1.640561 -0.752348 16.000000
1.961676 1.621618 -0.755631 31.000000
1.960541 1.584276 -0.750362 46.000000
2.003955 1.582750 -0.762219 29.000000
2.032491 1.568758 -0.768308 33.000000
2.057069 1.551380 -0.772899 35.000000
2.089317 1.539344 -0.780465 29.000000
2.109908 1.518405 -0.783562 36.000000
2.098412 1.475603 -0.775424 23.000000
2.094718 1.438179 -0.769730 31.000000
2.094458 1.403623 -0.765459 28.000000
2.025668 1.324760 -0.736424 26.000000
1.951406 1.245080 -0.705735 33.000000
1.221169 0.704595 -0.433479 25.000000
1.220490 0.685959 -0.431256 67.000000
1.223632 0.669984 -0.430586 47.000000
1.222331 0.651721 -0.428433 67.000000
1.225216 0.635583 -0.427573 71.000000
1.232051 0.621780 -0.428323 65.000000
1.234424 0.605786 -0.427544 95.000000
1.240884 0.591899 -0.428203 81.000000
1.229933 0.569855 -0.422906 54.000000
1.214282 0.546199 -0.416099 32.000000
1.220157 0.532491 -0.416652 36.000000
1.225904 0.518698 -0.417206 60.000000
1.231481 0.504862 -0.417759 45.000000
1.228063 0.487421 -0.415272 38.000000
1.237672 0.475395 -0.417365 63.000000
1.233863 0.458077 -0.414825 32.000000
1.243237 0.445831 -0.416878 42.000000
1.238960 0.428764 -0.414371 51.000000
1.216402 0.405782 -0.405782 80.000000
1.216215 0.390656 -0.404723 92.000000
2.251379 0.559631 -0.739685 19.000000
2.243418 0.531000 -0.735719 24.000000
2.225871 0.500518 -0.728630 19.000000
2.226548 0.474528 -0.727547 18.000000
2.236176 0.450524 -0.729653 22.000000
2.226892 0.422717 -0.725519 18.000000
2.231395 0.397732 -0.725955 19.000000
2.202731 0.367193 -0.715637 9.000000
2.234753 0.346886 -0.725300 24.000000
2.214815 0.318420 -0.718024 19.000000
2.227624 0.294784 -0.721367 18.000000
2.207020 0.266935 -0.714011 18.000000
2.214530 0.242726 -0.715825 21.000000
2.207556 0.216944 -0.713050 18.000000
2.205089 0.191716 -0.711662 17.000000
2.169034 0.164151 -0.699628 8.000000
2.227636 0.143485 -0.718213 20.000000
2.238644 0.119015 -0.721348 23.000000
2.230283 0.093534 -0.718428 23.000000
2.231142 0.068486 -0.718500 34.000000
2.222269 0.043254 -0.715436 50.000000
2.227313 0.018424 -0.717039 61.000000
2.217866 -0.006542 -0.713975 73.000000
2.208205 -0.031294 -0.710769 47.000000
2.202952 -0.055883 -0.709237 67.000000
2.202245 -0.080610 -0.709096 81.000000
2.196502 -0.105038 -0.707353 38.000000
2.199985 -0.129993 -0.708813 68.000000
2.207927 -0.155317 -0.711662 48.000000
2.158709 -0.176138 -0.696080 16.000000
2.189805 -0.203450 -0.706577 42.000000
2.196948 -0.228970 -0.709353 46.000000
2.189670 -0.252991 -0.707471 35.000000
2.191497 -0.278176 -0.708716 23.000000
2.183665 -0.302092 -0.706835 18.000000
2.175565 -0.325831 -0.704886 17.000000
2.176600 -0.350910 -0.705917 15.000000
2.111641 -0.364815 -0.685753 9.000000
2.187210 -0.403110 -0.711160 24.000000
2.159351 -0.423044 -0.703053 15.000000
2.182681 -0.452961 -0.711612 24.000000
2.172958 -0.476506 -0.709593 17.000000
2.158331 -0.498731 -0.705986 16.000000
2.171315 -0.527353 -0.711487 21.000000
2.165518 -0.551685 -0.710842 13.000000
2.131809 -0.568577 -0.700971 9.000000
2.139294 -0.596223 -0.704731 17.000000
2.118951 -0.616264 -0.699558 13.000000
2.162278 -0.655207 -0.715528 19.000000
2.132313 -0.672341 -0.707193 11.000000
2.129472 -0.697728 -0.707912 12.000000
2.148885 -0.730749 -0.716077 16.000000
2.131828 -0.751619 -0.712128 10.000000
2.110214 -0.770506 -0.706687 9.000000
2.119511 -0.801041 -0.711819 18.000000
2.119628 -0.828141 -0.713797 10.000000
2.110457 -0.852014 -0.712851 13.000000
2.114282 -0.881250 -0.716382 13.000000
2.095772 -0.901210 -0.712376 10.000000
2.116399 -0.938311 -0.721772 16.000000
2.097427 -0.958099 -0.717690 10.000000
2.069605 -0.973480 -0.710650 9.000000
2.110515 -1.021693 -0.727255 18.000000
2.077973 -1.034648 -0.718588 10.000000
2.083711 -1.066566 -0.723231 13.000000
2.088736 -1.099168 -0.728005 17.000000
2.064139 -1.115643 -0.722235 10.000000
2.077077 -1.152634 -0.729620 17.000000
2.060107 -1.173777 -0.726941 10.000000
2.039212 -1.191884 -0.722502 9.000000
2.042350 -1.224863 -0.727061 13.000000
2.049117 -1.260493 -0.732979 10.000000
2.063937 -1.301070 -0.741467 15.000000
2.049541 -1.324493 -0.740067 15.000000
2.034910 -1.347684 -0.738588 10.000000
2.035890 -1.381469 -0.742812 10.000000
2.016744 -1.401717 -0.739802 10.000000
1.997891 -1.421172 -0.736484 9.000000
2.013238 -1.466309 -0.746326 16.000000
2.016335 -1.503319 -0.751740 10.000000
2.015069 -1.537697 -0.755691 13.000000
2.013308 -1.572259 -0.759535 15.000000
1.996147 -1.594868 -0.757664 12.000000
1.978743 -1.617315 -0.755794 12.000000
1.961013 -1.639600 -0.753842 10.000000
1.967981 -1.684122 -0.762012 9.000000
1.971352 -1.725245 -0.768396 22.000000
1.963335 -1.756924 -0.770523 16.000000
1.908821 -1.746552 -0.754350 10.000000
1.735627 -1.623614 -0.690807 9.000000
1.589610 -1.520214 -0.637284 10.000000
1.545021 -1.511719 -0.624504 24.000000
1.501502 -1.501840 -0.611581 30.000000
1.488676 -1.522069 -0.611072 16.000000
1.478218 -1.546255 -0.612133 42.000000
1.438658 -1.538106 -0.600566 32.000000
1.422083 -1.554146 -0.598628 32.000000
1.404640 -1.570587 -0.596890 36.000000
1.384696 -1.582605 -0.593527 30.000000
1.364629 -1.594351 -0.590173 36.000000
1.349888 -1.613811 -0.589659 30.000000
1.338784 -1.636269 -0.590281 10.000000
1.324377 -1.654834 -0.589545 30.000000
1.305847 -1.670142 -0.587665 21.000000
1.291050 -1.688472 -0.586780 28.000000
1.269324 -1.699548 -0.583502 30.000000
1.257018 -1.721369 -0.583996 23.000000
1.240530 -1.739865 -0.583290 29.000000
1.211175 -1.737753 -0.575745 22.000000
1.210684 -1.779685 -0.582884 10.000000
1.199987 -1.805153 -0.584476 28.000000
1.174521 -1.810958 -0.579758 18.000000
1.163246 -1.836159 -0.581245 26.000000
1.135097 -1.837354 -0.575256 24.000000
1.123352 -1.862320 -0.576645 23.000000
1.104997 -1.879534 -0.575724 21.000000
1.091218 -1.904991 -0.577268 19.000000
1.090144 -1.950825 -0.584902 9.000000
0.744323 1.343825 -0.390252 6.000000
0.732036 1.289117 -0.378344 10.000000
0.731689 1.255371 -0.372345 10.000000
0.729796 1.222278 -0.366423 10.000000
0.725645 1.184768 -0.359013 22.000000
0.733635 1.168032 -0.357816 16.000000
0.753706 1.172021 -0.363032 23.000000
0.790628 1.199538 -0.375737 13.000000
0.851859 1.262865 -0.400047 10.000000
0.876841 1.268777 -0.406538 13.000000
0.943198 1.333980 -0.432402 12.000000
0.991959 1.369858 -0.449303 14.000000
1.043702 1.409273 -0.467708 22.000000
1.117687 1.474061 -0.495114 19.000000
1.349158 1.740128 -0.591570 46.000000
1.527559 1.924749 -0.662424 34.000000
1.569117 1.933898 -0.673896 22.000000
1.584368 1.908128 -0.673323 28.000000
1.620133 1.908792 -0.682249 34.000000
1.638194 1.886223 -0.682910 29.000000
1.645308 1.853462 -0.679911 54.000000
1.668234 1.838601 -0.683434 31.000000
1.704980 1.836774 -0.691974 32.000000
1.721262 1.814156 -0.692781 44.000000
1.747213 1.801749 -0.697677 26.000000
1.753679 1.767721 -0.694135 32.000000
1.793104 1.768205 -0.704266 35.000000
1.812018 1.748015 -0.706340 32.000000
1.834991 1.730249 -0.709450 53.000000
1.860536 1.716065 -0.714164 32.000000
1.864707 1.682227 -0.710645 35.000000
1.897135 1.673848 -0.718017 62.000000
1.930405 1.664337 -0.725095 29.000000
1.929897 1.627087 -0.720177 32.000000
1.951070 1.608274 -0.723394 32.000000
1.968407 1.586203 -0.725160 36.000000
2.004376 1.578837 -0.733836 42.000000
2.040506 1.570803 -0.742463 31.000000
2.057436 1.547657 -0.744181 34.000000
2.070333 1.521504 -0.744507 40.000000
2.094543 1.503593 -0.748929 24.000000
2.118710 1.485342 -0.753363 35.000000
2.154634 1.474883 -0.761929 37.000000
2.170571 1.450395 -0.763423 34.000000
2.178305 1.420583 -0.762105 43.000000
2.205414 1.404080 -0.768153 20.000000
2.216641 1.376436 -0.768154 21.000000
2.231582 1.351284 -0.769565 22.000000
2.221499 1.311342 -0.762391 15.000000
1.227022 0.652341 -0.413875 50.000000
1.238224 0.640825 -0.416057 79.000000
1.245240 0.626705 -0.416678 73.000000
1.243296 0.608551 -0.414476 37.000000
1.228199 0.584285 -0.407999 88.000000
1.238786 0.572514 -0.410044 22.000000
1.244962 0.558598 -0.410696 35.000000
1.242141 0.540773 -0.408376 83.000000
1.239151 0.523059 -0.406047 34.000000
1.244768 0.509124 -0.406562 62.000000
1.245807 0.493341 -0.405627 95.000000
1.246637 0.477573 -0.404690 58.000000
1.242730 0.460328 -0.402338 88.000000
1.256726 0.449561 -0.405669 29.000000
1.207236 0.416739 -0.388710 63.000000
1.220753 0.406275 -0.392073 98.000000
2.221464 0.630577 -0.706856 30.000000
2.209718 0.600577 -0.701587 12.000000
2.257715 0.586693 -0.715439 17.000000
2.250052 0.557925 -0.711707 22.000000
2.242018 0.529467 -0.707893 20.000000
2.256933 0.506407 -0.711421 26.000000
2.243628 0.477100 -0.705981 18.000000
2.248682 0.451904 -0.706348 20.000000
2.258137 0.427671 -0.708333 25.000000
2.239094 0.398168 -0.701406 12.000000
2.243307 0.373110 -0.701769 17.000000
2.247229 0.348052 -0.702277 21.000000
2.241403 0.321564 -0.699688 20.000000
2.244730 0.296467 -0.700050 22.000000
2.238356 0.270153 -0.697312 18.000000
2.245913 0.245608 -0.699006 19.000000
2.253192 0.220886 -0.700701 22.000000
2.231643 0.193651 -0.693667 13.000000
2.266985 0.171193 -0.704093 22.000000
2.244897 0.144313 -0.696841 20.000000
2.255873 0.119665 -0.699944 32.000000
2.261799 0.094676 -0.701569 44.000000
2.262667 0.069361 -0.701641 79.000000
2.258543 0.043954 -0.700161 74.000000
2.258832 0.018621 -0.700233 68.000000
2.235026 -0.006570 -0.692831 91.000000
2.220557 -0.031361 -0.688248 60.000000
2.224834 -0.056316 -0.689728 24.000000
2.214578 -0.080854 -0.686626 13.000000
2.218357 -0.105862 -0.687893 75.000000
2.221848 -0.130906 -0.689230 74.000000
2.210754 -0.155125 -0.686060 30.000000
2.204153 -0.179446 -0.684510 53.000000
2.202175 -0.204032 -0.684157 32.000000
2.204595 -0.229182 -0.685281 56.000000
2.211395 -0.254915 -0.688021 75.000000
2.208551 -0.279660 -0.687737 72.000000
2.233746 -0.308252 -0.696232 30.000000
2.225564 -0.332537 -0.694325 26.000000
2.203029 -0.354297 -0.688001 10.000000
2.213165 -0.381387 -0.691991 24.000000
2.218334 -0.407858 -0.694431 25.000000
2.218487 -0.433550 -0.695397 24.000000
2.204291 -0.456439 -0.692026 23.000000
2.213196 -0.484155 -0.695927 21.000000
2.203114 -0.507817 -0.693882 22.000000
2.211421 -0.535805 -0.697701 23.000000
2.210172 -0.561677 -0.698439 10.000000
2.176262 -0.578976 -0.688935 18.000000
2.179008 -0.605901 -0.691283 17.000000
2.172295 -0.630296 -0.690634 18.000000
2.174595 -0.657169 -0.692612 18.000000
2.167347 -0.681522 -0.691887 15.000000
2.168830 -0.708848 -0.694145 17.000000
2.165573 -0.734622 -0.694725 16.000000
2.157550 -0.758691 -0.693777 9.000000
2.167146 -0.789531 -0.698847 17.000000
2.154063 -0.811893 -0.696370 13.000000
2.145036 -0.836113 -0.695489 18.000000
2.153549 -0.867266 -0.700384 15.000000
2.148423 -0.893304 -0.700864 17.000000
2.151761 -0.922993 -0.704146 21.000000
2.137308 -0.945157 -0.701664 17.000000
2.118167 -0.965088 -0.697676 9.000000
2.146667 -1.007055 -0.709463 20.000000
2.109753 -1.018501 -0.699669 10.000000
2.124385 -1.054790 -0.707046 19.000000
2.112678 -1.078809 -0.705988 17.000000
2.109383 -1.106829 -0.707552 14.000000
2.109756 -1.137466 -0.710678 19.000000
2.084812 -1.153923 -0.704973 10.000000
2.105425 -1.196462 -0.715088 9.000000
2.080049 -1.212564 -0.709384 16.000000
2.083112 -1.245852 -0.713724 16.000000
2.061112 -1.264384 -0.709596 15.000000
2.087811 -1.313156 -0.722263 17.000000
2.065625 -1.331016 -0.717734 10.000000
2.070966 -1.367522 -0.723324 14.000000
2.063852 -1.396254 -0.724538 13.000000
2.044541 -1.416722 -0.721640 9.000000
2.052472 -1.456399 -0.728400 16.000000
2.048220 -1.487977 -0.730881 11.000000
2.024185 -1.505241 -0.726425 16.000000
2.022979 -1.539634 -0.730184 11.000000
2.025070 -1.577083 -0.735293 10.000000
2.026678 -1.614796 -0.740368 18.000000
2.016532 -1.643571 -0.741217 13.000000
1.991231 -1.660030 -0.736585 9.000000
1.995101 -1.700963 -0.742789 12.000000
1.979600 -1.727162 -0.742402 10.000000
1.993176 -1.778073 -0.752522 18.000000
1.966755 -1.793858 -0.747701 14.000000
1.880440 -1.753410 -0.719974 11.000000
1.714373 -1.635471 -0.661620 19.000000
1.555336 -1.516661 -0.604696 21.000000
1.532133 -1.527200 -0.600165 13.000000
1.491386 -1.520791 -0.589257 34.000000
