x y z intensity
2.888937 -0.364370 0.855631 29.000000
2.880017 -0.396042 0.854037 31.000000
2.856597 -0.425394 0.847849 26.000000
2.870677 -0.460307 0.853112 25.000000
2.799299 -0.481018 0.832861 11.000000
2.841165 -0.520834 0.846379 30.000000
2.830668 -0.551607 0.844331 31.000000
2.819733 -0.582275 0.842468 32.000000
2.827298 -0.616838 0.846036 32.000000
2.811043 -0.646247 0.842588 33.000000
2.808556 -0.678738 0.843256 32.000000
2.833686 -0.718225 0.852225 30.000000
2.769925 -0.735136 0.834794 15.000000
2.835929 -0.786454 0.856138 32.000000
2.859515 -0.827505 0.865063 32.000000
2.877923 -0.867704 0.872575 50.000000
2.868371 -0.899799 0.871620 33.000000
2.894773 -0.943899 0.881985 42.000000
2.920818 -0.988431 0.891939 37.000000
2.946106 -1.033875 0.902161 31.000000
2.930284 -1.064964 0.899485 23.000000
2.931990 -1.102817 0.902648 36.000000
2.901841 -1.128680 0.895924 34.000000
2.902759 -1.166488 0.898979 34.000000
2.876528 -1.193445 0.893551 32.000000
2.858959 -1.223688 0.890889 35.000000
2.841134 -1.253636 0.888230 34.000000
2.823056 -1.283288 0.885477 29.000000
2.778497 -1.300416 0.874407 25.000000
2.777282 -1.337634 0.877052 37.000000
2.758105 -1.366797 0.874512 36.000000
2.734591 -1.393094 0.870221 46.000000
2.702065 -1.414930 0.863411 32.000000
2.690921 -1.447199 0.863126 35.000000
2.666412 -1.472872 0.858958 35.000000
2.650089 -1.502911 0.857509 29.000000
2.617218 -1.522496 0.850267 25.000000
2.616959 -1.561733 0.854129 35.000000
2.591456 -1.586165 0.849890 35.000000
2.561695 -1.607659 0.844220 35.000000
2.543967 -1.636407 0.842591 34.000000
2.517908 -1.659660 0.838188 32.000000
2.495575 -1.685238 0.835133 34.000000
2.485000 -1.718758 0.835987 27.000000
2.474019 -1.752170 0.836830 24.000000
2.439117 -1.768589 0.829601 13.000000
2.419758 -1.795959 0.827694 27.000000
2.396272 -1.820032 0.824370 35.000000
2.364947 -1.838003 0.818417 32.000000
2.352411 -1.870445 0.819056 36.000000
2.324486 -1.890593 0.814342 32.000000
2.318764 -1.928902 0.817490 27.000000
2.271293 -1.933607 0.806542 25.000000
2.268471 -1.974728 0.810881 34.000000
2.243475 -1.996804 0.807302 30.000000
2.225407 -2.025016 0.806318 35.000000
2.199057 -2.047201 0.803031 29.000000
2.190943 -2.085011 0.805902 34.000000
2.154544 -2.095795 0.798380 33.000000
2.151659 -2.141022 0.803878 26.000000
2.101449 -2.137210 0.791177 25.000000
2.088613 -2.170937 0.792534 31.000000
2.074217 -2.205462 0.794153 32.000000
2.063631 -2.242529 0.796632 39.000000
2.045012 -2.273371 0.796847 31.000000
2.027105 -2.303203 0.796660 35.000000
1.995059 -2.319178 0.791736 32.000000
1.976606 -2.348478 0.791533 24.000000
1.962695 -2.386075 0.793995 24.000000
1.940323 -2.411461 0.792412 30.000000
1.919401 -2.441308 0.792349 29.000000
1.875854 -2.439289 0.782026 15.000000
1.810781 -2.410421 0.763453 14.000000
1.739420 -2.367742 0.741041 24.000000
1.639480 -2.285272 0.706857 19.000000
1.548564 -2.207932 0.674978 10.000000
1.444473 -2.109576 0.637521 9.000000
1.365604 -2.040646 0.609646 10.000000
1.334942 -2.044205 0.603806 13.000000
1.249540 -1.961286 0.572876 18.000000
1.190444 -1.913037 0.552671 14.000000
1.151495 -1.897705 0.542241 23.000000
1.124262 -1.897647 0.536465 30.000000
1.098274 -1.902185 0.531964 29.000000
1.086563 -1.931821 0.534584 10.000000
0.879650 1.592617 0.453014 6.000000
0.881960 1.557451 0.447737 9.000000
0.896809 1.542786 0.448264 21.000000
0.900410 1.511965 0.444112 19.000000
0.924773 1.513793 0.449514 21.000000
0.944100 1.506953 0.452478 29.000000
0.954661 1.488271 0.451850 21.000000
0.976468 1.485114 0.456062 22.000000
0.983871 1.462198 0.454167 25.000000
1.011079 1.466587 0.460786 10.000000
1.015308 1.439426 0.457610 23.000000
1.022749 1.415775 0.455436 18.000000
1.046245 1.416043 0.460999 20.000000
1.059045 1.399912 0.461283 28.000000
1.061947 1.372763 0.457898 21.000000
1.086177 1.371696 0.463216 25.000000
1.106730 1.367055 0.467497 26.000000
1.128057 1.361554 0.471573 15.000000
1.129924 1.334190 0.468077 32.000000
1.141621 1.317339 0.468216 28.000000
1.158758 1.308174 0.471115 26.000000
1.179101 1.302293 0.475328 31.000000
1.187039 1.281494 0.474098 24.000000
1.207316 1.275133 0.478272 33.000000
1.220868 1.261581 0.479772 29.000000
1.248491 1.261013 0.486392 18.000000
1.251624 1.236809 0.483930 36.000000
1.268345 1.226013 0.486708 29.000000
1.281972 1.211269 0.487993 33.000000
1.298466 1.200075 0.490726 36.000000
1.314919 1.188633 0.493467 30.000000
1.334938 1.180131 0.497560 35.000000
1.344449 1.161458 0.497398 30.000000
1.367924 1.155575 0.502804 26.000000
1.372990 1.133949 0.501399 32.000000
1.388929 1.121446 0.504056 27.000000
1.412373 1.114650 0.509445 32.000000
1.428223 1.101608 0.512066 33.000000
1.443965 1.088252 0.514636 31.000000
1.455726 1.071901 0.515841 32.000000
1.471218 1.058184 0.518421 29.000000
1.486656 1.044264 0.520950 24.000000
1.501924 1.030082 0.523484 35.000000
1.525062 1.021041 0.528736 35.000000
1.540158 1.006357 0.531230 36.000000
1.554844 0.991758 0.533848 36.000000
1.573779 0.979136 0.537688 31.000000
1.588545 0.963721 0.540144 36.000000
1.599056 0.945651 0.541089 33.000000
1.609095 0.927817 0.542270 27.000000
1.635928 0.918912 0.548829 33.000000
1.654131 0.905202 0.552716 33.000000
1.676728 0.893139 0.557842 35.000000
1.698989 0.880971 0.563164 45.000000
1.708608 0.861610 0.564016 32.000000
1.726412 0.846655 0.567822 35.000000
1.765825 0.841699 0.578730 31.000000
1.779140 0.823854 0.581085 25.000000
1.783630 0.801855 0.580598 32.000000
1.827363 0.797139 0.592871 34.000000
1.862412 0.787773 0.602259 35.000000
1.866479 0.764964 0.601667 32.000000
1.901419 0.754495 0.611089 32.000000
1.918508 0.736493 0.614737 34.000000
1.926297 0.715022 0.615588 27.000000
1.943038 0.696521 0.619181 21.000000
1.968505 0.681015 0.625790 36.000000
1.989366 0.663456 0.630908 33.000000
2.001142 0.642464 0.632885 33.000000
2.021697 0.624193 0.637951 36.000000
2.032828 0.603028 0.640206 29.000000
2.066937 0.588038 0.649493 35.000000
2.096328 0.571033 0.657350 29.000000
2.069939 0.539175 0.647896 10.000000
2.149895 0.534454 0.671723 36.000000
2.160203 0.511394 0.673811 28.000000
2.184324 0.491380 0.680120 31.000000
2.231643 0.475792 0.693708 31.000000
2.260184 0.455479 0.701421 30.000000
2.269664 0.431071 0.703466 28.000000
2.307118 0.411449 0.714110 30.000000
2.297303 0.383218 0.710184 9.000000
2.362747 0.367050 0.729675 33.000000
2.404427 0.346103 0.741815 36.000000
2.403330 0.318500 0.740742 26.000000
2.449378 0.296675 0.754206 35.000000
2.490471 0.273370 0.766139 26.000000
2.526577 0.248825 0.776698 31.000000
2.543377 0.221794 0.781493 32.000000
2.574261 0.195447 0.790439 10.000000
2.619176 0.169384 0.803864 28.000000
2.668590 0.142531 0.818677 33.000000
2.689060 0.113483 0.824707 27.000000
2.718760 0.084305 0.833670 33.000000
2.772116 0.054871 0.849786 28.000000
2.786810 0.023930 0.854360 23.000000
2.858603 -0.007482 0.876342 31.000000
2.891881 -0.039973 0.886507 30.000000
2.919908 -0.073000 0.895299 30.000000
2.971432 -0.107628 0.911323 32.000000
3.017854 -0.143110 0.925781 30.000000
3.059069 -0.179479 0.938769 33.000000
3.066553 -0.214379 0.941502 27.000000
3.068768 -0.249106 0.942770 15.000000
3.056396 -0.282521 0.939450 29.000000
3.029385 -0.314243 0.931745 23.000000
3.030442 -0.348712 0.933013 27.000000
3.012219 -0.380888 0.928238 25.000000
2.993745 -0.412648 0.923467 20.000000
3.050503 -0.455287 0.941872 31.000000
3.059649 -0.491616 0.945659 24.000000
3.039972 -0.523393 0.940789 12.000000
3.085810 -0.566953 0.956233 34.000000
3.079504 -0.601387 0.955532 29.000000
3.105485 -0.642706 0.965121 33.000000
3.107649 -0.679551 0.967424 34.000000
3.090816 -0.712207 0.963705 26.000000
3.120023 -0.755715 0.974514 34.000000
3.125642 -0.794163 0.977946 26.000000
3.084529 -0.820417 0.966873 12.000000
3.107644 -0.863994 0.976197 30.000000
3.079591 -0.893422 0.969484 27.000000
3.051551 -0.922132 0.962476 29.000000
3.036721 -0.954842 0.960017 29.000000
3.016965 -0.986063 0.956320 28.000000
2.978936 -1.010522 0.946563 29.000000
2.963291 -1.042217 0.943821 25.000000
2.933682 -1.068892 0.937071 10.000000
2.948931 -1.111760 0.944389 31.000000
2.891953 -1.127395 0.928949 25.000000
2.883938 -1.161716 0.929194 27.000000
2.862217 -1.190320 0.925047 30.000000
2.835876 -1.216737 0.919481 26.000000
2.813746 -1.244600 0.915254 27.000000
2.800031 -1.276144 0.913882 25.000000
2.755646 -1.293138 0.902464 10.000000
2.741499 -1.323950 0.901011 29.000000
2.722671 -1.352435 0.898044 27.000000
2.703309 -1.381017 0.895372 29.000000
2.696831 -1.415611 0.896554 32.000000
2.672594 -1.441578 0.892378 28.000000
2.648552 -1.466678 0.887729 29.000000
2.636355 -1.498898 0.887689 29.000000
2.595279 -1.513706 0.877447 9.000000
2.599062 -1.555355 0.882915 31.000000
2.557373 -1.569557 0.872898 26.000000
2.543985 -1.601011 0.872575 29.000000
2.526791 -1.629094 0.870569 31.000000
2.496810 -1.649710 0.864686 24.000000
2.486515 -1.683140 0.865650 28.000000
2.456167 -1.702964 0.859692 23.000000
2.417782 -1.716766 0.850898 9.000000
2.430058 -1.766491 0.860023 15.000000
2.375984 -1.768030 0.845759 11.000000
2.379480 -1.812205 0.851909 30.000000
2.355850 -1.836013 0.848550 29.000000
2.328239 -1.856358 0.843739 25.000000
2.326575 -1.897727 0.848364 31.000000
2.294827 -1.914567 0.842201 20.000000
2.241024 -1.912126 0.827754 10.000000
2.244838 -1.960066 0.835333 27.000000
2.234268 -1.994811 0.837103 23.000000
2.201957 -2.010031 0.830705 26.000000
2.183661 -2.037875 0.829681 29.000000
2.178192 -2.079678 0.834274 22.000000
2.141889 -2.090531 0.826471 29.000000
2.126163 -2.121124 0.826661 19.000000
2.092178 -2.135318 0.820505 10.000000
2.079202 -2.169035 0.821813 29.000000
2.065811 -2.202692 0.823192 22.000000
2.054114 -2.240703 0.826048 26.000000
2.036526 -2.270575 0.825970 29.000000
2.002768 -2.282256 0.819266 22.000000
1.989716 -2.319950 0.822062 29.000000
1.958781 -2.334573 0.816672 18.000000
1.954128 -2.383251 0.823103 16.000000
1.937789 -2.416172 0.824039 26.000000
1.892908 -2.415647 0.813710 26.000000
1.876052 -2.447990 0.814536 10.000000
1.811028 -2.419281 0.795364 10.000000
1.728334 -2.361158 0.766959 10.000000
1.623253 -2.270899 0.728998 10.000000
1.549328 -2.217371 0.703527 9.000000
1.445499 -2.119321 0.664684 9.000000
1.374844 -2.062656 0.639531 10.000000
1.301633 -2.001383 0.613617 9.000000
1.246802 -1.962524 0.594946 10.000000
1.173865 -1.894580 0.568051 10.000000
1.145219 -1.895682 0.562254 14.000000
1.120490 -1.899883 0.557364 25.000000
1.091998 -1.900254 0.551551 18.000000
1.088668 -1.941869 0.557711 9.000000
0.853401 1.552663 0.457835 8.000000
0.864844 1.534625 0.457333 24.000000
0.877050 1.515974 0.456643 25.000000
0.891428 1.501431 0.457199 23.000000
0.907072 1.491405 0.459127 27.000000
0.926211 1.484766 0.462166 26.000000
0.939131 1.470253 0.462818 27.000000
0.952844 1.455139 0.463239 28.000000
0.976183 1.456464 0.468982 21.000000
0.984155 1.433002 0.466754 25.000000
1.004758 1.429805 0.471225 32.000000
1.020611 1.417984 0.472882 31.000000
1.026943 1.394894 0.470716 32.000000
1.045349 1.386639 0.473676 26.000000
1.059961 1.374884 0.475433 28.000000
1.078219 1.366199 0.478296 30.000000
1.095677 1.357831 0.481389 25.000000
1.103906 1.338080 0.480432 32.000000
1.118793 1.325116 0.481915 32.000000
1.136002 1.316127 0.484962 35.000000
1.156309 1.310569 0.489310 45.000000
1.170932 1.296998 0.490750 32.000000
1.187988 1.287297 0.493713 35.000000
1.195104 1.266912 0.492602 33.000000
1.212529 1.256342 0.495347 30.000000
1.229366 1.246085 0.498267 35.000000
1.239282 1.228758 0.498394 32.000000
1.259867 1.220937 0.502476 37.000000
1.276443 1.209985 0.505361 43.000000
1.289399 1.195520 0.506813 42.000000
1.302300 1.180888 0.508265 55.000000
1.314977 1.166145 0.509661 42.000000
1.338424 1.160614 0.515246 50.000000
1.355037 1.148064 0.517828 33.000000
1.382241 1.144896 0.524796 35.000000
1.372195 1.111086 0.517668 33.000000
1.410542 1.116314 0.528889 49.000000
1.430202 1.106103 0.532975 35.000000
1.442168 1.089823 0.534241 42.000000
1.453960 1.073428 0.535506 35.000000
1.457863 1.051254 0.533867 32.000000
1.488492 1.048804 0.542377 35.000000
1.515703 1.042676 0.549258 45.000000
1.519058 1.020050 0.547563 41.000000
1.526186 1.000113 0.547234 38.000000
1.549160 0.990410 0.552656 35.000000
1.567772 0.978134 0.556830 45.000000
1.586611 0.965204 0.560722 36.000000
1.605382 0.951970 0.564624 36.000000
1.619641 0.936333 0.567325 36.000000
1.621506 0.913143 0.565372 35.000000
1.648074 0.904123 0.572265 35.000000
1.674541 0.894607 0.579241 58.000000
1.688597 0.877670 0.581550 34.000000
1.710809 0.865133 0.587035 62.000000
1.720049 0.845859 0.588014 57.000000
1.737728 0.830585 0.591931 33.000000
1.755313 0.814993 0.595857 30.000000
1.777156 0.801046 0.601205 33.000000
1.807694 0.790508 0.609455 34.000000
1.829394 0.775684 0.614770 33.000000
1.842128 0.756805 0.617076 35.000000
1.854773 0.737700 0.619321 34.000000
1.898201 0.730627 0.632149 34.000000
1.915080 0.712441 0.635835 31.000000
1.913672 0.687726 0.633774 35.000000
1.952517 0.677157 0.644981 35.000000
1.982415 0.662788 0.653231 40.000000
2.003059 0.644852 0.658512 50.000000
2.009990 0.622242 0.659185 35.000000
2.030370 0.603644 0.664347 37.000000
2.050569 0.584669 0.669450 44.000000
2.070580 0.565453 0.674698 31.000000
2.122699 0.554294 0.690393 35.000000
2.133222 0.531582 0.692527 34.000000
2.157408 0.511929 0.699175 36.000000
2.195431 0.495004 0.710276 48.000000
2.214676 0.473289 0.715225 36.000000
2.233696 0.451261 0.720399 35.000000
2.252486 0.428846 0.725434 35.000000
2.285116 0.408558 0.735003 27.000000
2.303604 0.385205 0.739905 36.000000
2.331113 0.363002 0.747984 47.000000
2.372625 0.342313 0.760533 36.000000
2.395129 0.318113 0.766890 36.000000
2.426840 0.294637 0.776279 53.000000
2.444024 0.268960 0.781212 34.000000
2.484794 0.245225 0.793644 37.000000
2.511006 0.219394 0.801459 24.000000
2.565445 0.195200 0.818454 35.000000
2.586441 0.167676 0.824766 35.000000
2.621403 0.140407 0.835547 37.000000
2.675108 0.113196 0.852399 47.000000
2.700033 0.083835 0.860155 37.000000
2.738831 0.054310 0.872292 47.000000
2.758325 0.023766 0.878536 34.000000
2.820347 -0.007407 0.898262 35.000000
2.882003 -0.039880 0.917895 53.000000
2.924314 -0.073358 0.931549 34.000000
2.961371 -0.107533 0.943592 36.000000
3.021909 -0.143693 0.963120 36.000000
3.067726 -0.180402 0.978188 35.000000
3.108336 -0.217847 0.991538 37.000000
3.134335 -0.254993 1.000333 31.000000
3.174014 -0.294096 1.013667 33.000000
3.255954 -0.338594 1.040626 35.000000
3.289945 -0.379442 1.052214 33.000000
3.337600 -0.422936 1.068545 35.000000
3.389508 -0.468251 1.086269 33.000000
3.384140 -0.506268 1.085611 45.000000
3.364436 -0.541901 1.080421 38.000000
3.316054 -0.572354 1.066282 27.000000
3.290839 -0.606066 1.059598 34.000000
3.265378 -0.639251 1.052815 34.000000
3.239570 -0.672016 1.045935 33.000000
3.222738 -0.706297 1.042287 36.000000
3.205527 -0.740369 1.038538 35.000000
3.183413 -0.773001 1.033184 32.000000
3.156332 -0.803934 1.026230 32.000000
3.115215 -0.830662 1.014681 24.000000
3.092251 -0.861686 1.009151 29.000000
3.105603 -0.903055 1.015717 33.000000
3.063608 -0.928338 1.004309 32.000000
3.030515 -0.955464 0.995809 33.000000
3.010878 -0.986537 0.991704 33.000000
3.004555 -1.021812 0.991980 32.000000
2.979788 -1.050638 0.986293 33.000000
2.941370 -1.074148 0.976052 26.000000
2.924892 -1.105592 0.973465 29.000000
2.895110 -1.131323 0.966129 35.000000
2.869211 -1.158541 0.960491 30.000000
2.856456 -1.190874 0.959205 35.000000
2.821268 -1.213572 0.950529 31.000000
2.807925 -1.245263 0.949253 34.000000
2.798535 -1.278842 0.949255 30.000000
2.775835 -1.306120 0.944838 29.000000
2.752832 -1.333105 0.940332 29.000000
2.742560 -1.366096 0.940236 34.000000
2.702064 -1.383733 0.929885 30.000000
2.686561 -1.414448 0.928432 35.000000
2.666948 -1.442114 0.925325 37.000000
2.634549 -1.462623 0.917660 31.000000
2.634927 -1.501996 0.921939 33.000000
2.589666 -1.514402 0.909942 26.000000
2.576931 -1.546331 0.909764 30.000000
2.559778 -1.575462 0.908135 32.000000
2.526621 -1.593706 0.900352 27.000000
2.508911 -1.622366 0.898638 29.000000
2.487019 -1.648094 0.895391 33.000000
2.456879 -1.668161 0.889282 26.000000
2.469894 -1.717858 0.898840 29.000000
2.428169 -1.728400 0.887975 23.000000
2.412965 -1.758652 0.887501 10.000000
2.389825 -1.783068 0.883989 19.000000
2.358747 -1.801292 0.877742 29.000000
2.335228 -1.824975 0.874249 28.000000
2.326476 -1.860271 0.876314 35.000000
2.287535 -1.871235 0.867096 26.000000
2.270819 -1.900069 0.866338 28.000000
2.249259 -1.926336 0.864361 24.000000
2.231876 -1.954825 0.863499 26.000000
2.206988 -1.976611 0.859748 29.000000
2.199691 -2.014441 0.862858 30.000000
2.181309 -2.042361 0.861875 29.000000
2.159195 -2.066753 0.859312 30.000000
2.132413 -2.088351 0.855751 25.000000
2.130246 -2.132638 0.861436 26.000000
2.087025 -2.135825 0.850634 19.000000
2.062956 -2.159988 0.848265 24.000000
2.056164 -2.200495 0.852421 32.000000
2.019488 -2.209212 0.844221 24.000000
1.994716 -2.232655 0.841849 24.000000
1.992979 -2.280240 0.848444 28.000000
1.965471 -2.298655 0.844220 22.000000
1.958129 -2.343641 0.849674 22.000000
1.920973 -2.350388 0.841429 14.000000
1.907920 -2.386787 0.843773 21.000000
1.896056 -2.427841 0.847697 24.000000
1.861534 -2.437308 0.840612 11.000000
1.802444 -2.416325 0.823307 10.000000
1.739927 -2.385676 0.803194 15.000000
1.654432 -2.323203 0.773018 18.000000
1.580262 -2.270194 0.746589 16.000000
1.440853 -2.120808 0.689435 9.000000
1.372999 -2.068282 0.664696 9.000000
1.307919 -2.019325 0.641649 10.000000
1.242720 -1.964338 0.617250 10.000000
1.182634 -1.917088 0.595797 10.000000
1.152533 -1.913533 0.588215 16.000000
1.109137 -1.889389 0.574545 17.000000
1.090456 -1.906515 0.573596 16.000000
1.068078 -1.914342 0.569844 9.000000
0.852786 1.559350 0.476116 8.000000
0.853585 1.519664 0.468932 25.000000
0.876730 1.522517 0.474884 28.000000
0.883850 1.495459 0.471478 33.000000
0.906946 1.497840 0.477457 31.000000
0.918530 1.478846 0.476589 34.000000
0.936651 1.472558 0.479897 36.000000
0.947736 1.453326 0.479004 28.000000
0.965737 1.446622 0.482262 33.000000
0.976382 1.427213 0.481344 27.000000
0.996859 1.424093 0.485898 29.000000
1.009094 1.408887 0.486420 35.000000
1.027651 1.400792 0.489478 33.000000
1.045301 1.393072 0.492657 36.000000
1.054907 1.373071 0.491583 34.000000
1.072435 1.364932 0.494767 32.000000
1.087638 1.352263 0.496364 48.000000
1.105013 1.343691 0.499507 28.000000
1.119264 1.331152 0.501219 35.000000
1.121536 1.303387 0.497210 50.000000
1.148097 1.305135 0.504478 36.000000
1.161962 1.292100 0.506135 46.000000
1.179628 1.281932 0.509029 43.000000
1.190022 1.265089 0.509283 39.000000
1.206880 1.255013 0.512297 51.000000
1.220339 1.241277 0.513903 28.000000
1.243772 1.237573 0.519714 66.000000
1.261058 1.226283 0.522478 62.000000
1.263802 1.202040 0.519762 35.000000
1.287266 1.197387 0.525558 87.000000
1.303689 1.185994 0.528450 63.000000
1.312914 1.167931 0.528470 54.000000
1.336349 1.162347 0.534257 79.000000
1.348883 1.147104 0.535669 19.000000
1.339229 1.113339 0.528371 36.000000
1.362418 1.107115 0.534070 36.000000
1.400617 1.112310 0.545626 52.000000
1.420270 1.102194 0.549863 65.000000
1.432203 1.085957 0.551125 40.000000
1.451703 1.075237 0.555384 34.000000
1.467225 1.061427 0.558067 57.000000
1.470988 1.039086 0.556330 19.000000
1.501980 1.035788 0.564933 42.000000
1.516899 1.021668 0.567814 47.000000
1.524013 1.001631 0.567439 32.000000
1.543008 0.989297 0.571523 47.000000
1.565633 0.979546 0.577288 36.000000
1.584467 0.966564 0.581339 36.000000
1.602935 0.953635 0.585641 50.000000
1.605124 0.930416 0.583595 21.000000
1.627551 0.919348 0.589292 36.000000
1.645955 0.905281 0.593260 57.000000
1.659837 0.888955 0.595911 35.000000
1.686265 0.879023 0.603042 65.000000
1.695701 0.859966 0.604077 36.000000
1.709229 0.842834 0.606628 33.000000
1.731149 0.829662 0.612223 54.000000
1.748701 0.814066 0.616189 16.000000
1.774834 0.802073 0.623211 30.000000
1.796591 0.787714 0.628725 34.000000
1.809459 0.769144 0.631133 31.000000
1.830981 0.754038 0.636543 35.000000
1.861083 0.742287 0.645157 35.000000
1.882432 0.726291 0.650531 29.000000
1.907962 0.711722 0.657582 35.000000
1.911062 0.688623 0.656958 18.000000
1.945381 0.676430 0.667048 33.000000
1.970621 0.660474 0.674011 40.000000
1.995791 0.644045 0.680920 49.000000
2.007264 0.622911 0.683206 34.000000
2.027610 0.604256 0.688454 36.000000
2.047705 0.585430 0.693916 35.000000
2.063095 0.564903 0.697769 35.000000
2.096657 0.548848 0.707769 21.000000
2.120944 0.529797 0.714609 30.000000
2.158920 0.513560 0.726125 35.000000
2.182946 0.493380 0.732847 33.000000
2.202057 0.471787 0.738238 32.000000
2.216360 0.448865 0.741934 34.000000
2.239746 0.427515 0.748682 31.000000
2.300394 0.412302 0.767849 32.000000
2.286011 0.383186 0.762053 27.000000
2.318188 0.361892 0.771950 32.000000
2.359559 0.341172 0.784835 35.000000
2.386619 0.317726 0.793038 35.000000
2.418230 0.294324 0.802893 35.000000
2.449601 0.270207 0.812521 41.000000
2.461824 0.243583 0.816129 34.000000
2.511587 0.219981 0.831956 31.000000
2.561115 0.195396 0.847954 29.000000
2.572572 0.167119 0.851337 30.000000
2.621636 0.140748 0.867185 35.000000
2.660932 0.112823 0.879901 35.000000
2.690516 0.083749 0.889485 34.000000
2.719774 0.054034 0.898897 33.000000
2.758101 0.023759 0.911625 35.000000
2.810410 -0.007407 0.928884 34.000000
2.871848 -0.039880 0.949190 36.000000
2.904516 -0.073026 0.960172 34.000000
2.936699 -0.106920 0.971060 33.000000
3.015992 -0.143725 0.997535 46.000000
3.033203 -0.178809 1.003711 32.000000
3.097359 -0.217548 1.025368 30.000000
3.118525 -0.254305 1.032905 22.000000
3.167512 -0.294229 1.049942 33.000000
3.216191 -0.335221 1.066556 34.000000
3.282997 -0.379669 1.089836 36.000000
3.335279 -0.423702 1.107978 32.000000
3.372753 -0.467052 1.121625 33.000000
3.353412 -0.502903 1.116388 35.000000
3.347747 -0.540490 1.115625 35.000000
3.299524 -0.570898 1.101132 27.000000
3.255701 -0.601111 1.087999 29.000000
3.244340 -0.636782 1.085695 32.000000
3.227922 -0.671381 1.081728 34.000000
3.201947 -0.703519 1.074545 32.000000
3.175534 -0.735239 1.067583 32.000000
3.162752 -0.769810 1.065295 33.000000
3.140368 -0.801924 1.059693 29.000000
3.094789 -0.827382 1.046234 20.000000
3.094792 -0.864598 1.048307 30.000000
3.080738 -0.897926 1.045521 31.000000
3.038903 -0.922964 1.033761 33.000000
3.005938 -0.950048 1.025012 29.000000
2.999935 -0.985422 1.025443 32.000000
2.975488 -1.014557 1.019701 31.000000
2.941870 -1.040015 1.010686 27.000000
2.903656 -1.063232 1.000153 16.000000
2.909849 -1.102507 1.004910 30.000000
2.906435 -1.138911 1.006882 32.000000
2.849907 -1.153586 0.990055 34.000000
2.841485 -1.187555 0.990304 29.000000
2.797656 -1.206445 0.978320 30.000000
2.771323 -1.232282 0.972374 32.000000
2.753386 -1.261500 0.969391 25.000000
2.739411 -1.292554 0.967936 18.000000
2.742383 -1.331738 0.972461 29.000000
2.714948 -1.356210 0.966347 31.000000
2.695838 -1.384554 0.963180 36.000000
2.651194 -1.399260 0.950852 28.000000
2.648506 -1.435829 0.953651 32.000000
2.632401 -1.466013 0.952205 36.000000
2.595789 -1.483595 0.942758 27.000000
2.579238 -1.513254 0.941227 22.000000
2.575044 -1.549429 0.943712 32.000000
2.553777 -1.576243 0.940582 31.000000
2.512496 -1.589441 0.929519 35.000000
2.498914 -1.620557 0.929297 30.000000
2.472966 -1.643741 0.924420 29.000000
2.463208 -1.676543 0.925203 34.000000
2.428970 -1.693610 0.917380 24.000000
2.406351 -1.718364 0.913917 21.000000
2.391223 -1.748575 0.913406 16.000000
2.375750 -1.778590 0.912890 20.000000
2.356230 -1.805501 0.910710 33.000000
2.321282 -1.820327 0.902773 31.000000
2.312512 -1.855667 0.904987 33.000000
2.288381 -1.878743 0.901260 34.000000
2.267790 -1.904623 0.898993 25.000000
2.225230 -1.911603 0.887941 26.000000
2.218662 -1.949308 0.891381 30.000000
2.201040 -1.977551 0.890374 31.000000
2.190026 -2.012072 0.892233 33.000000
2.161154 -2.030149 0.886903 29.000000
2.149514 -2.064475 0.888639 32.000000
2.139839 -2.102873 0.892061 35.000000
2.093338 -2.103161 0.879442 24.000000
2.070669 -2.126679 0.876797 24.000000
2.047717 -2.149914 0.874058 27.000000
2.050647 -2.200948 0.882580 32.000000
2.029099 -2.228319 0.881496 33.000000
1.998756 -2.243861 0.875823 28.000000
1.971531 -2.262497 0.871563 32.000000
1.949181 -2.289137 0.870283 31.000000
1.949325 -2.340351 0.878406 25.000000
1.912129 -2.347215 0.869884 19.000000
1.900756 -2.388323 0.873978 26.000000
1.881179 -2.417035 0.873620 27.000000
1.839508 -2.419761 0.863966 20.000000
1.785156 -2.401594 0.847164 10.000000
1.724188 -2.375738 0.828027 21.000000
1.648921 -2.324243 0.800522 22.000000
1.563899 -2.255438 0.767816 18.000000
1.436098 -2.122123 0.714112 9.000000
1.376412 -2.081769 0.692632 10.000000
1.306076 -2.024994 0.666122 12.000000
1.241033 -1.970147 0.640895 12.000000
1.181140 -1.922959 0.618635 10.000000
1.148528 -1.915414 0.609482 19.000000
1.100274 -1.883011 0.592795 25.000000
1.075699 -1.886833 0.587631 18.000000
1.073228 -1.933236 0.595772 10.000000
0.828973 1.523584 0.481091 8.000000
0.856694 1.535110 0.489890 16.000000
0.871454 1.520573 0.490491 30.000000
0.883568 1.501834 0.489674 24.000000
0.896771 1.487660 0.490415 29.000000
0.909833 1.473376 0.491089 33.000000
0.931458 1.470625 0.495640 29.000000
0.952156 1.468086 0.500433 35.000000
0.963220 1.448696 0.499507 28.000000
0.978465 1.437759 0.501440 25.000000
0.991736 1.422165 0.501817 35.000000
1.003986 1.406964 0.502350 31.000000
1.019641 1.394989 0.504108 35.000000
1.037236 1.387296 0.507381 32.000000
1.057771 1.383129 0.512075 28.000000
1.067312 1.363004 0.510906 34.000000
1.078748 1.347089 0.511359 28.000000
1.093030 1.334839 0.513171 28.000000
1.107916 1.321875 0.514764 35.000000
1.121979 1.309241 0.516522 32.000000
1.132776 1.292895 0.516840 54.000000
1.162549 1.297794 0.525760 36.000000
1.173812 1.280492 0.525812 46.000000
1.187549 1.267143 0.527529 49.000000
1.207681 1.260480 0.532106 31.000000
1.211178 1.236421 0.529334 28.000000
1.231810 1.228867 0.533703 41.000000
1.248394 1.218096 0.536729 55.000000
1.261538 1.203838 0.538288 51.000000
1.274459 1.189413 0.539848 38.000000
1.297905 1.184477 0.545801 59.000000
1.310708 1.169597 0.547317 79.000000
1.319746 1.151467 0.547286 36.000000
1.339438 1.142540 0.551732 28.000000
1.362816 1.136332 0.557637 34.000000
1.375133 1.120666 0.559056 35.000000
1.398468 1.113796 0.564938 74.000000
1.414360 1.100644 0.567821 35.000000
1.433881 1.090176 0.572168 42.000000
1.445359 1.074084 0.573725 48.000000
1.453213 1.054675 0.573473 32.000000
1.476373 1.046194 0.579254 31.000000
1.491711 1.031914 0.581999 38.000000
1.510529 1.020500 0.586515 40.000000
1.525664 1.005703 0.589219 75.000000
1.536680 0.988125 0.590332 37.000000
1.551197 0.973309 0.593221 58.000000
1.578057 0.965377 0.600452 59.000000
1.592468 0.950006 0.603245 33.000000
1.606694 0.934364 0.606045 30.000000
1.625227 0.920494 0.610165 52.000000
1.635121 0.902084 0.611304 34.000000
1.661517 0.892547 0.618677 45.000000
1.675297 0.875908 0.621389 37.000000
1.688943 0.858992 0.624046 70.000000
1.715222 0.848233 0.631348 67.000000
1.724323 0.828740 0.632332 34.000000
1.741903 0.813078 0.636459 26.000000
1.767969 0.801137 0.643681 35.000000
1.780988 0.782889 0.646193 31.000000
1.811066 0.772109 0.655150 38.000000
1.823809 0.753276 0.657554 32.000000
1.845017 0.737994 0.663319 35.000000
1.857495 0.718671 0.665671 35.000000
1.896207 0.709278 0.677677 29.000000
1.890454 0.683009 0.673822 25.000000
1.942457 0.677198 0.690575 42.000000
1.958727 0.658165 0.694556 34.000000
1.983814 0.641846 0.701666 42.000000
1.999643 0.622304 0.705732 41.000000
2.015398 0.602289 0.709603 34.000000
2.039980 0.584746 0.716816 57.000000
2.055336 0.564217 0.720772 32.000000
2.102536 0.551828 0.735888 30.000000
2.117606 0.530316 0.739727 36.000000
2.137121 0.509624 0.745107 31.000000
2.179370 0.493923 0.758674 34.000000
2.193957 0.471208 0.762395 35.000000
2.208225 0.448284 0.766193 32.000000
2.240841 0.428708 0.776366 37.000000
2.282520 0.410178 0.789925 31.000000
2.282264 0.383524 0.788686 29.000000
2.314270 0.362171 0.798891 37.000000
2.355587 0.341468 0.812187 35.000000
2.377877 0.317339 0.819032 35.000000
2.409384 0.293932 0.829194 35.000000
2.435871 0.269370 0.837671 35.000000
2.452840 0.243265 0.842841 35.000000
2.478788 0.217668 0.851331 27.000000
2.551870 0.195066 0.875691 31.000000
2.567930 0.167261 0.880796 33.000000
2.593207 0.139562 0.889143 35.000000
2.655985 0.112939 0.910454 34.000000
2.675925 0.083515 0.917107 36.000000
2.714536 0.054128 0.930070 36.000000
2.762184 0.023882 0.946362 36.000000
2.814302 -0.007445 0.964278 54.000000
2.828309 -0.039328 0.969049 34.000000
2.893870 -0.072933 0.991736 36.000000
2.935385 -0.107075 1.006225 36.000000
2.981402 -0.142499 1.022236 34.000000
3.031612 -0.179171 1.039665 36.000000
3.081363 -0.216916 1.057279 32.000000
3.083488 -0.252176 1.058798 20.000000
3.146539 -0.293045 1.081056 34.000000
3.194935 -0.333926 1.098443 33.000000
3.256897 -0.377504 1.120669 35.000000
3.308990 -0.421369 1.139429 38.000000
3.346330 -0.464553 1.153539 32.000000
3.322383 -0.499435 1.146535 44.000000
3.316750 -0.536920 1.145885 33.000000
3.273379 -0.567826 1.132438 22.000000
3.239136 -0.599506 1.121909 33.000000
3.232445 -0.636039 1.121166 34.000000
3.216061 -0.670428 1.117097 35.000000
3.185321 -0.701763 1.108418 35.000000
3.163810 -0.734297 1.102649 35.000000
3.146341 -0.767851 1.098600 33.000000
3.137783 -0.803337 1.097660 35.000000
3.092316 -0.828909 1.083894 20.000000
3.064893 -0.858560 1.076352 33.000000
3.050912 -0.891684 1.073625 34.000000
3.022751 -0.920667 1.066308 31.000000
2.999125 -0.950366 1.060195 33.000000
2.979586 -0.981242 1.055891 31.000000
2.946355 -1.007214 1.046713 32.000000
2.935227 -1.040397 1.045510 33.000000
2.896997 -1.063676 1.034670 21.000000
2.903104 -1.102994 1.039629 32.000000
2.855405 -1.122101 1.025845 33.000000
2.838769 -1.152403 1.022682 33.000000
2.808456 -1.177300 1.015174 35.000000
2.799978 -1.210629 1.015088 36.000000
2.764868 -1.232659 1.005831 32.000000
2.759863 -1.267969 1.007519 34.000000
2.728736 -1.291099 0.999767 23.000000
2.723007 -1.326116 1.001353 34.000000
2.712649 -1.359006 1.001265 36.000000
2.676622 -1.378749 0.991786 33.000000
2.653038 -1.404487 0.986921 35.000000
2.612664 -1.420765 0.975737 35.000000
2.609636 -1.457135 0.978589 31.000000
2.589101 -1.484620 0.975500 35.000000
2.560711 -1.506519 0.968933 24.000000
2.544308 -1.535225 0.966930 32.000000
2.515106 -1.556803 0.960581 31.000000
2.482147 -1.574799 0.952329 30.000000
2.488535 -1.618747 0.959766 33.000000
2.458662 -1.639203 0.953256 29.000000
2.441037 -1.666682 0.951077 29.000000
2.445966 -1.710913 0.958257 36.000000
2.396056 -1.716569 0.944047 19.000000
2.384752 -1.749595 0.945012 17.000000
2.362274 -1.773172 0.941031 20.000000
2.335134 -1.794233 0.935921 27.000000
2.300345 -1.809040 0.927614 33.000000
2.291625 -1.844146 0.929981 32.000000
2.274971 -1.873256 0.929131 32.000000
2.265357 -1.908313 0.931367 33.000000
2.211888 -1.905963 0.915441 19.000000
2.208965 -1.946860 0.920567 30.000000
2.194779 -1.978295 0.921001 34.000000
2.169639 -1.999900 0.917061 29.000000
2.161757 -2.037521 0.920339 36.000000
2.129324 -2.052062 0.913350 27.000000
2.117245 -2.086114 0.915024 28.000000
2.090246 -2.107492 0.911279 31.000000
2.047435 -2.110497 0.899659 18.000000
2.047676 -2.157866 0.907147 31.000000
2.024328 -2.180929 0.904299 29.000000
2.002867 -2.208106 0.903187 26.000000
1.985455 -2.237797 0.903130 32.000000
1.964560 -2.263729 0.901613 30.000000
1.946497 -2.293097 0.901428 29.000000
1.920624 -2.315807 0.898744 26.000000
1.904862 -2.348534 0.899957 16.000000
1.900682 -2.396102 0.906728 29.000000
1.870779 -2.414605 0.902391 27.000000
1.845022 -2.435503 0.899086 21.000000
1.781946 -2.405984 0.877500 10.000000
1.721157 -2.380166 0.857823 19.000000
1.634888 -2.313240 0.823836 19.000000
1.548878 -2.245358 0.790430 17.000000
1.433838 -2.127249 0.740182 9.000000
1.370278 -2.083808 0.716856 10.000000
1.293709 -2.014234 0.685115 10.000000
1.237884 -1.976455 0.664788 10.000000
1.184393 -1.936946 0.644304 16.000000
1.119621 -1.875757 0.617170 16.000000
1.093722 -1.880597 0.612106 21.000000
1.067802 -1.885117 0.607063 21.000000
1.059533 -1.918143 0.611240 8.000000
0.841948 1.555364 0.507336 8.000000
0.853680 1.537249 0.506813 14.000000
0.861418 1.510175 0.503207 18.000000
0.884486 1.512776 0.509550 18.000000
0.894008 1.489737 0.507295 29.000000
0.917178 1.491779 0.513671 22.000000
0.928770 1.472638 0.512740 29.000000
0.941622 1.457976 0.513426 25.000000
0.963209 1.454645 0.518096 19.000000
0.978594 1.443647 0.520151 21.000000
0.980162 1.412752 0.514978 16.000000
1.001486 1.408834 0.519665 26.000000
1.013599 1.393506 0.520203 27.000000
1.031177 1.385754 0.523576 21.000000
1.043811 1.369611 0.523828 28.000000
1.061253 1.361462 0.527211 26.000000
1.087659 1.364294 0.534946 24.000000
1.087811 1.332806 0.529321 28.000000
1.101984 1.320337 0.531134 26.000000
1.119146 1.311390 0.534427 35.000000
1.133138 1.298556 0.536245 30.000000
1.147735 1.285060 0.537787 29.000000
1.158234 1.268372 0.538055 32.000000
1.181622 1.265592 0.544256 27.000000
1.205070 1.262369 0.550485 28.000000
1.208597 1.238285 0.547635 28.000000
1.218579 1.221010 0.547783 30.000000
1.242490 1.216537 0.553715 36.000000
1.255634 1.202279 0.555331 34.000000
1.275562 1.194363 0.559998 33.000000
1.281421 1.173262 0.558505 53.000000
1.294119 1.158503 0.560009 27.000000
1.313810 1.149899 0.564590 32.000000
1.337140 1.143999 0.570673 25.000000
1.345913 1.125535 0.570594 26.000000
1.368662 1.119531 0.576936 34.000000
1.388290 1.109628 0.581407 31.000000
1.407877 1.099440 0.585894 32.000000
1.427421 1.088965 0.590394 35.000000
1.431687 1.066794 0.588590 28.000000
1.442932 1.050673 0.590139 28.000000
1.462143 1.039477 0.594547 25.000000
1.481302 1.027988 0.598911 30.000000
1.511837 1.024536 0.608260 45.000000
1.523116 1.007030 0.609434 32.000000
1.537792 0.992388 0.612431 30.000000
1.548688 0.974600 0.613550 35.000000
1.571231 0.964427 0.619624 30.000000
1.577730 0.943832 0.619156 31.000000
1.596039 0.930666 0.623598 26.000000
1.605977 0.912515 0.624788 30.000000
1.628225 0.901125 0.630793 34.000000
1.642047 0.884841 0.633601 33.000000
1.664182 0.872678 0.639516 33.000000
1.682003 0.858018 0.643833 35.000000
1.699734 0.842983 0.648101 33.000000
1.713113 0.825641 0.650760 28.000000
1.743425 0.816099 0.659847 28.000000
1.756611 0.798120 0.662402 26.000000
1.777994 0.783983 0.668465 31.000000
1.803910 0.771096 0.675857 30.000000
1.838342 0.761495 0.686656 28.000000
1.855401 0.744007 0.690757 32.000000
1.885300 0.731511 0.699902 29.000000
1.888714 0.708431 0.699179 26.000000
1.918476 0.695039 0.708289 28.000000
1.934908 0.676337 0.712429 29.000000
1.951076 0.657366 0.716510 28.000000
1.975958 0.641107 0.724023 34.000000
1.987380 0.620022 0.726409 29.000000
2.007539 0.601611 0.732164 32.000000
2.022979 0.581523 0.736278 29.000000
2.042821 0.562346 0.741985 24.000000
2.094411 0.551128 0.759210 29.000000
2.109447 0.529683 0.763151 25.000000
2.128909 0.508987 0.768684 29.000000
2.157288 0.490140 0.777683 28.000000
2.167052 0.466730 0.779987 23.000000
2.199728 0.447775 0.790525 30.000000
2.246130 0.430858 0.805990 26.000000
2.232082 0.402130 0.800003 15.000000
2.282832 0.384643 0.817010 29.000000
2.319481 0.363910 0.829189 25.000000
2.337276 0.339652 0.834567 26.000000
2.378171 0.318280 0.848437 33.000000
2.390790 0.292475 0.852238 24.000000
2.421939 0.268535 0.862640 26.000000
2.448149 0.243493 0.871301 25.000000
2.446003 0.215361 0.869791 10.000000
2.532731 0.194180 0.900170 26.000000
2.553515 0.166705 0.907016 25.000000
2.597439 0.140156 0.922386 22.000000
2.636536 0.112366 0.935754 30.000000
2.675241 0.083723 0.949296 28.000000
2.685356 0.053664 0.952899 25.000000
2.751758 0.023882 0.976393 27.000000
2.803679 -0.007445 0.994784 28.000000
2.817542 -0.039328 0.999708 33.000000
2.873523 -0.072601 1.019583 30.000000
2.905556 -0.106292 1.031189 30.000000
2.974747 -0.142532 1.056258 34.000000
2.991925 -0.177206 1.062653 26.000000
3.060304 -0.216053 1.087516 25.000000
3.090600 -0.253316 1.098809 27.000000
3.129921 -0.292199 1.113634 23.000000
3.201458 -0.335476 1.140036 31.000000
3.239738 -0.376537 1.154636 28.000000
3.324350 -0.424521 1.185796 32.000000
3.347590 -0.465958 1.195037 30.000000
3.323692 -0.500893 1.187826 31.000000
3.294767 -0.534760 1.178848 29.000000
3.242266 -0.563951 1.161665 26.000000
3.222074 -0.597902 1.155823 24.000000
3.206140 -0.632557 1.151757 30.000000
3.189823 -0.666897 1.147695 27.000000
3.154704 -0.696748 1.136789 27.000000
3.142480 -0.731321 1.134190 29.000000
3.120488 -0.763548 1.128384 26.000000
3.107397 -0.797705 1.125793 29.000000
3.080248 -0.827877 1.118243 25.000000
3.057439 -0.858913 1.112151 23.000000
3.034404 -0.889435 1.106068 30.000000
3.020177 -0.922202 1.103193 29.000000
2.978374 -0.946494 1.090639 26.000000
2.959003 -0.977069 1.085934 29.000000
2.921425 -1.001318 1.074865 26.000000
2.905798 -1.032867 1.072026 20.000000
2.898872 -1.067281 1.072370 26.000000
2.882682 -1.098430 1.069335 24.000000
2.857437 -1.125717 1.062935 26.000000
2.844841 -1.158249 1.061745 30.000000
2.810458 -1.181227 1.052003 27.000000
2.775586 -1.203809 1.042578 30.000000
2.745234 -1.227242 1.034315 25.000000
2.744533 -1.264427 1.037731 17.000000
2.734766 -1.297559 1.037793 31.000000
2.699157 -1.318233 1.028135 26.000000
2.676167 -1.344700 1.023351 30.000000
2.657185 -1.372856 1.019999 30.000000
2.642045 -1.402944 1.018263 29.000000
2.614147 -1.426038 1.011606 30.000000
2.590336 -1.450971 1.006476 26.000000
2.574454 -1.480247 1.004658 17.000000
2.554205 -1.506828 1.001050 26.000000
2.533340 -1.533699 0.997734 25.000000
2.512625 -1.559810 0.994043 28.000000
2.491107 -1.586114 0.990739 26.000000
2.454140 -1.601108 0.980524 20.000000
2.456028 -1.642486 0.986651 28.000000
2.422597 -1.659331 0.977955 24.000000
2.411947 -1.692551 0.979125 15.000000
2.404746 -1.728435 0.981855 25.000000
2.363235 -1.738502 0.969963 10.000000
2.340205 -1.762615 0.966228 13.000000
2.316956 -1.786547 0.962500 24.000000
2.300946 -1.815996 0.961803 23.000000
2.284590 -1.845249 0.961099 29.000000
2.257739 -1.864562 0.955262 24.000000
2.219089 -1.874973 0.945178 12.000000
2.209280 -1.909568 0.947383 25.000000
2.184729 -1.931620 0.943314 20.000000
2.184767 -1.975651 0.949997 29.000000
2.152654 -1.990796 0.942855 24.000000
2.137860 -2.021777 0.943276 24.000000
2.122736 -2.052728 0.943680 25.000000
2.089210 -2.067556 0.936760 21.000000
2.100205 -2.125176 0.949072 14.000000
2.047332 -2.118151 0.932715 21.000000
2.017866 -2.134419 0.926782 17.000000
2.023888 -2.188778 0.937366 27.000000
1.987435 -2.197511 0.928430 22.000000
1.965769 -2.224398 0.927267 22.000000
1.944879 -2.250219 0.925716 27.000000
1.933065 -2.286767 0.928598 18.000000
1.945003 -2.352763 0.943153 18.000000
1.894367 -2.345838 0.928457 18.000000
1.875162 -2.374716 0.928115 21.000000
1.861545 -2.411008 0.930676 25.000000
1.819932 -2.413782 0.920381 17.000000
1.794183 -2.434226 0.917006 10.000000
1.703892 -2.365153 0.880381 10.000000
1.627649 -2.314636 0.851474 9.000000
1.559631 -2.269783 0.825264 9.000000
1.434027 -2.136168 0.767775 9.000000
1.365381 -2.084967 0.740851 9.000000
1.278664 -1.999306 0.702438 10.000000
1.228241 -1.969647 0.684318 9.000000
1.179974 -1.938379 0.666022 10.000000
1.126416 -1.898651 0.645261 10.000000
1.094316 -1.890510 0.635609 14.000000
1.068285 -1.895126 0.630395 14.000000
1.059810 -1.928274 0.634628 6.000000
0.829626 1.540512 0.518628 8.000000
0.850524 1.539265 0.523710 14.000000
0.867828 1.528905 0.525782 19.000000
0.883900 1.518881 0.527966 20.000000
0.890108 1.492246 0.524427 18.000000
0.914274 1.493688 0.530771 24.000000
0.924941 1.475084 0.530037 20.000000
0.944023 1.467886 0.533443 22.000000
0.959562 1.457026 0.535559 19.000000
0.969647 1.438020 0.534729 16.000000
0.985710 1.426332 0.536557 25.000000
1.003588 1.418931 0.540146 28.000000
1.018640 1.407378 0.542145 23.000000
1.034414 1.395104 0.543978 29.000000
1.049244 1.383218 0.545978 25.000000
1.063907 1.371165 0.547922 25.000000
1.085222 1.365854 0.552719 28.000000
1.081769 1.331158 0.545526 20.000000
1.105074 1.329733 0.552011 31.000000
1.119309 1.316994 0.553894 30.000000
1.137222 1.307181 0.557031 31.000000
1.151219 1.294073 0.558864 35.000000
1.165049 1.280854 0.560696 29.000000
1.185300 1.274377 0.565564 32.000000
1.198983 1.260694 0.567295 30.000000
1.199302 1.233217 0.562808 18.000000
1.225957 1.232882 0.570758 68.000000
1.239249 1.218697 0.572433 35.000000
1.255850 1.207635 0.575677 33.000000
1.275870 1.199633 0.580447 48.000000
1.288820 1.184881 0.582024 37.000000
1.301714 1.169960 0.583601 35.000000
1.317944 1.158000 0.586763 37.000000
1.330534 1.142757 0.588287 19.000000
1.332066 1.118203 0.584973 41.000000
1.351600 1.108757 0.589625 35.000000
1.385880 1.110878 0.600643 42.000000
1.408733 1.104019 0.607121 46.000000
1.417029 1.084761 0.606895 35.000000
1.440250 1.076810 0.613116 43.000000
1.447794 1.057726 0.613064 33.000000
1.467120 1.046390 0.617637 25.000000
1.478572 1.029356 0.618858 61.000000
1.489502 1.012554 0.620369 47.000000
1.516419 1.005737 0.628057 36.000000
1.527111 0.988466 0.629467 71.000000
1.545673 0.976121 0.634154 36.000000
1.564464 0.963062 0.638559 42.000000
1.578841 0.947685 0.641510 41.000000
1.593091 0.932038 0.644408 23.000000
1.607154 0.916178 0.647312 46.000000
1.625274 0.902335 0.651817 53.000000
1.639163 0.886002 0.654677 44.000000
1.669556 0.878235 0.664124 64.000000
1.687473 0.863365 0.668548 52.000000
1.701017 0.846143 0.671257 55.000000
1.727154 0.834792 0.678975 57.000000
1.740487 0.816984 0.681639 24.000000
1.766289 0.805065 0.689579 56.000000
1.775027 0.784822 0.690460 35.000000
1.805032 0.773921 0.699984 35.000000
1.826477 0.758597 0.705853 45.000000
1.838984 0.739589 0.708562 44.000000
1.860046 0.723768 0.714581 39.000000
1.902986 0.715803 0.729053 45.000000
1.915121 0.695723 0.731599 24.000000
1.935908 0.678522 0.737533 64.000000
1.952006 0.659647 0.741985 62.000000
1.972509 0.641689 0.747808 66.000000
1.988281 0.622158 0.752078 52.000000
2.012919 0.604994 0.759755 69.000000
2.028365 0.584681 0.763977 42.000000
2.052725 0.566596 0.771543 49.000000
2.072443 0.546830 0.777279 21.000000
2.105633 0.530127 0.788141 42.000000
2.134051 0.511708 0.797454 55.000000
2.153210 0.490611 0.803294 49.000000
2.172295 0.469059 0.808855 58.000000
2.204748 0.450086 0.819919 55.000000
2.241788 0.431227 0.832420 37.000000
2.269422 0.409966 0.841659 35.000000
2.287735 0.386465 0.847103 30.000000
2.324204 0.365644 0.859641 79.000000
2.351260 0.342656 0.868838 51.000000
2.382812 0.319687 0.879453 63.000000
2.418716 0.296657 0.891952 78.000000
2.435803 0.270813 0.897506 43.000000
2.461949 0.245423 0.906344 52.000000
2.501853 0.220821 0.920511 33.000000
2.546182 0.195732 0.936328 33.000000
2.566911 0.168073 0.943464 38.000000
2.624744 0.142017 0.964465 57.000000
2.654334 0.113397 0.974799 66.000000
2.678915 0.083991 0.983497 66.000000
2.707681 0.054235 0.994096 47.000000
2.745669 0.023833 1.007968 46.000000
2.792694 -0.007445 1.025289 34.000000
2.811194 -0.039302 1.031999 36.000000
2.871645 -0.072746 1.054210 35.000000
2.898855 -0.106370 1.064451 34.000000
2.925571 -0.140537 1.074880 32.000000
2.998926 -0.178125 1.102051 34.000000
3.043602 -0.215424 1.119072 32.000000
3.073773 -0.252631 1.130823 23.000000
3.145651 -0.294417 1.157848 34.000000
3.174945 -0.333588 1.169580 35.000000
3.241057 -0.377745 1.194955 35.000000
3.278730 -0.419805 1.209893 33.000000
3.301799 -0.460867 1.219771 32.000000
3.278134 -0.495437 1.212037 34.000000
3.263262 -0.530986 1.207959 32.000000
3.229379 -0.563312 1.197238 27.000000
3.200007 -0.595547 1.187816 32.000000
3.174913 -0.628170 1.180224 31.000000
3.154181 -0.661129 1.174038 33.000000
3.137574 -0.695001 1.169989 32.000000
3.120699 -0.728351 1.165631 35.000000
3.098994 -0.760269 1.159364 33.000000
3.076741 -0.791981 1.153417 29.000000
3.040742 -0.819507 1.142157 22.000000
3.022594 -0.851512 1.137728 31.000000
3.008604 -0.884435 1.134906 34.000000
2.985345 -0.914297 1.128484 35.000000
2.948430 -0.939469 1.116982 32.000000
2.929058 -0.970046 1.112585 29.000000
2.909549 -1.000020 1.107697 31.000000
2.885177 -1.028313 1.101324 27.000000
2.869339 -1.059464 1.098343 18.000000
2.835654 -1.083595 1.088516 32.000000
2.854390 -1.127888 1.098937 35.000000
2.815900 -1.149446 1.087247 33.000000
2.789970 -1.176191 1.080922 33.000000
2.755522 -1.198294 1.070862 31.000000
2.742185 -1.229836 1.069499 32.000000
2.716016 -1.254768 1.062629 29.000000
2.685043 -1.277675 1.054491 13.000000
2.683588 -1.314513 1.057860 32.000000
2.639607 -1.330232 1.044554 31.000000
2.641619 -1.368951 1.049581 48.000000
2.626503 -1.398991 1.047751 35.000000
2.611098 -1.428935 1.045922 35.000000
2.591290 -1.456279 1.042342 34.000000
2.563165 -1.478620 1.035465 28.000000
2.510436 -1.485969 1.018621 13.000000
2.510361 -1.524249 1.023126 34.000000
2.481157 -1.545705 1.016491 33.000000
2.480364 -1.583927 1.020874 33.000000
2.459204 -1.609383 1.016957 33.000000
2.437247 -1.635033 1.013427 30.000000
2.423518 -1.665190 1.012686 34.000000
2.397183 -1.687649 1.007443 26.000000
2.359271 -1.701441 0.997254 12.000000
2.360003 -1.741952 1.002808 25.000000
2.325603 -1.757690 0.994176 16.000000
2.324770 -1.798963 1.000066 31.000000
2.301916 -1.821988 0.995712 32.000000
2.285446 -1.851364 0.995044 29.000000
2.268626 -1.880635 0.994179 37.000000
2.229865 -1.891314 0.983739 27.000000
2.169675 -1.882654 0.963797 10.000000
2.191516 -1.945301 0.980336 32.000000
2.170110 -1.970384 0.977695 29.000000
2.162422 -2.008099 0.981366 33.000000
2.137056 -2.029602 0.977040 33.000000
2.108072 -2.047434 0.971155 27.000000
2.089056 -2.074771 0.969980 33.000000
2.059780 -2.091842 0.964022 25.000000
2.037054 -2.115322 0.961099 10.000000
2.036858 -2.162743 0.969028 34.000000
2.013493 -2.185917 0.965977 27.000000
1.986658 -2.205271 0.961384 29.000000
1.959613 -2.224267 0.956802 31.000000
1.943737 -2.258284 0.958639 25.000000
1.928578 -2.291278 0.959970 29.000000
1.904007 -2.313065 0.956707 25.000000
1.876161 -2.330948 0.951927 10.000000
1.855604 -2.360673 0.951979 26.000000
1.841943 -2.396848 0.954637 26.000000
1.822037 -2.425274 0.954252 24.000000
1.786204 -2.435277 0.946660 10.000000
1.729539 -2.412888 0.926793 18.000000
1.649033 -2.354226 0.893594 20.000000
1.579364 -2.310612 0.866893 20.000000
1.546815 -2.316575 0.859075 10.000000
1.368128 -2.097887 0.769177 10.000000
1.300766 -2.045530 0.741515 10.000000
1.236215 -1.991148 0.713811 10.000000
1.176628 -1.944473 0.689350 10.000000
1.126839 -1.908278 0.669180 14.000000
1.089902 -1.892021 0.656349 23.000000
1.054482 -1.879967 0.645241 20.000000
1.057559 -1.933957 0.656772 10.000000
0.825198 1.543057 0.535574 9.000000
0.844980 1.537025 0.539166 14.000000
0.861220 1.527169 0.541462 27.000000
0.876019 1.512453 0.542053 25.000000
0.894372 1.506393 0.545830 29.000000
0.907740 1.491957 0.546576 28.000000
0.924494 1.480899 0.548587 27.000000
0.937618 1.466160 0.549316 28.000000
0.954104 1.454742 0.551265 24.000000
0.966819 1.439759 0.551921 22.000000
0.982093 1.428540 0.554087 30.000000
0.998145 1.416654 0.555975 25.000000
1.010414 1.401241 0.556497 33.000000
1.025313 1.389554 0.558602 26.000000
1.045833 1.385291 0.563740 30.000000
1.058464 1.368888 0.563973 34.000000
1.070123 1.352886 0.564418 21.000000
1.078604 1.333148 0.563291 30.000000
1.101898 1.331619 0.569916 34.000000
1.116172 1.318845 0.571860 38.000000
1.127894 1.301817 0.571951 58.000000
1.141852 1.288801 0.573834 34.000000
1.168435 1.289618 0.582005 36.000000
1.179101 1.272589 0.582263 36.000000
1.192784 1.258907 0.584050 34.000000
1.199763 1.238253 0.582635 33.000000
1.219814 1.231095 0.587568 47.000000
1.236475 1.220235 0.590909 46.000000
1.246285 1.202613 0.590975 57.000000
1.266179 1.194585 0.595889 43.000000
1.282626 1.183079 0.599141 64.000000
1.302542 1.174490 0.604030 64.000000
1.318825 1.162500 0.607247 34.000000
1.316660 1.135232 0.602515 32.000000
1.325458 1.116859 0.602389 38.000000
1.359478 1.119410 0.613717 45.000000
1.364360 1.097670 0.611899 67.000000
1.401927 1.102635 0.625117 43.000000
1.417722 1.089128 0.628216 48.000000
1.433466 1.075418 0.631265 46.000000
1.448632 1.061912 0.634554 34.000000
1.456485 1.042252 0.634164 34.000000
