x y z intensity
1.092324 -1.657454 0.282381 19.000000
1.074090 -1.669508 0.281341 17.000000
1.054199 -1.676453 0.279419 20.000000
1.048775 -1.709150 0.281799 16.000000
1.030051 -1.720706 0.280687 13.000000
1.038667 -1.779058 0.287168 7.000000
1.161995 2.025172 0.343398 9.000000
1.216220 2.015679 0.349141 24.000000
1.277247 2.065113 0.361642 24.000000
1.302371 2.054905 0.363805 26.000000
1.322125 2.036119 0.364564 26.000000
1.337632 2.013797 0.364571 29.000000
1.356788 1.994712 0.365240 25.000000
1.387006 1.991691 0.368909 25.000000
1.394387 1.956058 0.366562 26.000000
1.412758 1.936418 0.367139 25.000000
1.427937 1.912661 0.366952 30.000000
1.453757 1.905262 0.369952 24.000000
1.465431 1.877296 0.368987 32.000000
1.485877 1.860895 0.370237 29.000000
1.496802 1.832795 0.369249 29.000000
1.523088 1.823567 0.372038 29.000000
1.522861 1.784729 0.368774 27.000000
1.552099 1.778861 0.372343 32.000000
1.578076 1.768872 0.375073 37.000000
1.590683 1.743851 0.374677 30.000000
1.612357 1.730323 0.376850 39.000000
1.624403 1.705121 0.376441 35.000000
1.639591 1.683388 0.376741 34.000000
1.671899 1.679077 0.381079 35.000000
1.696664 1.667907 0.383917 29.000000
1.704230 1.638596 0.382624 36.000000
1.725732 1.622900 0.384521 59.000000
1.743457 1.603564 0.385547 35.000000
1.775046 1.597873 0.390015 57.000000
1.781438 1.568226 0.388625 36.000000
1.806017 1.554700 0.391273 47.000000
1.826299 1.538274 0.393191 37.000000
1.839330 1.514681 0.393410 26.000000
1.851996 1.490952 0.393552 36.000000
1.875633 1.476903 0.396293 41.000000
1.895641 1.458863 0.398074 35.000000
1.915568 1.440662 0.399784 50.000000
1.918926 1.410986 0.398348 36.000000
1.946417 1.398095 0.401712 39.000000
1.969395 1.382553 0.404408 57.000000
1.972237 1.352148 0.402736 25.000000
2.003426 1.341064 0.406953 42.000000
2.013626 1.316429 0.407089 52.000000
2.040464 1.301896 0.410340 52.000000
2.054324 1.279570 0.411314 59.000000
2.076684 1.261763 0.413742 42.000000
2.098629 1.244071 0.416327 41.000000
2.120759 1.225513 0.418767 59.000000
2.142465 1.207145 0.421366 26.000000
2.172841 1.192721 0.425435 63.000000
2.189927 1.171252 0.427126 73.000000
2.206832 1.149457 0.428822 58.000000
2.210603 1.120421 0.427814 61.000000
2.244669 1.107064 0.432842 75.000000
2.252009 1.080284 0.432763 41.000000
2.285938 1.065938 0.437812 61.000000
2.319937 1.050630 0.442640 25.000000
2.353763 1.035063 0.447638 37.000000
2.364835 1.009177 0.448355 62.000000
2.389240 0.988861 0.451653 58.000000
2.399815 0.962505 0.452293 41.000000
2.419330 0.939716 0.454660 61.000000
2.429382 0.913099 0.455303 46.000000
2.471591 0.898094 0.462003 52.000000
2.457974 0.862725 0.458242 32.000000
2.513732 0.851646 0.467562 64.000000
2.532223 0.826986 0.469875 73.000000
2.555146 0.803516 0.472979 67.000000
2.577834 0.779819 0.476171 67.000000
2.595637 0.754104 0.478415 72.000000
2.617822 0.729587 0.481534 58.000000
2.644597 0.705944 0.485618 63.000000
2.694992 0.687887 0.493996 35.000000
2.707103 0.659395 0.495302 82.000000
2.733279 0.634048 0.499237 90.000000
2.744783 0.605102 0.500549 79.000000
2.765686 0.577889 0.503529 73.000000
2.795961 0.552354 0.508357 95.000000
2.811382 0.523411 0.510556 21.000000
2.792724 0.488320 0.506514 9.000000
2.856110 0.467091 0.517335 8.000000
2.875552 0.438002 0.520426 10.000000
2.928885 0.413316 0.529507 21.000000
2.962478 0.384932 0.535071 30.000000
3.005651 0.356973 0.542404 59.000000
3.033777 0.326575 0.547098 55.000000
3.007697 0.290436 0.541991 9.000000
3.045019 0.260298 0.548359 9.000000
3.111472 0.231597 0.560032 8.000000
3.128528 0.198382 0.562876 9.000000
3.169787 0.166033 0.570142 9.000000
3.215713 0.133023 0.578098 9.000000
3.275936 0.099591 0.588807 32.000000
3.316212 0.064278 0.595982 82.000000
3.331490 0.027995 0.598738 81.000000
3.375883 -0.008688 0.606698 81.000000
3.385410 -0.045876 0.608467 88.000000
3.345319 -0.082074 0.601392 75.000000
3.285264 -0.116708 0.590677 13.000000
3.224746 -0.150046 0.580066 9.000000
3.232770 -0.185946 0.581634 34.000000
3.191284 -0.218796 0.574562 42.000000
3.134743 -0.249512 0.564644 30.000000
3.131818 -0.283931 0.564449 74.000000
3.079639 -0.313367 0.555423 64.000000
3.036870 -0.342642 0.548170 35.000000
3.013448 -0.373574 0.544451 26.000000
2.979949 -0.402759 0.538876 51.000000
2.960772 -0.433252 0.535952 77.000000
2.936500 -0.462659 0.532150 63.000000
2.897275 -0.489089 0.525618 31.000000
2.853059 -0.513901 0.518305 79.000000
2.847306 -0.545177 0.517945 59.000000
2.793046 -0.566578 0.508710 71.000000
2.772246 -0.594141 0.505723 28.000000
2.664823 -0.601781 0.486946 9.000000
2.677290 -0.635545 0.490114 10.000000
2.684541 -0.668455 0.492316 35.000000
2.648585 -0.690419 0.486551 25.000000
2.617199 -0.712880 0.481671 75.000000
2.637710 -0.749540 0.486406 67.000000
2.624660 -0.777209 0.485109 35.000000
2.644322 -0.814495 0.489743 31.000000
2.696278 -0.863079 0.500633 28.000000
2.761475 -0.917486 0.514023 36.000000
2.788710 -0.960433 0.520250 24.000000
2.796659 -0.997578 0.523080 14.000000
2.919586 -1.077764 0.547561 7.000000
3.054951 -1.165870 0.574576 6.000000
3.032921 -1.195794 0.572038 8.000000
2.987858 -1.215932 0.565189 8.000000
2.992630 -1.256339 0.567836 9.000000
2.929131 -1.267504 0.557567 9.000000
2.906290 -1.295529 0.554959 8.000000
2.918659 -1.339995 0.559417 8.000000
2.841678 -1.342471 0.546529 10.000000
2.826978 -1.373526 0.545555 9.000000
2.803171 -1.399984 0.542972 10.000000
2.748100 -1.410788 0.534427 9.000000
2.732697 -1.440734 0.533470 9.000000
2.717006 -1.470488 0.532514 10.000000
2.704953 -1.503018 0.532501 9.000000
2.654318 -1.512915 0.524677 8.000000
2.663098 -1.557263 0.528799 12.000000
2.633415 -1.578699 0.525219 10.000000
2.620122 -1.610464 0.525110 10.000000
2.606773 -1.641560 0.524807 8.000000
2.543000 -1.641056 0.514633 8.000000
2.541649 -1.679471 0.516760 11.000000
2.498577 -1.691087 0.510716 9.000000
2.451443 -1.699162 0.503859 8.000000
2.445137 -1.734307 0.505151 13.000000
2.397911 -1.741117 0.498327 12.000000
2.359318 -1.752369 0.492908 23.000000
2.312465 -1.757671 0.486040 32.000000
2.273497 -1.768147 0.480845 35.000000
2.266008 -1.801951 0.481971 85.000000
2.242208 -1.824007 0.480077 48.000000
2.240959 -1.864640 0.483001 23.000000
2.235971 -1.901501 0.484908 36.000000
2.233521 -1.942474 0.487701 30.000000
2.230439 -1.983679 0.490565 33.000000
2.201995 -2.000952 0.487472 33.000000
2.172591 -2.018617 0.484571 26.000000
2.161040 -2.052840 0.485607 32.000000
2.131287 -2.069926 0.482713 27.000000
2.081212 -2.064897 0.474758 13.000000
2.082720 -2.112615 0.478977 32.000000
2.059335 -2.135633 0.477601 30.000000
2.039246 -2.161968 0.477018 31.000000
2.023072 -2.190901 0.476944 33.000000
1.995616 -2.209632 0.474682 29.000000
1.964695 -2.224313 0.471640 31.000000
1.972492 -2.283325 0.477996 13.000000
1.926208 -2.277811 0.470769 9.000000
1.243784 -1.573423 0.313347 21.000000
1.199311 -1.551993 0.305310 31.000000
1.180157 -1.560652 0.303393 29.000000
1.160059 -1.569669 0.301542 32.000000
1.139928 -1.578501 0.299696 29.000000
1.148257 -1.627410 0.305435 18.000000
1.116399 -1.619729 0.300553 28.000000
1.106886 -1.644298 0.301717 28.000000
1.087097 -1.651794 0.299683 29.000000
1.060952 -1.651279 0.296345 27.000000
1.053347 -1.679726 0.298168 24.000000
1.034929 -1.691352 0.297005 24.000000
1.018924 -1.707040 0.296580 22.000000
1.022608 -1.756734 0.301966 9.000000
1.107543 1.933142 0.348008 9.000000
1.247580 2.073692 0.381317 31.000000
1.272827 2.063839 0.383669 27.000000
1.295378 2.049454 0.385242 28.000000
1.320463 2.038989 0.387528 33.000000
1.326311 1.999440 0.384285 27.000000
1.341384 1.977106 0.384329 34.000000
1.368581 1.970148 0.387400 31.000000
1.390086 1.954723 0.388809 24.000000
1.396923 1.919127 0.386277 35.000000
1.411945 1.895579 0.386059 31.000000
1.431606 1.880449 0.387594 33.000000
1.452144 1.864370 0.388983 33.000000
1.481685 1.859645 0.392743 32.000000
1.489520 1.827656 0.390869 42.000000
1.505400 1.807892 0.391507 27.000000
1.525125 1.791006 0.392818 32.000000
1.541465 1.770110 0.393301 40.000000
1.564065 1.756506 0.395365 35.000000
1.585796 1.743267 0.397580 49.000000
1.598118 1.718251 0.397151 51.000000
1.616930 1.700311 0.398386 36.000000
1.645832 1.692755 0.402139 59.000000
1.667139 1.678418 0.404297 32.000000
1.681938 1.656210 0.404624 35.000000
1.703613 1.640698 0.406641 64.000000
1.710216 1.612102 0.405409 54.000000
1.738696 1.602905 0.409058 81.000000
1.759933 1.586648 0.411011 64.000000
1.777328 1.566905 0.412112 52.000000
1.797644 1.550746 0.414219 80.000000
1.814560 1.530594 0.415248 36.000000
1.830814 1.510736 0.416499 32.000000
1.858861 1.499492 0.420053 64.000000
1.867557 1.472525 0.419353 40.000000
1.887154 1.455117 0.421403 77.000000
1.910896 1.439846 0.424108 48.000000
1.914356 1.410175 0.422596 44.000000
1.945815 1.400155 0.426987 63.000000
1.949042 1.369891 0.425317 32.000000
1.988008 1.365265 0.431636 36.000000
1.990624 1.334762 0.429885 81.000000
2.004892 1.312914 0.430851 38.000000
2.027526 1.295698 0.433516 87.000000
2.045580 1.276067 0.435374 63.000000
2.071795 1.261311 0.439018 63.000000
2.094022 1.243089 0.441554 80.000000
2.094543 1.212733 0.439854 32.000000
2.129252 1.201397 0.445083 41.000000
2.154999 1.185074 0.448608 59.000000
2.185005 1.170637 0.453120 68.000000
2.202132 1.148533 0.454713 63.000000
2.214461 1.124260 0.455560 62.000000
2.226481 1.099910 0.456408 68.000000
2.242703 1.077535 0.458084 69.000000
2.254285 1.052751 0.458856 33.000000
2.310489 1.047968 0.468554 36.000000
2.339667 1.030383 0.472980 61.000000
2.355296 1.006528 0.474605 35.000000
2.379652 0.986258 0.478057 55.000000
2.390286 0.960032 0.478777 51.000000
2.405102 0.935429 0.480331 36.000000
2.428835 0.914268 0.483882 74.000000
2.424809 0.882477 0.481693 31.000000
2.457445 0.863789 0.486928 47.000000
2.489853 0.844754 0.492175 64.000000
2.522269 0.824881 0.497351 66.000000
2.540460 0.799983 0.499772 73.000000
2.567790 0.777810 0.504044 80.000000
2.590192 0.753685 0.507399 68.000000
2.612432 0.729166 0.510762 83.000000
2.610687 0.697906 0.509415 31.000000
2.675194 0.683720 0.521044 39.000000
2.677710 0.653142 0.520630 84.000000
2.713357 0.630279 0.526631 68.000000
2.739207 0.604753 0.530869 82.000000
2.764801 0.578545 0.534939 94.000000
2.785400 0.551047 0.538171 71.000000
2.781562 0.518555 0.536748 18.000000
2.757980 0.482886 0.531505 7.000000
2.840583 0.465234 0.546871 9.000000
2.850357 0.434768 0.548163 9.000000
2.898607 0.409604 0.556840 9.000000
2.917584 0.379585 0.559917 9.000000
2.950778 0.350984 0.565895 10.000000
2.973912 0.320595 0.569915 18.000000
3.026145 0.292612 0.579462 32.000000
3.009499 0.257595 0.575906 9.000000
3.080695 0.229675 0.589208 11.000000
3.117308 0.197974 0.595959 10.000000
3.143772 0.164906 0.600742 9.000000
3.169970 0.131396 0.605625 9.000000
3.249695 0.098892 0.620726 30.000000
3.294797 0.063992 0.629267 73.000000
3.295309 0.027747 0.629370 81.000000
3.349434 -0.008637 0.639687 77.000000
3.363854 -0.045676 0.642397 95.000000
3.328755 -0.081729 0.635832 61.000000
3.283547 -0.116781 0.627392 18.000000
3.228051 -0.150403 0.616975 9.000000
3.206632 -0.184716 0.613125 29.000000
3.184837 -0.218597 0.609177 36.000000
3.118613 -0.248537 0.596896 26.000000
3.061894 -0.277963 0.586397 18.000000
3.004994 -0.306111 0.575906 10.000000
2.967266 -0.335283 0.569165 9.000000
2.939091 -0.364822 0.564208 10.000000
2.978756 -0.403138 0.572443 62.000000
2.940254 -0.430837 0.565526 55.000000
2.930510 -0.462382 0.564315 62.000000
2.872072 -0.485450 0.553675 33.000000
2.832804 -0.510926 0.546782 69.000000
2.807784 -0.538343 0.542694 73.000000
2.782489 -0.565247 0.538612 66.000000
2.747321 -0.589666 0.532672 31.000000
2.688153 -0.607773 0.521914 10.000000
2.652628 -0.630574 0.515993 9.000000
2.674286 -0.666752 0.521058 31.000000
2.662085 -0.694873 0.519702 35.000000
2.588035 -0.705994 0.506210 75.000000
2.627545 -0.747770 0.514972 74.000000
2.605098 -0.772425 0.511603 37.000000
2.629529 -0.810998 0.517480 32.000000
2.681304 -0.859465 0.528969 30.000000
2.713738 -0.902981 0.536744 28.000000
2.759631 -0.951781 0.547086 27.000000
2.813911 -1.005293 0.559331 24.000000
2.913414 -1.077089 0.580735 10.000000
3.043977 -1.163204 0.608310 9.000000
3.031129 -1.196690 0.607500 8.000000
2.999769 -1.222452 0.602930 9.000000
2.972700 -1.249719 0.599385 9.000000
2.927412 -1.268667 0.592098 9.000000
2.944873 -1.314783 0.597583 9.000000
2.863256 -1.316605 0.583234 8.000000
2.835447 -1.341692 0.579531 10.000000
2.803062 -1.364141 0.574930 9.000000
2.774971 -1.388208 0.571247 9.000000
2.746637 -1.411793 0.567573 10.000000
2.726574 -1.440064 0.565808 10.000000
2.693589 -1.460441 0.561153 9.000000
2.686214 -1.494694 0.561810 10.000000
2.639721 -1.507469 0.554669 9.000000
2.652931 -1.553631 0.559807 10.000000
2.610367 -1.567902 0.553488 14.000000
2.605935 -1.604163 0.555032 10.000000
2.580148 -1.627292 0.552017 9.000000
2.516623 -1.626577 0.541201 8.000000
2.515380 -1.664854 0.543540 10.000000
2.488714 -1.687298 0.540741 11.000000
2.405748 -1.669443 0.525310 12.000000
2.387227 -1.696226 0.524220 30.000000
2.356401 -1.714050 0.520493 92.000000
2.314188 -1.721983 0.513966 57.000000
2.302886 -1.753700 0.514554 86.000000
2.283955 -1.778642 0.513208 54.000000
2.283470 -1.819374 0.516396 36.000000
2.309092 -1.882132 0.525553 32.000000
2.285092 -1.903905 0.523302 28.000000
2.278887 -1.942119 0.525469 49.000000
2.239535 -1.950530 0.519583 36.000000
2.221591 -1.978649 0.519155 34.000000
2.203298 -2.006666 0.518722 34.000000
2.173840 -2.024507 0.515627 36.000000
2.155879 -2.051182 0.514823 33.000000
2.133207 -2.075144 0.513441 31.000000
2.103179 -2.091880 0.510363 25.000000
2.080949 -2.114385 0.508709 37.000000
2.054199 -2.133983 0.506397 36.000000
2.030631 -2.156726 0.504838 32.000000
2.013558 -2.186537 0.505046 35.000000
1.993672 -2.211637 0.504132 35.000000
1.956299 -2.218964 0.499237 32.000000
1.941513 -2.251865 0.500169 23.000000
1.853099 -2.197904 0.481978 8.000000
1.701359 -2.061611 0.446429 18.000000
1.249417 -1.583989 0.334634 19.000000
1.186822 -1.539183 0.321279 30.000000
1.176713 -1.559564 0.321702 31.000000
1.159552 -1.572616 0.320554 34.000000
1.142270 -1.585426 0.319405 34.000000
1.130549 -1.606126 0.319865 27.000000
1.118469 -1.626770 0.320312 33.000000
1.093301 -1.626261 0.316577 31.000000
1.083557 -1.650696 0.317810 28.000000
1.065430 -1.662720 0.316589 42.000000
1.047180 -1.674500 0.315369 29.000000
1.031319 -1.690311 0.314933 28.000000
1.007728 -1.693266 0.312084 31.000000
1.012591 -1.742230 0.317754 9.000000
1.137666 1.991803 0.379317 8.000000
1.243094 2.072272 0.403224 22.000000
1.270915 2.066616 0.406447 29.000000
1.285699 2.039689 0.405610 28.000000
1.310684 2.029280 0.408009 27.000000
1.327376 2.006254 0.407982 31.000000
1.339789 1.979785 0.407176 26.000000
1.364205 1.968665 0.409573 29.000000
1.365752 1.925180 0.405136 28.000000
1.386802 1.909758 0.406597 28.000000
1.406609 1.894848 0.408278 33.000000
1.424314 1.875065 0.408885 28.000000
1.450854 1.866797 0.412061 31.000000
1.471289 1.850464 0.413452 30.000000
1.485289 1.826197 0.413188 29.000000
1.501179 1.806437 0.413852 31.000000
1.517715 1.785799 0.414365 31.000000
1.537253 1.768658 0.415672 35.000000
1.559042 1.755706 0.418074 37.000000
1.574949 1.734521 0.418505 35.000000
1.590557 1.713192 0.418930 35.000000
1.612717 1.698858 0.421119 43.000000
1.627159 1.677822 0.421684 34.000000
1.652425 1.666399 0.424697 36.000000
1.674196 1.651294 0.426827 35.000000
1.688089 1.629643 0.427317 42.000000
1.709498 1.614023 0.429380 70.000000
1.734448 1.601440 0.432349 52.000000
1.751367 1.582471 0.433667 62.000000
1.776095 1.569280 0.436651 77.000000
1.785278 1.543432 0.436157 44.000000
1.805952 1.526538 0.438167 57.000000
1.822759 1.506134 0.439194 33.000000
1.846405 1.492350 0.442273 56.000000
1.862766 1.471567 0.443305 71.000000
1.874502 1.448148 0.443638 39.000000
1.898232 1.432961 0.446439 69.000000
1.905612 1.406299 0.445771 56.000000
1.925043 1.387770 0.447654 42.000000
1.955921 1.377936 0.452550 49.000000
1.966959 1.353082 0.452510 35.000000
1.981420 1.331502 0.453623 43.000000
2.000136 1.311874 0.455448 71.000000
2.009971 1.287230 0.455551 51.000000
2.032390 1.269890 0.458245 55.000000
2.058595 1.255146 0.462111 87.000000
2.072006 1.232445 0.463085 37.000000
2.098234 1.216608 0.466743 66.000000
2.141191 1.210378 0.474274 36.000000
2.141288 1.179650 0.472422 38.000000
2.175757 1.167240 0.477933 89.000000
2.196969 1.147839 0.480681 65.000000
2.204923 1.121342 0.480652 69.000000
2.225718 1.101316 0.483409 75.000000
2.233108 1.074635 0.483301 71.000000
2.253557 1.054135 0.485988 66.000000
2.300589 1.045465 0.494443 36.000000
2.334271 1.029907 0.500037 51.000000
2.349811 1.006051 0.501793 60.000000
2.360622 0.980055 0.502509 44.000000
2.380298 0.957642 0.505156 36.000000
2.404305 0.936648 0.508696 70.000000
2.409748 0.908272 0.508450 59.000000
2.428578 0.885195 0.511110 42.000000
2.433440 0.856708 0.510782 37.000000
2.461165 0.836293 0.515395 58.000000
2.493445 0.816672 0.520828 91.000000
2.534836 0.799569 0.528304 88.000000
2.543354 0.771616 0.528966 45.000000
2.565665 0.747778 0.532476 72.000000
2.597260 0.726021 0.537949 72.000000
2.609717 0.698671 0.539431 40.000000
2.650364 0.678428 0.546795 56.000000
2.657601 0.649138 0.547306 95.000000
2.702698 0.628822 0.555671 91.000000
2.723709 0.602114 0.559050 86.000000
2.744441 0.575177 0.562521 89.000000
2.769785 0.548701 0.566895 94.000000
2.741855 0.511906 0.560353 16.000000
2.761722 0.484231 0.563831 8.000000
2.819992 0.462585 0.575029 9.000000
2.849022 0.435240 0.580320 9.000000
2.868157 0.405807 0.583641 9.000000
2.891836 0.376778 0.587864 9.000000
2.934675 0.349548 0.596044 9.000000
2.962720 0.319790 0.601265 15.000000
3.009871 0.291478 0.610447 81.000000
3.047065 0.261174 0.617563 36.000000
3.127832 0.233496 0.633691 73.000000
3.135067 0.199334 0.634877 62.000000
3.156697 0.165836 0.638937 36.000000
3.172961 0.131704 0.642107 26.000000
3.208436 0.097746 0.649043 32.000000
3.273033 0.063705 0.662027 57.000000
3.298045 0.027829 0.667085 72.000000
3.322651 -0.008587 0.672144 72.000000
3.346842 -0.045439 0.676997 95.000000
3.321616 -0.081729 0.672041 75.000000
3.261811 -0.116156 0.660045 26.000000
3.221124 -0.150303 0.652116 22.000000
3.185068 -0.183769 0.645080 22.000000
3.129101 -0.215137 0.633984 9.000000
3.053284 -0.243664 0.618935 7.000000
3.035876 -0.275997 0.615774 9.000000
3.022897 -0.308411 0.613510 9.000000
2.970697 -0.336107 0.603429 9.000000
2.927971 -0.363941 0.595239 9.000000
2.948122 -0.399474 0.599998 41.000000
2.929035 -0.429849 0.596756 59.000000
2.929084 -0.462778 0.597375 50.000000
2.846498 -0.481906 0.581217 29.000000
2.836282 -0.512221 0.579781 54.000000
2.796931 -0.536975 0.572525 71.000000
2.781296 -0.565783 0.570201 79.000000
2.736681 -0.588112 0.561886 33.000000
2.667903 -0.604182 0.548668 9.000000
2.637416 -0.627795 0.543245 9.000000
2.668465 -0.666324 0.550676 24.000000
2.642044 -0.690726 0.546325 32.000000
2.639125 -0.721000 0.546795 71.000000
2.588684 -0.737936 0.537389 73.000000
2.571157 -0.763543 0.534931 42.000000
2.618948 -0.809124 0.545984 35.000000
2.647430 -0.849860 0.553192 32.000000
2.693831 -0.897620 0.564281 30.000000
2.744197 -0.947944 0.576228 28.000000
2.784513 -0.996382 0.586291 19.000000
2.893250 -1.071016 0.610707 10.000000
3.037097 -1.162496 0.642908 9.000000
3.015126 -1.192374 0.640162 9.000000
2.992931 -1.221849 0.637320 9.000000
2.938766 -1.237694 0.627823 9.000000
2.925179 -1.269928 0.626831 9.000000
2.911194 -1.302162 0.625938 9.000000
2.878986 -1.325889 0.621101 9.000000
2.824588 -1.338618 0.611476 10.000000
2.796677 -1.363173 0.607628 10.000000
2.781682 -1.393937 0.606661 10.000000
2.744581 -1.413177 0.600821 10.000000
2.707434 -1.431841 0.594902 10.000000
2.687125 -1.459586 0.593093 10.000000
2.688305 -1.498616 0.595753 10.000000
2.642114 -1.511023 0.587967 9.000000
2.654915 -1.557837 0.593649 12.000000
2.625359 -1.579329 0.589570 12.000000
2.583047 -1.592527 0.582675 17.000000
2.515507 -1.589899 0.570344 10.000000
2.469358 -1.598680 0.562568 12.000000
2.431071 -1.612617 0.556784 32.000000
2.405452 -1.633655 0.553645 35.000000
2.395360 -1.666093 0.554428 52.000000
2.377233 -1.692197 0.553068 70.000000
2.350530 -1.712876 0.550032 40.000000
2.347769 -1.750277 0.552384 51.000000
2.328216 -1.776469 0.551202 34.000000
2.347862 -1.831981 0.558971 35.000000
2.319745 -1.852017 0.555836 33.000000
2.307453 -1.883394 0.556197 29.000000
2.263916 -1.890198 0.549408 23.000000
2.261549 -1.931428 0.552602 32.000000
2.233463 -1.949426 0.549211 34.000000
2.211840 -1.974361 0.547830 35.000000
2.190678 -1.998192 0.546174 33.000000
2.161311 -2.015958 0.542987 32.000000
2.135376 -2.036591 0.540619 32.000000
2.117201 -2.063003 0.539778 28.000000
2.076942 -2.069212 0.533832 24.000000
2.054025 -2.092311 0.532286 32.000000
2.038653 -2.121506 0.532338 33.000000
2.021942 -2.151306 0.532562 34.000000
1.998138 -2.173828 0.530914 31.000000
1.977442 -2.199735 0.530240 32.000000
1.947646 -2.213437 0.526648 34.000000
1.929663 -2.242562 0.526664 24.000000
1.885886 -2.241328 0.519772 9.000000
1.724649 -2.094163 0.479569 10.000000
1.192284 -1.549691 0.342081 27.000000
1.175262 -1.562957 0.340930 33.000000
1.153068 -1.567439 0.337886 36.000000
1.127203 -1.568275 0.334124 29.000000
1.135400 -1.617070 0.340571 27.000000
1.109294 -1.617482 0.336748 33.000000
1.092472 -1.629143 0.335412 31.000000
1.077256 -1.645412 0.334976 32.000000
1.051150 -1.644944 0.331188 31.000000
1.040909 -1.669157 0.332419 29.000000
1.025085 -1.684937 0.331970 29.000000
1.010210 -1.699918 0.331332 25.000000
1.011329 -1.745252 0.336631 9.000000
1.182010 2.075918 0.417019 5.000000
1.197204 2.049691 0.416205 10.000000
1.238533 2.070702 0.424982 18.000000
1.263762 2.060767 0.427572 24.000000
1.283768 2.042215 0.428346 20.000000
1.303383 2.023497 0.429188 24.000000
1.317412 1.996400 0.428187 25.000000
1.343534 1.990393 0.431810 21.000000
1.362554 1.971155 0.432486 28.000000
1.386946 1.959714 0.435012 10.000000
1.399733 1.932052 0.433892 24.000000
1.402151 1.893313 0.430278 29.000000
1.437761 1.896976 0.436321 21.000000
1.440433 1.857414 0.432444 26.000000
1.453653 1.834172 0.432305 26.000000
1.476796 1.821576 0.434669 24.000000
1.496739 1.804835 0.436124 30.000000
1.519716 1.791698 0.438497 10.000000
1.528805 1.764072 0.437340 31.000000
1.551343 1.750427 0.439640 32.000000
1.573818 1.736564 0.441947 25.000000
1.582073 1.708645 0.440686 33.000000
1.604183 1.694347 0.442993 29.000000
1.626154 1.679684 0.445233 33.000000
1.640423 1.658543 0.445820 29.000000
1.644648 1.626178 0.443287 10.000000
1.687179 1.631455 0.451188 43.000000
1.697333 1.606253 0.450681 34.000000
1.718586 1.590412 0.452865 32.000000
1.742675 1.578224 0.456152 47.000000
1.759997 1.558490 0.457395 32.000000
1.773390 1.535397 0.457607 34.000000
1.793473 1.519094 0.459880 33.000000
1.806358 1.495719 0.460014 20.000000
1.833695 1.485143 0.464222 34.000000
1.861601 1.473580 0.468225 33.000000
1.869500 1.447118 0.467541 32.000000
1.885460 1.426010 0.468570 37.000000
1.904554 1.408185 0.470795 32.000000
1.908105 1.378052 0.468823 30.000000
1.942857 1.371167 0.474891 35.000000
1.945843 1.340842 0.472910 18.000000
1.976451 1.330389 0.478021 39.000000
1.994786 1.311280 0.480119 36.000000
2.000877 1.283471 0.479035 33.000000
2.031257 1.271746 0.484031 50.000000
2.049094 1.251917 0.486067 34.000000
2.071196 1.233829 0.488952 35.000000
2.092882 1.215854 0.491920 36.000000
2.084682 1.180641 0.487911 18.000000
2.127315 1.174155 0.495879 36.000000
2.157440 1.159515 0.500641 49.000000
2.178555 1.140178 0.503563 34.000000
2.199540 1.120496 0.506492 49.000000
2.211614 1.096194 0.507415 35.000000
2.232203 1.075914 0.510277 49.000000
2.248141 1.053284 0.512137 37.000000
2.255057 1.026345 0.511899 18.000000
2.310883 1.021119 0.522881 34.000000
2.330826 0.999388 0.525620 33.000000
2.359498 0.981299 0.530634 33.000000
2.370012 0.955173 0.531351 35.000000
2.398526 0.936006 0.536145 36.000000
2.408479 0.909600 0.536948 32.000000
2.450453 0.894623 0.544744 34.000000
2.404585 0.848088 0.533275 10.000000
2.460056 0.837142 0.544077 47.000000
2.496866 0.819233 0.550963 36.000000
2.514884 0.794650 0.553672 36.000000
2.546763 0.773965 0.559473 57.000000
2.554981 0.745825 0.560054 34.000000
2.577083 0.721560 0.563726 33.000000
2.603663 0.698166 0.568437 38.000000
2.620624 0.671758 0.571007 18.000000
2.670478 0.653363 0.580900 49.000000
2.686952 0.625997 0.583398 41.000000
2.707906 0.599565 0.587020 39.000000
2.733370 0.573736 0.591684 71.000000
2.748977 0.545494 0.594281 36.000000
2.735517 0.511558 0.590567 10.000000
2.750534 0.483036 0.593078 8.000000
2.784631 0.457473 0.599750 6.000000
2.828059 0.432662 0.608423 8.000000
2.847138 0.403478 0.611812 8.000000
2.890149 0.377138 0.620500 8.000000
2.918338 0.348113 0.625980 9.000000
2.955947 0.319604 0.633550 9.000000
3.017694 0.292612 0.646338 35.000000
3.044987 0.261402 0.651741 45.000000
3.076915 0.230020 0.658287 28.000000
3.113384 0.198304 0.665784 37.000000
3.159278 0.166252 0.675373 60.000000
3.175514 0.132011 0.678703 34.000000
3.196353 0.097597 0.682880 21.000000
3.221695 0.062747 0.688201 9.000000
3.246544 0.027457 0.693524 16.000000
3.319988 -0.008496 0.709191 80.000000
3.324670 -0.045239 0.710236 60.000000
3.304391 -0.081385 0.705955 60.000000
3.278825 -0.117028 0.700733 48.000000
3.223663 -0.150659 0.689246 35.000000
3.168153 -0.183007 0.677560 18.000000
3.131827 -0.215613 0.670056 8.000000
3.100034 -0.247758 0.663600 7.000000
3.028947 -0.275807 0.648802 8.000000
2.977169 -0.304151 0.638185 8.000000
2.954277 -0.334819 0.633828 8.000000
2.930970 -0.364966 0.629382 9.000000
2.922069 -0.396565 0.627972 28.000000
2.922399 -0.429480 0.628737 47.000000
2.883702 -0.456295 0.621177 34.000000
2.844849 -0.482364 0.613533 21.000000
2.820196 -0.510211 0.608926 78.000000
2.771248 -0.533014 0.599222 34.000000
2.755764 -0.561436 0.596619 40.000000
2.730407 -0.587676 0.592033 35.000000
2.652318 -0.601508 0.575971 9.000000
2.636014 -0.628508 0.573561 9.000000
2.624336 -0.656232 0.571935 20.000000
2.612347 -0.683936 0.570396 17.000000
2.609401 -0.714033 0.570922 65.000000
2.592145 -0.740120 0.568353 35.000000
2.579216 -0.767227 0.566734 35.000000
2.598784 -0.804272 0.572323 31.000000
2.641201 -0.849254 0.582954 24.000000
2.678275 -0.893815 0.592443 29.000000
2.709946 -0.937800 0.601147 22.000000
2.727305 -0.977393 0.606489 9.000000
2.844946 -1.055218 0.634418 14.000000
3.034485 -1.163439 0.678428 8.000000
3.007965 -1.191567 0.674556 8.000000
2.967669 -1.213633 0.667533 8.000000
2.936334 -1.238406 0.662364 8.000000
2.900277 -1.261029 0.656389 8.000000
2.908719 -1.303073 0.660477 8.000000
2.872185 -1.324805 0.654418 6.000000
2.808937 -1.333349 0.642306 9.000000
2.776608 -1.355760 0.637201 9.000000
2.766157 -1.388479 0.637150 9.000000
2.720451 -1.403236 0.629044 9.000000
2.713753 -1.437672 0.629908 9.000000
2.680470 -1.458635 0.624939 9.000000
2.655946 -1.483327 0.621796 9.000000
2.609987 -1.495463 0.613569 7.000000
2.618936 -1.539026 0.618335 10.000000
2.538866 -1.530317 0.602360 13.000000
2.497143 -1.542743 0.595198 29.000000
2.459622 -1.556966 0.588961 37.000000
2.442219 -1.584520 0.587873 35.000000
2.420916 -1.608545 0.585616 34.000000
2.423718 -1.648843 0.589185 28.000000
2.397241 -1.670339 0.586033 10.000000
2.435030 -1.736382 0.598402 33.000000
2.403789 -1.754980 0.594255 26.000000
2.380873 -1.778257 0.591797 29.000000
2.353200 -1.798931 0.588553 29.000000
2.326026 -1.818511 0.585043 25.000000
2.313478 -1.850727 0.585696 28.000000
2.289681 -1.872782 0.583162 24.000000
2.235023 -1.870027 0.573099 10.000000
2.252189 -1.926208 0.581088 32.000000
2.208647 -1.931985 0.573947 24.000000
2.198085 -1.966529 0.575359 26.000000
2.173370 -1.987061 0.572662 27.000000
2.144135 -2.004618 0.569293 21.000000
2.136891 -2.041358 0.571356 28.000000
2.096733 -2.048088 0.565062 21.000000
2.060154 -2.057620 0.559738 10.000000
2.062317 -2.104340 0.564514 31.000000
2.025378 -2.113228 0.559114 23.000000
2.005274 -2.139457 0.558412 26.000000
1.982682 -2.160955 0.556499 26.000000
1.962005 -2.186656 0.555789 24.000000
1.944305 -2.215942 0.555908 29.000000
1.901750 -2.214448 0.548355 18.000000
1.912042 -2.276966 0.556756 8.000000
1.746582 -2.127344 0.513635 9.000000
1.203620 -1.567920 0.364914 22.000000
1.171567 -1.561625 0.359163 23.000000
1.152301 -1.570078 0.356808 28.000000
1.120688 -1.562962 0.351110 24.000000
1.123262 -1.603636 0.356060 18.000000
1.100034 -1.608025 0.353002 28.000000
1.088767 -1.627867 0.353327 25.000000
1.073542 -1.644073 0.352875 23.000000
1.047464 -1.643615 0.348953 24.000000
1.042333 -1.676177 0.351952 26.000000
1.021301 -1.683655 0.349731 24.000000
1.008926 -1.702869 0.349947 18.000000
1.002533 -1.735414 0.352871 8.000000
1.165137 2.052759 0.433813 10.000000
1.180199 2.026755 0.432922 24.000000
1.231305 2.064685 0.445753 27.000000
1.251423 2.046389 0.446628 24.000000
1.273837 2.032167 0.448416 29.000000
1.298757 2.021781 0.451125 27.000000
1.311553 1.995436 0.450211 30.000000
1.322455 1.964229 0.448198 33.000000
1.355158 1.965328 0.453623 24.000000
1.356835 1.921818 0.448770 28.000000
1.376716 1.907200 0.450597 32.000000
1.400537 1.895508 0.453149 26.000000
1.412454 1.867794 0.451918 33.000000
1.431888 1.852509 0.453665 29.000000
1.452195 1.836278 0.455267 33.000000
1.472283 1.819756 0.456795 35.000000
1.500732 1.815161 0.461352 28.000000
1.504742 1.779366 0.458069 34.000000
1.521102 1.758623 0.458623 35.000000
1.537091 1.737663 0.459099 30.000000
1.561928 1.728195 0.462635 35.000000
1.584173 1.714111 0.465062 36.000000
1.595526 1.689695 0.464699 36.000000
1.624257 1.682194 0.469023 49.000000
1.635857 1.656731 0.468433 29.000000
1.667320 1.652702 0.473913 52.000000
1.678409 1.626950 0.473244 48.000000
1.688549 1.601791 0.472782 58.000000
1.713345 1.589321 0.476010 62.000000
1.730814 1.569887 0.477320 46.000000
1.751145 1.554142 0.479707 61.000000
1.768212 1.534230 0.480947 61.000000
1.784550 1.514829 0.482332 35.000000
1.797411 1.491426 0.482488 42.000000
1.809549 1.468543 0.482784 37.000000
1.818003 1.441977 0.481913 35.000000
1.845012 1.430869 0.486273 67.000000
1.884139 1.427715 0.493495 37.000000
1.887598 1.398193 0.491675 54.000000
1.922357 1.391666 0.498055 51.000000
1.925691 1.361435 0.496003 29.000000
1.948304 1.345741 0.499243 46.000000
1.967130 1.326394 0.501237 43.000000
1.993670 1.312706 0.505529 45.000000
1.991286 1.280012 0.502493 69.000000
2.033946 1.276198 0.510884 52.000000
2.027175 1.240436 0.506571 44.000000
2.069839 1.235509 0.514921 55.000000
2.083154 1.212565 0.515974 33.000000
2.113175 1.199122 0.521222 48.000000
2.134623 1.180419 0.524309 67.000000
2.151871 1.158600 0.526199 36.000000
2.172964 1.139259 0.529223 62.000000
2.185220 1.115130 0.530219 37.000000
2.201546 1.093098 0.532120 51.000000
2.217766 1.070739 0.534100 59.000000
2.233494 1.048513 0.536162 32.000000
2.280304 1.039918 0.545517 35.000000
2.282642 1.010600 0.544247 36.000000
2.306945 0.990965 0.548227 34.000000
2.326630 0.969075 0.551147 45.000000
2.346002 0.947143 0.554153 39.000000
2.365295 0.924536 0.557007 35.000000
2.388837 0.903694 0.561098 35.000000
2.412331 0.882151 0.564959 29.000000
2.426326 0.857131 0.566837 35.000000
2.444655 0.833504 0.569715 61.000000
2.467448 0.811037 0.573676 36.000000
2.476135 0.783762 0.574326 37.000000
2.517186 0.766275 0.582540 66.000000
2.562810 0.749354 0.591854 57.000000
2.580223 0.723612 0.594605 59.000000
2.597358 0.697494 0.597275 30.000000
2.628393 0.674978 0.603374 36.000000
2.654480 0.650610 0.608313 68.000000
2.661401 0.621130 0.608740 75.000000
2.687038 0.595876 0.613691 71.000000
2.707647 0.569284 0.617561 66.000000
2.742419 0.545056 0.624533 81.000000
2.719326 0.509414 0.618512 13.000000
2.700663 0.475079 0.613487 7.000000
2.773125 0.456328 0.629121 9.000000
2.801985 0.429349 0.634937 9.000000
2.796845 0.397038 0.633193 9.000000
2.839609 0.371174 0.642300 9.000000
2.858083 0.341472 0.645853 9.000000
2.910095 0.315125 0.656982 13.000000
2.971565 0.288649 0.670402 71.000000
2.998856 0.257962 0.676256 19.000000
3.055003 0.228831 0.688600 56.000000
3.076776 0.196246 0.693082 78.000000
3.107933 0.163744 0.699759 80.000000
3.158229 0.131506 0.710925 74.000000
3.149763 0.096305 0.708830 24.000000
3.155428 0.061604 0.710026 9.000000
3.224211 0.027333 0.725490 23.000000
3.307236 -0.008483 0.744252 83.000000
3.316681 -0.045135 0.746344 95.000000
3.301429 -0.081505 0.743051 95.000000
3.261293 -0.116475 0.734067 78.000000
3.235500 -0.151370 0.728580 95.000000
3.160528 -0.182908 0.712022 22.000000
3.163216 -0.218201 0.713020 9.000000
3.048895 -0.244156 0.687599 9.000000
3.026592 -0.275966 0.682927 9.000000
2.999190 -0.306944 0.677163 9.000000
2.961675 -0.336192 0.669307 9.000000
2.909443 -0.362878 0.658077 9.000000
2.929487 -0.398261 0.663275 66.000000
2.900914 -0.426980 0.657435 61.000000
2.886416 -0.457458 0.654882 73.000000
2.833196 -0.481187 0.643590 73.000000
2.813401 -0.509853 0.639954 62.000000
2.759766 -0.531562 0.628506 94.000000
2.753877 -0.562061 0.628154 78.000000
2.723786 -0.587153 0.622092 49.000000
2.679181 -0.608565 0.612860 10.000000
2.639168 -0.630268 0.604901 9.000000
2.622658 -0.656996 0.602133 21.000000
2.606030 -0.683346 0.599370 37.000000
2.588951 -0.709572 0.596695 64.000000
2.581062 -0.738106 0.596107 81.000000
2.563566 -0.763852 0.593355 60.000000
2.597084 -0.805124 0.602504 35.000000
2.629979 -0.847238 0.611549 35.000000
2.657693 -0.888554 0.619404 31.000000
2.712555 -0.940193 0.633704 29.000000
2.748194 -0.986477 0.643660 24.000000
2.810482 -1.044163 0.660132 16.000000
2.981400 -1.145019 0.702140 9.000000
3.000401 -1.190659 0.708848 8.000000
2.982971 -1.221689 0.706668 9.000000
2.933483 -1.239413 0.697108 9.000000
2.897362 -1.262191 0.690873 9.000000
2.883442 -1.294178 0.689886 9.000000
2.829217 -1.307620 0.679316 9.000000
2.815101 -1.338480 0.678050 9.000000
2.791525 -1.365339 0.674857 10.000000
2.754752 -1.385127 0.668396 9.000000
2.722173 -1.406579 0.663011 10.000000
2.672139 -1.418290 0.653418 10.000000
2.613358 -1.424835 0.641933 10.000000
2.593481 -1.451255 0.639673 22.000000
2.564898 -1.472527 0.635316 32.000000
2.540318 -1.495815 0.632020 36.000000
2.532311 -1.528840 0.632824 77.000000
2.515233 -1.557181 0.631808 48.000000
2.506505 -1.590115 0.632508 32.000000
2.489185 -1.617623 0.631118 20.000000
2.487875 -1.655786 0.633879 25.000000
2.501653 -1.705801 0.640951 29.000000
2.447037 -1.707993 0.630235 26.000000
2.431936 -1.738296 0.629963 26.000000
2.416959 -1.767848 0.629500 32.000000
2.382143 -1.782642 0.623809 29.000000
2.346749 -1.797457 0.618414 29.000000
2.311890 -1.811005 0.612671 33.000000
2.276379 -1.824759 0.607313 26.000000
2.298294 -1.883723 0.616855 27.000000
2.247347 -1.884305 0.607263 23.000000
2.238210 -1.918361 0.608559 26.000000
2.202077 -1.930616 0.603055 30.000000
2.170421 -1.944717 0.598305 28.000000
2.152424 -1.972358 0.597764 25.000000
2.130416 -1.996549 0.596218 31.000000
2.119661 -2.029814 0.597391 26.000000
2.114682 -2.070720 0.600719 25.000000
2.068311 -2.069313 0.591935 20.000000
2.048781 -2.095956 0.591193 24.000000
2.018739 -2.111864 0.587579 30.000000
1.989577 -2.126440 0.583613 28.000000
1.992490 -2.177675 0.589728 29.000000
1.962891 -2.191772 0.585754 27.000000
1.925705 -2.198987 0.580031 23.000000
1.920473 -2.242895 0.584124 22.000000
1.879927 -2.245582 0.577360 10.000000
1.787838 -2.182220 0.554066 9.000000
1.190863 -1.554697 0.380516 19.000000
1.173694 -1.568031 0.379177 24.000000
1.150546 -1.573255 0.376004 22.000000
1.134130 -1.585492 0.374489 19.000000
1.130686 -1.618281 0.377856 21.000000
1.115605 -1.634974 0.377444 19.000000
1.083969 -1.627017 0.371364 25.000000
1.077750 -1.655023 0.373563 21.000000
1.059470 -1.667046 0.372152 21.000000
1.043719 -1.683123 0.371663 22.000000
1.030236 -1.703217 0.372025 17.000000
1.002561 -1.697164 0.366759 17.000000
1.003528 -1.742444 0.372578 8.000000
1.199131 2.119292 0.469995 9.000000
1.201310 2.072302 0.464500 30.000000
1.226529 2.062745 0.467391 28.000000
1.246583 2.044528 0.468297 31.000000
1.269071 2.030231 0.470159 35.000000
1.282139 2.004059 0.469267 34.000000
1.293363 1.972998 0.467158 58.000000
1.320482 1.966315 0.470869 35.000000
1.335345 1.943934 0.470827 32.000000
1.353809 1.924658 0.471606 35.000000
1.372111 1.905300 0.472378 29.000000
1.390033 1.885641 0.473069 34.000000
1.403828 1.862716 0.472906 35.000000
1.421246 1.842857 0.473579 35.000000
1.447537 1.834386 0.477247 58.000000
1.466679 1.818592 0.478994 35.000000
1.483578 1.798074 0.479588 36.000000
1.493787 1.769997 0.478153 35.000000
1.509138 1.749978 0.478871 35.000000
1.538082 1.743851 0.483437 60.000000
1.549866 1.719692 0.483061 41.000000
1.572092 1.705680 0.485601 55.000000
1.584113 1.680621 0.484993 58.000000
1.612011 1.673908 0.489742 35.000000
1.633853 1.658984 0.492153 60.000000
1.651430 1.641044 0.493751 38.000000
1.673023 1.625640 0.496171 56.000000
1.687383 1.603275 0.496511 91.000000
1.700798 1.581352 0.496990 53.000000
1.729045 1.571865 0.501442 78.000000
1.742095 1.549580 0.501921 71.000000
1.759200 1.529710 0.503159 57.000000
1.786597 1.519849 0.507788 94.000000
1.788341 1.486992 0.504791 32.000000
1.800385 1.464153 0.505108 52.000000
1.823686 1.450302 0.508618 76.000000
1.839699 1.429559 0.509782 36.000000
1.858873 1.412206 0.512164 62.000000
1.874408 1.391055 0.513258 71.000000
1.889287 1.370268 0.514498 55.000000
1.903948 1.349335 0.515810 63.000000
1.950941 1.349893 0.525482 30.000000
1.961432 1.325506 0.525584 37.000000
1.979714 1.306436 0.527855 82.000000
1.985525 1.279126 0.526864 49.000000
2.007894 1.261793 0.530005 81.000000
2.029710 1.244573 0.533303 53.000000
2.059860 1.232027 0.538801 38.000000
2.068934 1.206672 0.538754 60.000000
2.107336 1.198136 0.546400 33.000000
2.120228 1.174627 0.547461 36.000000
2.154350 1.162621 0.553965 68.000000
2.166836 1.138646 0.554961 49.000000
2.187850 1.118958 0.558171 71.000000
2.199847 1.094579 0.559094 71.000000
2.216079 1.072169 0.561128 36.000000
2.236460 1.051582 0.564279 45.000000
2.265488 1.034772 0.569588 29.000000
2.280937 1.011797 0.571719 33.000000
2.309780 0.994034 0.576973 53.000000
2.315834 0.966725 0.576797 35.000000
2.335320 0.944525 0.579826 35.000000
2.354411 0.922283 0.582941 49.000000
2.378057 0.901170 0.587027 35.000000
2.401417 0.879833 0.591202 34.000000
2.406197 0.851612 0.590875 32.000000
2.429060 0.829710 0.595062 35.000000
2.456410 0.808864 0.600308 66.000000
2.469722 0.783112 0.602088 47.000000
2.496715 0.761356 0.607269 38.000000
2.518914 0.737736 0.611326 47.000000
2.559542 0.718991 0.619849 34.000000
2.586014 0.695724 0.625061 35.000000
2.607545 0.670830 0.629146 32.000000
2.633545 0.646530 0.634291 48.000000
2.659306 0.621812 0.639445 62.000000
2.675487 0.594476 0.642241 53.000000
2.696048 0.567762 0.646181 54.000000
2.740198 0.545570 0.655840 62.000000
2.693356 0.505391 0.643787 10.000000
2.713062 0.478115 0.647649 9.000000
2.742083 0.451931 0.653806 8.000000
2.775738 0.426041 0.661028 9.000000
2.789777 0.396684 0.663673 9.000000
2.813231 0.368289 0.668614 9.000000
2.860544 0.342358 0.679387 9.000000
2.897933 0.314416 0.687695 13.000000
2.939878 0.286106 0.697157 42.000000
2.967083 0.255591 0.703087 39.000000
3.027927 0.227087 0.717158 36.000000
3.054493 0.195123 0.723001 51.000000
3.090426 0.163134 0.731338 61.000000
3.111426 0.129785 0.736035 57.000000
3.136915 0.096057 0.741982 24.000000
3.118341 0.060935 0.737381 9.000000
3.196679 0.027168 0.755987 21.000000
3.298960 -0.008483 0.780151 95.000000
3.298650 -0.045003 0.780048 95.000000
3.288197 -0.081282 0.777747 83.000000
3.257989 -0.116649 0.770741 92.000000
3.212813 -0.150585 0.760287 75.000000
3.167278 -0.183554 0.749736 24.000000
3.126254 -0.215990 0.740439 9.000000
3.065493 -0.245814 0.726449 7.000000
2.994758 -0.273562 0.710168 9.000000
2.972282 -0.304677 0.705384 8.000000
2.915536 -0.331514 0.692471 9.000000
2.887712 -0.360702 0.686364 9.000000
2.912538 -0.396578 0.692882 36.000000
2.888763 -0.425903 0.687927 70.000000
2.869583 -0.455566 0.684214 54.000000
2.821208 -0.480011 0.673541 27.000000
2.787092 -0.505929 0.666224 65.000000
2.771939 -0.534900 0.663492 67.000000
2.737308 -0.559583 0.656103 81.000000
2.702541 -0.583722 0.648811 36.000000
2.672308 -0.608221 0.642584 10.000000
2.627646 -0.628626 0.632945 10.000000
2.620702 -0.657674 0.632352 15.000000
2.594583 -0.681603 0.627206 22.000000
2.577710 -0.707612 0.624260 76.000000
2.560473 -0.733495 0.621401 73.000000
2.547628 -0.760398 0.619682 81.000000
2.571767 -0.798667 0.627036 32.000000
2.609253 -0.842060 0.637602 32.000000
2.641537 -0.884760 0.647096 32.000000
2.677772 -0.929889 0.657610 24.000000
2.713394 -0.975947 0.668005 11.000000
2.794043 -1.039828 0.689733 21.000000
2.996149 -1.153069 0.741797 9.000000
2.974425 -1.182452 0.738443 9.000000
2.938855 -1.206284 0.731928 8.000000
2.925623 -1.238517 0.730834 9.000000
2.880631 -1.257305 0.722003 9.000000
2.849269 -1.280905 0.716254 8.000000
2.812972 -1.302259 0.709697 8.000000
2.803010 -1.335507 0.709743 10.000000
2.735710 -1.340866 0.695229 10.000000
2.716575 -1.368904 0.693069 23.000000
2.662566 -1.378814 0.681853 29.000000
2.625841 -1.396831 0.675192 52.000000
2.601924 -1.421196 0.671772 62.000000
2.582084 -1.447664 0.669463 35.000000
2.557790 -1.471327 0.665965 27.000000
2.571043 -1.516926 0.672363 33.000000
2.550246 -1.542790 0.669959 31.000000
2.583127 -1.601799 0.681786 35.000000
2.544573 -1.617799 0.675089 29.000000
2.522850 -1.643143 0.672584 14.000000
2.484663 -1.657375 0.665640 26.000000
2.466546 -1.684737 0.664145 25.000000
2.435684 -1.704170 0.659682 21.000000
2.405284 -1.722406 0.654860 30.000000
2.378637 -1.743080 0.651132 32.000000
2.359191 -1.769900 0.649750 35.000000
2.332181 -1.789851 0.645945 32.000000
2.293042 -1.801039 0.639213 31.000000
2.277357 -1.829149 0.638642 32.000000
2.268881 -1.863452 0.640103 27.000000
2.244324 -1.885803 0.637573 24.000000
2.216586 -1.903972 0.633623 30.000000
2.187983 -1.922522 0.629958 29.000000
2.167339 -1.946349 0.628230 32.000000
2.145604 -1.970812 0.626593 29.000000
2.117376 -1.987402 0.622587 32.000000
2.098788 -2.014626 0.622001 33.000000
2.097301 -2.058784 0.626622 24.000000
2.058026 -2.064301 0.619409 25.000000
2.031694 -2.083898 0.616644 31.000000
2.006073 -2.102330 0.613614 30.000000
1.976104 -2.117744 0.609741 33.000000
1.965720 -2.154425 0.612042 30.000000
1.946153 -2.179356 0.610974 32.000000
1.922013 -2.201128 0.609152 31.000000
1.914594 -2.240506 0.612049 27.000000
1.880375 -2.250729 0.607080 21.000000
1.793472 -2.195987 0.584955 9.000000
1.186114 -1.553723 0.398903 19.000000
1.166866 -1.562522 0.396385 27.000000
1.146670 -1.571620 0.393995 30.000000
1.129344 -1.584523 0.392663 22.000000
1.120239 -1.609253 0.394165 25.000000
1.106152 -1.625269 0.393560 25.000000
1.080083 -1.625438 0.389218 24.000000
1.064775 -1.641698 0.388735 30.000000
1.050293 -1.657166 0.388062 25.000000
1.037142 -1.677351 0.388530 25.000000
1.023685 -1.697409 0.388921 23.000000
1.005007 -1.708875 0.387442 18.000000
0.997028 -1.736627 0.389535 9.000000
1.187889 2.109390 0.489884 9.000000
1.208653 2.091429 0.490849 23.000000
1.219106 2.056442 0.487881 33.000000
1.241743 2.042443 0.489817 30.000000
1.257715 2.020575 0.489886 28.000000
1.271987 1.993731 0.488778 36.000000
1.293950 1.979138 0.490621 29.000000
1.303553 1.948788 0.488604 32.000000
1.330500 1.941879 0.492479 30.000000
1.351858 1.926613 0.494314 23.000000
1.363339 1.899936 0.493200 38.000000
1.387167 1.888270 0.495986 30.000000
1.399034 1.860682 0.494623 32.000000
1.424460 1.853184 0.498670 38.000000
1.438764 1.829160 0.498254 32.000000
1.458883 1.812745 0.499925 50.000000
1.477840 1.796766 0.501813 32.000000
1.491303 1.772365 0.501296 29.000000
1.503520 1.748610 0.500981 37.000000
1.522750 1.731468 0.502566 35.000000
1.548369 1.721302 0.506287 56.000000
1.559913 1.697114 0.505879 42.000000
1.581911 1.682811 0.508466 37.000000
1.603048 1.668938 0.511205 58.000000
1.624912 1.654121 0.513805 34.000000
1.642380 1.636219 0.515472 34.000000
1.663923 1.620852 0.518010 74.000000
1.670541 1.592377 0.516333 37.000000
1.666666 1.553365 0.511138 59.000000
1.701219 1.551343 0.518123 67.000000
1.732923 1.544879 0.523893 52.000000
1.756688 1.532115 0.527626 84.000000
1.777320 1.515221 0.530046 41.000000
1.774824 1.479876 0.525959 32.000000
1.794949 1.462704 0.528301 56.000000
1.802908 1.436697 0.527520 35.000000
1.833658 1.428685 0.533364 57.000000
1.845575 1.404772 0.533408 62.000000
1.864519 1.387198 0.535839 42.000000
1.875499 1.363590 0.536023 46.000000
1.918336 1.361975 0.545011 35.000000
1.940932 1.346153 0.548600 40.000000
1.955437 1.324544 0.549858 57.000000
1.953402 1.291968 0.546571 55.000000
1.975453 1.275525 0.550023 72.000000
1.997768 1.258161 0.553262 64.000000
2.019605 1.240982 0.556733 65.000000
2.032981 1.218466 0.557847 77.000000
2.075545 1.212990 0.566996 39.000000
2.101269 1.196998 0.571501 35.000000
2.118415 1.175926 0.573791 75.000000
2.126826 1.149904 0.573625 36.000000
2.160784 1.137497 0.580468 76.000000
2.173040 1.113368 0.581464 53.000000
2.184837 1.089393 0.582613 41.000000
2.201009 1.067079 0.584695 71.000000
2.216920 1.044591 0.586780 34.000000
2.245909 1.027844 0.592289 30.000000
2.270167 1.008963 0.596801 42.000000
2.285469 0.985469 0.598828 35.000000
2.304984 0.963907 0.602108 35.000000
2.328930 0.943658 0.606412 43.000000
2.347997 0.921333 0.609708 46.000000
2.366903 0.898728 0.612932 53.000000
2.385645 0.875843 0.616083 34.000000
2.408720 0.854220 0.620500 34.000000
2.427063 0.830559 0.623584 56.000000
2.440539 0.805172 0.625491 43.000000
2.463065 0.782382 0.629769 62.000000
2.480717 0.757782 0.632789 46.000000
2.512005 0.737243 0.639536 59.000000
2.557302 0.719724 0.649613 53.000000
2.560292 0.690165 0.649091 34.000000
2.600541 0.670239 0.658088 37.000000
2.621775 0.644860 0.662252 62.000000
2.652286 0.621298 0.668807 66.000000
2.658878 0.591765 0.669320 66.000000
2.684043 0.566328 0.674696 73.000000
2.728168 0.544182 0.684862 51.000000
2.681368 0.504064 0.672229 10.000000
2.696246 0.475995 0.675051 8.000000
2.754009 0.454746 0.688568 9.000000
2.773140 0.426427 0.692602 9.000000
2.791967 0.397700 0.696640 9.000000
2.815384 0.369285 0.701793 9.000000
2.838499 0.340354 0.706951 9.000000
2.880605 0.313093 0.716917 13.000000
2.927360 0.285357 0.727910 53.000000
2.935062 0.253318 0.729482 29.000000
3.034448 0.228083 0.753709 38.000000
3.046431 0.195027 0.756305 70.000000
3.072582 0.162524 0.762510 65.000000
3.127466 0.130701 0.775838 50.000000
3.128746 0.095959 0.776035 28.000000
3.134385 0.061410 0.777337 9.000000
3.188258 0.027068 0.790674 21.000000
3.285417 -0.008471 0.814743 95.000000
3.294812 -0.045069 0.817046 95.000000
3.279635 -0.081179 0.813436 95.000000
3.244552 -0.116373 0.804911 91.000000
3.209189 -0.150712 0.796388 84.000000
3.158921 -0.183455 0.784258 29.000000
3.132524 -0.216799 0.778047 9.000000
3.013854 -0.242124 0.748996 7.000000
2.977170 -0.272395 0.740392 9.000000
2.959584 -0.303900 0.736505 9.000000
2.912722 -0.331787 0.725416 9.000000
2.894495 -0.362236 0.721446 9.000000
2.885559 -0.393585 0.719971 35.000000
2.876271 -0.424828 0.718405 69.000000
2.866724 -0.455873 0.716750 73.000000
2.794620 -0.476300 0.699613 32.000000
2.784497 -0.506353 0.698059 83.000000
2.750206 -0.531693 0.690347 61.000000
2.725282 -0.558171 0.685036 61.000000
2.704839 -0.585168 0.680928 80.000000
2.641509 -0.602224 0.666082 12.000000
2.611173 -0.625855 0.659607 14.000000
2.627800 -0.660633 0.664975 29.000000
2.601693 -0.684723 0.659616 32.000000
2.570673 -0.707025 0.652993 71.000000
2.553462 -0.732911 0.650030 88.000000
2.531489 -0.756865 0.645718 56.000000
2.550934 -0.793663 0.652168 38.000000
2.597586 -0.839878 0.665711 34.000000
2.625169 -0.880971 0.674405 33.000000
2.688843 -0.935565 0.692531 33.000000
2.705896 -0.975225 0.698809 22.000000
2.754423 -1.027196 0.713139 26.000000
2.947197 -1.136230 0.765190 9.000000
2.952760 -1.175955 0.768801 9.000000
2.935192 -1.206938 0.766729 9.000000
2.895191 -1.227934 0.758499 9.000000
2.850390 -1.246484 0.749316 10.000000
2.801356 -1.261859 0.738696 10.000000
2.738859 -1.270503 0.724797 16.000000
2.729222 -1.303110 0.724825 51.000000
2.701702 -1.327049 0.720290 74.000000
2.678663 -1.352229 0.716551 44.000000
2.659376 -1.379740 0.714261 92.000000
2.639951 -1.406966 0.711882 36.000000
