x y z intensity
2.448434 -0.906689 0.968988 29.000000
2.482182 -0.951345 0.985173 34.000000
2.510947 -0.995098 0.999492 36.000000
2.500049 -1.023662 0.998086 30.000000
2.497087 -1.056056 1.000493 32.000000
2.494134 -1.088120 1.002450 32.000000
2.460876 -1.106728 0.992229 31.000000
2.444247 -1.133005 0.989190 32.000000
2.423511 -1.156551 0.983998 26.000000
2.423325 -1.190517 0.987755 35.000000
2.368162 -1.197142 0.969025 33.000000
2.375812 -1.235046 0.976035 31.000000
2.341436 -1.251111 0.965921 36.000000
2.315283 -1.271052 0.959163 35.000000
2.289020 -1.290538 0.952252 29.000000
2.274776 -1.316724 0.950546 34.000000
2.244186 -1.332962 0.941965 27.000000
2.225603 -1.356089 0.938324 32.000000
2.202828 -1.376378 0.933083 35.000000
2.183368 -1.399360 0.929796 33.000000
2.176020 -1.429331 0.931145 44.000000
2.148773 -1.446083 0.923996 35.000000
2.132660 -1.471008 0.922234 32.000000
2.132109 -1.505968 0.926743 31.000000
2.080923 -1.505785 0.909858 25.000000
2.072367 -1.534848 0.910860 18.000000
2.059014 -1.561653 0.910602 23.000000
2.041621 -1.585484 0.908595 32.000000
2.017341 -1.602525 0.902863 36.000000
1.995933 -1.622792 0.899047 38.000000
1.970711 -1.639788 0.893594 31.000000
1.952566 -1.662573 0.891439 29.000000
1.917101 -1.668854 0.880686 26.000000
1.919971 -1.709712 0.888184 34.000000
1.897633 -1.728691 0.884231 37.000000
1.871740 -1.744035 0.878580 33.000000
1.856013 -1.768761 0.877806 35.000000
1.833271 -1.786796 0.873710 35.000000
1.823765 -1.817871 0.876064 32.000000
1.807242 -1.842169 0.875097 32.000000
1.767524 -1.842367 0.862913 24.000000
1.766992 -1.883334 0.869858 35.000000
1.749656 -1.907034 0.868705 59.000000
1.709995 -1.905853 0.856522 31.000000
1.692524 -1.928947 0.855301 36.000000
1.676741 -1.956212 0.856060 35.000000
1.655613 -1.975351 0.853160 33.000000
1.634319 -1.994242 0.850343 36.000000
1.612860 -2.012885 0.847360 18.000000
1.597095 -2.038760 0.847571 30.000000
1.579753 -2.065272 0.848010 28.000000
1.554787 -2.079492 0.843461 27.000000
1.540963 -2.108677 0.844996 30.000000
1.518345 -2.126269 0.841896 27.000000
1.516078 -2.175611 0.851274 36.000000
1.503510 -2.208612 0.854135 32.000000
1.516991 -2.281189 0.872116 21.000000
1.382192 -2.131398 0.805567 10.000000
1.305938 -2.062500 0.770781 10.000000
1.227542 -1.988831 0.734970 10.000000
1.139979 -1.892453 0.691646 13.000000
1.064282 -1.810730 0.654602 10.000000
1.020016 -1.782109 0.637297 16.000000
0.942915 -1.689498 0.597711 10.000000
0.907731 -1.671471 0.585133 8.000000
0.968389 1.773611 0.640826 22.000000
0.986178 1.757422 0.641832 21.000000
1.004767 1.745869 0.644543 26.000000
1.017123 1.721182 0.642407 28.000000
1.035324 1.709326 0.645035 24.000000
1.055905 1.701319 0.649204 30.000000
1.069941 1.680322 0.648486 25.000000
1.103355 1.691738 0.660366 26.000000
1.100212 1.647295 0.650481 26.000000
1.113425 1.625970 0.649577 24.000000
1.136162 1.620762 0.655189 32.000000
1.153342 1.607591 0.657671 31.000000
1.170522 1.594101 0.660089 30.000000
1.187511 1.580485 0.662507 34.000000
1.202436 1.562285 0.663013 28.000000
1.222062 1.552042 0.666961 29.000000
1.229757 1.526726 0.664437 29.000000
1.252139 1.519692 0.669932 35.000000
1.262291 1.497920 0.668985 36.000000
1.281487 1.486784 0.672817 35.000000
1.284939 1.457653 0.668527 37.000000
1.307766 1.449117 0.673608 58.000000
1.333008 1.444282 0.680659 33.000000
1.348559 1.428794 0.682754 36.000000
1.363984 1.413052 0.684849 29.000000
1.366020 1.383685 0.680275 37.000000
1.391038 1.377740 0.687192 81.000000
1.398576 1.355471 0.686149 46.000000
1.423589 1.348813 0.693037 56.000000
1.434795 1.328980 0.693271 63.000000
1.445740 1.309037 0.693432 49.000000
1.467070 1.298350 0.698623 79.000000
1.484850 1.284291 0.702084 22.000000
1.498276 1.267429 0.704120 41.000000
1.523025 1.258859 0.710852 58.000000
1.533209 1.238024 0.710886 35.000000
1.557323 1.229309 0.717907 58.000000
1.574567 1.213956 0.721222 51.000000
1.576154 1.187466 0.717966 35.000000
1.596795 1.174512 0.722866 65.000000
1.605474 1.153484 0.722951 24.000000
1.641255 1.150833 0.734753 52.000000
1.661314 1.137306 0.739897 81.000000
1.673883 1.117798 0.741271 42.000000
1.689792 1.101114 0.744640 62.000000
1.697645 1.079177 0.744479 62.000000
1.717200 1.064610 0.749528 36.000000
1.728643 1.044815 0.750975 71.000000
1.764110 1.039089 0.762896 29.000000
1.759063 1.009426 0.757367 55.000000
1.774118 0.991427 0.760507 95.000000
1.797184 0.977609 0.767097 63.000000
1.816060 0.961250 0.771881 65.000000
1.855634 0.955209 0.785414 74.000000
1.882439 0.942490 0.793968 37.000000
1.905357 0.926792 0.800436 70.000000
1.911220 0.902745 0.799773 26.000000
1.920807 0.880881 0.801152 35.000000
1.925916 0.857049 0.800687 54.000000
1.960813 0.846066 0.812525 36.000000
1.995953 0.834143 0.824182 66.000000
2.013586 0.814758 0.828877 61.000000
2.035360 0.796734 0.835296 35.000000
2.056888 0.778556 0.841944 46.000000
2.052142 0.750103 0.837581 34.000000
2.077820 0.732675 0.845676 61.000000
2.098854 0.713486 0.852139 82.000000
2.124130 0.695301 0.860411 68.000000
2.136035 0.672436 0.863159 62.000000
2.165538 0.654723 0.873112 71.000000
2.181453 0.632529 0.877530 48.000000
2.201695 0.611229 0.883759 45.000000
2.230808 0.592012 0.893456 34.000000
2.250635 0.569992 0.899783 58.000000
2.270233 0.547587 0.906044 71.000000
2.294214 0.525759 0.914049 81.000000
2.313425 0.502450 0.920176 81.000000
2.323415 0.476954 0.922609 76.000000
2.374130 0.459320 0.941448 63.000000
2.397216 0.435567 0.949422 64.000000
2.411030 0.409756 0.953613 51.000000
2.438359 0.385838 0.963180 85.000000
2.479269 0.363340 0.978130 79.000000
2.496891 0.336887 0.984162 77.000000
2.523551 0.311257 0.993757 81.000000
2.540683 0.283983 0.999553 91.000000
2.552797 0.256011 1.003783 61.000000
2.583145 0.229307 1.015138 35.000000
2.650511 0.204924 1.040914 71.000000
2.675830 0.176133 1.050293 90.000000
2.696182 0.146646 1.057587 91.000000
2.725504 0.117046 1.068795 98.000000
2.740626 0.086459 1.074357 98.000000
2.722728 0.054808 1.067329 95.000000
2.699811 0.023541 1.058383 89.000000
2.662659 -0.007157 1.043785 32.000000
2.611283 -0.036723 1.023626 35.000000
2.601462 -0.066275 1.019721 60.000000
2.581915 -0.095272 1.012424 53.000000
2.534230 -0.122412 0.993933 76.000000
2.518791 -0.150519 0.988462 57.000000
2.521533 -0.179547 0.990120 52.000000
2.459143 -0.203311 0.966173 35.000000
2.447527 -0.230500 0.962205 69.000000
2.431057 -0.256828 0.956257 66.000000
2.414218 -0.282920 0.950474 68.000000
2.364766 -0.304531 0.931875 45.000000
2.356794 -0.330759 0.929509 69.000000
2.329950 -0.354160 0.920105 36.000000
2.353516 -0.385312 0.930547 25.000000
2.307847 -0.404865 0.913652 23.000000
2.307975 -0.431971 0.914854 25.000000
2.316839 -0.461001 0.919603 25.000000
2.329894 -0.491304 0.926234 27.000000
2.315338 -0.515788 0.921988 23.000000
2.345891 -0.550717 0.935769 29.000000
2.353314 -0.580811 0.940326 26.000000
2.396614 -0.620402 0.959326 22.000000
2.367144 -0.641689 0.949571 17.000000
2.458625 -0.696707 0.988450 32.000000
2.477767 -0.732738 0.998258 35.000000
2.545435 -0.784323 1.027845 50.000000
2.563378 -0.821883 1.037501 33.000000
2.620803 -0.873149 1.063208 36.000000
2.615639 -0.904484 1.063647 35.000000
2.614292 -0.937586 1.066145 26.000000
2.590723 -0.962578 1.059595 27.000000
2.562900 -0.985234 1.050820 31.000000
2.539023 -1.009307 1.044120 32.000000
2.510580 -1.031218 1.035562 35.000000
2.486063 -1.054734 1.029157 30.000000
2.474421 -1.083044 1.027569 34.000000
2.458343 -1.109256 1.024207 35.000000
2.420843 -1.125428 1.011901 25.000000
2.399774 -1.149270 1.006967 28.000000
2.403792 -1.185152 1.012647 35.000000
2.370076 -1.201765 1.001904 33.000000
2.344281 -1.222488 0.995061 37.000000
2.330746 -1.249387 0.993509 35.000000
2.308750 -1.271681 0.988274 36.000000
2.286510 -1.293529 0.983051 36.000000
2.260149 -1.312666 0.976006 25.000000
2.225636 -1.326555 0.965404 27.000000
2.223033 -1.359373 0.968775 36.000000
2.192300 -1.374778 0.959868 31.000000
2.177307 -1.399794 0.957847 39.000000
2.154228 -1.419479 0.952362 32.000000
2.146058 -1.449741 0.954056 35.000000
2.126448 -1.471497 0.950142 36.000000
2.113715 -1.499015 0.950013 26.000000
2.067144 -1.500864 0.934004 27.000000
2.072990 -1.541756 0.942375 21.000000
2.056458 -1.565254 0.940025 19.000000
2.035294 -1.586199 0.936222 37.000000
1.996231 -1.591649 0.923504 32.000000
1.989514 -1.623687 0.926524 36.000000
1.964214 -1.640732 0.920889 37.000000
1.932468 -1.650586 0.911563 24.000000
1.921348 -1.679194 0.912624 26.000000
1.913271 -1.710859 0.915347 35.000000
1.884049 -1.723440 0.907910 33.000000
1.868468 -1.748411 0.907182 42.000000
1.845840 -1.766776 0.903030 32.000000
1.827315 -1.787369 0.900136 35.000000
1.801126 -1.801703 0.894260 31.000000
1.797928 -1.839342 0.899962 23.000000
1.768017 -1.849810 0.892361 29.000000
1.754287 -1.877056 0.892915 34.000000
1.730680 -1.893739 0.888539 32.000000
1.715350 -1.921504 0.889400 41.000000
1.685149 -1.930528 0.881610 30.000000
1.676591 -1.964270 0.885284 35.000000
1.658378 -1.987148 0.883984 32.000000
1.636843 -2.006179 0.880979 25.000000
1.606367 -2.013853 0.873159 23.000000
1.584702 -2.032280 0.870171 25.000000
1.564413 -2.054976 0.869026 29.000000
1.550782 -2.084350 0.870716 29.000000
1.522878 -2.094405 0.864372 29.000000
1.505963 -2.119553 0.864361 29.000000
1.512992 -2.179755 0.878385 24.000000
1.485593 -2.193992 0.873833 21.000000
1.477815 -2.234795 0.879873 10.000000
1.374141 -2.127901 0.828258 9.000000
1.311994 -2.084062 0.802103 10.000000
1.230025 -2.001825 0.761925 13.000000
1.142702 -1.905739 0.717360 10.000000
1.068296 -1.829134 0.680985 10.000000
1.004028 -1.762736 0.649244 13.000000
0.956225 -1.724958 0.628555 10.000000
0.959586 1.766523 0.656936 9.000000
0.985242 1.767611 0.664390 18.000000
0.995824 1.738844 0.660663 21.000000
1.016708 1.731217 0.665004 17.000000
1.030145 1.711148 0.664558 24.000000
1.044431 1.690360 0.663830 21.000000
1.064868 1.682089 0.668106 18.000000
1.082812 1.669592 0.670734 26.000000
1.097944 1.652894 0.671758 9.000000
1.121943 1.647229 0.677277 23.000000
1.125947 1.614653 0.671772 26.000000
1.148645 1.609149 0.677490 18.000000
1.160288 1.588057 0.676724 29.000000
1.175420 1.570055 0.677313 22.000000
1.197946 1.563814 0.682995 25.000000
1.211768 1.546035 0.683770 29.000000
1.225382 1.528198 0.684469 12.000000
1.238791 1.510175 0.685157 35.000000
1.261089 1.502871 0.690815 30.000000
1.274205 1.484504 0.691371 28.000000
1.283945 1.462477 0.690308 36.000000
1.302910 1.450984 0.694190 25.000000
1.328131 1.446100 0.701384 30.000000
1.343784 1.430511 0.703548 35.000000
1.362505 1.418123 0.707339 21.000000
1.361395 1.385342 0.700958 47.000000
1.373124 1.366083 0.701273 33.000000
1.391329 1.353203 0.704928 35.000000
1.406075 1.336881 0.706882 42.000000
1.444070 1.343262 0.721106 30.000000
1.451800 1.319963 0.719586 35.000000
1.462771 1.299753 0.719709 36.000000
1.487585 1.291800 0.726746 22.000000
1.494023 1.268746 0.725390 35.000000
1.507928 1.251143 0.727112 33.000000
1.521705 1.233347 0.728834 32.000000
1.534716 1.215935 0.730747 34.000000
1.551814 1.200687 0.734158 30.000000
1.572069 1.188495 0.739525 34.000000
1.585174 1.169994 0.741067 34.000000
1.620406 1.168164 0.753453 24.000000
1.621378 1.141389 0.749971 35.000000
1.637913 1.124950 0.753166 35.000000
1.657739 1.111219 0.758405 35.000000
1.689214 1.104851 0.768933 37.000000
1.697141 1.082827 0.768797 34.000000
1.700853 1.058230 0.766735 33.000000
1.720291 1.043434 0.771888 36.000000
1.743589 1.030631 0.778718 26.000000
1.754781 1.010366 0.780109 35.000000
1.790118 1.003723 0.792304 35.000000
1.800995 0.982910 0.793713 35.000000
1.815855 0.964216 0.796796 33.000000
1.838438 0.949841 0.803774 35.000000
1.869623 0.938956 0.814059 35.000000
1.879626 0.917512 0.815498 32.000000
1.893837 0.897652 0.818413 25.000000
1.916140 0.881724 0.825251 34.000000
1.929791 0.861572 0.828389 33.000000
1.951817 0.844951 0.835118 33.000000
1.973755 0.827826 0.841794 34.000000
1.995600 0.810335 0.848414 33.000000
2.021676 0.794105 0.856813 35.000000
2.038922 0.774105 0.861556 33.000000
2.020962 0.741170 0.851735 17.000000
2.077149 0.734911 0.872910 52.000000
2.093758 0.714116 0.877683 36.000000
2.101384 0.690075 0.878773 34.000000
2.122010 0.670159 0.885261 35.000000
2.160288 0.655183 0.899162 29.000000
2.180712 0.634232 0.905533 32.000000
2.196449 0.611652 0.910061 32.000000
2.198406 0.585284 0.909180 14.000000
2.231606 0.567021 0.921221 34.000000
2.246760 0.543472 0.925467 32.000000
2.270474 0.521946 0.933896 31.000000
2.294202 0.499854 0.942033 34.000000
2.340430 0.481948 0.959338 32.000000
2.354647 0.456919 0.963853 31.000000
2.368508 0.431602 0.968215 30.000000
2.386818 0.406777 0.974369 10.000000
2.446088 0.388180 0.997257 36.000000
2.463845 0.362173 1.003597 35.000000
2.481400 0.335852 1.009699 32.000000
2.498665 0.309133 1.015805 42.000000
2.520326 0.282614 1.023622 35.000000
2.541699 0.255675 1.031612 35.000000
2.572096 0.228967 1.043015 35.000000
2.648341 0.205292 1.073326 30.000000
2.664228 0.175957 1.079385 57.000000
2.693846 0.146974 1.090717 68.000000
2.718332 0.117156 1.100267 71.000000
2.724129 0.086133 1.102231 88.000000
2.720213 0.054906 1.100625 95.000000
2.688128 0.023541 1.087677 56.000000
2.665043 -0.007195 1.078300 46.000000
2.609253 -0.036854 1.055711 36.000000
2.580935 -0.065953 1.044290 44.000000
2.556841 -0.094589 1.034832 44.000000
2.541772 -0.123143 1.029040 34.000000
2.498621 -0.149799 1.012088 36.000000
2.478395 -0.176987 1.004182 30.000000
2.434689 -0.201839 0.987080 10.000000
2.441507 -0.230614 0.990745 26.000000
2.411262 -0.255531 0.979109 18.000000
2.412914 -0.283684 0.980661 17.000000
2.423431 -0.313051 0.985873 21.000000
2.433668 -0.342653 0.990919 15.000000
2.452791 -0.373968 0.999696 18.000000
2.443969 -0.401298 0.997339 13.000000
2.411997 -0.424424 0.985569 8.000000
2.457395 -0.461394 1.005444 20.000000
2.465945 -0.492163 1.010295 15.000000
2.505798 -0.530050 1.028346 22.000000
2.599448 -0.580954 1.068630 34.000000
2.620248 -0.616940 1.078650 33.000000
2.680750 -0.663764 1.105910 32.000000
2.722913 -0.707197 1.125339 28.000000
2.701704 -0.734612 1.118572 10.000000
2.702357 -0.768159 1.121358 28.000000
2.680414 -0.795122 1.114788 27.000000
2.649406 -0.818944 1.104435 27.000000
2.649233 -0.852124 1.106947 30.000000
2.622191 -0.876485 1.098284 25.000000
2.612567 -0.906445 1.096922 27.000000
2.602399 -0.936497 1.095833 26.000000
2.553020 -0.951481 1.077737 9.000000
2.572749 -0.992526 1.089344 32.000000
2.531560 -1.009959 1.075144 24.000000
2.524684 -1.040793 1.075635 27.000000
2.478879 -1.055145 1.059474 29.000000
2.458783 -1.079762 1.054317 25.000000
2.446985 -1.107848 1.052645 28.000000
2.413736 -1.126003 1.041865 25.000000
2.375894 -1.141828 1.029554 10.000000
2.392775 -1.183316 1.040451 30.000000
2.367027 -1.204605 1.033525 31.000000
2.337548 -1.222838 1.024286 30.000000
2.328008 -1.252079 1.024538 31.000000
2.289677 -1.265366 1.011984 27.000000
2.271582 -1.289429 1.008386 27.000000
2.241273 -1.306179 0.999402 25.000000
2.214835 -1.324783 0.992153 12.000000
2.212258 -1.357592 0.995669 31.000000
2.193375 -1.380471 0.991846 26.000000
2.178300 -1.405623 0.989813 29.000000
2.147299 -1.420295 0.980578 32.000000
2.131829 -1.444845 0.978476 24.000000
2.119442 -1.472483 0.978398 29.000000
2.103439 -1.496657 0.976124 24.000000
2.053235 -1.495868 0.957972 10.000000
2.062668 -1.539490 0.968307 18.000000
2.027534 -1.548779 0.957093 10.000000
2.028679 -1.586823 0.963776 26.000000
1.997012 -1.598193 0.954267 31.000000
1.968309 -1.612528 0.946869 24.000000
1.954004 -1.638491 0.946372 29.000000
1.929370 -1.654466 0.940246 25.000000
1.893463 -1.661491 0.929278 10.000000
1.892484 -1.699208 0.935532 32.000000
1.887539 -1.733910 0.940020 26.000000
1.848669 -1.735867 0.926807 26.000000
1.819471 -1.747528 0.919200 29.000000
1.816977 -1.785136 0.925194 21.000000
1.794060 -1.802893 0.920846 28.000000
1.787366 -1.837180 0.924993 24.000000
1.754354 -1.844251 0.915480 11.000000
1.746951 -1.878344 0.919505 34.000000
1.713822 -1.884618 0.909949 26.000000
1.699526 -1.911470 0.910413 28.000000
1.691096 -1.945332 0.914282 30.000000
1.660820 -1.954170 0.906279 24.000000
1.642667 -1.976972 0.904951 29.000000
1.618237 -1.992270 0.900303 18.000000
1.593803 -2.007251 0.895582 10.000000
1.577885 -2.033105 0.895804 24.000000
1.553159 -2.047471 0.891006 18.000000
1.532646 -2.069945 0.889816 24.000000
1.518673 -2.099150 0.891537 21.000000
1.512477 -2.139886 0.898001 18.000000
1.478729 -2.141724 0.888161 22.000000
1.472902 -2.187085 0.896405 11.000000
1.423422 -2.164513 0.876973 9.000000
1.372060 -2.137015 0.855984 9.000000
1.324150 -2.112716 0.836723 9.000000
1.228470 -2.011327 0.787786 9.000000
1.148723 -1.927697 0.746713 9.000000
1.075681 -1.850699 0.709092 10.000000
1.003178 -1.772924 0.671949 10.000000
0.942962 -1.709636 0.641059 9.000000
0.953832 1.768370 0.676216 24.000000
0.969423 1.748052 0.675666 24.000000
0.988032 1.736461 0.678499 23.000000
1.006513 1.724742 0.681268 29.000000
1.018730 1.700014 0.678983 24.000000
1.034285 1.683965 0.680105 27.000000
1.054661 1.675719 0.684417 27.000000
1.075122 1.667157 0.688742 18.000000
1.083545 1.638076 0.684595 27.000000
1.095771 1.617503 0.683893 26.000000
1.113017 1.604553 0.686483 26.000000
1.132929 1.595258 0.690675 32.000000
1.149963 1.581896 0.693208 29.000000
1.166934 1.568345 0.695741 32.000000
1.184728 1.553970 0.697957 32.000000
1.201383 1.539976 0.700363 23.000000
1.206171 1.511147 0.695996 35.000000
1.237285 1.515122 0.706875 33.000000
1.244621 1.489701 0.704109 34.000000
1.251534 1.464304 0.701309 44.000000
1.270390 1.453075 0.705277 35.000000
1.279872 1.431088 0.704092 34.000000
1.301684 1.422909 0.709730 35.000000
1.336339 1.428156 0.722255 30.000000
1.342076 1.402215 0.719206 52.000000
1.343498 1.373528 0.714635 55.000000
1.368390 1.367571 0.721943 52.000000
1.393374 1.361255 0.729219 54.000000
1.401457 1.338286 0.727734 35.000000
1.419534 1.324928 0.731392 56.000000
1.429947 1.305500 0.731904 67.000000
1.444224 1.288570 0.733736 32.000000
1.468943 1.280728 0.740898 32.000000
1.489542 1.269928 0.746625 40.000000
1.499891 1.249293 0.746565 42.000000
1.527638 1.243798 0.755770 47.000000
1.545006 1.228608 0.759304 47.000000
1.558044 1.210794 0.761240 52.000000
1.571405 1.192334 0.762918 35.000000
1.584185 1.174132 0.764790 33.000000
1.604710 1.160812 0.769962 35.000000
1.620901 1.144953 0.773529 40.000000
1.633186 1.126102 0.775284 36.000000
1.664587 1.120182 0.786159 52.000000
1.680578 1.103401 0.789631 37.000000
1.696362 1.086398 0.793111 65.000000
1.708122 1.066643 0.794697 69.000000
1.723590 1.049173 0.798121 35.000000
1.734980 1.029108 0.799578 36.000000
1.738125 1.004260 0.797344 35.000000
1.761214 0.990791 0.804275 50.000000
1.784187 0.976972 0.811225 77.000000
1.798643 0.958705 0.814685 46.000000
1.825577 0.946215 0.823325 58.000000
1.839792 0.927349 0.826741 70.000000
1.870788 0.916005 0.837216 35.000000
1.888893 0.898408 0.842322 30.000000
1.906946 0.880549 0.847440 38.000000
1.924877 0.862289 0.852500 34.000000
1.938362 0.841919 0.855626 37.000000
1.977302 0.832024 0.869962 37.000000
1.994854 0.812629 0.874855 46.000000
2.007961 0.791267 0.877874 53.000000
2.016351 0.768229 0.879154 33.000000
2.037705 0.749630 0.885816 32.000000
2.067457 0.733899 0.896417 54.000000
2.075269 0.710175 0.897574 41.000000
2.104834 0.693474 0.908065 66.000000
2.112216 0.669208 0.909015 49.000000
2.128302 0.647489 0.913765 63.000000
2.152957 0.628156 0.922178 53.000000
2.172976 0.607170 0.928925 35.000000
2.201860 0.587965 0.939119 35.000000
2.221540 0.566113 0.945742 40.000000
2.236501 0.542712 0.950392 43.000000
2.269292 0.523180 0.962611 44.000000
2.292806 0.501132 0.971181 44.000000
2.311804 0.477503 0.977462 35.000000
2.339463 0.455405 0.987814 42.000000
2.339723 0.427647 0.986528 28.000000
2.385169 0.407776 1.004328 35.000000
2.403086 0.382609 1.010802 42.000000
2.425458 0.357641 1.018879 45.000000
2.456634 0.333495 1.030965 67.000000
2.492144 0.309287 1.044819 53.000000
2.518233 0.283229 1.055093 61.000000
2.544126 0.256644 1.064871 62.000000
2.528358 0.225754 1.057602 28.000000
2.613531 0.203241 1.092474 43.000000
2.633857 0.174473 1.100691 61.000000
2.654121 0.145195 1.108389 62.000000
2.678579 0.115782 1.118276 48.000000
2.702703 0.085750 1.127989 76.000000
2.689579 0.054443 1.122481 63.000000
2.676092 0.023453 1.116882 55.000000
2.671567 -0.007245 1.114957 40.000000
2.634480 -0.037291 1.099464 34.000000
2.666247 -0.068352 1.112678 35.000000
2.651531 -0.098442 1.106903 33.000000
2.677958 -0.130143 1.118276 45.000000
2.662455 -0.160075 1.112414 30.000000
2.665206 -0.190921 1.113896 27.000000
2.649199 -0.220342 1.107949 23.000000
2.660435 -0.252058 1.113278 28.000000
2.707918 -0.287906 1.134248 37.000000
2.704677 -0.318965 1.133618 33.000000
2.751435 -0.356459 1.154295 55.000000
2.797685 -0.395107 1.174861 35.000000
2.829620 -0.432816 1.189841 35.000000
2.874913 -0.473520 1.209988 34.000000
2.896904 -0.511264 1.220910 32.000000
2.913863 -0.548780 1.229710 35.000000
2.898633 -0.580371 1.225000 34.000000
2.878533 -0.610795 1.218577 31.000000
2.867318 -0.642735 1.215597 35.000000
2.846645 -0.672447 1.208897 35.000000
2.825656 -0.701752 1.202206 34.000000
2.799978 -0.729486 1.193523 34.000000
2.760546 -0.753254 1.179327 27.000000
2.734543 -0.779729 1.170392 30.000000
2.708086 -0.805890 1.161754 32.000000
2.676956 -0.830180 1.151230 31.000000
2.645790 -0.853777 1.140539 32.000000
2.631958 -0.882660 1.137360 32.000000
2.600401 -0.905265 1.126429 30.000000
2.603475 -0.939759 1.130740 28.000000
2.592982 -0.969779 1.129554 30.000000
2.547850 -0.985974 1.112822 29.000000
2.511157 -1.005087 1.100168 31.000000
2.499929 -1.033959 1.098743 31.000000
2.475739 -1.057282 1.091591 32.000000
2.451314 -1.080134 1.084455 32.000000
2.426834 -1.102604 1.077160 29.000000
2.397928 -1.122553 1.068011 27.000000
2.385643 -1.149998 1.066269 28.000000
2.356127 -1.169455 1.057328 31.000000
2.343409 -1.196362 1.055425 35.000000
2.317756 -1.217140 1.048292 32.000000
2.300503 -1.241356 1.044457 34.000000
2.286672 -1.267987 1.042739 37.000000
2.252400 -1.282950 1.031690 29.000000
2.238266 -1.309005 1.029902 29.000000
2.219807 -1.332496 1.026187 28.000000
2.197186 -1.353287 1.020554 31.000000
2.182281 -1.378608 1.018522 36.000000
2.155492 -1.396256 1.010995 31.000000
2.140162 -1.421019 1.008805 31.000000
2.116966 -1.440460 1.002968 32.000000
2.105093 -1.467461 1.002605 30.000000
2.077744 -1.483470 0.994889 25.000000
2.053499 -1.502383 0.989258 26.000000
2.055909 -1.539851 0.995963 19.000000
2.027490 -1.555549 0.988450 19.000000
1.999758 -1.570068 0.980544 25.000000
1.993123 -1.602291 0.983768 29.000000
1.975897 -1.625035 0.981092 35.000000
1.943545 -1.636084 0.971689 29.000000
1.936652 -1.667392 0.974294 26.000000
1.886563 -1.662205 0.955965 23.000000
1.875037 -1.690549 0.957047 24.000000
1.864035 -1.718147 0.957779 32.000000
1.838205 -1.733560 0.951691 28.000000
1.825826 -1.761483 0.952652 27.000000
1.799725 -1.776242 0.946500 30.000000
1.786790 -1.803910 0.947359 27.000000
1.806992 -1.864390 0.965206 32.000000
1.770495 -1.868423 0.953646 28.000000
1.724470 -1.861504 0.936943 24.000000
1.710463 -1.888519 0.937590 30.000000
1.680496 -1.897861 0.929526 25.000000
1.672109 -1.931592 0.933423 26.000000
1.648073 -1.947429 0.928724 25.000000
1.623866 -1.963030 0.923954 26.000000
1.611399 -1.992856 0.925991 20.000000
1.586943 -2.007793 0.921138 14.000000
1.570950 -2.033753 0.921358 21.000000
1.559044 -2.067787 0.925255 24.000000
1.533926 -2.082122 0.920305 19.000000
1.508723 -2.096056 0.915284 21.000000
1.491570 -2.121330 0.915352 20.000000
1.474083 -2.146395 0.915227 18.000000
1.451005 -2.163494 0.911774 17.000000
1.421158 -2.173279 0.905365 9.000000
1.390203 -2.177784 0.897004 9.000000
1.324434 -2.125790 0.865730 10.000000
1.228104 -2.019958 0.813446 9.000000
1.144810 -1.933167 0.769947 9.000000
1.076751 -1.864545 0.734543 9.000000
1.008049 -1.790475 0.697793 9.000000
0.953389 -1.740612 0.671119 9.000000
0.961438 1.745541 0.693310 24.000000
0.975467 1.725732 0.692844 29.000000
0.997447 1.717507 0.697127 32.000000
1.010930 1.697520 0.696628 28.000000
1.031415 1.689459 0.701111 36.000000
1.041927 1.665238 0.698903 29.000000
1.068457 1.664081 0.706430 32.000000
1.070692 1.627800 0.699055 30.000000
1.088127 1.615040 0.701708 33.000000
1.105436 1.602090 0.704298 38.000000
1.127978 1.596626 0.710366 36.000000
1.139612 1.575621 0.709541 34.000000
1.145367 1.546947 0.705188 40.000000
1.170511 1.544591 0.712869 30.000000
1.192897 1.538076 0.718790 35.000000
1.210374 1.523322 0.721007 31.000000
1.215014 1.494403 0.716440 38.000000
1.231131 1.480042 0.718824 71.000000
1.252310 1.473127 0.724968 37.000000
1.262112 1.451193 0.723778 51.000000
1.277853 1.436205 0.726036 54.000000
1.290321 1.417570 0.726521 36.000000
1.312081 1.409146 0.732266 50.000000
1.327420 1.393555 0.734466 32.000000
1.342634 1.377776 0.736603 74.000000
1.364249 1.368419 0.742264 53.000000
1.378463 1.352752 0.744664 48.000000
1.396674 1.339619 0.748489 71.000000
1.411301 1.323028 0.750452 76.000000
1.425233 1.306754 0.752732 53.000000
1.439607 1.289783 0.754632 74.000000
1.467804 1.284888 0.763823 28.000000
1.481358 1.267946 0.765997 48.000000
1.491727 1.247316 0.765955 44.000000
1.512195 1.235916 0.771671 36.000000
1.529478 1.220808 0.775242 48.000000
1.549782 1.208793 0.780926 37.000000
1.562691 1.190785 0.782927 37.000000
1.579648 1.174967 0.786395 53.000000
1.588444 1.153865 0.786412 26.000000
1.615975 1.146077 0.795673 49.000000
1.632103 1.129887 0.799300 71.000000
1.651999 1.116073 0.804806 36.000000
1.667876 1.099334 0.808388 44.000000
1.687574 1.084812 0.813791 48.000000
1.695410 1.062664 0.813494 35.000000
1.710897 1.045236 0.816962 41.000000
1.722195 1.025217 0.818482 26.000000
1.737364 1.007320 0.821829 59.000000
1.752386 0.989264 0.825117 62.000000
1.770978 0.973541 0.830577 47.000000
1.781647 0.952737 0.831911 57.000000
1.804016 0.938599 0.839166 64.000000
1.847344 0.934062 0.855654 35.000000
1.857324 0.912734 0.857158 47.000000
1.879534 0.897169 0.864343 22.000000
1.897546 0.879305 0.869559 32.000000
1.915435 0.861040 0.874717 37.000000
1.945889 0.848041 0.885593 34.000000
1.942264 0.819986 0.881002 34.000000
1.976737 0.807862 0.893700 36.000000
1.989573 0.786880 0.897046 32.000000
2.006752 0.766949 0.901908 33.000000
2.019182 0.745436 0.905055 25.000000
2.048795 0.729866 0.915969 35.000000
2.069717 0.710659 0.922878 58.000000
2.090448 0.691005 0.929801 45.000000
2.097814 0.666863 0.930749 35.000000
2.122650 0.647879 0.939420 54.000000
2.138474 0.625900 0.944131 35.000000
2.158343 0.604960 0.951023 51.000000
2.182513 0.584831 0.959808 26.000000
2.206563 0.564217 0.968534 35.000000
2.217075 0.539851 0.971323 35.000000
2.249716 0.520414 0.983763 36.000000
2.273124 0.498464 0.992528 35.000000
2.305469 0.477734 1.004844 48.000000
2.310547 0.451172 1.005625 32.000000
2.319835 0.425360 1.008215 31.000000
2.369524 0.406439 1.028746 31.000000
2.391989 0.381966 1.037017 37.000000
2.414115 0.357155 1.045536 45.000000
2.445163 0.333085 1.057923 40.000000
2.489725 0.310008 1.076071 47.000000
2.502106 0.282295 1.080347 43.000000
2.518662 0.254918 1.086765 36.000000
2.539572 0.227552 1.095078 33.000000
2.610558 0.203609 1.124936 36.000000
2.607975 0.173298 1.123397 36.000000
2.637318 0.144768 1.135330 44.000000
2.666256 0.115604 1.147443 36.000000
2.690274 0.085572 1.157407 42.000000
2.723135 0.055286 1.171504 42.000000
2.751053 0.024221 1.183449 36.000000
2.764923 -0.007532 1.189468 42.000000
2.819850 -0.040099 1.212991 62.000000
2.828472 -0.072751 1.216754 43.000000
2.841208 -0.105786 1.222585 41.000000
2.853649 -0.139232 1.228321 35.000000
2.902377 -0.175114 1.250044 34.000000
2.914094 -0.209425 1.255483 30.000000
2.971084 -0.247970 1.280848 28.000000
3.000227 -0.285178 1.294263 37.000000
3.042710 -0.324484 1.313383 37.000000
3.057202 -0.361703 1.320964 37.000000
3.039340 -0.395095 1.314540 30.000000
3.021212 -0.428171 1.308020 32.000000
2.998279 -0.460135 1.299335 33.000000
2.988406 -0.493928 1.296863 30.000000
2.942337 -0.521004 1.278160 21.000000
2.904763 -0.548850 1.263610 28.000000
2.885156 -0.579492 1.256836 32.000000
2.874018 -0.611835 1.254190 33.000000
2.840367 -0.638834 1.241351 29.000000
2.819792 -0.668394 1.234602 39.000000
2.807830 -0.699678 1.231683 31.000000
2.782249 -0.727367 1.222801 27.000000
2.760922 -0.755671 1.215698 20.000000
2.717261 -0.777244 1.198844 27.000000
2.690903 -0.803361 1.190010 30.000000
2.668684 -0.830346 1.183046 33.000000
2.637516 -0.854003 1.172107 30.000000
2.601861 -0.875593 1.159152 29.000000
2.600920 -0.908552 1.161673 33.000000
2.577976 -0.933773 1.154392 26.000000
2.511616 -0.942322 1.127661 18.000000
2.522534 -0.979796 1.136094 30.000000
2.490480 -1.000046 1.124730 27.000000
2.475119 -1.027140 1.121468 32.000000
2.451049 -1.050324 1.114177 29.000000
2.430967 -1.074902 1.108740 32.000000
2.414902 -1.101025 1.105236 31.000000
2.386079 -1.120985 1.095805 22.000000
2.348850 -1.136362 1.082566 23.000000
2.357112 -1.173729 1.090320 33.000000
2.327443 -1.192783 1.081114 31.000000
2.314575 -1.219470 1.079127 42.000000
2.284583 -1.237607 1.069872 34.000000
2.263208 -1.259265 1.064014 32.000000
2.257227 -1.290175 1.066013 35.000000
2.230933 -1.309389 1.058446 26.000000
2.184713 -1.316209 1.041448 21.000000
2.185922 -1.351339 1.047061 33.000000
2.167106 -1.374180 1.043146 32.000000
2.151974 -1.399286 1.041032 36.000000
2.125019 -1.416511 1.033209 30.000000
2.109465 -1.441145 1.031023 32.000000
2.089943 -1.462868 1.026886 33.000000
2.077768 -1.489657 1.026483 26.000000
2.039176 -1.497137 1.012894 21.000000
2.033427 -1.529627 1.016462 26.000000
1.994788 -1.535953 1.002852 17.000000
2.007362 -1.581955 1.015053 28.000000
1.975184 -1.593944 1.005504 30.000000
1.961608 -1.619483 1.004675 33.000000
1.947049 -1.645605 1.004171 36.000000
1.915405 -1.655757 0.994102 27.000000
1.882947 -1.665912 0.984402 23.000000
1.864407 -1.688077 0.981931 35.000000
1.856786 -1.718832 0.984486 29.000000
1.834345 -1.737417 0.980026 32.000000
1.811726 -1.755757 0.975659 29.000000
1.789920 -1.773029 0.970807 32.000000
1.783506 -1.807329 0.975259 39.000000
1.834905 -1.902184 1.011763 103.000000
1.820415 -1.930486 1.012391 105.000000
1.732662 -1.879645 0.972040 35.000000
1.696396 -1.882560 0.960260 31.000000
1.678895 -1.906002 0.959049 32.000000
1.654963 -1.922092 0.954306 31.000000
1.641147 -1.947861 0.954341 30.000000
1.619980 -1.967036 0.951270 33.000000
1.601503 -1.989612 0.949858 23.000000
1.578634 -2.009072 0.947031 19.000000
1.559703 -2.031254 0.945519 25.000000
1.540524 -2.053253 0.943996 24.000000
1.526649 -2.082642 0.945816 28.000000
1.501339 -2.096614 0.940746 25.000000
1.481415 -2.118057 0.939018 24.000000
1.463892 -2.143110 0.938895 23.000000
1.440813 -2.160209 0.935442 17.000000
1.409862 -2.165223 0.926840 11.000000
1.372534 -2.162603 0.915161 9.000000
1.317129 -2.126641 0.889807 10.000000
1.223594 -2.025051 0.837918 10.000000
1.144455 -1.941875 0.794649 10.000000
1.077602 -1.878275 0.760261 10.000000
1.013660 -1.812677 0.725836 13.000000
0.951066 1.738771 0.709140 31.000000
0.968674 1.722528 0.710147 25.000000
0.989481 1.714938 0.714729 27.000000
1.003002 1.694899 0.714210 32.000000
1.018658 1.678799 0.715376 26.000000
1.044020 1.678578 0.723401 34.000000
1.052999 1.649586 0.719073 28.000000
1.070688 1.636924 0.721809 19.000000
1.080420 1.612450 0.719333 35.000000
1.100317 1.603363 0.723793 29.000000
1.114912 1.586360 0.724702 32.000000
1.134702 1.576830 0.729112 35.000000
1.148898 1.559449 0.729945 29.000000
1.168517 1.549474 0.734305 36.000000
1.188091 1.539180 0.738613 33.000000
1.207618 1.528627 0.742934 27.000000
1.206485 1.492459 0.734690 47.000000
1.216715 1.470842 0.733549 32.000000
1.235643 1.459862 0.737720 52.000000
1.257639 1.452147 0.743644 37.000000
1.264083 1.426657 0.740539 33.000000
1.285880 1.418457 0.746480 62.000000
1.303719 1.407071 0.750811 32.000000
1.322260 1.394921 0.754902 30.000000
1.331034 1.372425 0.753379 66.000000
1.346085 1.356496 0.755511 42.000000
1.370187 1.350731 0.763426 75.000000
1.388315 1.337592 0.767360 67.000000
1.399625 1.317755 0.767532 48.000000
1.413523 1.301583 0.769870 91.000000
1.424351 1.281550 0.769901 35.000000
1.462271 1.286417 0.785257 30.000000
1.469467 1.262878 0.783367 41.000000
1.482862 1.245785 0.785536 33.000000
1.500219 1.230991 0.789205 43.000000
1.520549 1.219266 0.795028 49.000000
1.530460 1.198169 0.794806 34.000000
1.550626 1.185973 0.800587 53.000000
1.570720 1.173349 0.806322 35.000000
1.575868 1.149528 0.804450 29.000000
1.607049 1.144448 0.815806 39.000000
1.619363 1.125618 0.817630 42.000000
1.646831 1.117025 0.827065 71.000000
1.658932 1.097690 0.828775 48.000000
1.674712 1.080659 0.832412 39.000000
1.694253 1.065928 0.837921 68.000000
1.701911 1.043584 0.837510 33.000000
1.713276 1.023565 0.839030 30.000000
1.728027 1.006062 0.842822 46.000000
1.739086 0.985731 0.844213 38.000000
1.753912 0.967426 0.847485 47.000000
1.780356 0.955824 0.856953 60.000000
1.794684 0.937323 0.860449 46.000000
1.821365 0.924435 0.869559 74.000000
1.856003 0.915504 0.882751 32.000000
1.869968 0.895861 0.886158 29.000000
1.879602 0.874115 0.887535 34.000000
1.897407 0.855942 0.892784 33.000000
1.915088 0.837504 0.897975 36.000000
1.936870 0.820523 0.905084 40.000000
1.958209 0.803388 0.912490 33.000000
1.962735 0.778763 0.911563 46.000000
1.988086 0.762666 0.920835 26.000000
2.017739 0.747555 0.931974 29.000000
2.034321 0.727241 0.937170 46.000000
2.050826 0.706584 0.942232 35.000000
2.080163 0.689984 0.953287 65.000000
2.096338 0.668628 0.958227 58.000000
2.112280 0.646923 0.963103 45.000000
2.123517 0.623796 0.966206 46.000000
2.138896 0.601662 0.971243 30.000000
2.167601 0.582668 0.981929 27.000000
2.195988 0.563235 0.992779 43.000000
2.197356 0.536845 0.991905 33.000000
2.229919 0.517578 1.004639 36.000000
2.262160 0.497769 1.017621 52.000000
2.276528 0.473304 1.022186 33.000000
2.294962 0.449589 1.028924 36.000000
2.313063 0.425641 1.035906 32.000000
2.362701 0.406577 1.056619 33.000000
2.380651 0.381403 1.063071 53.000000
2.393641 0.355244 1.067751 37.000000
2.420013 0.330654 1.078413 37.000000
2.464114 0.307807 1.097335 42.000000
2.490149 0.281877 1.107690 47.000000
2.511189 0.254960 1.116281 43.000000
2.513800 0.225985 1.116702 29.000000
2.579974 0.201921 1.145283 31.000000
2.595733 0.172950 1.151527 35.000000
2.624771 0.144505 1.164021 56.000000
2.644444 0.115030 1.172295 35.000000
2.677577 0.085482 1.186557 42.000000
2.696484 0.054916 1.195017 39.000000
2.742645 0.024170 1.215363 35.000000
2.760930 -0.007557 1.223557 45.000000
2.792741 -0.039810 1.237551 35.000000
2.828740 -0.073011 1.253566 48.000000
2.846069 -0.106375 1.261571 56.000000
2.899532 -0.141949 1.285677 36.000000
2.938859 -0.177863 1.303506 50.000000
2.973178 -0.214395 1.319600 37.000000
3.011596 -0.252151 1.337512 28.000000
3.063292 -0.292158 1.361383 62.000000
3.082740 -0.329917 1.370980 37.000000
3.069830 -0.364530 1.366523 35.000000
3.034060 -0.395667 1.351556 34.000000
3.015983 -0.428750 1.344886 32.000000
2.993021 -0.460721 1.336000 33.000000
2.969715 -0.492375 1.327426 29.000000
2.910036 -0.517108 1.302626 23.000000
2.908913 -0.551474 1.303458 32.000000
2.871289 -0.578711 1.288574 31.000000
2.846744 -0.608090 1.279841 29.000000
2.817721 -0.635853 1.268721 34.000000
2.819504 -0.670611 1.271873 33.000000
2.789950 -0.697416 1.260485 32.000000
2.764468 -0.725061 1.251409 33.000000
2.703181 -0.742588 1.226596 20.000000
2.690652 -0.772514 1.223287 29.000000
2.664609 -0.798206 1.213889 32.000000
2.625092 -0.819489 1.198883 27.000000
2.628924 -0.854225 1.203681 34.000000
2.593383 -0.875787 1.190429 29.000000
2.592382 -0.908883 1.193046 32.000000
2.573706 -0.935636 1.187605 32.000000
2.542034 -0.957249 1.176123 21.000000
2.523003 -0.983183 1.170529 32.000000
2.486384 -1.002235 1.157289 33.000000
2.454406 -1.021926 1.145614 29.000000
2.451448 -1.054091 1.148064 36.000000
2.422949 -1.075096 1.138663 33.000000
2.411063 -1.103181 1.136990 35.000000
2.394756 -1.129131 1.133350 33.000000
2.328594 -1.130794 1.105966 26.000000
2.344935 -1.172076 1.117891 34.000000
2.319530 -1.193247 1.110450 36.000000
2.294262 -1.213526 1.102595 32.000000
2.285140 -1.242145 1.102481 37.000000
2.259199 -1.262133 1.094912 35.000000
2.233151 -1.281752 1.087276 29.000000
2.239184 -1.319035 1.094764 34.000000
2.193000 -1.326116 1.077284 26.000000
2.178238 -1.351653 1.075333 34.000000
2.151634 -1.369674 1.067421 33.000000
2.132666 -1.392213 1.063385 32.000000
2.109665 -1.411926 1.057434 32.000000
2.090415 -1.433820 1.053250 31.000000
2.086003 -1.466082 1.056731 32.000000
2.081250 -1.498439 1.060103 33.000000
2.023979 -1.492397 1.036685 25.000000
2.026163 -1.529738 1.043700 28.000000
2.013237 -1.556023 1.043083 21.000000
1.981183 -1.568367 1.033331 20.000000
1.975063 -1.600021 1.036328 34.000000
1.946358 -1.614606 1.028332 31.000000
1.932562 -1.640015 1.027461 31.000000
1.893203 -1.644645 1.013797 32.000000
1.865219 -1.657197 1.005384 22.000000
1.863911 -1.694804 1.012159 32.000000
1.842449 -1.713020 1.007318 32.000000
1.826792 -1.738054 1.006608 31.000000
1.814144 -1.766077 1.007571 36.000000
1.779044 -1.770392 0.995279 32.000000
1.775724 -1.807990 1.001667 33.000000
1.804089 -1.879285 1.026331 100.000000
1.773857 -1.890380 1.017858 55.000000
1.716264 -1.869446 0.992603 33.000000
1.683278 -1.875785 0.982346 30.000000
1.665797 -1.899101 0.981184 28.000000
1.657095 -1.932861 0.985259 35.000000
1.623949 -1.938054 0.974981 29.000000
1.605817 -1.960769 0.973632 28.000000
1.587358 -1.983306 0.972188 32.000000
1.557059 -1.990942 0.963607 13.000000
1.546783 -2.024124 0.967405 25.000000
1.524746 -2.042336 0.964078 23.000000
1.505382 -2.064079 0.962432 22.000000
1.491119 -2.093263 0.964285 26.000000
1.465826 -2.106927 0.959017 21.000000
1.453616 -2.139657 0.962479 22.000000
1.425354 -2.149025 0.955383 17.000000
1.407206 -2.173685 0.955236 14.000000
1.364828 -2.163251 0.939879 10.000000
1.307082 -2.123319 0.912170 10.000000
1.238359 -2.062187 0.876094 10.000000
1.147287 -1.959166 0.823155 10.000000
1.072580 -1.878787 0.780798 10.000000
1.000631 -1.801697 0.740716 10.000000
0.969747 1.736216 0.734443 21.000000
0.979056 1.708108 0.730527 28.000000
1.002134 1.704265 0.736967 22.000000
1.013103 1.680066 0.734669 26.000000
1.028672 1.663874 0.735786 25.000000
1.048970 1.655324 0.740423 16.000000
1.065346 1.638170 0.741208 19.000000
1.077769 1.617510 0.740454 23.000000
1.095161 1.604497 0.743247 24.000000
1.107142 1.583643 0.742390 32.000000
1.126850 1.574107 0.746843 22.000000
1.149333 1.568077 0.753115 30.000000
1.157931 1.543024 0.750350 29.000000
1.180283 1.536450 0.756577 24.000000
1.196914 1.522295 0.759116 28.000000
1.207584 1.500636 0.757993 24.000000
1.223819 1.486107 0.760457 30.000000
1.230128 1.461290 0.757706 33.000000
1.264248 1.467670 0.771185 30.000000
1.261798 1.431564 0.762472 36.000000
1.296062 1.437064 0.775958 35.000000
1.305487 1.414658 0.774579 27.000000
1.316997 1.396151 0.775239 32.000000
1.329067 1.376961 0.775635 28.000000
1.347446 1.364249 0.779661 35.000000
1.364948 1.351840 0.784014 46.000000
1.379893 1.335439 0.786167 34.000000
1.387863 1.312493 0.784395 36.000000
1.408452 1.302574 0.790537 31.000000
1.426255 1.288701 0.794473 31.000000
1.446825 1.278186 0.800525 31.000000
1.467975 1.266742 0.806277 31.000000
1.477906 1.246592 0.806532 35.000000
1.494763 1.232199 0.810635 32.000000
1.504886 1.211300 0.810432 32.000000
1.525046 1.199352 0.816356 35.000000
1.541611 1.184235 0.820355 32.000000
1.550613 1.163377 0.820338 28.000000
1.574278 1.153293 0.828125 29.000000
1.594185 1.140078 0.833916 32.000000
1.610307 1.123924 0.837698 36.000000
1.630090 1.110140 0.843389 35.000000
1.638307 1.088351 0.843187 32.000000
1.673260 1.083940 0.856729 37.000000
1.677283 1.059302 0.854429 29.000000
1.696637 1.044273 0.859974 33.000000
1.707696 1.024604 0.861828 30.000000
1.714927 1.002026 0.861296 29.000000
1.729550 0.984407 0.865073 32.000000
1.752374 0.970541 0.872386 34.000000
1.766744 0.952311 0.876054 34.000000
1.797592 0.941956 0.887338 35.000000
1.811744 0.923080 0.890900 32.000000
1.829841 0.906006 0.896410 31.000000
1.851947 0.890518 0.903878 25.000000
1.869899 0.872670 0.909281 26.000000
1.891828 0.856446 0.916646 31.000000
1.900834 0.834555 0.918239 31.000000
1.943493 0.826561 0.935618 28.000000
1.952517 0.803720 0.936746 29.000000
1.973781 0.786163 0.944176 29.000000
1.986416 0.764816 0.947558 28.000000
2.011714 0.748073 0.956982 27.000000
2.028269 0.727705 0.962207 26.000000
2.044747 0.707065 0.967369 32.000000
2.061001 0.686080 0.972468 30.000000
2.077100 0.664748 0.977575 30.000000
2.092822 0.643359 0.982837 31.000000
2.112904 0.622765 0.989790 29.000000
2.119537 0.598222 0.990822 22.000000
2.161086 0.583032 1.008132 27.000000
2.176133 0.560207 1.013141 25.000000
2.195278 0.538262 1.020366 30.000000
2.218781 0.516815 1.029282 30.000000
2.237542 0.494051 1.036378 24.000000
2.260597 0.471754 1.045471 27.000000
2.283500 0.449043 1.054421 25.000000
2.283778 0.421628 1.052980 13.000000
2.355595 0.406712 1.084431 31.000000
2.368830 0.380840 1.089366 26.000000
2.386278 0.355431 1.096133 26.000000
2.412545 0.330783 1.107046 32.000000
2.452183 0.307310 1.124014 31.000000
2.473335 0.280945 1.132878 29.000000
2.480784 0.252778 1.135451 26.000000
2.465166 0.222378 1.127578 10.000000
2.562743 0.201219 1.171365 27.000000
2.583056 0.172690 1.179744 26.000000
2.589249 0.143074 1.182166 23.000000
2.627000 0.114655 1.199022 27.000000
2.641699 0.084575 1.205334 24.000000
2.706080 0.055291 1.234650 28.000000
2.738284 0.024250 1.249359 33.000000
2.756571 -0.007582 1.257661 33.000000
2.788226 -0.039940 1.272095 35.000000
2.814950 -0.072917 1.284263 34.000000
2.859370 -0.107207 1.304914 31.000000
2.885289 -0.141755 1.317168 35.000000
2.924512 -0.177568 1.335541 30.000000
2.945040 -0.213112 1.345811 29.000000
3.010472 -0.252992 1.376613 31.000000
3.025652 -0.289579 1.384498 29.000000
3.063111 -0.329017 1.402531 35.000000
3.045835 -0.362834 1.395596 29.000000
3.032593 -0.396929 1.391045 29.000000
3.005551 -0.428885 1.380084 30.000000
2.969275 -0.458725 1.364896 26.000000
2.955157 -0.491572 1.359856 24.000000
2.904708 -0.517917 1.338596 25.000000
2.867462 -0.545676 1.323354 24.000000
2.865862 -0.579736 1.324634 28.000000
2.832673 -0.607216 1.311284 27.000000
2.808203 -0.635992 1.301880 24.000000
2.796539 -0.667530 1.299050 29.000000
2.780476 -0.697567 1.293589 28.000000
2.763790 -0.727494 1.288327 21.000000
2.724988 -0.751065 1.272809 24.000000
2.668464 -0.768684 1.249019 22.000000
2.646719 -0.795874 1.241849 28.000000
2.616261 -0.819662 1.230227 26.000000
2.594077 -0.845774 1.222900 24.000000
2.580265 -0.874512 1.219579 27.000000
2.561997 -0.901452 1.214132 24.000000
2.530565 -0.923315 1.202489 14.000000
2.528936 -0.955894 1.205029 24.000000
2.497186 -0.976840 1.193239 26.000000
2.478055 -1.002255 1.187478 29.000000
2.445724 -1.022452 1.175912 27.000000
2.430111 -1.049137 1.172471 24.000000
2.402092 -1.069702 1.162354 27.000000
2.381933 -1.093873 1.156737 25.000000
2.340916 -1.107887 1.140878 10.000000
2.345109 -1.143114 1.147202 27.000000
2.324401 -1.166230 1.141269 26.000000
2.307504 -1.191084 1.137357 29.000000
2.277910 -1.209656 1.127701 29.000000
2.256720 -1.231639 1.121640 26.000000
2.254847 -1.264990 1.125917 31.000000
2.217321 -1.277246 1.111726 26.000000
2.195206 -1.298629 1.105875 10.000000
2.177284 -1.321529 1.101514 26.000000
2.147047 -1.337396 1.091642 23.000000
2.139905 -1.367480 1.093495 29.000000
2.113274 -1.384987 1.085464 24.000000
2.109443 -1.417434 1.089191 26.000000
2.086260 -1.436942 1.082982 30.000000
2.066696 -1.458588 1.078667 28.000000
2.032024 -1.469278 1.066532 10.000000
2.019674 -1.495718 1.065990 26.000000
2.014435 -1.527560 1.069334 20.000000
2.008682 -1.559491 1.072650 15.000000
1.980927 -1.574220 1.064140 15.000000
1.956016 -1.592022 1.058010 24.000000
1.938822 -1.614725 1.055255 30.000000
1.907410 -1.625205 1.044721 23.000000
1.882224 -1.641920 1.038480 10.000000
1.864640 -1.663631 1.035590 27.000000
1.839160 -1.679605 1.029212 21.000000
1.834829 -1.713446 1.033785 29.000000
1.809002 -1.728846 1.027335 28.000000
1.786459 -1.747156 1.022717 22.000000
1.774551 -1.774220 1.023362 30.000000
1.748392 -1.788684 1.016785 23.000000
1.789353 -1.873114 1.049575 22.000000
1.728578 -1.849548 1.021834 29.000000
1.692524 -1.852918 1.009422 20.000000
1.669043 -1.869516 1.004590 25.000000
1.642338 -1.882376 0.997832 24.000000
1.636722 -1.919507 1.003957 23.000000
1.610882 -1.931011 0.996709 29.000000
1.580933 -1.939266 0.987981 18.000000
1.591560 -1.998016 1.004830 12.000000
1.552624 -1.994822 0.990534 16.000000
1.539374 -2.024339 0.992674 13.000000
1.520075 -2.046325 0.991070 19.000000
1.492396 -2.056723 0.983954 16.000000
1.478118 -2.085855 0.985858 19.000000
1.460770 -2.111092 0.985931 21.000000
1.440557 -2.132250 0.984109 10.000000
1.438016 -2.180523 0.994644 13.000000
1.402828 -2.182619 0.984224 17.000000
1.374315 -2.191377 0.976880 9.000000
1.299396 -2.123827 0.936130 9.000000
1.250111 -2.095018 0.913197 9.000000
1.149781 -1.976320 0.851930 9.000000
1.063666 -1.875839 0.799820 9.000000
0.961531 1.733304 0.751912 21.000000
0.975540 1.713345 0.751391 19.000000
1.005733 1.721526 0.763356 25.000000
1.014642 1.693201 0.759239 22.000000
1.030402 1.676834 0.760406 20.000000
1.053336 1.672230 0.766986 18.000000
1.058689 1.639788 0.760882 22.000000
1.076398 1.626937 0.763759 25.000000
1.096591 1.617682 0.768402 29.000000
1.106066 1.592892 0.765713 26.000000
1.128697 1.587042 0.772135 33.000000
1.140425 1.565786 0.771185 27.000000
1.157414 1.551979 0.773858 24.000000
1.177028 1.541605 0.778392 28.000000
1.193803 1.527317 0.781007 25.000000
1.198803 1.498362 0.776124 37.000000
1.206297 1.473143 0.773008 33.000000
1.225325 1.462079 0.777404 31.000000
1.247256 1.454268 0.783641 35.000000
1.262291 1.439739 0.786357 32.000000
1.274996 1.421011 0.786853 34.000000
1.296812 1.412378 0.793006 35.000000
1.314663 1.400610 0.797520 31.000000
1.323630 1.378084 0.795959 47.000000
1.342025 1.365328 0.800162 38.000000
1.353131 1.346372 0.800697 35.000000
1.374585 1.336372 0.806724 60.000000
1.385275 1.317139 0.807191 37.000000
1.399903 1.300295 0.809280 36.000000
1.427270 1.296268 0.819446 61.000000
1.431333 1.269785 0.815547 23.000000
1.458682 1.265012 0.825632 35.000000
1.472205 1.247836 0.827875 35.000000
1.486111 1.229956 0.829733 36.000000
1.506388 1.218234 0.835809 44.000000
1.519460 1.200462 0.837870 33.000000
1.554125 1.199309 0.851873 41.000000
1.559734 1.175374 0.849907 34.000000
1.568718 1.154198 0.849857 24.000000
1.581234 1.135651 0.851738 37.000000
1.604804 1.124793 0.859644 47.000000
1.620795 1.108307 0.863486 42.000000
1.644258 1.096677 0.871238 62.000000
1.656189 1.077165 0.872952 51.000000
1.675710 1.062418 0.878715 64.000000
1.690789 1.045285 0.882664 53.000000
1.702272 1.025173 0.884191 29.000000
1.713091 1.005260 0.886050 66.000000
1.724176 0.984883 0.887510 57.000000
1.742639 0.969140 0.893257 52.000000
1.760997 0.953078 0.899020 67.000000
1.779652 0.936291 0.904395 72.000000
1.785620 0.913355 0.903888 62.000000
1.824054 0.906536 0.919768 46.000000
1.825603 0.881159 0.917079 23.000000
1.847549 0.865498 0.924629 42.000000
1.869005 0.849685 0.932472 52.000000
1.882460 0.829499 0.935781 35.000000
1.907955 0.814713 0.945593 69.000000
1.912658 0.790432 0.944630 42.000000
1.954836 0.781652 0.962652 48.000000
1.997093 0.771872 0.980579 37.000000
2.001100 0.746925 0.979788 33.000000
2.017682 0.726553 0.985110 63.000000
2.038334 0.707397 0.992458 78.000000
2.058939 0.687796 0.999821 75.000000
2.070701 0.665042 1.002789 79.000000
2.103744 0.648951 1.016608 81.000000
2.110626 0.624455 1.017718 73.000000
2.130383 0.603522 1.025056 41.000000
2.167438 0.586951 1.040666 30.000000
2.182489 0.563918 1.045781 40.000000
2.206170 0.542694 1.054962 68.000000
2.225149 0.520104 1.062279 58.000000
2.248312 0.498187 1.071640 72.000000
2.266892 0.474774 1.078748 62.000000
2.289666 0.451772 1.087900 61.000000
2.303449 0.426705 1.092756 38.000000
2.334571 0.404604 1.106236 33.000000
2.361321 0.380918 1.117214 74.000000
2.392228 0.357461 1.130562 85.000000
2.409273 0.331528 1.137733 71.000000
2.448741 0.307943 1.155098 75.000000
