x y z intensity
1.054889 1.174692 0.187832 33.000000
1.067650 1.162998 0.188463 35.000000
1.087109 1.158398 0.190234 30.000000
1.096270 1.142756 0.190224 35.000000
1.119109 1.141219 0.192603 30.000000
1.135054 1.132343 0.193792 32.000000
1.143823 1.116259 0.193782 28.000000
1.162694 1.110883 0.195628 32.000000
1.174806 1.097979 0.196221 35.000000
1.197759 1.095023 0.198587 44.000000
1.213384 1.085009 0.199745 34.000000
1.228931 1.074812 0.200906 42.000000
1.255355 1.074516 0.203958 37.000000
1.270847 1.063779 0.205132 35.000000
1.282467 1.049662 0.205641 25.000000
1.305505 1.044743 0.208054 32.000000
1.316869 1.030294 0.208568 37.000000
1.339902 1.024731 0.210944 34.000000
1.354717 1.013228 0.212136 32.000000
1.377764 1.006973 0.214475 45.000000
1.392771 0.994581 0.215625 38.000000
1.415768 0.987671 0.217978 35.000000
1.430380 0.975172 0.219190 29.000000
1.445107 0.962051 0.220245 29.000000
1.463892 0.951436 0.221987 44.000000
1.482580 0.940583 0.223735 35.000000
1.496790 0.927097 0.224908 33.000000
1.523844 0.920836 0.227881 43.000000
1.550903 0.914036 0.230863 34.000000
1.560652 0.897198 0.231362 33.000000
1.587649 0.889668 0.234359 33.000000
1.610338 0.879269 0.236670 29.000000
1.637220 0.871084 0.239742 33.000000
1.668650 0.864397 0.243352 52.000000
1.677903 0.846238 0.243873 32.000000
1.691492 0.829916 0.244922 37.000000
1.718379 0.819785 0.247852 36.000000
1.740602 0.807352 0.250260 31.000000
1.771883 0.798343 0.253853 32.000000
1.794063 0.784985 0.256277 30.000000
1.820754 0.772965 0.259238 32.000000
1.847309 0.760667 0.262267 33.000000
1.869362 0.745824 0.264591 29.000000
1.909659 0.737950 0.269531 33.000000
1.926822 0.720627 0.271280 33.000000
1.948532 0.704469 0.273560 26.000000
1.984136 0.692972 0.277875 32.000000
2.005602 0.676049 0.280232 34.000000
2.022262 0.657220 0.281872 30.000000
2.052917 0.642497 0.285554 35.000000
2.092960 0.630048 0.290496 36.000000
2.113973 0.611164 0.292744 36.000000
2.139580 0.593496 0.295723 62.000000
2.198558 0.584046 0.303334 33.000000
2.228809 0.566052 0.306921 34.000000
2.254092 0.546367 0.309853 35.000000
2.298507 0.530648 0.315513 36.000000
2.308940 0.506580 0.316394 27.000000
2.294919 0.477287 0.314029 9.000000
2.348596 0.461804 0.320963 8.000000
2.382696 0.441500 0.325174 8.000000
2.377558 0.413760 0.324067 7.000000
2.479763 0.403675 0.337608 8.000000
2.528035 0.383205 0.343837 8.000000
2.566400 0.360392 0.348741 19.000000
2.638950 0.341197 0.358240 39.000000
2.706444 0.319916 0.367165 47.000000
2.719655 0.291431 0.368668 22.000000
2.757213 0.265017 0.373514 9.000000
2.893160 0.246164 0.391644 8.000000
2.920371 0.216340 0.395166 35.000000
2.996711 0.189098 0.405288 37.000000
3.053084 0.159202 0.412739 72.000000
3.084295 0.127003 0.416848 95.000000
3.060767 0.092508 0.413597 89.000000
3.036752 0.058647 0.410344 39.000000
2.967854 0.024861 0.401064 10.000000
2.943172 -0.007523 0.397716 9.000000
2.982534 -0.040234 0.403073 35.000000
2.972076 -0.072601 0.401733 88.000000
2.946310 -0.104227 0.398295 95.000000
2.925241 -0.135540 0.395617 95.000000
2.898793 -0.166046 0.392181 68.000000
2.896826 -0.197700 0.392091 35.000000
2.820410 -0.223483 0.381968 26.000000
2.798144 -0.252544 0.379205 10.000000
2.760693 -0.279590 0.374438 14.000000
2.806686 -0.315285 0.380951 85.000000
2.778532 -0.342866 0.377437 69.000000
2.784474 -0.374534 0.378600 98.000000
2.760621 -0.402045 0.375757 86.000000
2.751173 -0.431430 0.374918 92.000000
2.702389 -0.454139 0.368661 62.000000
2.692449 -0.482714 0.367826 78.000000
2.682106 -0.511182 0.366907 91.000000
2.671616 -0.539459 0.365906 91.000000
2.631648 -0.561344 0.361000 33.000000
2.620599 -0.589008 0.360087 14.000000
2.585127 -0.610704 0.355774 10.000000
2.587959 -0.641305 0.356773 10.000000
2.590411 -0.672034 0.357852 73.000000
2.568564 -0.696405 0.355536 65.000000
2.580019 -0.729660 0.357689 95.000000
2.552913 -0.752288 0.354799 56.000000
2.558771 -0.784506 0.356369 34.000000
2.630400 -0.837931 0.367163 10.000000
2.781224 -0.919470 0.389124 8.000000
2.935139 -1.005921 0.411691 3.000000
3.227781 -1.145586 0.453912 1.000000
3.112663 -1.143413 0.438950 1.000000
2.979625 -1.131451 0.421302 3.000000
3.018024 -1.183738 0.427910 4.000000
2.981879 -1.207467 0.424144 8.000000
2.968708 -1.239850 0.423450 9.000000
2.964148 -1.276352 0.424259 9.000000
2.959205 -1.312457 0.424864 10.000000
2.944658 -1.344939 0.424267 9.000000
2.925524 -1.374716 0.422821 10.000000
2.901375 -1.402435 0.420929 11.000000
2.890342 -1.436479 0.420981 10.000000
2.874747 -1.467770 0.420186 14.000000
2.836502 -1.487744 0.416269 10.000000
2.807238 -1.511348 0.413551 9.000000
2.833958 -1.566140 0.419285 10.000000
2.803680 -1.589890 0.416664 8.000000
2.786522 -1.620140 0.415771 8.000000
2.789866 -1.663486 0.418270 13.000000
2.750320 -1.681137 0.414284 9.000000
2.748983 -1.721321 0.415835 10.000000
2.713226 -1.740746 0.412498 10.000000
2.669117 -1.754255 0.407905 9.000000
2.690904 -1.811333 0.413440 9.000000
2.634682 -1.814850 0.406767 9.000000
2.630819 -1.855219 0.408398 9.000000
2.614342 -1.887039 0.408134 10.000000
2.577554 -1.904012 0.404736 9.000000
2.549232 -1.925632 0.402402 9.000000
2.535759 -1.959705 0.402764 10.000000
2.510280 -1.984426 0.401157 10.000000
2.496048 -2.018321 0.401512 10.000000
2.431776 -2.010985 0.393715 16.000000
2.424707 -2.050488 0.395215 29.000000
2.402832 -2.076269 0.394043 37.000000
2.376262 -2.099351 0.392355 35.000000
2.375150 -2.145440 0.395055 32.000000
2.377050 -2.195088 0.398248 32.000000
2.385353 -2.251814 0.402635 28.000000
2.400850 -2.315024 0.408003 25.000000
2.371783 -2.337790 0.406270 24.000000
2.356573 -2.374365 0.406955 18.000000
2.295874 -2.364568 0.399701 22.000000
2.201565 -2.317814 0.386483 24.000000
2.115291 -2.276433 0.374534 21.000000
2.043517 -2.248121 0.365037 23.000000
1.952888 -2.196333 0.352024 18.000000
1.877695 -2.156924 0.341279 18.000000
1.792895 -2.105578 0.329002 10.000000
1.731732 -2.079426 0.320833 15.000000
1.668182 -2.048252 0.312125 20.000000
1.605561 -2.016019 0.303468 15.000000
1.546854 -1.986503 0.295446 16.000000
1.492026 -1.959902 0.288052 20.000000
1.458748 -1.960238 0.284678 25.000000
1.423785 -1.955327 0.280670 23.000000
1.402384 -1.970858 0.279630 21.000000
1.389340 -1.998401 0.280305 25.000000
1.359135 -2.001251 0.277623 25.000000
1.342780 -2.024318 0.277644 22.000000
1.334198 -2.059791 0.279428 24.000000
1.309005 -2.070215 0.277809 24.000000
1.296799 -2.101420 0.278925 20.000000
1.284072 -2.132552 0.280100 20.000000
1.288437 -2.193672 0.285078 8.000000
0.780257 1.349506 0.186524 7.000000
0.777197 1.310943 0.183162 24.000000
0.796593 1.310760 0.185110 28.000000
0.805631 1.293423 0.184661 32.000000
0.830365 1.301211 0.187826 30.000000
0.840987 1.288324 0.188026 32.000000
0.849472 1.270707 0.187565 33.000000
0.871698 1.273545 0.190152 32.000000
0.885555 1.263817 0.190863 32.000000
0.887703 1.237865 0.189111 20.000000
0.904083 1.231981 0.190432 29.000000
0.923434 1.229906 0.192378 33.000000
0.939795 1.223575 0.193711 30.000000
0.953130 1.213135 0.194422 36.000000
0.974973 1.214632 0.197065 32.000000
0.991344 1.207638 0.198413 31.000000
1.007655 1.200430 0.199718 32.000000
1.004571 1.170426 0.197222 10.000000
1.033644 1.177912 0.201068 46.000000
1.049782 1.170079 0.202333 35.000000
1.065855 1.162125 0.203651 35.000000
1.081376 1.154340 0.205021 62.000000
1.100793 1.149479 0.206944 36.000000
1.120268 1.144320 0.208874 48.000000
1.136245 1.135355 0.210163 39.000000
1.141514 1.115817 0.209504 24.000000
1.164398 1.113419 0.212051 76.000000
1.176102 1.100922 0.212746 55.000000
1.195414 1.094524 0.214654 47.000000
1.211031 1.084508 0.215911 67.000000
1.230299 1.077626 0.217831 45.000000
1.245846 1.067154 0.219098 56.000000
1.260907 1.056902 0.220418 70.000000
1.283904 1.052293 0.222972 24.000000
1.295406 1.038032 0.223534 37.000000
1.318404 1.032784 0.226104 52.000000
1.337204 1.024576 0.228064 35.000000
1.348358 1.009686 0.228583 57.000000
1.367353 1.000544 0.230449 32.000000
1.386320 0.991173 0.232374 33.000000
1.413113 0.987459 0.235660 46.000000
1.419748 0.969001 0.235513 26.000000
1.450894 0.966958 0.239390 44.000000
1.457055 0.948518 0.239299 35.000000
1.479879 0.940313 0.241830 34.000000
1.506926 0.934331 0.245054 37.000000
1.516868 0.917943 0.245655 33.000000
1.535394 0.906207 0.247467 35.000000
1.566688 0.901528 0.251405 53.000000
1.597861 0.896602 0.255357 26.000000
1.594593 0.871804 0.253735 35.000000
1.638851 0.873013 0.259838 55.000000
1.652688 0.857153 0.260933 33.000000
1.684083 0.850064 0.264868 50.000000
1.693152 0.831693 0.265391 35.000000
1.711099 0.817241 0.267193 34.000000
1.728787 0.802769 0.269058 36.000000
1.764500 0.795889 0.273669 22.000000
1.777566 0.778605 0.274847 29.000000
1.813215 0.770785 0.279479 35.000000
1.839842 0.758350 0.282718 28.000000
1.857133 0.741904 0.284556 33.000000
1.883489 0.728767 0.287809 35.000000
1.928418 0.721855 0.293770 31.000000
1.945407 0.704150 0.295628 32.000000
1.952933 0.682847 0.296011 13.000000
1.993031 0.672558 0.301357 33.000000
2.019055 0.656893 0.304586 35.000000
2.044950 0.640686 0.307823 32.000000
2.080186 0.626856 0.312423 34.000000
2.105899 0.609585 0.315675 37.000000
2.131462 0.591762 0.318799 44.000000
2.175996 0.578678 0.324921 36.000000
2.234931 0.568279 0.333060 21.000000
2.236166 0.542580 0.332700 33.000000
2.299769 0.531472 0.341577 42.000000
2.300541 0.505300 0.341224 23.000000
2.291310 0.477071 0.339363 8.000000
2.330347 0.458716 0.344678 8.000000
2.388695 0.443081 0.352801 8.000000
2.427537 0.422877 0.358059 8.000000
2.461245 0.401133 0.362681 7.000000
2.519285 0.382305 0.370832 8.000000
2.582088 0.362988 0.379634 25.000000
2.630028 0.340480 0.386362 42.000000
2.667938 0.315761 0.391657 39.000000
2.735120 0.293373 0.401203 36.000000
2.767723 0.266267 0.405704 35.000000
2.814834 0.239775 0.412375 21.000000
2.906084 0.215518 0.425555 29.000000
2.947742 0.186198 0.431426 36.000000
3.043436 0.158850 0.445344 68.000000
3.054826 0.125984 0.446884 81.000000
3.041217 0.092059 0.444715 83.000000
3.017329 0.058267 0.441193 46.000000
2.948534 0.024736 0.431158 10.000000
2.918941 -0.007472 0.426817 10.000000
2.958246 -0.039966 0.432605 31.000000
2.947716 -0.072117 0.431158 32.000000
2.917050 -0.103261 0.426727 24.000000
2.871312 -0.133158 0.420218 15.000000
2.884534 -0.165391 0.422299 13.000000
2.838150 -0.193901 0.415703 9.000000
2.806277 -0.222613 0.411278 7.000000
2.774108 -0.250591 0.406770 9.000000
2.751498 -0.279005 0.403794 10.000000
2.787675 -0.313452 0.409400 67.000000
2.784128 -0.343906 0.409227 95.000000
2.765524 -0.372380 0.406890 83.000000
2.722140 -0.396876 0.400864 95.000000
2.712755 -0.425887 0.399973 66.000000
2.688496 -0.452244 0.396838 22.000000
2.683367 -0.481587 0.396586 80.000000
2.668266 -0.509075 0.394895 88.000000
2.662570 -0.538227 0.394644 85.000000
2.637266 -0.563162 0.391519 45.000000
2.597154 -0.584333 0.386162 10.000000
2.585935 -0.611516 0.385035 11.000000
2.583855 -0.640977 0.385505 10.000000
2.552847 -0.662997 0.381597 24.000000
2.569407 -0.697210 0.384767 76.000000
2.556928 -0.723937 0.383642 78.000000
2.553645 -0.753279 0.384028 78.000000
2.531160 -0.776752 0.381478 35.000000
2.593231 -0.826981 0.391754 10.000000
2.743916 -0.908134 0.415437 9.000000
2.939917 -1.008656 0.446162 5.000000
3.031403 -1.077118 0.461296 5.000000
3.028791 -1.113561 0.462119 8.000000
3.016455 -1.146890 0.461522 9.000000
2.999312 -1.177911 0.460218 9.000000
3.000161 -1.216071 0.461640 10.000000
2.995823 -1.252822 0.462451 10.000000
2.954834 -1.273598 0.457527 10.000000
2.945374 -1.307742 0.457536 9.000000
2.912862 -1.331890 0.454132 8.000000
2.898350 -1.363482 0.453342 10.000000
2.892158 -1.399584 0.454050 12.000000
2.876907 -1.430977 0.453258 13.000000
2.856654 -1.460314 0.451868 12.000000
2.827386 -1.484850 0.449087 10.000000
2.793812 -1.506060 0.445421 10.000000
2.811746 -1.555952 0.450188 9.000000
2.781991 -1.579021 0.447220 8.000000
2.815898 -1.639578 0.454724 8.000000
2.763710 -1.650192 0.448402 10.000000
2.728960 -1.669707 0.444657 14.000000
2.718820 -1.705034 0.445243 10.000000
2.695866 -1.732316 0.443667 10.000000
2.685384 -1.766786 0.444048 13.000000
2.657561 -1.790860 0.441792 9.000000
2.629662 -1.814456 0.439540 9.000000
2.614124 -1.845559 0.439137 10.000000
2.589704 -1.871441 0.437473 10.000000
2.577002 -1.905874 0.437843 14.000000
2.516469 -1.904410 0.430103 18.000000
2.476368 -1.916174 0.425666 25.000000
2.443594 -1.934240 0.422590 38.000000
2.426042 -1.964232 0.422301 36.000000
2.431031 -2.013078 0.425924 31.000000
2.428464 -2.055133 0.428091 42.000000
2.439462 -2.110962 0.433000 35.000000
2.423641 -2.144350 0.433135 34.000000
2.425754 -2.194327 0.436670 29.000000
2.419676 -2.237840 0.438760 33.000000
2.392329 -2.260210 0.436783 31.000000
2.381666 -2.300225 0.438192 27.000000
2.374026 -2.343834 0.440239 28.000000
2.351739 -2.373439 0.439556 27.000000
2.298013 -2.370775 0.433120 22.000000
2.234372 -2.356405 0.424667 29.000000
2.128527 -2.292786 0.407758 26.000000
2.053396 -2.261029 0.396843 29.000000
1.966012 -2.213152 0.383328 26.000000
1.873389 -2.156133 0.368701 21.000000
1.798364 -2.116150 0.357349 11.000000
1.737084 -2.090120 0.348521 18.000000
1.667333 -2.051370 0.337842 20.000000
1.614983 -2.030041 0.330227 20.000000
1.559297 -2.004609 0.322187 21.000000
1.495307 -1.966437 0.312314 22.000000
1.435255 -1.931016 0.303051 24.000000
1.417080 -1.950719 0.302638 23.000000
1.407210 -1.982401 0.304007 24.000000
1.382699 -1.993726 0.302267 28.000000
1.363695 -2.012906 0.301764 28.000000
1.338900 -2.023721 0.300029 25.000000
1.326094 -2.050100 0.300593 27.000000
1.308946 -2.072982 0.300609 27.000000
1.286257 -2.087304 0.299478 24.000000
1.276205 -2.122669 0.301291 23.000000
1.283114 -2.187984 0.307289 9.000000
0.766088 1.327074 0.197274 8.000000
0.777144 1.314743 0.197529 21.000000
0.791478 1.306049 0.198375 24.000000
0.805718 1.297166 0.199174 26.000000
0.822479 1.292372 0.200622 32.000000
0.836529 1.283178 0.201423 29.000000
0.844981 1.265597 0.200916 31.000000
0.869942 1.272549 0.204341 35.000000
0.883799 1.262821 0.205100 26.000000
0.888151 1.241428 0.203967 25.000000
0.901639 1.231511 0.204766 26.000000
0.920975 1.229385 0.206853 29.000000
0.934361 1.219121 0.207610 34.000000
0.950663 1.212613 0.208991 30.000000
0.970053 1.209761 0.211099 33.000000
0.986329 1.202798 0.212492 35.000000
1.005196 1.199899 0.214666 27.000000
1.008596 1.177428 0.213344 18.000000
1.031233 1.177333 0.216112 33.000000
1.047315 1.169547 0.217522 35.000000
1.063429 1.161542 0.218887 36.000000
1.079429 1.153318 0.220305 35.000000
1.094922 1.145361 0.221729 35.000000
1.110883 1.136695 0.223107 61.000000
1.130273 1.131308 0.225187 33.000000
1.139057 1.115277 0.225178 23.000000
1.154818 1.105975 0.226518 36.000000
1.170060 1.096941 0.227961 53.000000
1.189321 1.090580 0.230015 71.000000
1.204894 1.080653 0.231369 48.000000
1.224162 1.073758 0.233386 75.000000
1.239212 1.063728 0.234801 64.000000
1.258425 1.056295 0.236832 45.000000
1.277625 1.048541 0.238870 25.000000
1.296760 1.040515 0.240916 32.000000
1.311675 1.029522 0.242301 44.000000
1.326811 1.017878 0.243639 48.000000
1.341909 1.006096 0.244929 32.000000
1.360545 0.997358 0.246998 41.000000
1.379463 0.987978 0.249023 36.000000
1.402405 0.981150 0.251781 52.000000
1.417206 0.968313 0.253038 28.000000
1.439819 0.961143 0.255867 35.000000
1.454431 0.947822 0.257134 35.000000
1.477017 0.939988 0.259926 52.000000
1.491481 0.926176 0.261201 36.000000
1.518475 0.919850 0.264638 39.000000
1.528281 0.903307 0.265240 35.000000
1.546655 0.891263 0.267214 36.000000
1.586360 0.891362 0.272957 29.000000
1.583007 0.866608 0.271233 37.000000
1.627151 0.867958 0.277690 34.000000
1.654150 0.859030 0.281185 52.000000
1.676532 0.847601 0.283945 36.000000
1.685693 0.829047 0.284409 41.000000
1.707943 0.817007 0.287180 37.000000
1.725732 0.802240 0.289091 33.000000
1.756833 0.793556 0.293381 29.000000
1.778922 0.780291 0.296117 34.000000
1.791865 0.762557 0.297292 34.000000
1.832022 0.756158 0.303063 36.000000
1.863043 0.745267 0.307275 33.000000
1.866364 0.723038 0.307013 30.000000
1.920490 0.719740 0.314910 33.000000
1.928152 0.698717 0.315353 26.000000
1.944952 0.680832 0.317319 25.000000
1.984977 0.670587 0.323033 35.000000
2.010952 0.654905 0.326473 34.000000
2.041514 0.640290 0.330683 48.000000
2.067175 0.623733 0.334205 42.000000
2.097571 0.607871 0.338433 35.000000
2.127847 0.591489 0.342603 61.000000
2.148445 0.572044 0.345314 34.000000
2.207223 0.561830 0.354036 29.000000
2.237207 0.543463 0.358232 34.000000
2.262147 0.523457 0.361665 36.000000
2.287041 0.502887 0.365105 25.000000
2.277813 0.474838 0.363082 9.000000
2.331312 0.459378 0.371084 8.000000
2.360440 0.438346 0.375164 8.000000
2.399102 0.418406 0.380868 8.000000
2.471795 0.403288 0.391994 8.000000
2.515041 0.382148 0.398415 9.000000
2.558180 0.360073 0.404843 20.000000
2.620713 0.339681 0.414377 36.000000
2.658642 0.315014 0.420047 53.000000
2.715890 0.291621 0.428740 34.000000
2.773011 0.267129 0.437441 50.000000
2.775679 0.236664 0.437613 26.000000
2.925860 0.217257 0.461071 12.000000
2.977329 0.188289 0.469018 30.000000
3.023657 0.157983 0.476100 80.000000
3.039958 0.125482 0.478524 95.000000
3.031307 0.091909 0.477064 91.000000
2.987612 0.057790 0.470071 71.000000
2.963379 0.024902 0.466278 43.000000
2.978288 -0.007637 0.468609 79.000000
2.943441 -0.039833 0.463170 30.000000
2.893518 -0.070818 0.455398 9.000000
2.853046 -0.101161 0.449181 9.000000
2.861679 -0.132840 0.450647 10.000000
2.840273 -0.163037 0.447451 10.000000
2.818629 -0.192802 0.444257 9.000000
2.737581 -0.217442 0.431745 8.000000
2.754797 -0.249170 0.434766 9.000000
2.742064 -0.278336 0.433043 10.000000
2.768278 -0.311622 0.437527 44.000000
2.754946 -0.340702 0.435804 95.000000
2.736401 -0.368908 0.433222 95.000000
2.702895 -0.394566 0.428403 89.000000
2.703387 -0.424866 0.428924 72.000000
2.679085 -0.451172 0.425575 33.000000
2.678911 -0.481335 0.426097 91.000000
2.668678 -0.509666 0.425072 95.000000
2.638762 -0.533973 0.420875 81.000000
2.623196 -0.560764 0.418999 57.000000
2.583164 -0.581833 0.413270 13.000000
2.567088 -0.607774 0.411402 10.000000
2.565202 -0.636994 0.411765 10.000000
2.553318 -0.663833 0.410669 32.000000
2.565056 -0.696881 0.413335 89.000000
2.552585 -0.723609 0.412157 84.000000
2.549294 -0.752950 0.412514 89.000000
2.531556 -0.777714 0.410489 67.000000
2.551211 -0.814373 0.414671 10.000000
2.711051 -0.898274 0.441685 9.000000
3.004938 -1.032159 0.490766 9.000000
3.054080 -1.086560 0.500088 8.000000
3.032893 -1.116378 0.497865 9.000000
2.992709 -1.139260 0.492803 9.000000
2.984849 -1.173698 0.492870 9.000000
2.976555 -1.208138 0.492935 10.000000
2.976941 -1.246296 0.494513 11.000000
2.944940 -1.271242 0.490889 10.000000
2.953658 -1.313269 0.493873 10.000000
2.907827 -1.331002 0.487797 9.000000
2.915475 -1.373621 0.490870 17.000000
2.878210 -1.394482 0.486217 13.000000
2.884833 -1.437194 0.489279 17.000000
2.869214 -1.468532 0.488383 20.000000
2.804766 -1.474859 0.479361 10.000000
2.775674 -1.498233 0.476241 10.000000
2.793623 -1.548070 0.481425 10.000000
2.772567 -1.575888 0.479695 9.000000
2.784948 -1.623832 0.484105 8.000000
2.763094 -1.651539 0.482369 10.000000
2.732168 -1.674185 0.479257 13.000000
2.705204 -1.699082 0.476890 14.000000
2.686870 -1.728358 0.475806 14.000000
2.655358 -1.749863 0.472615 16.000000
2.661023 -1.795108 0.475936 10.000000
2.571936 -1.776632 0.462505 9.000000
2.560340 -1.810793 0.463001 21.000000
2.520281 -1.824538 0.458390 32.000000
2.488678 -1.842868 0.455057 34.000000
2.484105 -1.882233 0.456908 95.000000
2.459335 -1.906695 0.455127 54.000000
2.458278 -1.948455 0.457584 34.000000
2.475139 -2.006702 0.463622 33.000000
2.460647 -2.040337 0.463977 24.000000
2.468267 -2.093147 0.468526 31.000000
2.471992 -2.142178 0.472229 32.000000
2.440983 -2.162947 0.469594 31.000000
2.413483 -2.186472 0.467576 33.000000
2.400179 -2.223169 0.468497 30.000000
2.387364 -2.258994 0.469205 30.000000
2.376672 -2.299002 0.470707 29.000000
2.361851 -2.335640 0.471490 27.000000
2.353560 -2.379244 0.473559 34.000000
2.299818 -2.376672 0.466630 21.000000
2.230374 -2.354306 0.456049 23.000000
2.133810 -2.302623 0.440074 29.000000
2.062000 -2.274670 0.429031 24.000000
1.971313 -2.223267 0.413910 24.000000
1.881973 -2.170044 0.398785 21.000000
1.797210 -2.118987 0.384523 10.000000
1.740234 -2.095985 0.375557 17.000000
1.676650 -2.065044 0.365451 20.000000
1.620153 -2.040802 0.356761 18.000000
1.561309 -2.011577 0.347446 19.000000
1.494350 -1.969548 0.336164 20.000000
1.455018 -1.962040 0.330918 24.000000
1.410316 -1.945891 0.324438 29.000000
1.401577 -1.976788 0.325771 23.000000
1.379939 -1.992159 0.324577 30.000000
1.346967 -1.990812 0.320738 27.000000
1.333407 -2.018019 0.321456 24.000000
1.316666 -2.040944 0.321577 24.000000
1.302234 -2.067958 0.322267 25.000000
1.282187 -2.086475 0.321715 24.000000
1.269468 -2.117579 0.323028 24.000000
1.272791 -2.173511 0.328042 8.000000
0.775801 1.347925 0.214457 7.000000
0.777875 1.317927 0.211938 14.000000
0.787128 1.300731 0.211456 14.000000
0.811715 1.308709 0.215065 19.000000
0.811879 1.279218 0.212542 26.000000
0.833936 1.282612 0.215474 15.000000
0.850636 1.277350 0.217023 28.000000
0.864590 1.267842 0.217874 26.000000
0.881189 1.262251 0.219384 18.000000
0.892026 1.248401 0.219530 19.000000
0.896884 1.226435 0.218202 11.000000
0.915458 1.224807 0.220519 26.000000
0.934860 1.222436 0.222753 27.000000
0.945099 1.208099 0.222841 20.000000
0.964431 1.205277 0.225040 30.000000
0.980656 1.198346 0.226573 23.000000
1.000092 1.194997 0.228790 23.000000
1.009327 1.180518 0.228926 21.000000
1.018912 1.165535 0.228961 17.000000
1.038208 1.161543 0.231145 32.000000
1.057521 1.157261 0.233387 30.000000
1.080273 1.156299 0.236328 26.000000
1.085604 1.137523 0.235676 32.000000
1.097977 1.125393 0.236404 26.000000
1.117236 1.120117 0.238574 27.000000
1.133022 1.111127 0.240054 24.000000
1.155377 1.109152 0.243089 25.000000
1.167539 1.096249 0.243781 52.000000
1.183144 1.086540 0.245228 30.000000
1.198673 1.076652 0.246629 29.000000
1.213726 1.066931 0.248134 35.000000
1.236644 1.063023 0.251065 26.000000
1.252058 1.052406 0.252482 42.000000
1.271158 1.044690 0.254669 24.000000
1.289936 1.037060 0.256914 20.000000
1.305168 1.025698 0.258347 34.000000
1.324181 1.017156 0.260504 29.000000
1.338961 1.005734 0.261947 28.000000
1.353909 0.993707 0.263342 35.000000
1.364752 0.978610 0.263913 26.000000
1.379225 0.966555 0.265366 27.000000
1.418317 0.970679 0.271397 23.000000
1.432723 0.957971 0.272869 24.000000
1.447296 0.944695 0.274185 35.000000
1.470097 0.936525 0.277074 35.000000
1.484255 0.923081 0.278507 30.000000
1.498577 0.909113 0.279835 32.000000
1.521019 0.900299 0.282856 30.000000
1.552177 0.895702 0.287305 34.000000
1.574667 0.885959 0.290294 28.000000
1.592930 0.873225 0.292385 25.000000
1.624021 0.867389 0.296927 32.000000
1.637848 0.851624 0.298237 27.000000
1.660132 0.840392 0.301204 27.000000
1.677961 0.826576 0.303380 30.000000
1.686983 0.807954 0.303785 28.000000
1.713495 0.797780 0.307576 27.000000
1.749004 0.791165 0.312928 26.000000
1.762070 0.773740 0.314149 25.000000
1.793038 0.764131 0.318659 29.000000
1.824036 0.753845 0.323242 29.000000
1.845833 0.739329 0.326158 27.000000
1.867503 0.724389 0.329020 27.000000
1.884485 0.707351 0.331139 29.000000
1.924542 0.698463 0.337263 23.000000
1.955292 0.685474 0.341776 27.000000
1.971943 0.667102 0.343854 26.000000
2.002540 0.653114 0.348319 32.000000
2.023630 0.635525 0.351160 29.000000
2.058719 0.621973 0.356525 30.000000
2.093794 0.607534 0.361836 32.000000
2.133531 0.593725 0.367909 34.000000
2.154131 0.574173 0.370781 24.000000
2.188876 0.557894 0.376122 29.000000
2.218777 0.539752 0.380582 25.000000
2.267740 0.525397 0.388340 28.000000
2.273286 0.500477 0.388700 18.000000
2.254407 0.470520 0.384867 8.000000
2.322290 0.458130 0.395874 8.000000
2.356213 0.438124 0.401119 7.000000
2.370526 0.413939 0.403142 5.000000
2.447919 0.399876 0.415764 8.000000
2.481313 0.377463 0.420956 7.000000
2.538983 0.357770 0.430371 10.000000
2.616060 0.339436 0.443031 34.000000
2.624466 0.311364 0.444104 24.000000
2.696373 0.289871 0.455872 28.000000
2.758204 0.266010 0.465989 34.000000
2.869028 0.244967 0.484498 10.000000
2.896108 0.215339 0.488826 10.000000
2.952393 0.186951 0.498047 17.000000
3.003461 0.157117 0.506441 37.000000
3.034601 0.125388 0.511516 68.000000
2.996304 0.090918 0.505059 73.000000
2.977421 0.057694 0.501736 62.000000
2.948300 0.024728 0.496843 60.000000
2.933600 -0.007536 0.494350 35.000000
2.938257 -0.039742 0.495181 33.000000
2.883403 -0.070697 0.486042 9.000000
2.867728 -0.101772 0.483461 9.000000
2.846696 -0.132294 0.480138 10.000000
2.795885 -0.160686 0.471744 8.000000
2.808735 -0.192378 0.474149 9.000000
2.742575 -0.218054 0.463184 9.000000
2.735110 -0.247665 0.462184 9.000000
2.751927 -0.279575 0.465331 10.000000
2.753574 -0.310345 0.466075 32.000000
2.750058 -0.340531 0.465904 56.000000
2.716880 -0.366674 0.460675 95.000000
2.702965 -0.395026 0.458764 50.000000
2.688827 -0.423080 0.456855 70.000000
2.669439 -0.450100 0.454121 51.000000
2.654706 -0.477590 0.452216 42.000000
2.644521 -0.505626 0.451057 86.000000
2.638856 -0.534619 0.450723 80.000000
2.618474 -0.560433 0.447915 51.000000
2.583313 -0.582591 0.442638 11.000000
2.538451 -0.601760 0.435721 9.000000
2.541404 -0.631908 0.436963 9.000000
2.553446 -0.664668 0.439847 34.000000
2.546099 -0.692506 0.439357 37.000000
2.547915 -0.723118 0.440590 54.000000
2.544615 -0.752458 0.441000 74.000000
2.512833 -0.772954 0.436413 37.000000
2.518307 -0.805030 0.438379 10.000000
2.915382 -1.002884 0.510025 8.000000
3.066962 -1.092682 0.537982 8.000000
3.022576 -1.114372 0.531579 8.000000
2.991781 -1.140325 0.527629 8.000000
2.970122 -1.169390 0.525312 8.000000
2.961859 -1.203728 0.525333 9.000000
2.957710 -1.239876 0.526161 10.000000
2.926005 -1.264380 0.522135 9.000000
2.907401 -1.294606 0.520736 9.000000
2.911171 -1.334621 0.523074 9.000000
2.896614 -1.366310 0.522183 9.000000
2.863703 -1.389679 0.518275 10.000000
2.852865 -1.423081 0.518192 9.000000
2.850565 -1.460884 0.519608 9.000000
2.790652 -1.469380 0.510822 10.000000
2.796373 -1.511439 0.513836 9.000000
2.775253 -1.539997 0.512253 8.000000
2.749993 -1.565235 0.509584 9.000000
2.792265 -1.630504 0.519914 7.000000
2.736451 -1.637967 0.511686 8.000000
2.718314 -1.668229 0.510700 9.000000
2.700177 -1.697702 0.509616 9.000000
2.623240 -1.690129 0.497607 11.000000
2.596289 -1.713716 0.495071 16.000000
2.565461 -1.733492 0.491566 20.000000
2.538109 -1.756287 0.489044 32.000000
2.515100 -1.780803 0.487024 31.000000
2.515386 -1.823194 0.489871 38.000000
2.522902 -1.871530 0.494255 29.000000
2.510684 -1.904771 0.494543 24.000000
2.509070 -1.947661 0.497340 29.000000
2.499090 -1.984644 0.498477 22.000000
2.531497 -2.055148 0.507870 23.000000
2.482129 -2.061051 0.501288 24.000000
2.451779 -2.082056 0.498462 19.000000
2.428734 -2.109174 0.497270 27.000000
2.424665 -2.151599 0.499587 23.000000
2.404602 -2.181746 0.499046 24.000000
2.394935 -2.221757 0.500773 28.000000
2.356081 -2.234678 0.496339 18.000000
2.367821 -2.294136 0.502367 22.000000
2.360039 -2.337686 0.504697 28.000000
2.313460 -2.342626 0.498768 25.000000
2.301387 -2.382458 0.500230 18.000000
2.228574 -2.356599 0.488176 13.000000
2.145568 -2.319417 0.474063 11.000000
2.053668 -2.269774 0.457808 15.000000
1.963184 -2.218282 0.441646 10.000000
1.925833 -2.224985 0.437334 10.000000
1.812971 -2.139660 0.415283 10.000000
1.745254 -2.106237 0.403679 10.000000
1.675421 -2.067823 0.391416 14.000000
1.612747 -2.035881 0.380676 11.000000
1.551094 -2.002734 0.370000 10.000000
1.487252 -1.964538 0.358591 14.000000
1.452084 -1.960310 0.353637 11.000000
1.433471 -1.980266 0.353073 18.000000
1.388900 -1.963696 0.346094 17.000000
1.378648 -1.995261 0.347672 23.000000
1.351204 -2.002233 0.344987 27.000000
1.323863 -2.008784 0.342238 18.000000
1.309800 -2.035883 0.343082 19.000000
1.291394 -2.053654 0.342288 22.000000
1.284426 -2.093181 0.345117 16.000000
1.261494 -2.107334 0.343755 16.000000
1.278359 -2.189609 0.353437 7.000000
0.758251 1.321511 0.224082 7.000000
0.780205 1.325746 0.227214 15.000000
0.802296 1.329670 0.230316 15.000000
0.814213 1.316457 0.230538 21.000000
0.828541 1.307287 0.231445 19.000000
0.845514 1.302121 0.233143 22.000000
0.856194 1.288995 0.233355 22.000000
0.875796 1.287570 0.235760 23.000000
0.895480 1.285878 0.238176 23.000000
0.886555 1.243667 0.233061 14.000000
0.905913 1.241703 0.235423 24.000000
0.919437 1.231548 0.236278 23.000000
0.941195 1.233510 0.239515 20.000000
0.954658 1.222969 0.240377 28.000000
0.974144 1.220006 0.242728 22.000000
0.993701 1.216761 0.245138 28.000000
1.003782 1.201810 0.245189 28.000000
1.009898 1.183557 0.244556 10.000000
1.019580 1.168540 0.244594 32.000000
1.042188 1.168193 0.247705 28.000000
1.054909 1.156487 0.248479 29.000000
1.067050 1.145120 0.249398 30.000000
1.086341 1.140322 0.251750 27.000000
1.098801 1.128153 0.252480 31.000000
1.128532 1.133377 0.257228 32.000000
1.136976 1.117705 0.257272 16.000000
1.149199 1.104940 0.258012 35.000000
1.164869 1.095458 0.259552 36.000000
1.184098 1.089087 0.261851 34.000000
1.202924 1.082856 0.264308 41.000000
1.218489 1.072654 0.265816 33.000000
1.241403 1.068655 0.268950 45.000000
1.252751 1.055180 0.269709 33.000000
1.271917 1.047419 0.272048 24.000000
1.279491 1.030056 0.271894 36.000000
1.298217 1.022237 0.274294 32.000000
1.321086 1.016692 0.277420 33.000000
1.336168 1.004906 0.278862 35.000000
1.342851 0.987398 0.278761 30.000000
1.373706 0.986722 0.283513 50.000000
1.392297 0.977419 0.285903 35.000000
1.406998 0.964625 0.287313 19.000000
1.425751 0.954377 0.289611 35.000000
1.444199 0.944160 0.291969 33.000000
1.462817 0.933335 0.294175 36.000000
1.476938 0.919935 0.295711 37.000000
1.495381 0.908572 0.297928 33.000000
1.509317 0.894726 0.299419 36.000000
1.523362 0.880298 0.300805 42.000000
1.567134 0.882982 0.308214 25.000000
1.589673 0.872607 0.311252 71.000000
1.629410 0.871468 0.317802 67.000000
1.643107 0.855834 0.319281 36.000000
1.665643 0.844214 0.322349 61.000000
1.692339 0.834657 0.326335 35.000000
1.701222 0.816072 0.326920 34.000000
1.723382 0.803617 0.330070 36.000000
1.736587 0.786448 0.331338 22.000000
1.790123 0.787203 0.340445 34.000000
1.812134 0.773315 0.343567 37.000000
1.824924 0.755301 0.344976 33.000000
1.851285 0.742504 0.348912 38.000000
1.868439 0.725739 0.351132 36.000000
1.903861 0.715578 0.356812 36.000000
1.930063 0.701321 0.360777 45.000000
1.942218 0.681699 0.362089 21.000000
1.972744 0.668360 0.366937 48.000000
1.998631 0.652723 0.370862 40.000000
2.033784 0.639563 0.376470 40.000000
2.064152 0.624425 0.381285 65.000000
2.089748 0.607130 0.385172 52.000000
2.110382 0.588164 0.388193 53.000000
2.140411 0.571358 0.393036 64.000000
2.175073 0.555179 0.398694 18.000000
2.209685 0.538234 0.404292 54.000000
2.239371 0.519475 0.409024 52.000000
2.264086 0.499130 0.412887 23.000000
2.269404 0.474191 0.413174 9.000000
2.313066 0.456956 0.420558 9.000000
2.371045 0.441431 0.430589 8.000000
2.395149 0.418802 0.434406 8.000000
2.457809 0.401953 0.445190 7.000000
2.515500 0.383159 0.455262 9.000000
2.563383 0.361737 0.463428 25.000000
2.611080 0.339273 0.471603 57.000000
2.658657 0.315762 0.479785 77.000000
2.705933 0.291284 0.487976 69.000000
2.757872 0.266312 0.496972 44.000000
2.799848 0.239340 0.504208 52.000000
2.905349 0.216255 0.522932 9.000000
2.946808 0.186859 0.530182 18.000000
2.983040 0.156251 0.536553 95.000000
3.033784 0.125498 0.545392 98.000000
3.025076 0.091965 0.543718 98.000000
2.981639 0.057793 0.535854 95.000000
2.952576 0.024811 0.530640 95.000000
2.937904 -0.007561 0.527986 91.000000
2.913027 -0.039475 0.523564 32.000000
2.833682 -0.069521 0.509414 9.000000
2.827885 -0.100460 0.508442 9.000000
2.792158 -0.129918 0.502252 9.000000
2.810250 -0.161643 0.505615 10.000000
2.773962 -0.190184 0.499427 9.000000
2.717758 -0.216322 0.489535 8.000000
2.729925 -0.247495 0.492016 10.000000
2.717329 -0.276501 0.490079 10.000000
2.753233 -0.310640 0.496972 31.000000
2.730174 -0.338457 0.493270 75.000000
2.726336 -0.368481 0.493014 85.000000
2.707548 -0.396197 0.490114 92.000000
2.688550 -0.423593 0.487216 67.000000
2.674035 -0.451404 0.485118 31.000000
2.668990 -0.480746 0.484866 95.000000
2.649107 -0.507228 0.481891 86.000000
2.638681 -0.535265 0.480595 92.000000
2.623045 -0.562164 0.478505 95.000000
2.568794 -0.580095 0.469398 14.000000
2.552765 -0.605985 0.467318 13.000000
2.526908 -0.629205 0.463408 10.000000
2.486621 -0.648199 0.456798 10.000000
2.555451 -0.696060 0.470307 84.000000
2.538263 -0.721280 0.468068 86.000000
2.516086 -0.745058 0.465041 67.000000
2.517282 -0.775365 0.466215 91.000000
2.489954 -0.797035 0.462324 18.000000
2.839921 -0.978070 0.529803 9.000000
2.945072 -1.050517 0.550838 8.000000
3.002739 -1.108459 0.563156 9.000000
2.976737 -1.136021 0.559866 9.000000
2.982525 -1.175924 0.562532 9.000000
2.928557 -1.191799 0.553972 9.000000
2.938136 -1.233462 0.557496 10.000000
2.915570 -1.261636 0.554986 12.000000
2.883796 -1.285501 0.550664 9.000000
2.878371 -1.321498 0.551695 8.000000
2.859494 -1.350888 0.549955 13.000000
2.831409 -1.375679 0.546411 10.000000
2.829616 -1.413192 0.548094 15.000000
2.796312 -1.435539 0.543803 11.000000
2.771922 -1.461414 0.541128 10.000000
2.760340 -1.493941 0.541007 11.000000
2.735104 -1.519772 0.538436 9.000000
2.692849 -1.534877 0.532293 8.000000
2.680115 -1.567213 0.532178 10.000000
2.633415 -1.578699 0.525219 16.000000
2.624321 -1.613045 0.525951 32.000000
2.602602 -1.638933 0.523967 36.000000
2.580275 -1.665110 0.522177 40.000000
2.574551 -1.701211 0.523450 80.000000
2.576147 -1.743588 0.526572 35.000000
2.564898 -1.777801 0.527178 17.000000
2.589915 -1.836996 0.535062 35.000000
2.573465 -1.868587 0.534810 32.000000
2.553289 -1.896439 0.533432 35.000000
2.544104 -1.933737 0.534727 33.000000
2.514862 -1.955861 0.531893 32.000000
2.505348 -1.992276 0.532878 35.000000
2.487091 -2.023216 0.532509 30.000000
2.464676 -2.050789 0.531219 16.000000
2.450173 -2.083662 0.531362 32.000000
2.434537 -2.117297 0.531595 28.000000
2.429519 -2.160735 0.534351 32.000000
2.410144 -2.190097 0.533551 32.000000
2.382258 -2.213426 0.531335 27.000000
2.375713 -2.256765 0.533846 32.000000
2.340168 -2.272793 0.530022 25.000000
2.301946 -2.283901 0.525111 13.000000
2.321834 -2.355162 0.533968 34.000000
2.282058 -2.366609 0.529255 26.000000
2.256042 -2.391811 0.527731 24.000000
2.187195 -2.368639 0.515636 28.000000
2.091590 -2.315900 0.497511 26.000000
2.000654 -2.265024 0.480273 28.000000
1.914383 -2.216059 0.463915 21.000000
1.811401 -2.142047 0.442710 9.000000
1.750056 -2.116390 0.432000 16.000000
1.692647 -2.093480 0.422039 14.000000
1.635913 -2.069478 0.412136 20.000000
1.567865 -2.028928 0.399133 21.000000
1.528840 -2.021754 0.393032 19.000000
1.456682 -1.971028 0.378645 22.000000
1.420570 -1.967117 0.373479 24.000000
1.393295 -1.974699 0.370615 14.000000
1.363241 -1.977860 0.367007 29.000000
1.347034 -2.001041 0.367177 29.000000
1.323541 -2.011060 0.364864 30.000000
1.298798 -2.021465 0.362780 27.000000
1.287132 -2.052533 0.364345 27.000000
1.269789 -2.075175 0.364406 24.000000
1.252111 -2.097706 0.364455 23.000000
1.268930 -2.179889 0.374702 9.000000
0.763738 1.333054 0.239979 8.000000
0.779905 1.329199 0.241846 11.000000
0.794377 1.320392 0.242798 26.000000
0.808802 1.311442 0.243798 22.000000
0.825771 1.306475 0.245582 25.000000
0.837367 1.293018 0.245750 24.000000
0.854188 1.287705 0.247492 22.000000
0.859151 1.266328 0.246161 30.000000
0.884227 1.272894 0.250295 23.000000
0.886681 1.246840 0.248006 18.000000
0.888687 1.220900 0.245739 29.000000
0.919680 1.234698 0.251462 28.000000
0.923520 1.213066 0.250035 32.000000
0.945864 1.214370 0.253367 26.000000
0.974469 1.223045 0.258298 32.000000
0.978471 1.200594 0.256764 32.000000
1.000444 1.201471 0.260184 26.000000
0.997566 1.171476 0.256937 25.000000
1.016849 1.167678 0.259447 33.000000
1.039431 1.167322 0.262748 32.000000
1.051668 1.156100 0.263667 55.000000
1.060936 1.140688 0.263655 32.000000
1.083615 1.139494 0.266985 35.000000
1.106384 1.137927 0.270331 36.000000
1.125319 1.132932 0.272900 31.000000
1.130656 1.113361 0.272002 24.000000
1.146390 1.104053 0.273635 34.000000
1.158071 1.091633 0.274522 62.000000
1.184487 1.091979 0.278670 71.000000
1.196462 1.078657 0.279419 38.000000
1.219373 1.075008 0.282738 61.000000
1.230753 1.061714 0.283594 47.000000
1.242334 1.047917 0.284299 35.000000
1.264857 1.043725 0.287747 26.000000
1.280123 1.032640 0.289274 34.000000
1.291437 1.018268 0.289987 42.000000
1.310090 1.010164 0.292544 46.000000
1.332909 1.004337 0.295828 32.000000
1.339653 0.986830 0.295729 36.000000
1.362470 0.980396 0.298979 35.000000
1.389297 0.976472 0.303170 33.000000
1.403777 0.964044 0.304788 27.000000
1.418371 0.951052 0.306304 36.000000
1.436771 0.940877 0.308762 36.000000
1.451195 0.927391 0.310287 57.000000
1.469478 0.916685 0.312759 35.000000
1.487658 0.905688 0.315238 53.000000
1.506003 0.894020 0.317562 35.000000
1.524078 0.882436 0.320056 34.000000
1.546600 0.872644 0.323289 33.000000
1.577459 0.867474 0.328381 42.000000
1.608406 0.861719 0.333547 67.000000
1.643968 0.857420 0.339459 60.000000
1.666327 0.845978 0.342798 37.000000
1.684190 0.832011 0.345243 65.000000
1.701973 0.817734 0.347637 45.000000
1.706307 0.796845 0.347316 31.000000
1.741822 0.790038 0.353232 33.000000
1.781746 0.784676 0.360192 34.000000
1.799247 0.768902 0.362558 31.000000
1.825611 0.756633 0.366754 42.000000
1.842892 0.740178 0.369133 32.000000
1.859945 0.723398 0.371456 32.000000
1.876827 0.706479 0.373909 52.000000
1.916753 0.697577 0.380767 28.000000
1.924226 0.676363 0.381274 35.000000
1.968613 0.667908 0.389140 47.000000
1.989790 0.650739 0.392355 35.000000
2.020181 0.636149 0.397420 62.000000
2.050469 0.621108 0.402496 42.000000
2.080646 0.605419 0.407583 50.000000
2.096571 0.585182 0.409905 67.000000
2.074310 0.554518 0.404753 35.000000
2.161100 0.552329 0.420914 32.000000
2.195627 0.535553 0.426898 26.000000
2.210883 0.513560 0.429107 33.000000
2.259486 0.498842 0.437897 23.000000
2.250308 0.470885 0.435394 9.000000
2.289040 0.452850 0.442268 8.000000
2.313140 0.431229 0.446358 8.000000
2.380573 0.416807 0.458773 7.000000
2.457638 0.402515 0.473146 8.000000
2.495883 0.380700 0.479993 9.000000
2.548439 0.360122 0.489571 23.000000
2.605855 0.339028 0.500093 52.000000
2.643507 0.314435 0.506967 69.000000
2.710215 0.292168 0.519381 54.000000
2.747485 0.265667 0.526103 52.000000
2.794185 0.239165 0.534703 19.000000
2.884784 0.215069 0.551738 17.000000
2.945758 0.187079 0.563162 23.000000
2.962306 0.155387 0.566066 83.000000
3.017851 0.125091 0.576563 95.000000
2.984614 0.090825 0.570093 98.000000
2.960898 0.057507 0.565497 95.000000
2.941714 0.024769 0.561837 95.000000
2.912338 -0.007510 0.556209 60.000000
2.882602 -0.039142 0.550492 34.000000
2.832878 -0.069554 0.541114 9.000000
2.817273 -0.100198 0.538300 9.000000
2.806148 -0.130746 0.536337 10.000000
2.784965 -0.160426 0.532500 9.000000
2.778158 -0.190684 0.531389 9.000000
2.712264 -0.216153 0.519121 9.000000
2.704836 -0.245549 0.518016 9.000000
2.702052 -0.275251 0.517847 10.000000
2.723247 -0.307711 0.522359 26.000000
2.719756 -0.337596 0.522103 80.000000
2.711057 -0.366908 0.520998 88.000000
2.692398 -0.394519 0.517853 72.000000
2.697621 -0.425637 0.519468 91.000000
2.654124 -0.448611 0.511660 44.000000
2.649107 -0.477794 0.511325 81.000000
2.638931 -0.505968 0.510058 95.000000
2.623627 -0.532975 0.507861 91.000000
2.603231 -0.558739 0.504734 95.000000
2.563569 -0.579605 0.497726 24.000000
2.533140 -0.602170 0.492751 10.000000
2.526509 -0.629909 0.492265 10.000000
2.509966 -0.655166 0.490005 23.000000
2.535895 -0.691771 0.496011 81.000000
2.518851 -0.716837 0.493669 80.000000
2.506170 -0.743092 0.492175 71.000000
2.498052 -0.770449 0.491606 82.000000
2.484768 -0.796468 0.490196 28.000000
2.569192 -0.854884 0.508155 9.000000
2.773568 -0.956588 0.549849 9.000000
2.999037 -1.071431 0.596129 8.000000
3.001001 -1.109469 0.598194 9.000000
2.975109 -1.136887 0.594547 9.000000
2.957979 -1.167810 0.592840 9.000000
2.936041 -1.196482 0.590121 9.000000
2.927385 -1.230669 0.590248 10.000000
2.913880 -1.262803 0.589361 10.000000
2.904471 -1.296744 0.589384 10.000000
2.827521 -1.300173 0.575955 9.000000
2.862113 -1.354310 0.584981 15.000000
2.838432 -1.381354 0.582185 16.000000
2.792562 -1.397008 0.574868 10.000000
2.786000 -1.432025 0.575707 18.000000
2.735271 -1.444658 0.567613 21.000000
2.693589 -1.460441 0.561153 21.000000
2.690512 -1.497085 0.562708 28.000000
2.652535 -1.514787 0.557361 30.000000
2.661421 -1.558602 0.561598 72.000000
2.644104 -1.588165 0.560641 87.000000
2.631072 -1.619637 0.560386 46.000000
2.625925 -1.656163 0.561811 57.000000
2.615800 -1.690679 0.562529 35.000000
2.634379 -1.743615 0.569254 32.000000
2.651641 -1.797760 0.576141 32.000000
2.595782 -1.801315 0.566805 26.000000
2.595858 -1.844467 0.570034 34.000000
2.575324 -1.873295 0.568850 46.000000
2.547187 -1.895357 0.565713 34.000000
2.526125 -1.923701 0.564434 37.000000
2.509243 -1.954087 0.563831 34.000000
2.487557 -1.981983 0.562549 32.000000
2.492293 -2.031458 0.567250 32.000000
2.451555 -2.042600 0.561423 24.000000
2.443806 -2.082667 0.563496 36.000000
2.425235 -2.112266 0.562666 37.000000
2.398141 -2.135893 0.560412 32.000000
2.399956 -2.185773 0.565021 33.000000
2.386538 -2.222593 0.566078 34.000000
2.352192 -2.237961 0.561703 29.000000
2.352178 -2.288156 0.566145 32.000000
2.316291 -2.303848 0.562077 25.000000
2.309093 -2.346195 0.564481 46.000000
2.290039 -2.378983 0.564535 35.000000
2.250250 -2.389982 0.559438 25.000000
2.190537 -2.378721 0.549436 29.000000
2.099297 -2.328810 0.530841 31.000000
2.001946 -2.270739 0.510886 27.000000
1.922195 -2.229458 0.495192 26.000000
1.818135 -2.156434 0.472885 10.000000
1.761000 -2.133882 0.462079 23.000000
1.706489 -2.115014 0.452328 24.000000
1.637378 -2.075839 0.438542 20.000000
1.578412 -2.047035 0.427285 25.000000
1.530321 -2.028221 0.418375 21.000000
1.464081 -1.985626 0.404739 24.000000
1.427838 -1.981782 0.399257 28.000000
1.383361 -1.965285 0.391392 23.000000
1.370125 -1.992793 0.392383 41.000000
1.338398 -1.990838 0.387548 34.000000
1.319231 -2.009722 0.386934 30.000000
1.297161 -2.024361 0.385448 34.000000
1.280178 -2.047076 0.385538 29.000000
1.267931 -2.078114 0.387187 30.000000
1.245138 -2.092181 0.385608 32.000000
1.250848 -2.152167 0.392520 9.000000
0.765784 1.340719 0.255325 7.000000
0.770378 1.315051 0.253146 13.000000
0.794058 1.323716 0.257570 19.000000
0.798197 1.297936 0.255268 26.000000
0.820323 1.301396 0.258794 24.000000
0.821184 1.271406 0.255630 25.000000
0.845930 1.278576 0.260005 24.000000
0.856360 1.265430 0.260257 21.000000
0.872979 1.259783 0.262093 25.000000
0.878187 1.237903 0.260505 11.000000
0.883037 1.216025 0.258898 26.000000
0.907395 1.222355 0.263378 31.000000
0.926698 1.219969 0.266032 22.000000
0.946078 1.217307 0.268698 29.000000
0.971664 1.222077 0.273051 27.000000
0.981907 1.207277 0.273154 29.000000
0.994492 1.196717 0.274166 31.000000
0.997993 1.174275 0.272471 10.000000
1.014070 1.166720 0.274204 35.000000
1.036093 1.166790 0.277839 41.000000
1.045554 1.151489 0.277831 31.000000
1.054790 1.136117 0.277817 40.000000
1.077404 1.134952 0.281336 33.000000
1.092766 1.126790 0.283194 30.000000
1.118937 1.128400 0.287583 37.000000
1.124303 1.108923 0.286635 16.000000
1.143088 1.103511 0.289357 49.000000
1.162315 1.097401 0.291943 57.000000
1.174366 1.084309 0.292736 38.000000
1.196768 1.081355 0.296339 68.000000
1.212314 1.071148 0.298046 48.000000
1.223660 1.057894 0.298949 39.000000
1.242765 1.050487 0.301524 58.000000
1.254331 1.036446 0.302231 22.000000
1.250051 1.010349 0.299427 65.000000
1.284267 1.014559 0.305633 49.000000
1.306707 1.009497 0.309258 43.000000
1.321703 0.997743 0.310847 45.000000
1.332347 0.983242 0.311669 34.000000
1.355103 0.976898 0.315118 36.000000
1.385612 0.976156 0.320595 44.000000
1.392251 0.957737 0.320295 21.000000
1.410641 0.947942 0.322950 36.000000
1.429255 0.937438 0.325453 42.000000
1.451645 0.929666 0.329009 44.000000
1.470151 0.918589 0.331476 46.000000
1.484201 0.904932 0.333171 58.000000
1.502310 0.893585 0.335760 42.000000
1.516335 0.879208 0.337302 52.000000
1.547128 0.874564 0.342689 21.000000
1.556518 0.857496 0.343407 44.000000
1.587481 0.851644 0.348710 55.000000
1.627062 0.850083 0.355989 35.000000
1.649318 0.838781 0.359535 62.000000
1.680285 0.831428 0.364945 37.000000
1.693625 0.815020 0.366543 53.000000
1.711281 0.800478 0.369044 62.000000
1.733259 0.787651 0.372512 19.000000
1.768659 0.780353 0.378874 37.000000
1.790547 0.766607 0.382365 37.000000
1.816909 0.754322 0.386768 33.000000
1.834149 0.737915 0.389250 35.000000
1.860366 0.724745 0.393611 36.000000
1.872718 0.705857 0.395138 46.000000
1.898622 0.692031 0.399578 35.000000
1.910667 0.672663 0.401052 22.000000
1.955001 0.664301 0.409398 42.000000
1.976113 0.647231 0.412769 67.000000
2.011032 0.634344 0.419134 49.000000
2.036560 0.617862 0.423563 37.000000
2.071362 0.603711 0.429889 75.000000
2.096697 0.586097 0.434271 75.000000
2.136084 0.571870 0.441531 46.000000
2.156389 0.551982 0.444883 30.000000
2.157515 0.526989 0.444318 9.000000
2.191764 0.509946 0.450623 9.000000
2.240239 0.495236 0.459816 18.000000
2.264643 0.474622 0.464178 13.000000
2.293728 0.454393 0.469460 9.000000
2.317807 0.432736 0.473690 8.000000
2.356155 0.413120 0.481030 8.000000
2.447540 0.401489 0.499082 8.000000
2.480781 0.378984 0.505313 9.000000
2.533296 0.358429 0.515500 24.000000
2.595362 0.338150 0.527595 64.000000
2.628067 0.313028 0.533771 62.000000
2.680092 0.289284 0.543907 82.000000
2.736690 0.265023 0.555042 62.000000
2.754078 0.236061 0.558182 32.000000
2.893245 0.215984 0.586165 16.000000
2.929649 0.186273 0.593278 20.000000
2.956039 0.155295 0.598323 90.000000
2.977100 0.123574 0.602471 98.000000
2.968416 0.090434 0.600489 95.000000
2.944750 0.057316 0.595626 95.000000
2.925606 0.024687 0.591753 95.000000
2.906094 -0.007510 0.587879 60.000000
2.886222 -0.039185 0.583823 42.000000
2.817005 -0.069313 0.569946 10.000000
2.796537 -0.099587 0.565894 9.000000
2.800126 -0.130659 0.566885 10.000000
2.754521 -0.158928 0.557880 9.000000
2.752631 -0.189253 0.557708 9.000000
2.667349 -0.212865 0.540701 8.000000
2.708860 -0.246268 0.549445 10.000000
2.691354 -0.274585 0.546222 10.000000
2.712587 -0.306904 0.551000 23.000000
2.713966 -0.337341 0.551733 75.000000
2.695564 -0.365252 0.548598 74.000000
2.672017 -0.392130 0.544392 69.000000
2.691852 -0.425297 0.548992 68.000000
2.633856 -0.445906 0.537798 35.000000
2.628866 -0.474763 0.537382 76.000000
2.618814 -0.502778 0.536064 71.000000
2.608365 -0.530605 0.534748 95.000000
2.583311 -0.555153 0.530397 85.000000
2.543592 -0.576030 0.523103 30.000000
2.518183 -0.599414 0.518686 21.000000
2.535280 -0.633068 0.523192 24.000000
2.513974 -0.657243 0.519843 29.000000
2.535073 -0.692573 0.525237 89.000000
2.508524 -0.715086 0.520749 81.000000
2.495950 -0.741209 0.519284 80.000000
2.492451 -0.770043 0.519612 92.000000
2.479340 -0.795900 0.518069 35.000000
2.535644 -0.844910 0.531145 10.000000
2.707113 -0.935134 0.568441 9.000000
2.983078 -1.067434 0.628099 8.000000
2.957647 -1.094854 0.624299 9.000000
2.959223 -1.132688 0.626424 9.000000
2.946705 -1.165316 0.625635 9.000000
2.947515 -1.203308 0.627649 10.000000
2.920682 -1.230077 0.623959 10.000000
2.916178 -1.266021 0.624902 14.000000
2.902236 -1.298156 0.624012 10.000000
2.825506 -1.301259 0.609563 9.000000
2.802417 -1.328110 0.606676 20.000000
2.774622 -1.352423 0.602836 25.000000
2.742195 -1.374149 0.598049 34.000000
2.700947 -1.390710 0.591269 65.000000
2.685740 -1.420368 0.590136 98.000000
2.669872 -1.450215 0.589285 92.000000
2.684017 -1.496225 0.594803 50.000000
2.667683 -1.525646 0.593657 32.000000
2.667618 -1.565291 0.596489 33.000000
2.684261 -1.614762 0.602798 21.000000
2.700078 -1.664680 0.609075 34.000000
2.677396 -1.692219 0.607050 36.000000
2.650746 -1.716112 0.603892 37.000000
2.635707 -1.748359 0.603652 35.000000
2.620805 -1.779911 0.603211 31.000000
2.592957 -1.803532 0.600163 29.000000
2.581338 -1.837486 0.600554 34.000000
