x y z intensity
1.443867 1.267537 0.986924 35.000000
1.464392 1.255525 0.993943 32.000000
1.488318 1.245999 1.003214 32.000000
1.498484 1.224786 1.003247 34.000000
1.511324 1.206757 1.005908 34.000000
1.528060 1.190788 1.010482 32.000000
1.541196 1.171917 1.012616 28.000000
1.564197 1.161163 1.022052 32.000000
1.591425 1.152208 1.033444 35.000000
1.592784 1.125312 1.028816 33.000000
1.608401 1.108507 1.033442 32.000000
1.620271 1.089016 1.035735 33.000000
1.658332 1.085846 1.053919 32.000000
1.669979 1.065704 1.056043 29.000000
1.685234 1.047684 1.060455 26.000000
1.700334 1.029504 1.064808 28.000000
1.730456 1.019974 1.078561 34.000000
1.752557 1.005813 1.087968 32.000000
1.763553 0.984452 1.089789 32.000000
1.778204 0.965048 1.093848 36.000000
1.792199 0.945692 1.098336 33.000000
1.802681 0.923815 1.099883 30.000000
1.828185 0.909906 1.111343 21.000000
1.853715 0.895477 1.122763 29.000000
1.867278 0.875011 1.126878 29.000000
1.892644 0.859675 1.138132 32.000000
1.905914 0.838585 1.142128 30.000000
1.923110 0.818898 1.148465 29.000000
1.940090 0.798942 1.154743 29.000000
1.965135 0.781956 1.165712 26.000000
1.981487 0.761513 1.172167 30.000000
1.997758 0.740799 1.178636 28.000000
2.026602 0.723856 1.191788 32.000000
2.046739 0.703722 1.200414 30.000000
2.083343 0.688703 1.218692 28.000000
2.102882 0.667852 1.227670 30.000000
2.114304 0.643773 1.231182 28.000000
2.125600 0.619438 1.234544 24.000000
2.140431 0.596329 1.240812 24.000000
2.184680 0.580790 1.263937 23.000000
2.207843 0.558831 1.274812 27.000000
2.230781 0.536386 1.285544 24.000000
2.227975 0.507641 1.281536 22.000000
2.254562 0.485605 1.294975 26.000000
2.272706 0.461084 1.302887 24.000000
2.273214 0.433074 1.301410 11.000000
2.324937 0.414258 1.329197 23.000000
2.368083 0.392803 1.351941 25.000000
2.376339 0.365131 1.355405 24.000000
2.397546 0.339101 1.365651 26.000000
2.422531 0.313217 1.378703 22.000000
2.464700 0.288757 1.401430 23.000000
2.493721 0.262002 1.416621 24.000000
2.474862 0.230104 1.404585 9.000000
2.550787 0.206539 1.447031 21.000000
2.574468 0.177531 1.459879 21.000000
2.593656 0.147756 1.470091 19.000000
2.625542 0.118061 1.487512 24.000000
2.648484 0.087350 1.499826 22.000000
2.679585 0.056396 1.517441 19.000000
2.723467 0.024740 1.542266 23.000000
2.767070 -0.007958 1.566903 28.000000
2.788628 -0.041373 1.579026 27.000000
2.827286 -0.075676 1.600899 28.000000
2.856631 -0.110676 1.618139 28.000000
2.907275 -0.147507 1.647592 30.000000
2.935942 -0.184122 1.664419 28.000000
2.951135 -0.220489 1.673749 24.000000
2.927067 -0.253887 1.660824 18.000000
2.902318 -0.286664 1.648215 22.000000
2.885964 -0.319984 1.640326 26.000000
2.865015 -0.352360 1.629781 25.000000
2.822231 -0.381307 1.606858 22.000000
2.813432 -0.414402 1.603903 27.000000
2.783139 -0.443865 1.588080 24.000000
2.752341 -0.472710 1.572570 18.000000
2.721249 -0.500938 1.556979 20.000000
2.698619 -0.530038 1.546016 21.000000
2.683923 -0.560606 1.540443 24.000000
2.643723 -0.585125 1.519525 25.000000
2.615857 -0.611808 1.506350 23.000000
2.608995 -0.643108 1.505222 27.000000
2.580733 -0.668841 1.491699 26.000000
2.564944 -0.697410 1.485422 14.000000
2.544727 -0.724396 1.476626 26.000000
2.502921 -0.745036 1.456037 23.000000
2.507040 -0.779037 1.462058 23.000000
2.494537 -0.807495 1.457703 25.000000
2.468995 -0.831759 1.446439 24.000000
2.447428 -0.856980 1.437529 24.000000
2.433455 -0.885073 1.433931 25.000000
2.378841 -0.897174 1.405425 10.000000
2.373167 -0.927136 1.405801 26.000000
2.354568 -0.952447 1.399466 27.000000
2.343948 -0.980856 1.397784 29.000000
2.320907 -1.003869 1.388794 27.000000
2.305810 -1.029990 1.384453 28.000000
2.286418 -1.054003 1.377631 27.000000
2.270894 -1.079534 1.373133 27.000000
2.215722 -1.085565 1.344629 10.000000
2.227504 -1.123935 1.356644 29.000000
2.195267 -1.140845 1.342812 28.000000
2.198492 -1.175338 1.349844 29.000000
2.173779 -1.195626 1.340636 29.000000
2.152778 -1.217627 1.333738 27.000000
2.128407 -1.236545 1.323889 30.000000
2.103325 -1.255530 1.314409 28.000000
2.066948 -1.267075 1.297874 10.000000
2.060482 -1.296698 1.300067 22.000000
2.050039 -1.323939 1.299806 26.000000
2.042294 -1.354049 1.302390 31.000000
2.016599 -1.371156 1.292571 29.000000
1.994522 -1.390274 1.285034 26.000000
1.986698 -1.419419 1.286759 30.000000
1.967209 -1.441145 1.281906 16.000000
1.937570 -1.454054 1.269511 8.000000
1.931831 -1.485863 1.273788 16.000000
1.904768 -1.501295 1.264086 24.000000
1.875097 -1.512854 1.251611 26.000000
1.854855 -1.532976 1.246411 26.000000
1.837901 -1.555637 1.243434 26.000000
1.827417 -1.583872 1.245034 26.000000
1.803414 -1.600296 1.237314 24.000000
1.779208 -1.616309 1.229617 10.000000
1.764755 -1.641012 1.228675 23.000000
1.740466 -1.656330 1.220761 21.000000
1.738350 -1.693110 1.228682 27.000000
1.716843 -1.711126 1.223026 24.000000
1.695239 -1.728733 1.217217 24.000000
1.676548 -1.749326 1.213661 26.000000
1.657774 -1.769671 1.210022 23.000000
1.646742 -1.800423 1.213393 10.000000
1.621477 -1.813701 1.205212 24.000000
1.587336 -1.816456 1.190256 16.000000
1.581458 -1.853471 1.197921 26.000000
1.558862 -1.869162 1.191745 23.000000
1.541936 -1.891502 1.189967 21.000000
1.523442 -1.914326 1.188506 27.000000
1.514325 -1.946965 1.193064 19.000000
1.519736 -2.001907 1.211004 11.000000
1.475876 -1.992088 1.189865 19.000000
1.452417 -2.006310 1.183346 16.000000
1.440470 -2.039322 1.188002 22.000000
1.414073 -2.049351 1.179249 18.000000
1.408964 -2.093436 1.190143 21.000000
1.375786 -2.096097 1.177470 14.000000
1.330649 -2.079176 1.154183 9.000000
1.294781 -2.072160 1.136953 9.000000
1.077143 -1.815839 0.973622 9.000000
1.011530 -1.750911 0.928283 10.000000
0.989010 1.706851 0.927737 16.000000
1.026398 1.724958 0.948283 16.000000
1.021889 1.672929 0.930369 21.000000
1.042829 1.663442 0.935898 24.000000
1.057517 1.646638 0.937455 27.000000
1.073184 1.629168 0.938598 24.000000
1.087515 1.612156 0.940056 27.000000
1.102885 1.594284 0.941103 25.000000
1.128376 1.591011 0.950832 25.000000
1.144932 1.577038 0.954342 23.000000
1.159803 1.558671 0.955248 25.000000
1.167973 1.533568 0.951976 30.000000
1.182277 1.515011 0.952773 35.000000
1.203835 1.507342 0.960503 29.000000
1.220671 1.491822 0.963397 37.000000
1.233520 1.473335 0.964377 31.000000
1.254946 1.464829 0.972026 28.000000
1.274303 1.452033 0.977051 31.000000
1.292742 1.439625 0.982420 26.000000
1.283928 1.397357 0.967236 38.000000
1.301928 1.384675 0.972504 51.000000
1.338303 1.390951 0.991360 34.000000
1.359440 1.380729 0.998856 54.000000
1.374342 1.363831 1.001650 37.000000
1.385859 1.343710 1.002141 34.000000
1.403615 1.329502 1.007172 37.000000
1.408228 1.303043 1.002885 22.000000
1.422433 1.285601 1.005528 35.000000
1.436440 1.267894 1.008039 39.000000
1.446899 1.247168 1.008149 33.000000
1.474068 1.240554 1.019946 50.000000
1.487041 1.222724 1.022673 36.000000
1.503921 1.206924 1.027353 49.000000
1.513120 1.186000 1.027663 51.000000
1.550730 1.185844 1.046325 24.000000
1.556245 1.161716 1.044158 52.000000
1.569165 1.142336 1.046177 39.000000
1.584930 1.125773 1.050977 37.000000
1.600548 1.108920 1.055721 48.000000
1.616017 1.091843 1.060340 56.000000
1.632015 1.074068 1.064561 61.000000
1.665719 1.068317 1.081048 54.000000
1.680999 1.050271 1.085515 24.000000
1.680667 1.023295 1.080776 71.000000
1.729514 1.025004 1.106808 67.000000
1.752098 1.010343 1.115945 62.000000
1.766982 0.990982 1.120127 67.000000
1.777367 0.969646 1.122317 44.000000
1.799692 0.953957 1.131296 42.000000
1.809789 0.932128 1.133287 49.000000
1.831459 0.916087 1.142515 26.000000
1.856967 0.901526 1.154136 60.000000
1.874531 0.882652 1.160755 52.000000
1.891958 0.863514 1.167317 39.000000
1.905333 0.842277 1.171368 50.000000
1.922534 0.822436 1.177808 59.000000
1.935494 0.800737 1.181656 39.000000
1.947975 0.779014 1.185878 60.000000
1.952521 0.753691 1.184665 27.000000
1.993129 0.742275 1.205935 82.000000
2.001038 0.718174 1.207428 62.000000
2.021047 0.698256 1.216262 63.000000
2.040923 0.677891 1.224886 70.000000
2.093766 0.667708 1.253341 68.000000
2.100715 0.642537 1.254886 49.000000
2.124403 0.621936 1.265739 42.000000
2.156010 0.603428 1.281969 30.000000
2.166657 0.578564 1.285637 54.000000
2.198027 0.558784 1.301674 67.000000
2.233511 0.539413 1.320067 54.000000
2.230561 0.510710 1.316455 77.000000
2.274236 0.491966 1.339632 71.000000
2.283643 0.465463 1.343194 62.000000
2.318262 0.443744 1.361585 53.000000
2.340052 0.418854 1.372416 35.000000
2.361574 0.393469 1.383091 75.000000
2.370071 0.365693 1.386184 74.000000
2.403784 0.341466 1.404554 76.000000
2.428749 0.315404 1.417764 72.000000
2.453516 0.288741 1.430898 75.000000
2.495285 0.263290 1.453894 78.000000
2.506731 0.234093 1.459263 36.000000
2.530506 0.205740 1.472426 35.000000
2.558362 0.177169 1.487929 56.000000
2.599028 0.148626 1.510879 49.000000
2.626416 0.118564 1.526123 60.000000
2.644909 0.087594 1.536163 68.000000
2.662854 0.056208 1.546580 37.000000
2.732405 0.024880 1.586943 62.000000
2.736825 -0.007920 1.589454 36.000000
2.758248 -0.041082 1.601815 42.000000
2.800986 -0.075344 1.626625 35.000000
2.838786 -0.110476 1.649217 34.000000
2.867512 -0.146101 1.666687 39.000000
2.900317 -0.182725 1.686460 36.000000
2.924040 -0.219427 1.701000 30.000000
2.895806 -0.252246 1.685229 27.000000
2.884120 -0.286255 1.679907 29.000000
2.837750 -0.316022 1.654330 31.000000
2.834125 -0.350162 1.653726 35.000000
2.804468 -0.380609 1.637894 33.000000
2.787431 -0.412338 1.629387 33.000000
2.765467 -0.443174 1.618783 32.000000
2.751899 -0.474873 1.612992 32.000000
2.720937 -0.503216 1.597110 22.000000
2.689883 -0.530848 1.581051 33.000000
2.679751 -0.562219 1.577300 34.000000
2.660600 -0.591703 1.569045 33.000000
2.628852 -0.617619 1.552557 32.000000
2.600869 -0.643970 1.538965 32.000000
2.576915 -0.670907 1.527786 32.000000
2.561144 -0.699538 1.521409 32.000000
2.515843 -0.719522 1.497563 17.000000
2.515971 -0.752465 1.501330 33.000000
2.503702 -0.781266 1.497097 32.000000
2.474293 -0.804687 1.483333 36.000000
2.465245 -0.834575 1.481779 31.000000
2.435512 -0.856975 1.467779 34.000000
2.409749 -0.880283 1.456184 33.000000
2.387912 -0.904648 1.446899 27.000000
2.337107 -0.917674 1.420841 17.000000
2.359424 -0.958873 1.438488 35.000000
2.324534 -0.977310 1.422056 32.000000
2.313579 -1.005405 1.420200 34.000000
2.302447 -1.033411 1.418345 37.000000
2.290962 -1.061241 1.416313 35.000000
2.255680 -1.077610 1.399538 35.000000
2.232129 -1.099017 1.390036 27.000000
2.177282 -1.104165 1.360908 18.000000
2.192455 -1.144506 1.375531 34.000000
2.171799 -1.167140 1.368691 34.000000
2.151578 -1.188899 1.361265 34.000000
2.130676 -1.210815 1.354285 34.000000
2.117175 -1.236792 1.351977 35.000000
2.092149 -1.255749 1.342440 35.000000
2.075159 -1.278437 1.337061 29.000000
2.042541 -1.291911 1.322514 12.000000
2.043056 -1.326187 1.329490 33.000000
2.020505 -1.346638 1.322505 31.000000
2.005908 -1.371109 1.319720 33.000000
1.983771 -1.390280 1.312089 32.000000
1.972379 -1.416808 1.311438 31.000000
1.966923 -1.448982 1.316025 25.000000
1.923214 -1.451466 1.293967 10.000000
1.896479 -1.467080 1.284214 10.000000
1.894704 -1.500862 1.290395 34.000000
1.867616 -1.515848 1.280504 29.000000
1.858361 -1.543863 1.281697 33.000000
1.837885 -1.563868 1.276438 31.000000
1.817304 -1.583540 1.270940 29.000000
1.812967 -1.617697 1.277169 32.000000
1.775505 -1.622057 1.259979 27.000000
1.754537 -1.640820 1.254351 10.000000
1.749323 -1.674591 1.260276 32.000000
1.727907 -1.692979 1.254475 27.000000
1.706392 -1.710957 1.248687 30.000000
1.681593 -1.725508 1.240540 29.000000
1.669038 -1.752544 1.241465 27.000000
1.653146 -1.776223 1.240005 30.000000
1.628105 -1.789839 1.231726 23.000000
1.605920 -1.806308 1.225653 10.000000
1.588335 -1.830023 1.224434 29.000000
1.577448 -1.859629 1.227284 26.000000
1.554850 -1.875433 1.220961 29.000000
1.530830 -1.891665 1.215151 26.000000
1.519073 -1.920877 1.217679 26.000000
1.500193 -1.943704 1.216143 28.000000
1.479707 -1.961933 1.211878 25.000000
1.452395 -1.973518 1.203623 10.000000
1.442139 -2.005852 1.207993 23.000000
1.427475 -2.035188 1.210531 24.000000
1.409772 -2.060841 1.210844 24.000000
1.388347 -2.078032 1.206271 25.000000
1.382447 -2.122078 1.217198 17.000000
1.336201 -2.100912 1.190823 9.000000
1.284329 -2.071967 1.160815 12.000000
1.268265 -2.100049 1.162956 18.000000
1.082123 -1.839645 1.007148 9.000000
0.982920 1.711272 0.949370 29.000000
1.001968 1.698239 0.952912 19.000000
1.018551 1.681092 0.954204 18.000000
1.025288 1.648608 0.946714 29.000000
1.049533 1.647047 0.957072 29.000000
1.062943 1.625798 0.956041 32.000000
1.074804 1.605004 0.955308 29.000000
1.097696 1.598313 0.962978 27.000000
1.109199 1.577251 0.962148 34.000000
1.132053 1.570035 0.969784 23.000000
1.143134 1.548709 0.968790 28.000000
1.152418 1.523104 0.965051 35.000000
1.173878 1.515787 0.972972 31.000000
1.199181 1.510967 0.982733 38.000000
1.212363 1.492580 0.983826 42.000000
1.230960 1.480839 0.989340 37.000000
1.230388 1.444617 0.978433 55.000000
1.263203 1.449324 0.995353 29.000000
1.281616 1.436844 1.000764 34.000000
1.293992 1.417544 1.001564 47.000000
1.309122 1.401423 1.004603 36.000000
1.318070 1.378640 1.002922 65.000000
1.339118 1.368453 1.010483 63.000000
1.350725 1.348616 1.010984 53.000000
1.368519 1.334823 1.016099 80.000000
1.389377 1.323798 1.023580 36.000000
1.403780 1.306407 1.026235 30.000000
1.414725 1.285855 1.026525 35.000000
1.425472 1.265251 1.026736 36.000000
1.445995 1.253107 1.033935 74.000000
1.459071 1.235518 1.036789 35.000000
1.479449 1.222861 1.043956 49.000000
1.495734 1.207548 1.049085 58.000000
1.515991 1.194196 1.056158 32.000000
1.532020 1.178337 1.061183 32.000000
1.545209 1.159092 1.063336 59.000000
1.564587 1.145354 1.070660 45.000000
1.576822 1.126157 1.073093 44.000000
1.588854 1.106756 1.075459 42.000000
1.604365 1.089675 1.080190 62.000000
1.619725 1.072370 1.084796 59.000000
1.649666 1.064232 1.099182 32.000000
1.672276 1.050866 1.108584 37.000000
1.687467 1.032542 1.113109 77.000000
1.706243 1.016147 1.119961 60.000000
1.739972 1.008158 1.136601 88.000000
1.754407 0.989216 1.141322 50.000000
1.769099 0.969617 1.145486 43.000000
1.794705 0.956266 1.157503 66.000000
1.785633 0.924432 1.147115 31.000000
1.811036 0.910470 1.158949 31.000000
1.836394 0.895990 1.170744 50.000000
1.865621 0.882840 1.184988 37.000000
1.875209 0.860034 1.186659 37.000000
1.896456 0.842358 1.195746 34.000000
1.909570 0.820825 1.199780 36.000000
1.930202 0.802740 1.209121 45.000000
1.935031 0.777396 1.207942 32.000000
1.955363 0.758627 1.217162 37.000000
1.971527 0.737976 1.223742 64.000000
1.991597 0.718372 1.232701 46.000000
2.015694 0.699813 1.244196 83.000000
2.031423 0.678049 1.250520 62.000000
2.067537 0.662521 1.269320 51.000000
2.090942 0.642569 1.280961 46.000000
2.098059 0.617117 1.281889 32.000000
2.133615 0.599912 1.300921 35.000000
2.148294 0.576264 1.307164 48.000000
2.171216 0.554468 1.318408 59.000000
2.193594 0.532427 1.329909 35.000000
2.241405 0.515455 1.356185 71.000000
2.246701 0.488403 1.357407 35.000000
2.273166 0.465341 1.370693 46.000000
2.286554 0.439496 1.376687 32.000000
2.316587 0.416410 1.392790 36.000000
2.346216 0.392794 1.409164 70.000000
2.363271 0.366334 1.417403 64.000000
2.384033 0.340259 1.428455 46.000000
2.421557 0.315912 1.449554 84.000000
2.437658 0.288218 1.457820 52.000000
2.457806 0.260582 1.468472 48.000000
2.490568 0.233649 1.486615 32.000000
2.518577 0.205732 1.502659 35.000000
2.529124 0.175912 1.508220 39.000000
2.582309 0.148351 1.539263 54.000000
2.605332 0.118184 1.552140 38.000000
2.628006 0.087407 1.564926 47.000000
2.654431 0.056297 1.580645 48.000000
2.680583 0.024470 1.596182 36.000000
2.715046 -0.007908 1.616645 33.000000
2.727741 -0.040889 1.624223 31.000000
2.774500 -0.075013 1.651964 35.000000
2.816247 -0.110208 1.677637 32.000000
2.844882 -0.145679 1.695336 32.000000
2.903096 -0.183774 1.730825 35.000000
2.922456 -0.220410 1.743088 29.000000
2.868581 -0.251086 1.711804 19.000000
2.861237 -0.285317 1.708943 30.000000
2.827965 -0.316474 1.690557 29.000000
2.807263 -0.348498 1.679739 31.000000
2.799087 -0.381753 1.676384 34.000000
2.769352 -0.411643 1.660082 30.000000
2.743253 -0.441700 1.646740 29.000000
2.742760 -0.475358 1.648006 29.000000
2.703582 -0.502241 1.626751 23.000000
2.664150 -0.528112 1.605326 31.000000
2.649563 -0.558591 1.599566 31.000000
2.635015 -0.588674 1.593140 29.000000
2.607263 -0.615584 1.579487 32.000000
2.579809 -0.641704 1.565095 30.000000
2.555975 -0.668504 1.553733 27.000000
2.560964 -0.702794 1.559927 31.000000
2.491083 -0.715852 1.520474 21.000000
2.499354 -0.751080 1.529486 31.000000
2.482995 -0.778501 1.522682 31.000000
2.465956 -0.805998 1.516256 29.000000
2.436528 -0.828849 1.502095 34.000000
2.435397 -0.861286 1.505585 31.000000
2.393454 -0.878842 1.483643 31.000000
2.383821 -0.907741 1.481842 30.000000
2.345753 -0.925349 1.462304 26.000000
2.339172 -0.955630 1.463208 30.000000
2.316961 -0.978735 1.453475 34.000000
2.298030 -1.003461 1.446705 33.000000
2.274961 -1.026123 1.437363 34.000000
2.259605 -1.051891 1.432850 31.000000
2.240205 -1.075599 1.425768 30.000000
2.224425 -1.100866 1.421010 30.000000
2.196909 -1.119949 1.408820 29.000000
2.173236 -1.140414 1.398878 32.000000
2.164646 -1.168774 1.398850 36.000000
2.136313 -1.186841 1.386906 34.000000
2.123536 -1.212567 1.384247 36.000000
2.094969 -1.229820 1.372096 34.000000
2.077531 -1.253199 1.367257 31.000000
2.078412 -1.287794 1.374679 31.000000
2.049399 -1.303854 1.362328 31.000000
2.024075 -1.321769 1.352286 32.000000
2.009619 -1.346453 1.349580 35.000000
1.987625 -1.366018 1.341929 36.000000
1.979948 -1.395229 1.343832 36.000000
1.954177 -1.411635 1.333612 35.000000
1.938959 -1.435344 1.330501 21.000000
1.915669 -1.454093 1.323075 11.000000
1.896627 -1.474606 1.317404 22.000000
1.876640 -1.495453 1.312246 33.000000
1.860698 -1.518155 1.308824 35.000000
1.843755 -1.541192 1.305902 34.000000
1.830820 -1.566252 1.304694 35.000000
1.813427 -1.588996 1.301600 35.000000
1.795867 -1.611406 1.298423 31.000000
1.778057 -1.633648 1.295162 32.000000
1.737596 -1.634491 1.275316 25.000000
1.735493 -1.671259 1.283687 34.000000
1.720392 -1.695770 1.282532 35.000000
1.689418 -1.704498 1.269591 33.000000
1.670858 -1.725294 1.265945 35.000000
1.661261 -1.755571 1.269273 34.000000
1.639258 -1.772813 1.263206 31.000000
1.626076 -1.799518 1.264003 30.000000
1.597900 -1.809653 1.253169 25.000000
1.581378 -1.832606 1.251481 31.000000
1.560505 -1.852814 1.247988 42.000000
1.543540 -1.875459 1.246196 32.000000
1.523545 -1.894454 1.242030 33.000000
1.507635 -1.920877 1.242817 34.000000
1.487233 -1.939440 1.238552 30.000000
1.473431 -1.969226 1.241465 32.000000
1.450027 -1.983780 1.234764 18.000000
1.430216 -2.005967 1.233057 27.000000
1.416869 -2.034642 1.235206 28.000000
1.404110 -2.067638 1.239953 28.000000
1.380091 -2.081186 1.232971 31.000000
1.359239 -2.102717 1.230927 23.000000
1.325458 -2.100414 1.215172 10.000000
1.276019 -2.075423 1.186700 20.000000
1.243534 -2.076524 1.173673 12.000000
1.070599 -1.835972 1.025946 10.000000
0.995868 1.702368 0.974652 23.000000
1.000963 1.666042 0.964871 24.000000
1.022939 1.660946 0.973176 22.000000
1.036723 1.639751 0.972156 30.000000
1.052570 1.622296 0.973351 27.000000
1.074291 1.616382 0.981564 26.000000
1.089834 1.598560 0.982619 36.000000
1.103973 1.581134 0.983989 26.000000
1.124270 1.570217 0.989506 28.000000
1.135503 1.548808 0.988506 30.000000
1.154451 1.538056 0.994296 30.000000
1.169055 1.519409 0.995098 39.000000
1.182396 1.501161 0.996148 32.000000
1.209366 1.500025 1.008778 32.000000
1.215081 1.470580 1.002396 39.000000
1.236378 1.462009 1.010351 30.000000
1.254862 1.449757 1.015863 32.000000
1.267431 1.430692 1.016694 32.000000
1.282760 1.414703 1.019799 31.000000
1.282968 1.382432 1.011027 79.000000
1.309988 1.379004 1.023508 39.000000
1.337153 1.375140 1.035913 42.000000
1.333449 1.339551 1.024544 53.000000
1.348015 1.322754 1.027365 33.000000
1.368721 1.311833 1.034912 53.000000
1.383025 1.294563 1.037615 26.000000
1.403666 1.283073 1.045067 33.000000
1.416977 1.265855 1.048047 52.000000
1.437477 1.253726 1.055405 35.000000
1.457973 1.241299 1.062719 39.000000
1.477722 1.228973 1.070459 63.000000
1.491351 1.210309 1.072809 36.000000
1.500689 1.189204 1.073050 38.000000
1.537412 1.189383 1.092882 28.000000
1.522868 1.149001 1.075418 33.000000
1.545680 1.137895 1.085273 59.000000
1.568458 1.126463 1.095095 51.000000
1.576957 1.104526 1.094995 52.000000
1.599614 1.092406 1.104792 72.000000
1.625908 1.082153 1.116898 37.000000
1.641289 1.064395 1.121582 54.000000
1.663914 1.050969 1.131190 31.000000
1.675413 1.030326 1.133199 41.000000
1.686151 1.009889 1.135623 55.000000
1.715997 0.999860 1.150021 37.000000
1.737787 0.985247 1.159794 37.000000
1.763854 0.972018 1.171542 62.000000
1.774165 0.950402 1.173675 40.000000
1.791991 0.932629 1.180783 49.000000
1.805839 0.912581 1.185238 31.000000
1.815715 0.890396 1.187099 36.000000
1.848656 0.879246 1.204025 45.000000
1.873871 0.863700 1.215919 36.000000
1.883300 0.840603 1.217453 35.000000
1.911821 0.826262 1.232156 56.000000
1.920978 0.802703 1.233559 37.000000
1.929471 0.779292 1.235331 35.000000
1.946121 0.758559 1.241697 42.000000
1.966267 0.739365 1.250929 48.000000
1.978288 0.716801 1.254907 71.000000
1.997772 0.697118 1.264471 56.000000
2.013505 0.675398 1.270885 45.000000
2.065817 0.665160 1.300285 81.000000
2.076862 0.641331 1.304324 48.000000
2.091812 0.618542 1.310945 36.000000
2.123463 0.599822 1.327184 35.000000
2.138100 0.576198 1.333522 36.000000
2.160525 0.554660 1.345429 47.000000
2.203993 0.537392 1.369560 69.000000
2.213985 0.511425 1.373036 37.000000
2.236051 0.488256 1.384521 53.000000
2.249573 0.462795 1.390762 35.000000
2.279596 0.440376 1.407213 33.000000
2.305353 0.416418 1.421007 37.000000
2.330944 0.391950 1.434647 48.000000
2.347492 0.365656 1.443448 68.000000
2.385399 0.341915 1.464562 69.000000
2.393163 0.313554 1.467848 36.000000
2.417647 0.287018 1.481447 59.000000
2.467051 0.262769 1.511011 57.000000
2.465637 0.232404 1.508676 32.000000
2.497724 0.204934 1.527511 34.000000
2.542643 0.177635 1.553534 39.000000
2.565408 0.148075 1.567371 36.000000
2.592461 0.118101 1.583179 52.000000
2.623622 0.087648 1.601312 40.000000
2.628452 0.056021 1.604292 36.000000
2.697109 0.024784 1.646155 52.000000
2.692938 -0.007895 1.643646 27.000000
2.718350 -0.040921 1.659081 33.000000
2.777597 -0.075494 1.695246 33.000000
2.797830 -0.110007 1.708267 30.000000
2.838955 -0.146033 1.734206 36.000000
2.871617 -0.182549 1.754111 30.000000
2.911717 -0.220638 1.780241 30.000000
2.853921 -0.251052 1.745689 19.000000
2.838103 -0.284381 1.737681 27.000000
2.805437 -0.315290 1.718362 30.000000
2.797568 -0.348752 1.715158 32.000000
2.764010 -0.378632 1.696170 31.000000
2.755201 -0.411579 1.693174 33.000000
2.733849 -0.442178 1.681699 32.000000
2.724496 -0.474568 1.678314 29.000000
2.672838 -0.499010 1.648907 22.000000
2.654628 -0.528917 1.640067 27.000000
2.632095 -0.557535 1.628551 32.000000
2.609253 -0.585556 1.616859 30.000000
2.581662 -0.612375 1.602978 32.000000
2.553898 -0.638592 1.589019 31.000000
2.547141 -0.669372 1.587142 31.000000
2.527339 -0.696923 1.578093 26.000000
2.490400 -0.719508 1.559119 20.000000
2.482461 -0.749603 1.557458 31.000000
2.445708 -0.770586 1.537613 29.000000
2.453249 -0.805778 1.546612 32.000000
2.431975 -0.831559 1.537442 29.000000
2.411064 -0.856586 1.527468 35.000000
2.373310 -0.875465 1.507821 30.000000
2.375732 -0.908921 1.513694 23.000000
2.317309 -0.919083 1.481595 21.000000
2.327199 -0.955302 1.492225 31.000000
2.300560 -0.977140 1.480426 30.000000
2.290010 -1.004888 1.478032 32.000000
2.259140 -1.024101 1.463467 30.000000
2.236008 -1.046222 1.453834 31.000000
2.220497 -1.071627 1.449202 31.000000
2.204853 -1.096850 1.444490 22.000000
2.169788 -1.111878 1.426984 26.000000
2.161450 -1.140360 1.427091 34.000000
2.137623 -1.160431 1.416950 35.000000
2.132027 -1.191107 1.419914 48.000000
2.100427 -1.206116 1.404700 33.000000
2.090653 -1.234292 1.404897 36.000000
2.070064 -1.255055 1.396988 35.000000
2.056075 -1.280558 1.394515 23.000000
2.030873 -1.298798 1.384485 26.000000
2.012908 -1.321445 1.379285 32.000000
1.994742 -1.343747 1.374095 35.000000
1.972885 -1.363239 1.366271 35.000000
1.957976 -1.387412 1.363407 32.000000
1.953458 -1.419088 1.367768 33.000000
1.931062 -1.437770 1.359717 27.000000
1.897380 -1.448685 1.344831 9.000000
1.878393 -1.469161 1.339038 18.000000
1.862701 -1.492114 1.335783 31.000000
1.852674 -1.520858 1.337735 33.000000
1.839851 -1.546204 1.336647 37.000000
1.815936 -1.563492 1.328693 32.000000
1.798460 -1.586153 1.325515 32.000000
1.775316 -1.602026 1.317012 33.000000
1.760790 -1.627161 1.316085 26.000000
1.736472 -1.643083 1.307947 29.000000
1.718343 -1.664705 1.304454 33.000000
1.693809 -1.679890 1.296187 29.000000
1.681586 -1.707200 1.297385 34.000000
1.666010 -1.731327 1.296100 30.000000
1.647181 -1.752072 1.292351 33.000000
1.628102 -1.772484 1.288519 32.000000
1.600100 -1.782879 1.277545 21.000000
1.583789 -1.806084 1.275996 26.000000
1.561407 -1.822401 1.269673 28.000000
1.556050 -1.858748 1.277267 34.000000
1.534895 -1.878733 1.273588 36.000000
1.514827 -1.897798 1.269407 30.000000
1.500046 -1.923607 1.269676 35.000000
1.470163 -1.932312 1.258911 29.000000
1.462881 -1.968420 1.266039 23.000000
1.444689 -1.990213 1.263860 22.000000
1.419672 -2.005228 1.257447 26.000000
1.406131 -2.033826 1.259708 29.000000
1.390743 -2.063125 1.262260 29.000000
1.369201 -2.080410 1.257492 28.000000
1.353108 -2.109485 1.259887 26.000000
1.307985 -2.092994 1.235295 10.000000
1.276849 -2.094050 1.221578 10.000000
1.223620 -2.060700 1.188272 10.000000
1.017751 1.708433 1.009040 10.000000
1.014683 1.661088 0.992612 19.000000
1.026128 1.636175 0.989307 22.000000
1.045617 1.626736 0.995370 20.000000
1.063870 1.612731 0.998822 26.000000
1.078179 1.595514 1.000301 22.000000
1.098585 1.584787 1.005924 25.000000
1.110117 1.563560 1.004933 25.000000
1.148527 1.577442 1.026797 10.000000
1.146654 1.538032 1.014009 28.000000
1.162945 1.523397 1.017519 31.000000
1.177443 1.504559 1.018279 28.000000
1.187920 1.482746 1.016930 36.000000
1.203704 1.467620 1.020284 25.000000
1.227843 1.462406 1.030697 27.000000
1.243472 1.446843 1.033942 35.000000
1.273539 1.447502 1.049069 17.000000
1.280271 1.421577 1.045093 32.000000
1.292601 1.402055 1.045816 30.000000
1.307801 1.385660 1.048869 29.000000
1.328884 1.375294 1.056692 48.000000
1.340745 1.355315 1.057202 31.000000
1.358624 1.341353 1.062494 34.000000
1.373227 1.324083 1.065294 35.000000
1.397290 1.315649 1.075427 24.000000
1.398093 1.286591 1.068711 31.000000
1.412197 1.268828 1.071372 33.000000
1.416421 1.242259 1.066511 29.000000
1.442641 1.236064 1.079297 35.000000
1.459710 1.220513 1.084240 30.000000
1.479266 1.207892 1.091943 35.000000
1.492090 1.189563 1.094696 30.000000
1.515647 1.178544 1.104391 24.000000
1.528220 1.159752 1.107027 32.000000
1.554501 1.151058 1.119614 34.000000
1.566914 1.131687 1.122070 33.000000
1.564925 1.102227 1.114462 34.000000
1.605366 1.102313 1.136928 32.000000
1.613754 1.079887 1.136673 35.000000
1.636333 1.066765 1.146463 35.000000
1.648014 1.046373 1.148605 27.000000
1.669922 1.032986 1.158717 34.000000
1.684950 1.014331 1.163211 35.000000
1.703040 0.997969 1.170682 34.000000
1.721645 0.980863 1.177542 35.000000
1.739500 0.963853 1.184841 32.000000
1.768711 0.952624 1.199778 34.000000
1.782724 0.932762 1.204417 32.000000
1.788920 0.908849 1.203777 28.000000
1.814149 0.894291 1.215939 35.000000
1.827736 0.873739 1.220247 31.000000
1.841147 0.852876 1.224563 28.000000
1.869997 0.838849 1.239015 30.000000
1.886613 0.819379 1.246170 28.000000
1.903596 0.799276 1.252752 28.000000
1.919989 0.779200 1.259715 27.000000
1.952132 0.765015 1.277022 22.000000
1.952314 0.737947 1.273388 32.000000
1.972324 0.718376 1.282626 32.000000
2.012329 0.705414 1.304855 32.000000
2.015538 0.679485 1.303997 30.000000
2.039216 0.659911 1.315601 28.000000
2.054337 0.637569 1.322373 31.000000
2.069203 0.614874 1.329003 24.000000
2.063419 0.586088 1.322446 12.000000
2.143644 0.580814 1.370871 28.000000
2.162292 0.557716 1.379791 26.000000
2.172511 0.532212 1.383383 25.000000
2.198672 0.510533 1.397829 28.000000
2.216797 0.486284 1.406378 26.000000
2.234414 0.461812 1.415344 27.000000
2.247588 0.436145 1.421520 23.000000
2.235235 0.405805 1.412196 9.000000
2.314996 0.391191 1.460384 29.000000
2.331881 0.364807 1.468815 24.000000
2.369220 0.341312 1.490810 23.000000
2.402197 0.316274 1.510010 28.000000
2.413934 0.288004 1.515911 24.000000
2.429648 0.259893 1.524287 21.000000
2.444777 0.231561 1.533021 23.000000
2.455526 0.202485 1.538937 10.000000
2.512826 0.176380 1.573281 21.000000
2.535714 0.146971 1.586798 22.000000
2.579255 0.118016 1.614032 16.000000
2.610217 0.087603 1.632584 21.000000
2.619258 0.056014 1.638262 19.000000
2.640830 0.024336 1.651707 14.000000
2.670598 -0.007883 1.670265 27.000000
2.721271 -0.041242 1.701982 24.000000
2.767398 -0.075627 1.730745 27.000000
2.791720 -0.110309 1.746748 26.000000
2.837195 -0.146603 1.775087 26.000000
2.860746 -0.182781 1.790674 26.000000
2.887868 -0.219899 1.809425 23.000000
2.851570 -0.252033 1.787510 18.000000
2.823569 -0.284194 1.770702 22.000000
2.807452 -0.317167 1.762355 21.000000
2.778534 -0.348148 1.745874 24.000000
2.745178 -0.377934 1.726560 25.000000
2.724204 -0.408794 1.714993 23.000000
2.719351 -0.442068 1.714498 26.000000
2.680745 -0.469385 1.692680 22.000000
2.629838 -0.493245 1.662190 10.000000
2.640925 -0.528591 1.671680 24.000000
2.626808 -0.559037 1.665153 26.000000
2.603570 -0.587408 1.653943 23.000000
2.564160 -0.611145 1.631360 24.000000
2.536537 -0.637278 1.617078 24.000000
2.512861 -0.663993 1.605441 24.000000
2.493101 -0.691255 1.596167 23.000000
2.452789 -0.712097 1.573700 10.000000
2.477515 -0.751929 1.593013 28.000000
2.457166 -0.778129 1.583398 26.000000
2.436164 -0.804308 1.574169 27.000000
2.415431 -0.829731 1.564313 26.000000
2.406109 -0.859253 1.562668 29.000000
2.376508 -0.881266 1.547902 24.000000
2.350871 -0.904230 1.535678 24.000000
2.297235 -0.915466 1.505015 12.000000
2.307003 -0.951620 1.515962 26.000000
2.284425 -0.975101 1.506490 26.000000
2.266048 -0.999397 1.499007 26.000000
2.243145 -1.021992 1.489394 27.000000
2.223882 -1.045945 1.482208 24.000000
2.208379 -1.071402 1.477528 25.000000
2.200409 -1.100424 1.477917 25.000000
2.119614 -1.092046 1.429280 13.000000
2.149350 -1.140125 1.455135 33.000000
2.118048 -1.156141 1.439731 27.000000
2.105528 -1.182039 1.437158 26.000000
2.092150 -1.208194 1.434928 33.000000
2.068102 -1.227163 1.424454 26.000000
2.057959 -1.255078 1.424609 29.000000
2.037327 -1.275458 1.416541 25.000000
1.986851 -1.277435 1.388563 14.000000
1.990635 -1.313898 1.398617 29.000000
1.976121 -1.338453 1.395832 28.000000
1.972079 -1.370317 1.400520 32.000000
1.950023 -1.389649 1.392524 32.000000
1.931315 -1.411105 1.386972 26.000000
1.919422 -1.437495 1.386353 22.000000
1.890205 -1.450531 1.373154 10.000000
1.870266 -1.471684 1.367893 9.000000
1.861189 -1.500083 1.369513 31.000000
1.838433 -1.517340 1.361107 26.000000
1.824661 -1.543350 1.360565 29.000000
1.798433 -1.557050 1.349471 30.000000
1.777816 -1.576782 1.343838 28.000000
1.760154 -1.599110 1.340589 29.000000
1.733828 -1.611700 1.329412 21.000000
1.719092 -1.636499 1.328457 16.000000
1.710460 -1.667141 1.332277 33.000000
1.682817 -1.679414 1.321484 26.000000
1.670425 -1.706750 1.322677 26.000000
1.660839 -1.737154 1.326175 31.000000
1.635842 -1.751608 1.317587 25.000000
1.610900 -1.765578 1.308945 27.000000
1.588770 -1.782510 1.302559 20.000000
1.572314 -1.805745 1.301044 13.000000
1.558553 -1.832153 1.301729 29.000000
1.536042 -1.848215 1.295184 25.000000
1.521683 -1.874301 1.295747 25.000000
1.504355 -1.896821 1.293839 31.000000
1.482742 -1.916340 1.289986 21.000000
1.467629 -1.941986 1.290313 26.000000
1.454825 -1.971072 1.292774 20.000000
1.427252 -1.982823 1.284064 10.000000
1.413922 -2.011553 1.286469 25.000000
1.393648 -2.033673 1.284545 17.000000
1.369885 -2.047460 1.277492 23.000000
1.361326 -2.087742 1.286937 27.000000
1.346574 -2.116119 1.288828 16.000000
1.301628 -2.099796 1.263858 9.000000
1.247249 -2.062843 1.227189 9.000000
0.988668 1.673979 1.007983 24.000000
0.994692 1.642184 1.000440 26.000000
1.022552 1.643684 1.013216 24.000000
1.032617 1.619288 1.010102 30.000000
1.048342 1.601616 1.011276 25.000000
1.067583 1.591806 1.017386 27.000000
1.076842 1.567123 1.014102 32.000000
1.112243 1.577939 1.033914 14.000000
1.118641 1.549290 1.028114 30.000000
1.129834 1.527847 1.026936 33.000000
1.152415 1.519755 1.034869 30.000000
1.163188 1.498052 1.033594 46.000000
1.179141 1.483088 1.037021 30.000000
1.197727 1.471391 1.042792 35.000000
1.213518 1.455997 1.046161 33.000000
1.232015 1.443731 1.051822 19.000000
1.247512 1.427970 1.055133 38.000000
1.274582 1.425024 1.068066 33.000000
1.278173 1.395785 1.061424 34.000000
1.284398 1.369893 1.057113 45.000000
1.314334 1.369153 1.072437 32.000000
1.323205 1.346118 1.070431 35.000000
1.334823 1.326102 1.070872 36.000000
1.368057 1.327128 1.088524 28.000000
1.378641 1.307196 1.089319 32.000000
1.389830 1.286541 1.089499 34.000000
1.400022 1.266367 1.090133 35.000000
1.420546 1.254131 1.097673 46.000000
1.433712 1.236420 1.100681 33.000000
1.454157 1.223602 1.108124 36.000000
1.467047 1.205475 1.111011 35.000000
1.473879 1.181282 1.108233 27.000000
1.500019 1.173455 1.121052 35.000000
1.515985 1.157318 1.126224 34.000000
1.528423 1.138324 1.128793 35.000000
1.554569 1.129300 1.141509 47.000000
1.570283 1.112275 1.146455 37.000000
1.592979 1.099904 1.156541 64.000000
1.601395 1.077484 1.156242 62.000000
1.609551 1.055016 1.155865 31.000000
1.624191 1.037453 1.160980 38.000000
1.650128 1.026100 1.173378 39.000000
1.657277 1.003518 1.173213 44.000000
1.697869 0.999996 1.195831 46.000000
1.708491 0.978964 1.198153 37.000000
1.737545 0.968179 1.213352 58.000000
1.759179 0.952728 1.223310 65.000000
1.765640 0.928916 1.222701 35.000000
1.787020 0.912735 1.232552 33.000000
1.808383 0.896200 1.242283 35.000000
1.825819 0.877393 1.249267 37.000000
1.839262 0.856454 1.253566 44.000000
1.844413 0.832070 1.252972 32.000000
1.873035 0.817544 1.267675 40.000000
1.885607 0.796150 1.272149 35.000000
1.897995 0.774513 1.276557 29.000000
1.930004 0.760406 1.294131 36.000000
1.946064 0.739542 1.300997 44.000000
1.958060 0.716949 1.305073 43.000000
1.985846 0.699740 1.319701 62.000000
1.997137 0.676832 1.324104 43.000000
2.020685 0.657297 1.335889 57.000000
2.039773 0.636259 1.345336 57.000000
2.074844 0.619609 1.365391 35.000000
2.093681 0.597622 1.374727 35.000000
2.120435 0.577319 1.389264 37.000000
2.143062 0.555455 1.400990 50.000000
2.165222 0.533269 1.413135 41.000000
2.171103 0.506521 1.413860 37.000000
2.217559 0.489024 1.441869 41.000000
2.230994 0.463486 1.448218 50.000000
2.248359 0.438553 1.457175 33.000000
2.265530 0.413149 1.466059 38.000000
2.282166 0.387607 1.475203 48.000000
2.319757 0.364783 1.497209 42.000000
2.340182 0.338812 1.508817 59.000000
2.360403 0.312347 1.520265 47.000000
2.376229 0.284884 1.528944 41.000000
2.412773 0.259365 1.550830 60.000000
2.427902 0.231031 1.559702 29.000000
2.476279 0.205171 1.589964 36.000000
2.491222 0.175631 1.598049 36.000000
2.518257 0.146606 1.614492 36.000000
2.553001 0.117443 1.636796 36.000000
2.579546 0.086989 1.652881 35.000000
2.601247 0.055919 1.666740 34.000000
2.631092 0.024319 1.685905 36.000000
2.677496 -0.007958 1.715577 37.000000
2.736237 -0.041656 1.753143 45.000000
2.765202 -0.075889 1.771622 48.000000
2.793448 -0.110944 1.790599 48.000000
2.813361 -0.146180 1.803368 42.000000
2.862058 -0.183821 1.835404 41.000000
2.888852 -0.221089 1.854375 33.000000
2.794139 -0.248266 1.794367 22.000000
2.803969 -0.283684 1.801633 32.000000
2.783855 -0.316082 1.790455 33.000000
2.771740 -0.349123 1.784463 35.000000
2.751096 -0.380703 1.772892 34.000000
2.726031 -0.411145 1.758443 34.000000
2.712820 -0.443216 1.752568 36.000000
2.678970 -0.471231 1.732473 29.000000
2.652832 -0.500195 1.718164 28.000000
2.605806 -0.524391 1.690260 33.000000
2.599942 -0.556210 1.689107 34.000000
2.581438 -0.585229 1.679724 35.000000
2.562327 -0.614040 1.670830 34.000000
2.539279 -0.641135 1.658417 33.000000
2.519743 -0.669101 1.649262 33.000000
2.499996 -0.696577 1.639838 30.000000
2.463900 -0.719016 1.619661 25.000000
2.443796 -0.745415 1.610089 31.000000
2.443751 -0.777936 1.613571 33.000000
2.414693 -0.801413 1.598974 32.000000
2.394062 -0.826703 1.588985 33.000000
2.376779 -0.853312 1.582034 36.000000
2.355314 -0.878153 1.572351 30.000000
2.349498 -0.908638 1.573190 29.000000
2.311957 -0.926413 1.552680 27.000000
2.309589 -0.958060 1.555813 33.000000
2.287453 -0.981346 1.545654 33.000000
2.229663 -0.989015 1.512250 29.000000
2.215199 -1.014483 1.507168 31.000000
2.203833 -1.041937 1.505157 35.000000
2.169163 -1.058020 1.487406 26.000000
2.172616 -1.092407 1.495634 29.000000
2.156808 -1.117282 1.490666 26.000000
2.133258 -1.137876 1.480398 32.000000
2.128280 -1.168284 1.483102 36.000000
2.093210 -1.181908 1.464800 33.000000
2.084105 -1.209739 1.464648 32.000000
2.066750 -1.233624 1.459731 32.000000
2.046226 -1.254409 1.451635 29.000000
2.021320 -1.273159 1.441318 26.000000
2.004183 -1.295525 1.435591 25.000000
1.975446 -1.311029 1.422665 24.000000
1.971570 -1.342830 1.427584 30.000000
1.953204 -1.364889 1.422137 30.000000
1.938215 -1.389194 1.419173 29.000000
1.922971 -1.413245 1.416124 29.000000
1.904121 -1.434537 1.410360 19.000000
1.885158 -1.455490 1.404608 10.000000
1.855941 -1.468082 1.391097 11.000000
1.835837 -1.488905 1.385720 25.000000
1.826508 -1.517166 1.387253 29.000000
1.802808 -1.534644 1.379198 27.000000
1.796198 -1.565410 1.383049 27.000000
1.772170 -1.582429 1.374846 30.000000
1.755500 -1.604210 1.370992 29.000000
1.750233 -1.638343 1.377606 27.000000
1.708031 -1.635765 1.353685 18.000000
1.692920 -1.660428 1.352670 23.000000
1.668457 -1.675679 1.344146 26.000000
1.653062 -1.699882 1.342957 25.000000
1.637350 -1.723912 1.341672 23.000000
1.627331 -1.754159 1.345191 27.000000
1.605218 -1.771534 1.338810 23.000000
1.591690 -1.798393 1.339668 24.000000
1.560786 -1.805226 1.325926 17.000000
1.549591 -1.834998 1.329107 24.000000
1.535395 -1.861357 1.329661 27.000000
1.507050 -1.870455 1.318157 26.000000
1.489612 -1.892968 1.316290 23.000000
1.474692 -1.918697 1.316713 26.000000
1.447475 -1.931083 1.307913 21.000000
1.429466 -1.952896 1.305763 19.000000
1.408653 -1.971024 1.301231 10.000000
1.391287 -1.996805 1.301752 13.000000
1.372712 -2.018058 1.299385 18.000000
1.356251 -2.042802 1.299257 16.000000
1.335533 -2.064384 1.297186 14.000000
1.320904 -2.092582 1.299324 14.000000
1.287909 -2.095054 1.285538 9.000000
1.254486 -2.092461 1.269005 10.000000
0.988467 1.645919 1.021854 32.000000
1.008037 1.636730 1.028195 35.000000
1.021823 1.615447 1.026989 30.000000
1.041236 1.605762 1.033271 32.000000
1.052117 1.580647 1.029573 35.000000
1.071136 1.570629 1.035722 30.000000
1.090232 1.560283 1.041889 28.000000
1.110532 1.549077 1.047608 35.000000
1.121746 1.527617 1.046425 33.000000
1.138065 1.513082 1.049993 39.000000
1.156852 1.501742 1.055928 35.000000
1.167473 1.479924 1.054556 40.000000
1.188838 1.471611 1.062881 45.000000
1.204665 1.456181 1.066259 39.000000
1.225984 1.447257 1.074565 36.000000
1.235922 1.424791 1.072881 33.000000
1.257119 1.415323 1.081085 49.000000
1.263665 1.389464 1.076752 55.000000
1.296583 1.392172 1.094820 35.000000
1.290806 1.353494 1.080395 59.000000
1.320682 1.352289 1.095901 57.000000
1.334685 1.335752 1.099301 47.000000
1.364794 1.333635 1.114779 63.000000
1.357649 1.295123 1.099912 26.000000
1.383731 1.289884 1.113175 35.000000
1.388513 1.263306 1.108229 37.000000
1.408182 1.251591 1.116387 35.000000
1.418903 1.230596 1.116372 52.000000
1.441736 1.221118 1.126990 47.000000
1.461306 1.208391 1.134945 36.000000
1.474930 1.189575 1.137306 37.000000
1.494340 1.176259 1.145162 27.000000
1.503547 1.154817 1.145286 33.000000
1.529742 1.146079 1.158219 53.000000
1.538637 1.124255 1.158146 35.000000
1.561251 1.112292 1.168334 52.000000
1.576881 1.094994 1.173340 37.000000
1.588211 1.075424 1.176086 35.000000
1.596466 1.052960 1.175665 38.000000
1.633114 1.048850 1.196151 27.000000
1.640571 1.026347 1.196097 37.000000
1.673742 1.018778 1.213839 70.000000
1.677196 0.993627 1.210954 36.000000
1.709834 0.985471 1.229125 55.000000
1.724106 0.966188 1.233973 51.000000
1.741860 0.948697 1.241411 37.000000
1.763375 0.932858 1.251453 43.000000
1.773437 0.910795 1.253394 26.000000
1.791000 0.892360 1.260592 33.000000
1.812164 0.875431 1.270331 35.000000
1.828968 0.856645 1.277856 35.000000
1.834604 0.831999 1.276784 35.000000
1.858796 0.816077 1.289473 42.000000
1.875737 0.795959 1.296161 35.000000
1.892015 0.775944 1.303304 33.000000
1.908140 0.755513 1.310314 28.000000
1.932054 0.737819 1.322724 36.000000
1.947521 0.716977 1.330068 37.000000
1.967244 0.696970 1.339448 50.000000
1.978490 0.674032 1.343893 42.000000
2.001982 0.654612 1.355856 44.000000
2.016881 0.632357 1.362727 33.000000
2.059844 0.618281 1.388516 35.000000
2.086665 0.598602 1.403417 30.000000
2.105279 0.576050 1.412671 33.000000
2.127790 0.554255 1.424577 34.000000
2.145682 0.531053 1.434180 36.000000
2.171640 0.509384 1.449086 36.000000
2.201879 0.487874 1.466086 41.000000
2.223460 0.464210 1.478062 42.000000
2.223898 0.436112 1.476738 30.000000
2.261559 0.414665 1.499329 32.000000
2.270294 0.387390 1.502647 52.000000
2.303098 0.364018 1.522792 41.000000
2.331687 0.339333 1.540054 54.000000
2.339443 0.311105 1.543478 40.000000
2.255485 0.271765 1.486506 95.000000
2.387316 0.257939 1.571808 45.000000
2.423165 0.231784 1.594514 31.000000
2.454916 0.204284 1.613782 29.000000
2.482011 0.175860 1.630675 36.000000
2.512957 0.147065 1.650136 34.000000
2.539209 0.117358 1.667324 36.000000
2.565485 0.086943 1.683778 35.000000
2.587038 0.055821 1.697867 35.000000
2.616675 0.024262 1.717259 35.000000
2.633491 -0.007979 1.728232 28.000000
2.700177 -0.041302 1.772025 45.000000
2.754012 -0.076020 1.807282 36.000000
2.765337 -0.110407 1.815611 34.000000
2.805981 -0.146528 1.842217 42.000000
2.837622 -0.183240 1.863837 33.000000
2.856292 -0.219707 1.877019 32.000000
2.832538 -0.252966 1.863318 27.000000
2.784063 -0.283071 1.832257 24.000000
2.768225 -0.315948 1.823634 33.000000
2.739560 -0.346838 1.806702 30.000000
2.714908 -0.377692 1.792215 28.000000
2.706572 -0.410446 1.788481 33.000000
2.681423 -0.440186 1.773718 32.000000
2.647310 -0.468158 1.753901 27.000000
2.625461 -0.497659 1.742097 23.000000
2.603776 -0.526560 1.729627 31.000000
2.573290 -0.553295 1.712013 29.000000
2.562686 -0.584177 1.708617 33.000000
2.539968 -0.611726 1.696196 29.000000
2.509010 -0.636714 1.678260 29.000000
2.493558 -0.665524 1.671600 29.000000
2.486050 -0.696304 1.670286 26.000000
2.441994 -0.716352 1.644363 18.000000
2.446185 -0.750099 1.650924 29.000000
2.429908 -0.777645 1.643649 30.000000
2.408959 -0.803754 1.634236 35.000000
2.380425 -0.826440 1.618697 31.000000
2.363186 -0.853104 1.611743 30.000000
2.330417 -0.873208 1.593200 32.000000
2.305061 -0.895870 1.580536 25.000000
2.283389 -0.919629 1.570587 19.000000
2.292782 -0.955903 1.581877 32.000000
2.246863 -0.969528 1.556113 29.000000
2.228620 -0.993702 1.548365 32.000000
2.205822 -1.016182 1.538486 31.000000
2.183491 -1.037850 1.527928 30.000000
2.168085 -1.063219 1.523166 32.000000
2.167477 -1.095869 1.528892 24.000000
2.121595 -1.105240 1.502592 18.000000
2.120553 -1.137543 1.508143 33.000000
2.100650 -1.159792 1.500328 32.000000
2.080576 -1.181598 1.492359 32.000000
2.067753 -1.207330 1.489519 33.000000
2.047472 -1.228517 1.481407 31.000000
2.040817 -1.258707 1.484269 36.000000
2.016522 -1.277008 1.473293 25.000000
1.973674 -1.283774 1.449752 17.000000
1.952159 -1.303849 1.441818 31.000000
1.952527 -1.337450 1.448897 28.000000
1.941198 -1.364379 1.448624 30.000000
1.922717 -1.386145 1.443054 32.000000
1.917784 -1.417819 1.447704 33.000000
1.902288 -1.441744 1.444554 29.000000
1.852728 -1.439236 1.415405 10.000000
1.827117 -1.454392 1.404330 10.000000
1.830417 -1.493945 1.416932 31.000000
1.820944 -1.522235 1.418446 31.000000
1.804574 -1.544934 1.414818 34.000000
1.777412 -1.559464 1.404037 30.000000
1.767198 -1.587286 1.405353 34.000000
1.743088 -1.604027 1.396904 33.000000
1.719858 -1.619684 1.387894 19.000000
1.695586 -1.635601 1.379330 19.000000
1.686556 -1.666368 1.383306 29.000000
1.660095 -1.678007 1.371582 30.000000
1.650535 -1.708421 1.375432 32.000000
1.631687 -1.729447 1.371578 32.000000
1.615608 -1.753494 1.370216 29.000000
1.596390 -1.774055 1.366272 32.000000
1.568402 -1.784577 1.354813 18.000000
1.548871 -1.804609 1.350723 22.000000
1.540439 -1.837732 1.356397 30.000000
1.523273 -1.860692 1.354563 26.000000
1.500419 -1.876743 1.347821 30.000000
1.480157 -1.895828 1.343449 28.000000
1.467758 -1.925170 1.346284 30.000000
1.444436 -1.940343 1.339297 29.000000
1.426252 -1.962365 1.337069 20.000000
1.393631 -1.966995 1.323303 12.000000
1.387709 -2.006439 1.332988 21.000000
1.366500 -2.024170 1.328152 21.000000
1.345840 -2.045999 1.326122 22.000000
1.324167 -2.063252 1.321192 19.000000
1.307715 -2.092224 1.323779 21.000000
1.262627 -2.071396 1.295189 10.000000
0.979829 1.645778 1.040969 34.000000
0.994839 1.628993 1.042564 26.000000
1.019077 1.626995 1.053697 28.000000
1.028048 1.598163 1.047650 34.000000
1.044935 1.584653 1.051491 27.000000
1.061689 1.570879 1.055332 32.000000
1.074529 1.549204 1.053896 24.000000
1.101110 1.549312 1.067380 18.000000
1.115046 1.531355 1.068649 44.000000
1.128773 1.513265 1.069835 34.000000
1.150275 1.505403 1.078358 36.000000
1.158415 1.480047 1.074439 49.000000
1.179762 1.471683 1.082920 33.000000
1.192877 1.452936 1.083808 52.000000
1.211357 1.440685 1.089690 29.000000
1.232597 1.431439 1.098035 24.000000
1.236775 1.402348 1.091221 48.000000
1.266495 1.402234 1.107030 34.000000
1.275947 1.379398 1.105168 49.000000
1.279204 1.350264 1.098061 45.000000
1.311073 1.352710 1.116788 37.000000
1.325977 1.335601 1.119728 65.000000
1.340680 1.318358 1.122669 31.000000
1.345171 1.292535 1.118232 25.000000
1.372009 1.286736 1.131261 38.000000
1.385473 1.269386 1.134409 32.000000
1.406051 1.257001 1.142269 52.000000
1.409652 1.230806 1.137439 37.000000
1.425933 1.215730 1.143051 35.000000
1.445483 1.203033 1.151084 39.000000
1.462385 1.186944 1.156055 33.000000
1.488413 1.178971 1.169307 26.000000
1.501140 1.160052 1.171961 37.000000
1.513662 1.140929 1.174616 35.000000
1.529469 1.124184 1.179773 52.000000
1.544443 1.107695 1.185352 42.000000
1.563560 1.092865 1.193047 37.000000
1.579009 1.075337 1.197969 55.000000
1.597900 1.059852 1.205493 31.000000
1.623237 1.049058 1.218787 25.000000
1.627727 1.023847 1.215536 45.000000
1.652963 1.012327 1.228674 36.000000
1.670928 0.995916 1.236490 39.000000
1.696211 0.983414 1.249489 61.000000
1.703042 0.959988 1.249067 35.000000
1.724457 0.944675 1.259281 37.000000
1.734718 0.922941 1.261276 26.000000
1.763446 0.910712 1.276797 25.000000
1.762114 0.882882 1.270471 37.000000
1.794514 0.871635 1.288536 34.000000
1.818835 0.856464 1.301580 38.000000
1.831640 0.835620 1.306348 37.000000
1.844851 0.814168 1.310537 34.000000
1.861219 0.794412 1.317903 47.000000
1.881307 0.775986 1.327794 26.000000
1.897463 0.755575 1.334971 25.000000
1.921274 0.737820 1.347490 36.000000
1.940618 0.718375 1.357670 49.000000
1.956422 0.696859 1.364444 49.000000
1.975555 0.676651 1.374435 58.000000
1.991041 0.654539 1.381082 37.000000
2.005895 0.632307 1.388046 38.000000
2.044609 0.616953 1.411484 31.000000
2.071282 0.597261 1.426531 28.000000
2.093826 0.575886 1.438760 37.000000
2.107769 0.552160 1.445799 35.000000
2.126040 0.528841 1.454975 32.000000
2.172020 0.512069 1.483945 42.000000
2.185543 0.486971 1.490714 33.000000
2.198859 0.461508 1.497244 32.000000
2.207884 0.435039 1.500842 25.000000
2.253487 0.415167 1.529341 29.000000
2.278178 0.390853 1.544407 51.000000
2.294479 0.364643 1.553763 40.000000
2.310566 0.337958 1.562960 37.000000
2.326435 0.311053 1.571993 37.000000
2.346292 0.284170 1.583643 35.000000
2.378232 0.258223 1.603564 48.000000
