x y z intensity
0.853931 0.007947 -0.843054 95.000000
0.857525 -0.003861 -0.846567 100.000000
0.853894 -0.015601 -0.842981 98.000000
0.853784 -0.027356 -0.842798 98.000000
0.853564 -0.039075 -0.842541 98.000000
0.856533 -0.051042 -0.846052 98.000000
0.848695 -0.062325 -0.838958 95.000000
0.851807 -0.074304 -0.841956 90.000000
0.847419 -0.085665 -0.838229 95.000000
0.853223 -0.098186 -0.845243 95.000000
0.845121 -0.109004 -0.837827 98.000000
0.843991 -0.120638 -0.837317 95.000000
0.842495 -0.132308 -0.837098 98.000000
0.837699 -0.143266 -0.832942 95.000000
0.836029 -0.154815 -0.832579 98.000000
0.844802 -0.168460 -0.842595 95.000000
0.835931 -0.178586 -0.835056 98.000000
0.837524 -0.190906 -0.837927 98.000000
0.831664 -0.201671 -0.834071 100.000000
0.833057 -0.214014 -0.836755 98.000000
0.823609 -0.223706 -0.829274 98.000000
0.824845 -0.235988 -0.831847 95.000000
0.815302 -0.245368 -0.824198 94.000000
0.809161 -0.255568 -0.820001 71.000000
0.813186 -0.268992 -0.826114 98.000000
0.806876 -0.279072 -0.821775 95.000000
0.803549 -0.290319 -0.821125 98.000000
0.803889 -0.302693 -0.823536 98.000000
0.800366 -0.313915 -0.822773 85.000000
0.790472 -0.322224 -0.814707 95.000000
0.790205 -0.334619 -0.817219 93.000000
0.793117 -0.348566 -0.823131 66.000000
0.802498 -0.365635 -0.835832 95.000000
0.791958 -0.373694 -0.827776 95.000000
0.781374 -0.381497 -0.819703 95.000000
0.780579 -0.394006 -0.821851 98.000000
0.779271 -0.406680 -0.824245 81.000000
0.775042 -0.417492 -0.822848 98.000000
0.767102 -0.426636 -0.818298 71.000000
0.781362 -0.448375 -0.837480 55.000000
0.770505 -0.455452 -0.829070 100.000000
0.768616 -0.468198 -0.831084 98.000000
0.763494 -0.479002 -0.829627 95.000000
0.764488 -0.493729 -0.834891 98.000000
0.759174 -0.504432 -0.833308 88.000000
0.753294 -0.515287 -0.832027 98.000000
0.747867 -0.525878 -0.830293 60.000000
0.760359 -0.549384 -0.848687 36.000000
0.760066 -0.564700 -0.853839 95.000000
0.754230 -0.575361 -0.851894 89.000000
0.747771 -0.586139 -0.850259 89.000000
0.738366 -0.594499 -0.845181 95.000000
0.734658 -0.607462 -0.846719 69.000000
0.730820 -0.620391 -0.848203 95.000000
0.726891 -0.633324 -0.849595 57.000000
0.720028 -0.643716 -0.847634 44.000000
0.718597 -0.659119 -0.852175 91.000000
0.714310 -0.672018 -0.853363 95.000000
0.712568 -0.687502 -0.857729 85.000000
0.707984 -0.700359 -0.858755 90.000000
0.718588 -0.729712 -0.879634 91.000000
0.710967 -0.740012 -0.877203 81.000000
0.705123 -0.753256 -0.878302 35.000000
0.702495 -0.769021 -0.882243 32.000000
0.686206 -0.770828 -0.870323 92.000000
0.688387 -0.792282 -0.880541 71.000000
0.679565 -0.802442 -0.878158 90.000000
0.668253 -0.809552 -0.872537 81.000000
0.664169 -0.825470 -0.876411 62.000000
0.664592 -0.847524 -0.886605 52.000000
0.652962 -0.854370 -0.880797 35.000000
0.645945 -0.867235 -0.881326 30.000000
0.643338 -0.886371 -0.888049 60.000000
0.490780 0.693224 -0.675145 32.000000
0.518859 0.714251 -0.705353 31.000000
0.535869 0.718961 -0.720013 21.000000
0.551391 0.719948 -0.731360 37.000000
0.647974 0.824716 -0.849971 71.000000
0.678002 0.842543 -0.881156 36.000000
0.694544 0.841404 -0.893169 70.000000
0.703709 0.831077 -0.895622 66.000000
0.715359 0.823531 -0.901259 44.000000
0.742390 0.833060 -0.925941 62.000000
0.732675 0.802544 -0.906268 26.000000
0.728554 0.777718 -0.892462 32.000000
0.741827 0.772760 -0.901404 60.000000
0.771943 0.783589 -0.929311 37.000000
0.785490 0.777879 -0.938287 62.000000
0.802558 0.774257 -0.950095 38.000000
0.816184 0.767974 -0.959011 42.000000
0.832668 0.763961 -0.971128 52.000000
0.832298 0.744477 -0.963647 21.000000
0.831721 0.725099 -0.956031 34.000000
0.859643 0.730300 -0.981185 64.000000
0.870438 0.720383 -0.986572 57.000000
0.889976 0.717371 -1.001860 69.000000
0.897815 0.704661 -1.003855 49.000000
0.926413 0.707789 -1.028963 57.000000
0.936628 0.697020 -1.034604 42.000000
0.935308 0.677069 -1.026542 24.000000
0.954484 0.672556 -1.042028 39.000000
0.974421 0.667366 -1.057037 53.000000
0.981386 0.653725 -1.059117 38.000000
1.000725 0.648015 -1.074490 62.000000
1.039022 0.653757 -1.109983 48.000000
1.055523 0.644954 -1.121980 42.000000
1.071997 0.635834 -1.133909 54.000000
1.062931 0.611558 -1.118808 24.000000
0.847491 0.443820 -0.880222 91.000000
0.849211 0.430257 -0.877903 98.000000
0.850381 0.416904 -0.875891 95.000000
0.848125 0.401953 -0.870352 95.000000
0.849014 0.388671 -0.868158 95.000000
0.856523 0.378398 -0.872695 70.000000
0.843816 0.359326 -0.856646 95.000000
0.844345 0.346260 -0.854187 98.000000
0.844805 0.333173 -0.851644 95.000000
0.844742 0.320293 -0.849359 100.000000
0.844954 0.307318 -0.846650 100.000000
0.851516 0.296869 -0.851062 100.000000
0.847727 0.282876 -0.845137 100.000000
0.843813 0.268997 -0.839085 95.000000
0.846680 0.257344 -0.839792 83.000000
0.845991 0.244683 -0.837055 98.000000
0.845205 0.232045 -0.834201 95.000000
0.851331 0.221324 -0.838130 95.000000
0.850006 0.208781 -0.835457 95.000000
0.852111 0.197149 -0.836158 98.000000
0.854474 0.185407 -0.836417 98.000000
0.852855 0.172983 -0.833512 98.000000
0.861787 0.162628 -0.840874 95.000000
0.860013 0.150179 -0.837783 98.000000
0.868498 0.139581 -0.845340 100.000000
0.870136 0.127667 -0.845563 100.000000
0.867756 0.115278 -0.842580 98.000000
0.872444 0.103839 -0.846420 100.000000
0.873822 0.091887 -0.846420 100.000000
0.874753 0.079936 -0.846643 100.000000
0.853787 0.066349 -0.826296 46.000000
0.858140 0.054885 -0.829841 95.000000
0.855240 0.042962 -0.826332 98.000000
0.855530 0.031304 -0.826550 98.000000
0.859307 0.019693 -0.830206 98.000000
0.852225 0.007884 -0.823331 97.000000
0.859453 -0.003793 -0.830242 100.000000
0.863013 -0.015601 -0.833643 103.000000
0.862903 -0.027393 -0.833459 98.000000
0.855494 -0.038858 -0.826260 100.000000
0.862060 -0.050977 -0.833203 105.000000
0.854187 -0.062209 -0.826187 71.000000
0.857338 -0.074177 -0.829148 98.000000
0.852879 -0.085524 -0.825461 98.000000
0.848066 -0.096809 -0.821992 100.000000
0.850628 -0.108839 -0.825061 98.000000
0.853108 -0.120966 -0.828017 103.000000
0.848013 -0.132081 -0.824335 100.000000
0.853894 -0.144836 -0.830603 100.000000
0.852209 -0.156519 -0.830237 88.000000
0.853958 -0.168902 -0.833218 98.000000
0.852120 -0.180559 -0.832666 100.000000
0.846313 -0.191492 -0.828918 98.000000
0.844299 -0.203064 -0.828186 98.000000
0.849230 -0.216388 -0.834312 100.000000
0.839722 -0.226172 -0.826904 100.000000
0.837122 -0.237708 -0.826282 100.000000
0.810110 -0.241938 -0.801542 73.000000
0.821269 -0.257411 -0.814543 95.000000
0.811578 -0.266426 -0.806844 100.000000
0.808709 -0.277542 -0.805984 100.000000
0.812626 -0.291079 -0.811867 100.000000
0.809227 -0.302325 -0.811143 98.000000
0.809518 -0.314714 -0.813477 100.000000
0.802573 -0.324530 -0.809191 100.000000
0.812404 -0.341260 -0.821929 83.000000
0.811972 -0.353975 -0.824305 98.000000
0.808094 -0.365164 -0.823234 100.000000
0.804180 -0.376316 -0.822089 98.000000
0.803425 -0.388994 -0.824263 100.000000
0.792730 -0.396751 -0.816192 95.000000
0.791441 -0.409512 -0.818545 98.000000
0.787194 -0.420406 -0.817141 98.000000
0.785701 -0.433155 -0.819331 95.000000
0.784057 -0.445958 -0.821475 98.000000
0.785491 -0.460612 -0.826894 100.000000
0.783596 -0.473490 -0.828861 100.000000
0.781585 -0.486381 -0.830779 100.000000
0.773232 -0.495236 -0.825884 98.000000
0.761700 -0.501918 -0.817664 98.000000
0.762528 -0.516681 -0.822680 95.000000
0.768864 -0.536041 -0.834624 35.000000
0.775397 -0.555439 -0.846096 95.000000
0.769132 -0.566412 -0.844579 98.000000
0.766289 -0.579336 -0.845937 98.000000
0.759805 -0.590195 -0.844258 95.000000
0.756224 -0.603285 -0.845830 95.000000
0.743724 -0.609212 -0.837458 95.000000
0.737070 -0.619757 -0.835629 90.000000
0.733203 -0.632695 -0.836992 36.000000
0.740514 -0.655646 -0.851348 95.000000
0.727884 -0.661016 -0.842770 98.000000
0.718027 -0.668739 -0.837469 98.000000
0.716452 -0.684198 -0.841779 98.000000
0.714047 -0.699935 -0.846375 95.000000
0.712126 -0.715470 -0.850540 100.000000
0.711989 -0.734111 -0.858168 78.000000
0.712285 -0.752577 -0.865338 72.000000
0.709053 -0.768611 -0.869548 91.000000
0.701167 -0.778655 -0.866975 95.000000
0.689947 -0.786047 -0.861513 95.000000
0.683777 -0.799075 -0.862327 95.000000
0.677460 -0.812052 -0.863081 85.000000
0.670994 -0.824977 -0.863776 95.000000
0.665176 -0.837597 -0.864075 95.000000
0.658456 -0.850455 -0.864648 57.000000
0.660137 -0.876067 -0.877953 59.000000
0.652934 -0.888995 -0.878367 62.000000
0.645620 -0.901864 -0.878675 91.000000
0.490680 0.702594 -0.665443 34.000000
0.511904 0.714501 -0.686054 27.000000
0.549812 0.748087 -0.728317 27.000000
0.577422 0.764734 -0.755054 27.000000
0.621614 0.802696 -0.803921 35.000000
0.674029 0.848676 -0.862328 60.000000
0.665895 0.817589 -0.843008 95.000000
0.692246 0.828726 -0.867316 64.000000
0.713133 0.833659 -0.885725 81.000000
0.724816 0.826122 -0.891284 67.000000
0.741664 0.824144 -0.903133 49.000000
0.753366 0.816121 -0.908611 58.000000
0.732451 0.774565 -0.876313 24.000000
0.746455 0.769404 -0.884785 59.000000
0.760498 0.764001 -0.893286 67.000000
0.776635 0.761262 -0.905275 54.000000
0.792854 0.758204 -0.917272 51.000000
0.815462 0.759737 -0.935306 65.000000
0.837604 0.761047 -0.953726 39.000000
0.842786 0.746638 -0.952799 34.000000
0.839174 0.724747 -0.942100 27.000000
0.852720 0.717791 -0.950721 65.000000
0.869265 0.712900 -0.962533 95.000000
0.882914 0.705349 -0.971083 39.000000
0.905542 0.704469 -0.989410 81.000000
0.922305 0.698511 -1.001168 66.000000
0.942166 0.694397 -1.016194 47.000000
0.961462 0.690133 -1.031558 31.000000
0.944484 0.659336 -1.007051 29.000000
0.966845 0.656775 -1.025594 58.000000
0.977428 0.645176 -1.030510 71.000000
1.003115 0.643754 -1.052317 43.000000
1.025836 0.639731 -1.070835 74.000000
1.058214 0.640979 -1.099276 54.000000
1.074787 0.631907 -1.111023 36.000000
0.905867 0.501016 -0.927628 29.000000
0.855211 0.458749 -0.872456 79.000000
0.863605 0.448553 -0.876998 95.000000
0.862012 0.433188 -0.871374 95.000000
0.869788 0.422986 -0.876080 98.000000
0.870859 0.409463 -0.874033 87.000000
0.858353 0.389838 -0.858392 95.000000
0.876441 0.383821 -0.872647 84.000000
0.866563 0.366181 -0.860570 31.000000
0.850086 0.345901 -0.841272 100.000000
0.857315 0.335541 -0.845528 100.000000
0.854165 0.321125 -0.839558 100.000000
0.864334 0.312004 -0.847397 100.000000
0.871353 0.301264 -0.851476 98.000000
0.867488 0.287086 -0.845603 100.000000
0.860039 0.271915 -0.836241 91.000000
0.873453 0.263339 -0.847199 67.000000
0.858706 0.246360 -0.830857 98.000000
0.857893 0.233671 -0.828045 98.000000
0.863695 0.222942 -0.832309 103.000000
0.866227 0.211102 -0.832756 100.000000
0.868349 0.199337 -0.833426 98.000000
0.870397 0.187535 -0.834059 98.000000
0.869091 0.174901 -0.830863 91.000000
0.874529 0.163744 -0.834729 95.000000
0.883162 0.153149 -0.842284 98.000000
0.877694 0.139990 -0.835734 100.000000
0.861277 0.125415 -0.818827 98.000000
0.887741 0.117077 -0.843298 103.000000
0.881641 0.104174 -0.836814 100.000000
0.889881 0.092941 -0.844011 98.000000
0.883614 0.080197 -0.837372 95.000000
0.869971 0.067090 -0.823791 87.000000
0.867112 0.055067 -0.820432 98.000000
0.871436 0.043469 -0.823865 100.000000
0.871728 0.031677 -0.824084 98.000000
0.868279 0.019766 -0.820797 100.000000
0.868424 0.007987 -0.820870 100.000000
0.868461 -0.003793 -0.820870 100.000000
0.872021 -0.015637 -0.824194 103.000000
0.871912 -0.027466 -0.824011 103.000000
0.868060 -0.039094 -0.820359 103.000000
0.867476 -0.050874 -0.820323 103.000000
0.866783 -0.062653 -0.820250 95.000000
0.869641 -0.074707 -0.823498 98.000000
0.865142 -0.086139 -0.819848 100.000000
0.860578 -0.097472 -0.816091 103.000000
0.863173 -0.109588 -0.819083 105.000000
0.862079 -0.121258 -0.818609 103.000000
0.860584 -0.133001 -0.818390 103.000000
0.858979 -0.144671 -0.818061 98.000000
0.857630 -0.156304 -0.817369 81.000000
0.866623 -0.170045 -0.827148 98.000000
0.860872 -0.181110 -0.823473 103.000000
0.862487 -0.193604 -0.826262 100.000000
0.856900 -0.204425 -0.822149 103.000000
0.854473 -0.216119 -0.821708 103.000000
0.859377 -0.229592 -0.827637 100.000000
0.853218 -0.240316 -0.823640 100.000000
0.847008 -0.250870 -0.819538 95.000000
0.830238 -0.258061 -0.805176 98.000000
0.823962 -0.268208 -0.800987 98.000000
0.824560 -0.280591 -0.803477 103.000000
0.821269 -0.291910 -0.802826 100.000000
0.814779 -0.301806 -0.798430 100.000000
0.818198 -0.315622 -0.804398 98.000000
0.814639 -0.326843 -0.803526 100.000000
0.814378 -0.339412 -0.805990 95.000000
0.824597 -0.356291 -0.818108 98.000000
0.810205 -0.363171 -0.807275 100.000000
0.813006 -0.377386 -0.812858 98.000000
0.812324 -0.390107 -0.814993 98.000000
0.808245 -0.401156 -0.813658 100.000000
0.810224 -0.415748 -0.819346 100.000000
0.802226 -0.425220 -0.814885 100.000000
0.791330 -0.432554 -0.806728 82.000000
0.802780 -0.452647 -0.822152 100.000000
0.804227 -0.467521 -0.827442 103.000000
0.799136 -0.478615 -0.826074 103.000000
0.793931 -0.489634 -0.824592 103.000000
0.785520 -0.498566 -0.819767 98.000000
0.780184 -0.509388 -0.818215 98.000000
0.774319 -0.520325 -0.816891 100.000000
0.771970 -0.533137 -0.818475 100.000000
0.784385 -0.557073 -0.836719 95.000000
0.784694 -0.572305 -0.841399 95.000000
0.778302 -0.583324 -0.839791 100.000000
0.771831 -0.594226 -0.838105 98.000000
0.768260 -0.607404 -0.839634 98.000000
0.764519 -0.620587 -0.841070 98.000000
0.751910 -0.626422 -0.832732 80.000000
0.742227 -0.634492 -0.827578 83.000000
0.746921 -0.654959 -0.838525 88.000000
0.745590 -0.670551 -0.842937 98.000000
0.741293 -0.683625 -0.844027 95.000000
0.733467 -0.694260 -0.842181 98.000000
0.731686 -0.709931 -0.846362 95.000000
0.721553 -0.717444 -0.840872 91.000000
0.716158 -0.730594 -0.842035 98.000000
0.726609 -0.760476 -0.862161 95.000000
0.718806 -0.770686 -0.859629 47.000000
0.712826 -0.783934 -0.860582 98.000000
0.704161 -0.794223 -0.858249 85.000000
0.697919 -0.807375 -0.859051 95.000000
0.692368 -0.820141 -0.859459 98.000000
0.683388 -0.830170 -0.856983 95.000000
0.674408 -0.840073 -0.854465 62.000000
0.667722 -0.852982 -0.855004 41.000000
0.665656 -0.872045 -0.861658 35.000000
0.660180 -0.888416 -0.865433 77.000000
0.652934 -0.901259 -0.865759 71.000000
0.641014 -0.907582 -0.859902 95.000000
0.480791 0.698971 -0.643817 13.000000
0.518618 0.733838 -0.685111 10.000000
0.547375 0.755137 -0.714689 19.000000
0.567151 0.763000 -0.732202 11.000000
0.599976 0.785866 -0.764809 10.000000
0.642396 0.820649 -0.810095 35.000000
0.668444 0.832774 -0.834056 28.000000
0.684875 0.832168 -0.845756 30.000000
0.696354 0.825260 -0.851276 33.000000
0.707856 0.818112 -0.856772 21.000000
0.729727 0.822470 -0.874652 34.000000
0.740629 0.815113 -0.880432 29.000000
0.738904 0.792989 -0.870192 17.000000
0.742264 0.776671 -0.866122 31.000000
0.748135 0.763199 -0.865082 26.000000
0.772476 0.769131 -0.886400 29.000000
0.772712 0.749891 -0.878973 32.000000
0.802935 0.760342 -0.906667 24.000000
0.822882 0.759250 -0.921339 36.000000
0.833668 0.750323 -0.926825 31.000000
0.841571 0.738645 -0.929090 14.000000
0.826036 0.706852 -0.905664 33.000000
0.851222 0.710020 -0.926982 31.000000
0.867721 0.705361 -0.938654 44.000000
0.878338 0.695571 -0.943881 34.000000
0.907013 0.699554 -0.968445 29.000000
0.926853 0.696033 -0.983306 35.000000
0.937581 0.685291 -0.988402 31.000000
0.945120 0.672121 -0.990217 22.000000
0.948887 0.657021 -0.989104 32.000000
0.959361 0.645826 -0.994033 32.000000
0.985115 0.645101 -1.015581 35.000000
1.014178 0.645743 -1.040478 49.000000
1.021554 0.631526 -1.041933 31.000000
1.050884 0.631046 -1.066753 37.000000
1.060883 0.618513 -1.071826 37.000000
0.936561 0.529791 -0.941841 39.000000
0.863245 0.473500 -0.864125 41.000000
0.871316 0.463549 -0.868988 62.000000
0.869788 0.448116 -0.863535 60.000000
0.878117 0.437759 -0.867963 95.000000
0.875897 0.422556 -0.862686 75.000000
0.873529 0.407495 -0.857349 70.000000
0.878175 0.395409 -0.858176 82.000000
0.889227 0.386414 -0.865979 92.000000
0.879609 0.368555 -0.853711 72.000000
0.866336 0.349560 -0.837994 95.000000
0.880179 0.341917 -0.849250 95.000000
0.880497 0.328604 -0.846756 98.000000
0.880670 0.315308 -0.844140 98.000000
0.883900 0.303387 -0.845140 100.000000
0.887053 0.291429 -0.846063 98.000000
0.883026 0.277214 -0.840187 98.000000
0.889852 0.266182 -0.844007 62.000000
0.878159 0.250181 -0.831537 98.000000
0.873740 0.236304 -0.825439 100.000000
0.876357 0.224454 -0.825963 98.000000
0.882186 0.213508 -0.830122 100.000000
0.881030 0.200715 -0.827084 100.000000
0.879481 0.188056 -0.824341 98.000000
0.892254 0.178345 -0.835042 98.000000
0.876039 0.162919 -0.818581 67.000000
0.892321 0.153600 -0.832487 100.000000
0.894010 0.141551 -0.832825 103.000000
0.898963 0.130028 -0.836738 103.000000
0.882279 0.115505 -0.819948 103.000000
0.901639 0.105756 -0.837303 103.000000
0.884421 0.091725 -0.820649 103.000000
0.878064 0.079138 -0.814087 105.000000
0.897217 0.068712 -0.831197 95.000000
0.883341 0.055675 -0.817700 98.000000
0.880334 0.043616 -0.814307 103.000000
0.891635 0.032184 -0.824708 103.000000
0.888188 0.020088 -0.821462 98.000000
0.884628 0.008090 -0.818141 105.000000
0.888335 -0.003840 -0.821536 105.000000
0.888298 -0.015768 -0.821462 105.000000
0.888151 -0.027732 -0.821277 105.000000
0.884260 -0.039532 -0.817626 108.000000
0.876338 -0.050983 -0.810841 103.000000
0.875645 -0.062799 -0.810731 103.000000
0.882201 -0.075202 -0.817369 100.000000
0.881355 -0.087080 -0.817111 105.000000
0.884052 -0.099332 -0.820169 103.000000
0.883018 -0.111222 -0.819763 103.000000
0.874292 -0.122131 -0.812842 100.000000
0.865808 -0.132771 -0.805487 103.000000
0.871509 -0.145642 -0.811926 100.000000
0.866200 -0.156742 -0.808178 98.000000
0.871720 -0.169821 -0.814427 98.000000
0.869845 -0.181588 -0.813875 103.000000
0.867932 -0.193282 -0.813250 100.000000
0.865579 -0.205050 -0.812882 100.000000
0.863483 -0.216671 -0.812073 100.000000
0.860982 -0.228365 -0.811558 100.000000
0.858371 -0.240022 -0.810933 95.000000
0.856018 -0.251532 -0.809940 95.000000
0.835233 -0.257729 -0.792704 71.000000
0.846570 -0.273560 -0.805298 98.000000
0.836610 -0.282610 -0.797679 98.000000
0.837171 -0.295103 -0.800083 100.000000
0.844208 -0.310365 -0.809387 98.000000
0.826804 -0.316530 -0.795210 98.000000
0.840874 -0.334525 -0.810692 95.000000
0.840612 -0.347369 -0.813098 60.000000
0.829955 -0.355822 -0.805399 59.000000
0.826078 -0.367084 -0.804328 98.000000
0.818361 -0.376857 -0.800159 95.000000
0.817769 -0.389535 -0.802260 98.000000
0.817033 -0.402268 -0.804277 91.000000
0.815778 -0.415168 -0.806545 95.000000
0.811087 -0.426375 -0.805465 98.000000
0.813344 -0.440905 -0.810566 57.000000
0.808464 -0.452016 -0.809290 59.000000
0.816574 -0.470619 -0.821114 98.000000
0.808217 -0.479869 -0.816461 94.000000
0.803011 -0.490925 -0.814980 98.000000
0.800514 -0.504112 -0.817070 95.000000
0.791993 -0.512962 -0.812206 90.000000
0.783401 -0.521687 -0.807317 93.000000
0.796308 -0.545432 -0.825415 63.000000
0.784385 -0.551904 -0.817147 29.000000
0.796762 -0.576225 -0.835067 95.000000
0.787282 -0.585011 -0.830183 68.000000
0.786888 -0.600589 -0.834984 84.000000
0.777275 -0.609136 -0.830028 42.000000
0.770622 -0.619923 -0.828217 63.000000
0.766851 -0.633075 -0.829570 62.000000
0.757080 -0.641221 -0.824477 42.000000
0.747322 -0.649206 -0.819321 35.000000
0.766349 -0.682697 -0.845943 52.000000
0.750563 -0.685471 -0.834275 74.000000
0.745561 -0.698793 -0.835635 79.000000
0.752253 -0.722576 -0.849163 36.000000
0.746851 -0.736015 -0.850342 72.000000
0.741967 -0.749120 -0.851093 55.000000
0.736279 -0.762510 -0.852117 42.000000
0.730488 -0.775852 -0.853083 35.000000
0.735086 -0.800667 -0.866417 35.000000
0.716524 -0.799222 -0.851358 46.000000
0.707786 -0.809466 -0.848975 57.000000
0.704024 -0.825566 -0.852772 36.000000
0.695054 -0.835631 -0.850329 39.000000
0.695941 -0.857867 -0.860089 32.000000
0.684260 -0.864723 -0.854420 31.000000
0.684657 -0.887095 -0.864036 33.000000
0.679102 -0.903628 -0.867707 32.000000
0.674189 -0.919822 -0.870993 53.000000
0.673639 -0.942544 -0.880291 33.000000
0.664993 -0.955897 -0.880687 34.000000
0.466994 0.688000 -0.616268 26.000000
0.490232 0.704245 -0.639231 33.000000
0.509906 0.713113 -0.656104 29.000000
0.545742 0.744398 -0.694276 23.000000
0.579964 0.771574 -0.729663 36.000000
0.641550 0.832573 -0.798494 25.000000
0.660962 0.835496 -0.812800 22.000000
0.672377 0.829091 -0.818255 34.000000
0.676137 0.813312 -0.814575 36.000000
0.707983 0.830704 -0.844433 36.000000
0.719509 0.823527 -0.849902 42.000000
0.712649 0.795599 -0.833767 44.000000
0.747907 0.814367 -0.866848 62.000000
0.740665 0.786530 -0.850563 24.000000
0.737708 0.764958 -0.840631 24.000000
0.754403 0.762765 -0.852027 35.000000
0.765633 0.754765 -0.857193 32.000000
0.773354 0.744148 -0.859543 34.000000
0.787347 0.738444 -0.867738 35.000000
0.800737 0.732792 -0.876260 35.000000
0.840892 0.749824 -0.912755 37.000000
0.831165 0.722914 -0.896037 18.000000
0.827020 0.701324 -0.885510 28.000000
0.843352 0.697266 -0.897071 35.000000
0.853829 0.687986 -0.902234 35.000000
0.873325 0.685679 -0.916919 35.000000
0.886824 0.678227 -0.925233 35.000000
0.915753 0.681954 -0.949470 38.000000
0.935665 0.678279 -0.964095 37.000000
0.933705 0.658650 -0.956259 18.000000
0.956214 0.656802 -0.974431 29.000000
0.973059 0.649904 -0.985713 35.000000
0.989388 0.642886 -0.997404 34.000000
1.003100 0.633190 -1.005426 32.000000
1.016237 0.623507 -1.013754 54.000000
1.006489 0.599918 -0.999346 52.000000
0.930667 0.538571 -0.919785 77.000000
0.853727 0.479420 -0.839870 37.000000
0.878899 0.478605 -0.860731 35.000000
0.880747 0.464833 -0.858715 88.000000
0.879147 0.449350 -0.853340 64.000000
0.883726 0.437482 -0.854773 63.000000
0.881816 0.422116 -0.849251 77.000000
0.886202 0.410220 -0.850516 92.000000
0.883986 0.395014 -0.844850 95.000000
0.895055 0.386034 -0.852531 37.000000
0.892222 0.371053 -0.847007 72.000000
0.892734 0.357578 -0.844727 95.000000
0.889636 0.342809 -0.839019 95.000000
0.889530 0.329569 -0.836873 98.000000
0.889667 0.316269 -0.834296 98.000000
0.892897 0.304310 -0.835296 98.000000
0.892801 0.291038 -0.832594 98.000000
0.892258 0.277939 -0.830116 95.000000
0.888033 0.263795 -0.824232 86.000000
0.890872 0.251837 -0.824913 84.000000
0.893596 0.239841 -0.825557 95.000000
0.896245 0.227808 -0.826086 95.000000
0.898478 0.215850 -0.826881 95.000000
0.897342 0.202919 -0.823924 94.000000
0.895736 0.190123 -0.821189 95.000000
0.901375 0.178835 -0.825092 70.000000
0.910573 0.168125 -0.832229 67.000000
0.912359 0.155891 -0.832647 98.000000
0.910398 0.143080 -0.829606 95.000000
0.919075 0.131989 -0.836868 95.000000
0.913274 0.118710 -0.830325 95.000000
0.888599 0.103481 -0.807293 95.000000
0.893320 0.091983 -0.810938 98.000000
0.894243 0.080019 -0.811159 95.000000
0.906226 0.068899 -0.821365 58.000000
0.903272 0.056555 -0.818087 73.000000
0.900275 0.044309 -0.814734 72.000000
0.907983 0.032524 -0.821664 88.000000
0.900794 0.020245 -0.815104 95.000000
0.897197 0.008161 -0.811824 95.000000
0.893527 -0.003788 -0.808469 98.000000
0.886075 -0.015609 -0.801651 100.000000
0.878516 -0.027231 -0.794798 100.000000
0.878299 -0.038948 -0.794544 100.000000
0.881424 -0.050879 -0.797897 98.000000
0.880734 -0.062681 -0.797788 95.000000
0.879971 -0.074448 -0.797606 95.000000
0.882830 -0.086576 -0.800739 98.000000
0.881881 -0.098356 -0.800411 98.000000
0.880860 -0.110135 -0.800010 100.000000
0.879438 -0.121914 -0.799827 100.000000
0.874560 -0.133098 -0.795936 105.000000
0.872998 -0.144792 -0.795609 103.000000
0.864042 -0.155170 -0.788527 86.000000
0.865967 -0.167436 -0.791398 95.000000
0.860513 -0.178253 -0.787519 98.000000
0.862242 -0.190545 -0.790241 100.000000
0.867221 -0.203859 -0.796509 100.000000
0.861522 -0.214518 -0.792377 100.000000
0.855444 -0.225117 -0.788541 100.000000
0.860073 -0.238613 -0.794576 95.000000
0.871798 -0.254324 -0.807170 66.000000
0.847560 -0.259436 -0.786480 98.000000
0.848340 -0.271934 -0.789000 95.000000
0.838006 -0.281028 -0.781793 95.000000
0.859822 -0.300895 -0.803981 98.000000
0.856373 -0.312501 -0.803239 98.000000
0.860207 -0.326587 -0.808691 95.000000
0.856543 -0.338213 -0.807832 95.000000
0.831919 -0.341163 -0.787100 37.000000
0.828200 -0.352359 -0.786079 95.000000
0.817508 -0.360476 -0.778452 94.000000
0.823572 -0.376318 -0.787463 100.000000
0.823032 -0.388992 -0.789531 98.000000
0.818545 -0.400208 -0.788575 95.000000
0.814427 -0.411167 -0.787214 95.000000
0.819874 -0.427491 -0.795897 91.000000
0.828470 -0.445814 -0.807771 36.000000
0.816909 -0.453405 -0.800018 91.000000
0.811955 -0.464478 -0.798704 95.000000
0.810205 -0.477447 -0.800556 98.000000
0.811560 -0.492369 -0.805595 95.000000
0.803079 -0.501328 -0.800846 95.000000
0.790897 -0.508283 -0.793149 98.000000
0.795146 -0.525310 -0.801150 98.000000
0.786012 -0.534099 -0.796570 62.000000
0.802517 -0.560069 -0.817264 83.000000
0.796291 -0.571120 -0.815707 76.000000
0.796145 -0.586658 -0.820497 78.000000
0.789713 -0.597599 -0.818850 89.000000
0.786212 -0.610829 -0.820304 94.000000
0.785602 -0.626474 -0.824838 95.000000
0.775822 -0.634814 -0.819848 66.000000
0.763086 -0.640500 -0.811595 56.000000
0.768034 -0.661102 -0.822276 95.000000
0.758108 -0.669083 -0.817102 78.000000
0.756224 -0.684983 -0.821588 95.000000
0.757645 -0.703300 -0.828853 77.000000
0.746851 -0.711280 -0.823832 86.000000
0.742320 -0.724286 -0.824647 92.000000
0.731422 -0.731946 -0.819562 89.000000
0.726025 -0.745070 -0.820604 51.000000
0.750955 -0.789249 -0.855227 58.000000
0.731530 -0.788266 -0.840670 77.000000
0.725555 -0.801522 -0.841450 81.000000
0.719391 -0.814770 -0.842213 70.000000
0.715705 -0.830924 -0.845929 89.000000
0.709253 -0.844104 -0.846522 73.000000
0.700175 -0.854158 -0.844019 33.000000
0.698470 -0.873408 -0.850512 53.000000
0.707948 -0.908814 -0.872345 32.000000
0.678960 -0.893432 -0.845495 60.000000
0.676589 -0.912764 -0.851792 70.000000
0.666968 -0.922385 -0.849019 49.000000
0.660930 -0.938830 -0.852466 59.000000
0.660173 -0.961563 -0.861468 62.000000
0.463764 0.693509 -0.604050 32.000000
0.482393 0.703484 -0.620804 33.000000
0.506646 0.719371 -0.643362 28.000000
0.530640 0.734951 -0.666218 27.000000
0.565369 0.762635 -0.700805 31.000000
0.612197 0.805726 -0.750740 39.000000
0.650211 0.834950 -0.788947 36.000000
0.649762 0.812857 -0.779095 33.000000
0.663435 0.809835 -0.787487 49.000000
0.679766 0.809565 -0.798849 56.000000
0.696213 0.808956 -0.810224 34.000000
0.707512 0.802042 -0.815546 49.000000
0.721498 0.797915 -0.823884 57.000000
0.743569 0.802234 -0.841359 39.000000
0.757781 0.797443 -0.849661 35.000000
0.744420 0.764113 -0.827312 26.000000
0.757737 0.759480 -0.835847 36.000000
0.766079 0.748772 -0.837881 42.000000
0.774380 0.737981 -0.839832 44.000000
0.802057 0.746075 -0.863786 34.000000
0.804592 0.729483 -0.859454 44.000000
0.823885 0.728827 -0.874095 33.000000
0.835036 0.719759 -0.879012 34.000000
0.830657 0.698266 -0.868623 25.000000
0.853111 0.699209 -0.886318 35.000000
0.869661 0.694795 -0.897721 42.000000
0.880146 0.685225 -0.902787 34.000000
0.890596 0.675439 -0.907866 48.000000
0.907244 0.670087 -0.919144 58.000000
0.930239 0.668954 -0.936788 34.000000
0.950226 0.664993 -0.951233 37.000000
0.954358 0.649774 -0.949750 24.000000
0.980304 0.649689 -0.970856 35.000000
0.993993 0.640364 -0.978815 41.000000
0.994126 0.622836 -0.974347 46.000000
1.004436 0.611150 -0.978989 36.000000
0.928291 0.548742 -0.900635 92.000000
0.867637 0.498017 -0.837967 91.000000
0.872974 0.486269 -0.839321 95.000000
0.888285 0.479894 -0.850298 29.000000
0.893522 0.467849 -0.851547 75.000000
0.888426 0.450585 -0.843025 81.000000
0.893006 0.438677 -0.844459 82.000000
0.901305 0.428205 -0.848733 95.000000
0.898828 0.412955 -0.843524 87.000000
0.900034 0.399194 -0.841189 95.000000
0.897241 0.384151 -0.835830 80.000000
0.904827 0.373560 -0.840106 36.000000
0.894752 0.355792 -0.828089 95.000000
0.898589 0.343777 -0.828980 95.000000
0.895281 0.329073 -0.823260 98.000000
0.902115 0.318450 -0.827608 95.000000
0.902126 0.305079 -0.825029 100.000000
0.898056 0.290718 -0.819397 98.000000
0.908317 0.280970 -0.826837 90.000000
0.889881 0.262343 -0.807563 67.000000
0.896287 0.251500 -0.811562 95.000000
0.898699 0.239590 -0.812504 95.000000
0.904987 0.228527 -0.816323 95.000000
0.903863 0.215545 -0.813484 95.000000
0.906011 0.203522 -0.814200 93.000000
0.919418 0.193748 -0.824394 95.000000
0.914031 0.180051 -0.818367 72.000000
0.908536 0.166550 -0.812217 34.000000
0.917739 0.155719 -0.819237 77.000000
0.900905 0.140603 -0.803017 95.000000
0.917054 0.130782 -0.816801 98.000000
0.899967 0.116170 -0.800414 98.000000
0.893628 0.103345 -0.794202 98.000000
0.890926 0.091098 -0.791184 98.000000
0.895569 0.079614 -0.794714 98.000000
0.911351 0.068841 -0.808109 45.000000
0.912133 0.056741 -0.808183 92.000000
0.912803 0.044603 -0.808183 84.000000
0.913138 0.032503 -0.808406 93.000000
0.902095 0.020152 -0.798614 98.000000
0.905986 0.008198 -0.802002 100.000000
0.887303 -0.003725 -0.785431 100.000000
0.894755 -0.015645 -0.791987 98.000000
0.887123 -0.027267 -0.785178 100.000000
0.883163 -0.038856 -0.781613 103.000000
0.886327 -0.050809 -0.784925 98.000000
0.885640 -0.062563 -0.784817 98.000000
0.888614 -0.074629 -0.787983 100.000000
0.891509 -0.086795 -0.791038 100.000000
0.890561 -0.098611 -0.790710 105.000000
0.889540 -0.110390 -0.790309 103.000000
0.884402 -0.121731 -0.786821 100.000000
0.883239 -0.133425 -0.786276 100.000000
0.881678 -0.145155 -0.785949 100.000000
0.880007 -0.156885 -0.785550 95.000000
0.878264 -0.168542 -0.785077 98.000000
0.876448 -0.180200 -0.784496 100.000000
0.874269 -0.191893 -0.784206 100.000000
0.875937 -0.204333 -0.786771 98.000000
0.873530 -0.216039 -0.786297 103.000000
0.863761 -0.225768 -0.779211 100.000000
0.861555 -0.237195 -0.778271 100.000000
0.862539 -0.249708 -0.780865 95.000000
0.863137 -0.262354 -0.783708 95.000000
0.863928 -0.274988 -0.786145 98.000000
0.857411 -0.285257 -0.781994 98.000000
0.875571 -0.304231 -0.800916 95.000000
0.872431 -0.315820 -0.799869 95.000000
0.865296 -0.326147 -0.795785 98.000000
0.858153 -0.336342 -0.791634 98.000000
0.854445 -0.347837 -0.790670 66.000000
0.833160 -0.351865 -0.773420 95.000000
0.839837 -0.367553 -0.782066 98.000000
0.828637 -0.375735 -0.774737 95.000000
0.828113 -0.388403 -0.776770 95.000000
0.823682 -0.399573 -0.775818 100.000000
0.819543 -0.410522 -0.774463 95.000000
0.818361 -0.423339 -0.776587 95.000000
0.820444 -0.437975 -0.781882 98.000000
0.829050 -0.456416 -0.793509 87.000000
0.820738 -0.465679 -0.788982 98.000000
0.815708 -0.476715 -0.787593 100.000000
0.817194 -0.491603 -0.792559 98.000000
0.811517 -0.502766 -0.791348 103.000000
0.806220 -0.513665 -0.789796 98.000000
0.800430 -0.524677 -0.788472 95.000000
0.801353 -0.539703 -0.793114 95.000000
0.808051 -0.559462 -0.804331 80.000000
0.808164 -0.574961 -0.809141 98.000000
0.808100 -0.590554 -0.813848 95.000000
0.798498 -0.599246 -0.809046 95.000000
0.798151 -0.614896 -0.813604 95.000000
0.788416 -0.623348 -0.808691 95.000000
0.784754 -0.636513 -0.809968 88.000000
0.777956 -0.647223 -0.808071 95.000000
0.777034 -0.662855 -0.812319 38.000000
0.763571 -0.668525 -0.804435 95.000000
0.762378 -0.684161 -0.808536 85.000000
0.754652 -0.694795 -0.806744 95.000000
0.756035 -0.713134 -0.813801 95.000000
0.756560 -0.731911 -0.821093 74.000000
0.742805 -0.736902 -0.812962 95.000000
0.729735 -0.741333 -0.804498 61.000000
0.751727 -0.782959 -0.835973 31.000000
0.743156 -0.793453 -0.833757 88.000000
0.737141 -0.806755 -0.834492 76.000000
0.733668 -0.823020 -0.838236 86.000000
0.729982 -0.839307 -0.841862 51.000000
0.720957 -0.849525 -0.839435 71.000000
0.709253 -0.856533 -0.833924 67.000000
0.697614 -0.863343 -0.828388 35.000000
0.695087 -0.882947 -0.835052 32.000000
0.700424 -0.911817 -0.850241 59.000000
0.685992 -0.915234 -0.841565 49.000000
0.680262 -0.931761 -0.845004 72.000000
0.675176 -0.947944 -0.848057 52.000000
0.664365 -0.957832 -0.845508 65.000000
0.667978 -0.987387 -0.860117 69.000000
0.458234 0.695367 -0.588940 27.000000
0.474551 0.702336 -0.602583 20.000000
0.505648 0.728751 -0.633516 21.000000
0.523260 0.734535 -0.647105 32.000000
0.561969 0.769695 -0.687257 24.000000
0.591794 0.790945 -0.715923 34.000000
0.642583 0.836812 -0.767994 52.000000
0.656336 0.834075 -0.776327 21.000000
0.647383 0.802891 -0.758047 54.000000
0.664257 0.802775 -0.768946 70.000000
0.680546 0.802639 -0.780171 36.000000
0.689101 0.793084 -0.782450 62.000000
0.710889 0.798360 -0.799623 53.000000
0.722180 0.791372 -0.804867 61.000000
0.730686 0.781230 -0.807034 59.000000
0.752941 0.785392 -0.824299 31.000000
0.741956 0.754984 -0.805192 41.000000
0.755795 0.750233 -0.813291 36.000000
0.761204 0.736923 -0.812253 56.000000
0.785975 0.742902 -0.832797 44.000000
0.794181 0.731946 -0.834713 41.000000
0.813468 0.731724 -0.849183 61.000000
0.821625 0.720354 -0.851001 60.000000
0.832100 0.711756 -0.856194 32.000000
0.834073 0.695096 -0.851761 42.000000
0.850546 0.691199 -0.863020 54.000000
0.867093 0.686927 -0.874279 37.000000
0.883667 0.682320 -0.885537 61.000000
0.890973 0.670274 -0.887407 35.000000
0.907646 0.665068 -0.898594 59.000000
0.933913 0.666273 -0.919109 52.000000
0.941180 0.653578 -0.920858 32.000000
0.964441 0.651644 -0.938207 36.000000
0.978149 0.642730 -0.946091 37.000000
0.988034 0.631732 -0.951215 35.000000
1.001628 0.622371 -0.958999 64.000000
0.938526 0.566898 -0.894436 35.000000
0.881034 0.517075 -0.835917 81.000000
0.893675 0.508897 -0.843386 95.000000
0.885553 0.489411 -0.832063 95.000000
0.904390 0.484828 -0.846105 59.000000
0.909626 0.472652 -0.847364 61.000000
0.904062 0.455402 -0.839332 84.000000
0.909079 0.443243 -0.840415 89.000000
0.917450 0.432642 -0.844658 89.000000
0.914937 0.417291 -0.839579 95.000000
0.923165 0.406483 -0.843666 90.000000
0.920366 0.391205 -0.838405 64.000000
0.906758 0.371680 -0.823398 72.000000
0.910742 0.359609 -0.824375 94.000000
0.911037 0.346104 -0.822089 91.000000
0.907636 0.331344 -0.816452 98.000000
0.911303 0.319223 -0.817224 98.000000
0.918161 0.308392 -0.821461 98.000000
0.925239 0.297311 -0.825318 95.000000
0.917391 0.281700 -0.816454 95.000000
0.905743 0.265271 -0.804252 62.000000
0.908582 0.253237 -0.804971 95.000000
0.914943 0.242176 -0.808824 95.000000
0.917602 0.230018 -0.809394 95.000000
0.916490 0.216985 -0.806598 91.000000
0.922314 0.205702 -0.810572 95.000000
0.916978 0.191989 -0.804665 95.000000
0.922961 0.180543 -0.808187 80.000000
0.924854 0.168358 -0.808641 50.000000
0.934105 0.157394 -0.815582 95.000000
0.931812 0.144531 -0.812966 95.000000
0.933408 0.132182 -0.813194 98.000000
0.927418 0.118872 -0.806813 98.000000
0.917271 0.105365 -0.797423 98.000000
0.914550 0.092883 -0.794452 98.000000
0.911710 0.080499 -0.791441 100.000000
0.923872 0.069310 -0.801402 45.000000
0.924657 0.057123 -0.801476 91.000000
0.925330 0.044936 -0.801476 89.000000
0.921851 0.032615 -0.798428 77.000000
0.914516 0.020309 -0.792032 95.000000
0.918443 0.008306 -0.795379 105.000000
0.918480 -0.003819 -0.795379 100.000000
0.907068 -0.015710 -0.785449 100.000000
0.899400 -0.027419 -0.778759 103.000000
0.891590 -0.038928 -0.771962 100.000000
0.894789 -0.050918 -0.775233 103.000000
0.890366 -0.062443 -0.771854 95.000000
0.904687 -0.075439 -0.784753 98.000000
0.900079 -0.086977 -0.781228 100.000000
0.899131 -0.098830 -0.780900 103.000000
0.898110 -0.110682 -0.780499 103.000000
0.900476 -0.123047 -0.783581 103.000000
0.898975 -0.134912 -0.783325 100.000000
0.893952 -0.146129 -0.779441 100.000000
0.899778 -0.159230 -0.785559 95.000000
0.883108 -0.168268 -0.772051 98.000000
0.892163 -0.182227 -0.781567 98.000000
0.886549 -0.193174 -0.777654 100.000000
0.884544 -0.204844 -0.776961 100.000000
0.885828 -0.217456 -0.779736 98.000000
0.879693 -0.228220 -0.775940 103.000000
0.877140 -0.239853 -0.775320 100.000000
0.874515 -0.251450 -0.774628 81.000000
0.900961 -0.271777 -0.799765 82.000000
0.876243 -0.276795 -0.779528 98.000000
0.873007 -0.288453 -0.778903 100.000000
0.884431 -0.304904 -0.790822 100.000000
0.880955 -0.316680 -0.790074 98.000000
0.880984 -0.329722 -0.792473 98.000000
0.873777 -0.340045 -0.788355 95.000000
0.848732 -0.343023 -0.768136 49.000000
0.855655 -0.358702 -0.776744 95.000000
0.858855 -0.373096 -0.782047 98.000000
0.843993 -0.379872 -0.771622 100.000000
0.843507 -0.392637 -0.773568 100.000000
0.839039 -0.403936 -0.772608 100.000000
0.841431 -0.418593 -0.777951 98.000000
0.826856 -0.424405 -0.766989 98.000000
0.839206 -0.444471 -0.781700 52.000000
0.847931 -0.463104 -0.793152 98.000000
0.839524 -0.472498 -0.788649 98.000000
0.827354 -0.480010 -0.781260 98.000000
0.822228 -0.491015 -0.779790 98.000000
0.820334 -0.504015 -0.781471 98.000000
0.814620 -0.515103 -0.780184 98.000000
0.812472 -0.528046 -0.781696 98.000000
0.813061 -0.543356 -0.786596 64.000000
0.829516 -0.569808 -0.807037 73.000000
0.816836 -0.576523 -0.799258 95.000000
0.816840 -0.592169 -0.803888 95.000000
0.816666 -0.607867 -0.808453 98.000000
0.810040 -0.618896 -0.806708 98.000000
0.800285 -0.627424 -0.801827 95.000000
0.793567 -0.638213 -0.800009 95.000000
0.783732 -0.646378 -0.795030 36.000000
0.794425 -0.672488 -0.811827 95.000000
0.787335 -0.683203 -0.809813 98.000000
0.782554 -0.696668 -0.811101 98.000000
0.769464 -0.701884 -0.802853 98.000000
0.761599 -0.712479 -0.800967 95.000000
0.765767 -0.733704 -0.810867 95.000000
0.760457 -0.747084 -0.811901 94.000000
0.769078 -0.774513 -0.827987 34.000000
0.766143 -0.790906 -0.831841 37.000000
0.760254 -0.804380 -0.832615 47.000000
0.746037 -0.809021 -0.824337 52.000000
0.742628 -0.825302 -0.828008 62.000000
0.739050 -0.841606 -0.831602 70.000000
0.729982 -0.851866 -0.829175 69.000000
0.726082 -0.868135 -0.832589 70.000000
0.708405 -0.869174 -0.821495 35.000000
0.716805 -0.901105 -0.839527 35.000000
0.709807 -0.914261 -0.839811 35.000000
0.696931 -0.921240 -0.834439 87.000000
0.692100 -0.937471 -0.837492 49.000000
0.684668 -0.950405 -0.837598 46.000000
0.673901 -0.960293 -0.835049 71.000000
0.679163 -0.993671 -0.852644 35.000000
0.668855 -1.003214 -0.849673 36.000000
0.468919 0.704259 -0.587390 10.000000
0.497607 0.727875 -0.614989 14.000000
0.533278 0.761089 -0.651565 10.000000
0.563280 0.783198 -0.679451 11.000000
0.586574 0.794764 -0.698830 19.000000
0.626761 0.828820 -0.738821 22.000000
0.653521 0.842257 -0.761262 25.000000
0.642093 0.807741 -0.740381 28.000000
0.653142 0.801933 -0.745592 24.000000
0.669998 0.801880 -0.756410 34.000000
0.678502 0.792550 -0.758654 28.000000
0.694874 0.792247 -0.769746 24.000000
0.714096 0.794604 -0.783767 34.000000
0.714407 0.775814 -0.777053 21.000000
0.742032 0.786362 -0.799989 26.000000
0.730998 0.755904 -0.781251 18.000000
0.744796 0.751483 -0.789269 20.000000
0.747269 0.735556 -0.785248 29.000000
0.763913 0.733505 -0.796221 26.000000
0.789438 0.739320 -0.816192 25.000000
0.796964 0.728734 -0.818384 27.000000
0.813939 0.725638 -0.829325 26.000000
0.834008 0.724821 -0.843256 32.000000
0.817300 0.693086 -0.821050 24.000000
0.833713 0.689623 -0.832213 24.000000
0.844543 0.680610 -0.836892 32.000000
0.867277 0.681450 -0.854122 31.000000
0.877606 0.672144 -0.859064 24.000000
0.900584 0.672100 -0.876274 32.000000
0.914129 0.664555 -0.884263 32.000000
0.940572 0.665840 -0.904537 31.000000
0.944535 0.650914 -0.903188 23.000000
0.958183 0.642542 -0.911034 26.000000
0.975075 0.636001 -0.921916 31.000000
0.995326 0.631202 -0.935894 31.000000
0.971848 0.599496 -0.909738 25.000000
0.908199 0.544183 -0.845593 59.000000
0.917236 0.534072 -0.850291 44.000000
0.902523 0.510358 -0.832995 84.000000
0.907921 0.498344 -0.834375 19.000000
0.920105 0.489905 -0.841998 36.000000
0.921927 0.475854 -0.840119 56.000000
0.923629 0.461815 -0.838150 49.000000
0.928703 0.449476 -0.839286 67.000000
0.926634 0.433770 -0.834023 69.000000
0.924012 0.418370 -0.828984 36.000000
0.932274 0.407567 -0.833071 71.000000
0.925845 0.390778 -0.824680 33.000000
0.933508 0.379975 -0.828966 71.000000
0.923202 0.361994 -0.817242 98.000000
0.945121 0.356604 -0.834062 95.000000
0.923643 0.334898 -0.812634 95.000000
0.927301 0.322641 -0.813412 95.000000
0.934531 0.311562 -0.817266 95.000000
0.934032 0.298128 -0.815046 100.000000
0.922407 0.281387 -0.803104 80.000000
0.929350 0.270203 -0.806765 48.000000
0.917399 0.253881 -0.794678 95.000000
0.920123 0.241809 -0.795283 89.000000
0.926189 0.230702 -0.799364 95.000000
0.928735 0.218506 -0.799858 91.000000
0.931166 0.206234 -0.800238 95.000000
0.940752 0.195596 -0.807316 95.000000
0.931476 0.181073 -0.798197 81.000000
0.941162 0.170135 -0.804825 87.000000
0.942688 0.157852 -0.805550 95.000000
0.948182 0.146075 -0.809078 98.000000
0.949791 0.133627 -0.809346 98.000000
0.955113 0.121624 -0.812725 98.000000
0.956305 0.109127 -0.813148 100.000000
0.926951 0.093525 -0.787631 98.000000
0.943131 0.082722 -0.800808 95.000000
0.936389 0.069818 -0.794500 59.000000
0.937139 0.057544 -0.794575 82.000000
0.941627 0.045453 -0.797805 88.000000
0.941929 0.033129 -0.798031 95.000000
0.926897 0.020468 -0.785256 100.000000
0.938491 0.008446 -0.795026 103.000000
0.930898 -0.003835 -0.788562 103.000000
0.915564 -0.015747 -0.775525 100.000000
0.907825 -0.027491 -0.768917 105.000000
0.911384 -0.039532 -0.771892 103.000000
0.910801 -0.051457 -0.771892 103.000000
0.902528 -0.062852 -0.765325 98.000000
0.916988 -0.075901 -0.778058 103.000000
0.912341 -0.087561 -0.774573 100.000000
0.915187 -0.099877 -0.777469 103.000000
0.917950 -0.112330 -0.780289 105.000000
0.908972 -0.123340 -0.773657 105.000000
0.903726 -0.134678 -0.770178 100.000000
0.905933 -0.147144 -0.773071 98.000000
0.908310 -0.159598 -0.775557 95.000000
0.906287 -0.171586 -0.775373 100.000000
0.904449 -0.183427 -0.774821 98.000000
0.902536 -0.195268 -0.774196 100.000000
0.900220 -0.207109 -0.773792 100.000000
0.894104 -0.218042 -0.770105 98.000000
0.895623 -0.230681 -0.772431 100.000000
0.893086 -0.242412 -0.771806 98.000000
0.890401 -0.254143 -0.771107 56.000000
0.916804 -0.274737 -0.796248 95.000000
0.910209 -0.285592 -0.792180 100.000000
0.907219 -0.297512 -0.791234 95.000000
0.900169 -0.308222 -0.787328 95.000000
0.893071 -0.318799 -0.783389 95.000000
0.893121 -0.331929 -0.785745 98.000000
0.885864 -0.342296 -0.781663 95.000000
0.885696 -0.355409 -0.783860 49.000000
0.874749 -0.364083 -0.776466 95.000000
0.870824 -0.375597 -0.775382 81.000000
0.866525 -0.387149 -0.774522 94.000000
0.862450 -0.398514 -0.773289 95.000000
0.875473 -0.418358 -0.788040 98.000000
0.849919 -0.419636 -0.768085 95.000000
0.859122 -0.437981 -0.779541 73.000000
0.854279 -0.449371 -0.778368 37.000000
0.856247 -0.464401 -0.783348 64.000000
0.844440 -0.471963 -0.775795 78.000000
0.839369 -0.483126 -0.774395 95.000000
0.844314 -0.500154 -0.782307 95.000000
0.831963 -0.507453 -0.774857 95.000000
0.826644 -0.518395 -0.773300 93.000000
0.824089 -0.531616 -0.775070 56.000000
0.821449 -0.544850 -0.776792 60.000000
0.844635 -0.575772 -0.803137 36.000000
0.831878 -0.582602 -0.795424 42.000000
0.828700 -0.596045 -0.796887 72.000000
0.822219 -0.607150 -0.795227 55.000000
0.815659 -0.618136 -0.793527 52.000000
0.812143 -0.631473 -0.794806 45.000000
0.805399 -0.642303 -0.792941 39.000000
0.794990 -0.650820 -0.788311 35.000000
0.803368 -0.674180 -0.801555 34.000000
0.796278 -0.684895 -0.799541 47.000000
0.791571 -0.698407 -0.800790 48.000000
0.798555 -0.722626 -0.814046 34.000000
0.799888 -0.741402 -0.820841 70.000000
0.794582 -0.755072 -0.821841 37.000000
0.792001 -0.771533 -0.825776 35.000000
0.783494 -0.782357 -0.823671 35.000000
0.772179 -0.790222 -0.818546 23.000000
0.774641 -0.812444 -0.828196 33.000000
0.765871 -0.823045 -0.825940 32.000000
0.759686 -0.836505 -0.826550 32.000000
0.750714 -0.846887 -0.824158 36.000000
0.736359 -0.851061 -0.815853 29.000000
0.732513 -0.867352 -0.819244 34.000000
0.725182 -0.880869 -0.819941 29.000000
0.715835 -0.890817 -0.817368 12.000000
0.719059 -0.916661 -0.829250 31.000000
0.718584 -0.939836 -0.838414 32.000000
0.708760 -0.949704 -0.835626 30.000000
0.705317 -0.969722 -0.841677 29.000000
0.708583 -0.999891 -0.856267 29.000000
0.691221 -0.999569 -0.844740 29.000000
0.691506 -1.026512 -0.856254 23.000000
0.510933 0.778553 -0.631199 20.000000
0.494150 0.733437 -0.602299 18.000000
0.513348 0.743556 -0.618544 21.000000
0.543073 0.766390 -0.645981 35.000000
0.580591 0.798523 -0.682068 30.000000
0.608420 0.816853 -0.707188 29.000000
0.644931 0.843995 -0.740768 46.000000
0.653665 0.835142 -0.743179 31.000000
0.675872 0.841758 -0.759661 29.000000
0.661274 0.804073 -0.736059 32.000000
0.672344 0.798086 -0.741211 34.000000
0.689391 0.797756 -0.751873 72.000000
0.695115 0.785267 -0.751175 38.000000
0.711641 0.784720 -0.762100 38.000000
0.719964 0.774963 -0.764250 44.000000
0.736619 0.773881 -0.775129 34.000000
0.762465 0.780840 -0.794600 35.000000
0.745174 0.744736 -0.770104 24.000000
0.761312 0.743265 -0.781252 30.000000
0.781026 0.743936 -0.795052 35.000000
0.795053 0.738734 -0.802922 36.000000
0.803128 0.727858 -0.804817 35.000000
0.814166 0.719513 -0.809617 37.000000
0.827590 0.713867 -0.817717 35.000000
0.838607 0.705152 -0.822426 35.000000
0.845923 0.693947 -0.824475 26.000000
0.856815 0.684856 -0.829121 33.000000
0.873416 0.680789 -0.840074 70.000000
0.883753 0.671531 -0.845012 39.000000
0.894098 0.662061 -0.849878 34.000000
0.910803 0.657063 -0.860754 58.000000
0.921085 0.647164 -0.865529 35.000000
0.944445 0.645990 -0.882443 35.000000
0.938287 0.624568 -0.871882 25.000000
0.951747 0.616295 -0.879533 36.000000
0.961831 0.605610 -0.884092 26.000000
0.914290 0.560012 -0.836677 43.000000
0.923899 0.549782 -0.841045 94.000000
0.926243 0.535608 -0.839500 95.000000
0.925406 0.519310 -0.834480 79.000000
0.930885 0.507115 -0.835922 95.000000
0.918944 0.485634 -0.821736 28.000000
0.924160 0.473503 -0.822990 66.000000
0.925789 0.459510 -0.821092 95.000000
0.930784 0.447264 -0.822180 82.000000
0.939202 0.436585 -0.826346 95.000000
0.943690 0.424293 -0.827680 93.000000
0.944842 0.410204 -0.825443 69.000000
0.945517 0.396330 -0.823480 95.000000
0.938858 0.379550 -0.815158 34.000000
0.939239 0.365800 -0.813050 98.000000
0.943467 0.353311 -0.813643 100.000000
0.946985 0.341060 -0.814829 98.000000
0.928676 0.320998 -0.796725 98.000000
0.928504 0.307540 -0.794268 100.000000
0.927960 0.294294 -0.792035 98.000000
0.931254 0.282076 -0.792571 100.000000
0.926759 0.267746 -0.787054 67.000000
0.929571 0.255626 -0.787738 98.000000
0.947283 0.247379 -0.801048 95.000000
0.931173 0.230343 -0.785747 95.000000
0.926179 0.216399 -0.779898 98.000000
0.932092 0.205180 -0.783785 100.000000
0.930645 0.192188 -0.780912 98.000000
0.928806 0.179331 -0.778298 100.000000
0.930676 0.167256 -0.778784 63.000000
0.940044 0.156373 -0.785556 100.000000
0.945553 0.144707 -0.789039 103.000000
0.943323 0.131837 -0.786122 100.000000
0.944567 0.119588 -0.786611 100.000000
0.945961 0.107263 -0.786687 103.000000
0.947017 0.094939 -0.786988 100.000000
0.940283 0.081946 -0.780878 100.000000
0.941143 0.069721 -0.781027 73.000000
0.934202 0.056990 -0.774763 92.000000
0.942564 0.045197 -0.781139 95.000000
0.946711 0.033107 -0.784553 98.000000
0.943124 0.020711 -0.781513 95.000000
0.943237 0.008449 -0.781551 95.000000
0.943274 -0.003813 -0.781551 95.000000
0.939387 -0.016010 -0.778286 95.000000
0.935388 -0.028106 -0.774911 95.000000
0.938977 -0.040433 -0.777877 98.000000
0.934535 -0.052430 -0.774651 98.000000
0.930025 -0.064326 -0.771353 91.000000
0.940807 -0.077348 -0.780728 91.000000
0.932237 -0.088841 -0.774095 100.000000
0.927477 -0.100550 -0.770577 100.000000
0.929975 -0.113091 -0.773650 98.000000
0.925040 -0.124663 -0.769987 98.000000
0.923526 -0.136701 -0.769728 98.000000
0.925785 -0.149317 -0.772575 100.000000
0.924116 -0.161367 -0.772167 95.000000
0.910950 -0.171240 -0.762122 91.000000
0.901543 -0.181580 -0.755226 100.000000
0.903143 -0.194158 -0.758071 98.000000
0.893596 -0.204142 -0.751004 98.000000
0.895006 -0.216733 -0.753700 103.000000
0.892573 -0.228391 -0.753156 95.000000
0.886291 -0.239040 -0.749376 103.000000
0.887416 -0.251633 -0.751848 98.000000
0.910750 -0.270922 -0.773177 78.000000
0.911277 -0.284040 -0.775769 95.000000
0.908274 -0.295864 -0.774831 95.000000
0.915969 -0.311554 -0.783596 98.000000
0.901479 -0.319624 -0.773367 94.000000
0.905516 -0.333992 -0.778519 95.000000
0.901543 -0.345988 -0.777914 95.000000
