x y z intensity
2.493461 0.225635 1.173235 36.000000
2.558837 0.201672 1.203543 35.000000
2.592617 0.173945 1.218489 61.000000
2.625919 0.145569 1.233703 48.000000
2.663514 0.116567 1.250960 56.000000
2.718971 0.087395 1.276446 50.000000
2.751289 0.056406 1.291685 40.000000
2.801444 0.024841 1.315243 51.000000
2.855849 -0.007895 1.340740 32.000000
2.846605 -0.040887 1.336299 32.000000
2.931998 -0.076234 1.376466 32.000000
2.967195 -0.111709 1.393359 32.000000
3.029088 -0.149261 1.422891 32.000000
3.067912 -0.187011 1.441694 29.000000
3.142386 -0.228226 1.477683 29.000000
3.171416 -0.267422 1.491794 30.000000
3.123237 -0.299888 1.470151 31.000000
3.137755 -0.338099 1.478104 35.000000
3.124827 -0.373609 1.473545 35.000000
3.089050 -0.405854 1.458284 35.000000
3.062224 -0.438443 1.446643 32.000000
3.043792 -0.471899 1.439459 34.000000
3.029357 -0.505893 1.434812 29.000000
2.988092 -0.534683 1.416859 24.000000
2.986511 -0.570293 1.418257 32.000000
2.966737 -0.602297 1.410999 32.000000
2.960010 -0.636851 1.409980 35.000000
2.939715 -0.668186 1.402531 33.000000
2.936818 -0.703336 1.403319 35.000000
2.911200 -0.733154 1.393881 32.000000
2.903018 -0.766993 1.392770 31.000000
2.872570 -0.794784 1.381047 21.000000
2.828878 -0.818083 1.362944 32.000000
2.824310 -0.852272 1.363556 30.000000
2.806326 -0.882279 1.357778 33.000000
2.796339 -0.915106 1.356592 31.000000
2.790454 -0.949198 1.357299 33.000000
2.771291 -0.978753 1.351635 32.000000
2.743366 -1.004786 1.341709 28.000000
2.706783 -1.027096 1.327537 18.000000
2.708203 -1.063476 1.332031 34.000000
2.683942 -1.089789 1.323941 32.000000
2.679986 -1.124900 1.326635 35.000000
2.646923 -1.146861 1.314126 33.000000
2.638308 -1.179773 1.314551 32.000000
2.625615 -1.210197 1.312226 35.000000
2.603920 -1.237004 1.306258 30.000000
2.557564 -1.251411 1.287746 16.000000
2.568155 -1.293562 1.297991 37.000000
2.545907 -1.319311 1.291765 32.000000
2.543005 -1.355980 1.296094 35.000000
2.512153 -1.376816 1.285591 34.000000
2.493228 -1.403708 1.281152 33.000000
2.481393 -1.435461 1.281183 40.000000
2.485502 -1.475867 1.288679 31.000000
2.433882 -1.483828 1.268166 16.000000
2.425731 -1.516858 1.269461 35.000000
2.416615 -1.550356 1.271217 33.000000
2.410829 -1.586358 1.274786 35.000000
2.393306 -1.614761 1.272283 30.000000
2.375397 -1.642876 1.269683 22.000000
2.353560 -1.668150 1.264979 21.000000
2.331588 -1.693144 1.260188 27.000000
2.283551 -1.698615 1.241318 10.000000
2.301451 -1.753120 1.258418 35.000000
2.278770 -1.777258 1.253348 31.000000
2.259448 -1.803886 1.250272 32.000000
2.239838 -1.830322 1.247195 34.000000
2.208602 -1.848299 1.238482 30.000000
2.199078 -1.883002 1.241139 33.000000
2.171878 -1.902609 1.233845 27.000000
2.150509 -1.928578 1.230970 10.000000
2.146864 -1.969142 1.237197 32.000000
2.121389 -1.991683 1.232157 27.000000
2.113466 -2.029036 1.236268 30.000000
2.080991 -2.044674 1.227249 31.000000
2.075525 -2.085065 1.233146 29.000000
2.065223 -2.123118 1.237449 30.000000
2.032171 -2.137768 1.228254 26.000000
2.006503 -2.157786 1.222340 10.000000
2.001199 -2.202253 1.230200 30.000000
1.973858 -2.222675 1.224659 28.000000
1.962838 -2.259307 1.228032 29.000000
1.958827 -2.307402 1.237427 35.000000
1.936436 -2.334417 1.235421 32.000000
1.910850 -2.357504 1.231523 33.000000
1.910864 -2.412998 1.244291 27.000000
1.907124 -2.465142 1.255181 29.000000
1.745859 -2.310198 1.161526 13.000000
1.654541 -2.241394 1.113007 10.000000
1.586538 -2.200871 1.079584 10.000000
1.509055 -2.143744 1.038911 12.000000
1.433047 -2.085156 0.998501 12.000000
1.392237 -2.075205 0.982047 17.000000
1.316140 -2.010035 0.940179 13.000000
1.249179 -1.955115 0.903962 9.000000
1.198537 -1.922539 0.878769 10.000000
1.168006 -1.920983 0.868153 18.000000
1.130531 -1.906857 0.852211 28.000000
1.107610 -1.916367 0.847090 26.000000
1.091439 -1.937890 0.847250 28.000000
0.764294 1.387527 0.616852 22.000000
0.779288 1.378033 0.619342 24.000000
0.791841 1.364359 0.620003 28.000000
0.811342 1.362574 0.626159 22.000000
0.823593 1.348618 0.626761 32.000000
0.843050 1.346374 0.632900 25.000000
0.852542 1.328229 0.631586 19.000000
0.864311 1.313873 0.632107 26.000000
0.875945 1.299425 0.632564 23.000000
0.890025 1.288697 0.634885 29.000000
0.912025 1.289156 0.642809 25.000000
0.931453 1.285517 0.648830 30.000000
0.934350 1.259249 0.643488 29.000000
0.948058 1.247869 0.645712 24.000000
0.967336 1.243576 0.651707 26.000000
0.971461 1.221392 0.648346 32.000000
0.990594 1.216739 0.654309 33.000000
1.018691 1.222366 0.666037 35.000000
1.026080 1.202928 0.664269 32.000000
1.044591 1.197835 0.670459 34.000000
1.054686 1.181660 0.670510 35.000000
1.070755 1.172198 0.674460 25.000000
1.082968 1.159616 0.676671 27.000000
1.102113 1.153049 0.682553 35.000000
1.114820 1.139600 0.684459 39.000000
1.126786 1.126522 0.686577 68.000000
1.155698 1.128789 0.698296 52.000000
1.167622 1.115147 0.700391 42.000000
1.183328 1.104041 0.704158 52.000000
1.195016 1.090090 0.706205 34.000000
1.206651 1.075924 0.708144 28.000000
1.228965 1.070238 0.715846 32.000000
1.243856 1.058645 0.719763 36.000000
1.251671 1.040959 0.719648 46.000000
1.273503 1.034776 0.727521 35.000000
1.288202 1.022498 0.731360 34.000000
1.313679 1.018362 0.741263 37.000000
1.328260 1.005454 0.745082 30.000000
1.328169 0.981503 0.740615 29.000000
1.353624 0.976376 0.750474 33.000000
1.371689 0.965483 0.756204 52.000000
1.389702 0.954245 0.761894 48.000000
1.407658 0.942715 0.767545 35.000000
1.421801 0.928402 0.771088 46.000000
1.446942 0.921561 0.781083 39.000000
1.457067 0.904245 0.782521 35.000000
1.478287 0.894220 0.790430 35.000000
1.476453 0.869615 0.785455 35.000000
1.501420 0.861285 0.795358 43.000000
1.518594 0.848040 0.801053 54.000000
1.559561 0.847497 0.819277 40.000000
1.573000 0.830942 0.822509 38.000000
1.590044 0.816545 0.828088 37.000000
1.619111 0.807851 0.839997 36.000000
1.635732 0.792993 0.845798 29.000000
1.652561 0.777455 0.851246 33.000000
1.673412 0.763542 0.858760 32.000000
1.693890 0.749525 0.866541 35.000000
1.718712 0.736564 0.876087 35.000000
1.743248 0.723336 0.885909 35.000000
1.763608 0.707968 0.893500 62.000000
1.775387 0.688904 0.896848 29.000000
1.795478 0.672787 0.904338 32.000000
1.823983 0.659315 0.916116 47.000000
1.860997 0.648252 0.932062 35.000000
1.893688 0.634916 0.945833 52.000000
1.904732 0.614181 0.949122 55.000000
1.924164 0.595951 0.956638 37.000000
1.961000 0.582217 0.972413 53.000000
1.967221 0.559269 0.973311 31.000000
2.007801 0.545792 0.991766 30.000000
2.035550 0.527891 1.003305 35.000000
2.058760 0.508325 1.012634 34.000000
2.081634 0.488422 1.022193 36.000000
2.113183 0.469922 1.035937 51.000000
2.157880 0.453587 1.056182 33.000000
2.184844 0.432672 1.067660 36.000000
2.198154 0.408843 1.072815 29.000000
2.269231 0.394618 1.105805 35.000000
2.273286 0.368108 1.106506 41.000000
2.312835 0.346945 1.124384 39.000000
2.334331 0.322326 1.133528 36.000000
2.368890 0.299063 1.149428 47.000000
2.412324 0.275932 1.169193 33.000000
2.446569 0.251022 1.184877 37.000000
2.462609 0.223668 1.191723 27.000000
2.536620 0.200616 1.227058 35.000000
2.574636 0.173379 1.244607 47.000000
2.598777 0.144553 1.255820 35.000000
2.649673 0.116387 1.279899 32.000000
2.695847 0.086922 1.301721 37.000000
2.741596 0.056406 1.323731 36.000000
2.782490 0.024801 1.343482 34.000000
2.791589 -0.007758 1.347830 30.000000
2.849833 -0.041147 1.375995 27.000000
2.889862 -0.075430 1.395265 27.000000
2.938281 -0.110999 1.419171 30.000000
2.995354 -0.148167 1.447221 25.000000
3.056555 -0.186975 1.477228 29.000000
3.121540 -0.227580 1.509708 26.000000
3.132458 -0.265094 1.515585 21.000000
3.093503 -0.298169 1.497794 30.000000
3.090133 -0.334282 1.497267 29.000000
3.095078 -0.371469 1.501290 30.000000
3.064160 -0.403942 1.487331 33.000000
3.037254 -0.436536 1.475971 29.000000
3.032266 -0.471970 1.475244 33.000000
3.004742 -0.503575 1.463484 28.000000
2.963475 -0.532374 1.445553 24.000000
2.979804 -0.571068 1.455243 32.000000
2.955662 -0.602280 1.445675 32.000000
2.931293 -0.632976 1.436017 32.000000
2.928587 -0.668175 1.437058 34.000000
2.908111 -0.699055 1.429371 31.000000
2.891471 -0.730937 1.424051 32.000000
2.878839 -0.763568 1.420889 29.000000
2.835786 -0.787343 1.401975 23.000000
2.840039 -0.824247 1.407127 34.000000
2.813358 -0.852391 1.397540 36.000000
2.799713 -0.883812 1.393806 32.000000
2.760045 -0.906475 1.377128 33.000000
2.762671 -0.943233 1.382173 29.000000
2.739343 -0.971132 1.374381 28.000000
2.715820 -0.998535 1.366406 31.000000
2.683654 -1.022224 1.354084 24.000000
2.680734 -1.056936 1.356599 32.000000
2.673358 -1.089943 1.356879 33.000000
2.648966 -1.115823 1.348464 30.000000
2.652977 -1.154346 1.355398 36.000000
2.611571 -1.172174 1.338332 31.000000
2.606679 -1.206744 1.340826 31.000000
2.576871 -1.229507 1.330444 29.000000
2.563701 -1.259404 1.327945 25.000000
2.537716 -1.283352 1.319517 34.000000
2.543680 -1.323578 1.327917 50.000000
2.524636 -1.351716 1.324083 33.000000
2.517763 -1.385653 1.325865 49.000000
2.478973 -1.401604 1.310810 35.000000
2.463665 -1.430593 1.308323 33.000000
2.443689 -1.457540 1.304135 33.000000
2.424049 -1.483536 1.299286 27.000000
2.399752 -1.507497 1.292847 33.000000
2.387417 -1.537815 1.292065 36.000000
2.370278 -1.566094 1.289590 32.000000
2.356720 -1.596737 1.289177 32.000000
2.361436 -1.640180 1.298857 25.000000
2.347048 -1.670746 1.298215 24.000000
2.332314 -1.701110 1.297468 32.000000
2.291742 -1.712253 1.282300 27.000000
2.287491 -1.750424 1.287496 35.000000
2.261045 -1.771750 1.280344 36.000000
2.241753 -1.798336 1.277272 32.000000
2.225802 -1.827534 1.276131 35.000000
2.205904 -1.853682 1.272862 36.000000
2.185908 -1.879541 1.269498 34.000000
2.171535 -1.911931 1.270635 32.000000
2.137285 -1.925128 1.259047 25.000000
2.130165 -1.962463 1.263498 35.000000
2.108081 -1.988115 1.260413 52.000000
2.093469 -2.019076 1.260628 33.000000
2.070832 -2.044325 1.257436 42.000000
2.055626 -2.074938 1.257521 33.000000
2.054802 -2.122795 1.267927 30.000000
2.024838 -2.140840 1.260463 31.000000
1.986724 -2.147432 1.246554 26.000000
1.981368 -2.191789 1.254592 35.000000
1.969267 -2.229398 1.258762 32.000000
1.958054 -2.266113 1.262192 31.000000
1.936034 -2.293142 1.260260 36.000000
1.919508 -2.327161 1.262076 36.000000
1.885174 -2.339432 1.252313 29.000000
1.889522 -2.397456 1.266910 28.000000
1.857560 -2.412827 1.258853 14.000000
1.742198 -2.316904 1.193707 18.000000
1.645652 -2.240911 1.140356 17.000000
1.583402 -2.207968 1.109851 16.000000
1.506094 -2.151167 1.068316 20.000000
1.432964 -2.096558 1.028838 17.000000
1.381831 -2.071435 1.004499 19.000000
1.313735 -2.018078 0.967265 19.000000
1.251974 -1.971137 0.933915 10.000000
1.198831 -1.934923 0.906339 18.000000
1.153857 -1.909570 0.884399 27.000000
1.130696 -1.919552 0.879122 26.000000
1.098280 -1.913040 0.866546 33.000000
1.079796 -1.930485 0.864895 34.000000
0.768050 1.367400 0.629469 20.000000
0.787485 1.365842 0.635736 21.000000
0.804578 1.360077 0.640103 27.000000
0.814498 1.342116 0.638832 23.000000
0.836370 1.343817 0.646990 27.000000
0.838438 1.313989 0.639948 15.000000
0.860220 1.315259 0.648083 22.000000
0.877059 1.308460 0.652383 27.000000
0.886037 1.290027 0.650885 25.000000
0.901828 1.283353 0.655399 26.000000
0.918477 1.275992 0.659616 31.000000
0.932422 1.264649 0.661905 22.000000
0.954535 1.264227 0.670038 28.000000
0.954265 1.234265 0.662471 18.000000
0.970569 1.226129 0.666605 28.000000
0.983227 1.214664 0.669043 33.000000
1.002423 1.209702 0.675118 27.000000
1.021617 1.204388 0.681166 32.000000
1.037169 1.195782 0.685515 32.000000
1.050277 1.183042 0.687568 29.000000
1.066414 1.173536 0.691567 36.000000
1.072480 1.154208 0.689827 12.000000
1.097855 1.154301 0.699813 42.000000
1.113151 1.144570 0.704060 68.000000
1.125825 1.130938 0.705924 35.000000
1.141014 1.120773 0.710136 43.000000
1.156807 1.109943 0.713986 35.000000
1.171865 1.099302 0.718115 32.000000
1.190299 1.091504 0.724248 51.000000
1.195713 1.070835 0.721875 19.000000
1.220871 1.068608 0.732034 30.000000
1.232278 1.054050 0.733989 32.000000
1.247070 1.042249 0.737958 30.000000
1.265341 1.033078 0.743954 41.000000
1.283573 1.023630 0.749917 37.000000
1.298231 1.011110 0.753817 33.000000
1.327306 1.009284 0.765965 39.000000
1.319994 0.979846 0.757241 17.000000
1.345358 0.974701 0.767284 36.000000
1.370788 0.969037 0.777307 54.000000
1.381402 0.952551 0.778888 37.000000
1.395156 0.938879 0.782861 48.000000
1.409247 0.924608 0.786504 34.000000
1.430855 0.914955 0.794277 35.000000
1.452107 0.905317 0.802362 44.000000
1.469821 0.892538 0.807999 18.000000
1.479330 0.875201 0.809622 51.000000
1.484748 0.855433 0.809053 61.000000
1.529420 0.857749 0.829805 34.000000
1.546527 0.843961 0.835570 62.000000
1.571587 0.834100 0.845643 55.000000
1.576593 0.813393 0.844876 35.000000
1.605579 0.804733 0.856961 45.000000
1.630549 0.793560 0.866862 17.000000
1.647353 0.778028 0.872407 34.000000
1.663748 0.762427 0.878213 44.000000
1.692703 0.751748 0.890157 32.000000
1.704806 0.733649 0.893706 36.000000
1.729292 0.720459 0.903716 37.000000
1.745323 0.703449 0.909336 35.000000
1.761237 0.686114 0.914841 37.000000
1.789726 0.673271 0.926899 27.000000
1.805446 0.655134 0.932303 35.000000
1.833772 0.641184 0.944209 52.000000
1.878839 0.632605 0.965159 41.000000
1.898599 0.614484 0.972537 71.000000
1.917975 0.596196 0.980200 51.000000
1.945843 0.580035 0.992198 35.000000
1.965006 0.560835 0.999756 36.000000
2.005702 0.547170 1.018182 31.000000
2.020113 0.525906 1.023715 33.000000
2.056285 0.509624 1.039846 58.000000
2.074791 0.488583 1.047325 35.000000
2.093073 0.467162 1.054815 33.000000
2.119979 0.447211 1.066586 35.000000
2.177559 0.432793 1.093764 36.000000
2.182015 0.407263 1.094671 30.000000
2.248078 0.392530 1.126408 31.000000
2.270050 0.368922 1.135651 35.000000
2.291458 0.345056 1.145453 42.000000
2.330681 0.323078 1.163658 51.000000
2.347463 0.297371 1.170630 34.000000
2.394960 0.275009 1.193376 37.000000
2.437946 0.251064 1.213840 37.000000
2.462842 0.224469 1.225272 34.000000
2.527723 0.200539 1.256607 34.000000
2.551970 0.172513 1.268143 34.000000
2.589403 0.144538 1.286264 36.000000
2.653461 0.116997 1.317637 42.000000
2.672544 0.086449 1.326525 31.000000
2.718051 0.056128 1.349115 34.000000
2.763206 0.024666 1.371530 37.000000
2.799129 -0.007820 1.389313 25.000000
2.825712 -0.040920 1.402554 31.000000
2.892392 -0.075802 1.435501 31.000000
2.913686 -0.110560 1.446611 29.000000
2.997293 -0.148853 1.488628 31.000000
3.026852 -0.185840 1.503870 27.000000
3.114038 -0.227810 1.547766 26.000000
3.102345 -0.263531 1.543113 21.000000
3.099270 -0.299905 1.542689 30.000000
3.091316 -0.335690 1.539940 32.000000
3.056467 -0.368051 1.523673 34.000000
3.034293 -0.401550 1.514385 31.000000
3.025272 -0.436552 1.511543 33.000000
3.011731 -0.470447 1.505969 31.000000
3.014969 -0.507317 1.509982 31.000000
2.943162 -0.530661 1.475754 17.000000
2.954976 -0.568347 1.483375 33.000000
2.944131 -0.602158 1.480347 34.000000
2.924232 -0.633862 1.472700 34.000000
2.904088 -0.665054 1.464962 31.000000
2.901054 -0.700048 1.465951 36.000000
2.888789 -0.733140 1.462834 32.000000
2.872108 -0.764468 1.456812 30.000000
2.802964 -0.781326 1.424817 20.000000
2.811511 -0.819278 1.432319 32.000000
2.789563 -0.848287 1.424342 30.000000
2.771588 -0.878153 1.418373 35.000000
2.744641 -0.905298 1.408427 32.000000
2.760250 -0.946029 1.419786 34.000000
2.719997 -0.968055 1.403004 34.000000
2.713343 -1.001548 1.403619 26.000000
2.668636 -1.020674 1.384508 21.000000
2.661581 -1.053627 1.384942 30.000000
2.649935 -1.084876 1.383098 32.000000
2.638096 -1.115931 1.381157 34.000000
2.621739 -1.144988 1.376854 32.000000
2.612961 -1.177846 1.377372 35.000000
2.592071 -1.204519 1.370719 34.000000
2.570489 -1.231289 1.364466 26.000000
2.556796 -1.261666 1.362538 26.000000
2.534765 -1.287762 1.356111 35.000000
2.516537 -1.315567 1.351751 35.000000
2.506022 -1.347363 1.351593 55.000000
2.487264 -1.374690 1.347144 33.000000
2.464335 -1.399403 1.340373 35.000000
2.441311 -1.423836 1.333523 33.000000
2.425861 -1.452446 1.330948 28.000000
2.417168 -1.486083 1.332911 26.000000
2.393436 -1.509571 1.325893 32.000000
2.372754 -1.535625 1.321392 34.000000
2.363165 -1.568916 1.323143 39.000000
2.372591 -1.614277 1.334848 32.000000
2.354722 -1.642481 1.332144 27.000000
2.325394 -1.662575 1.323042 24.000000
2.303371 -1.687577 1.318159 23.000000
2.284751 -1.714835 1.315184 28.000000
2.255132 -1.733688 1.305950 33.000000
2.250412 -1.771683 1.311218 34.000000
2.230994 -1.798311 1.308046 36.000000
2.200853 -1.815962 1.298660 32.000000
2.184623 -1.844922 1.297377 34.000000
2.168042 -1.873678 1.296084 35.000000
2.161449 -1.911286 1.300849 24.000000
2.139813 -1.937558 1.297758 26.000000
2.112256 -1.956470 1.290095 30.000000
2.094580 -1.984451 1.288475 33.000000
2.078861 -2.016173 1.289263 33.000000
2.054043 -2.037333 1.283367 30.000000
2.043987 -2.075285 1.288074 43.000000
2.031543 -2.109082 1.290137 30.000000
2.014283 -2.140359 1.290544 26.000000
1.973040 -2.143744 1.274407 26.000000
1.961426 -2.181250 1.278711 28.000000
1.949315 -2.218663 1.282871 34.000000
1.940979 -2.258864 1.288473 37.000000
1.918877 -2.285851 1.286491 29.000000
1.905238 -2.323269 1.290417 36.000000
1.872459 -2.334664 1.279928 29.000000
1.852405 -2.364554 1.279675 21.000000
1.840384 -2.405250 1.285257 14.000000
1.722908 -2.305794 1.216698 12.000000
1.643311 -2.252225 1.173794 17.000000
1.573090 -2.208320 1.136863 17.000000
1.495106 -2.147014 1.091935 17.000000
1.427452 -2.100182 1.055420 23.000000
1.376368 -2.075203 1.030610 22.000000
1.306030 -2.018158 0.990631 13.000000
1.237211 -1.959630 0.950842 10.000000
1.196467 -1.943158 0.932123 17.000000
1.149104 -1.913996 0.907869 24.000000
1.111904 -1.900043 0.891205 29.000000
1.088878 -1.909568 0.885785 27.000000
0.773706 1.389574 0.654816 15.000000
0.781944 1.367777 0.651655 23.000000
0.801499 1.365908 0.658094 18.000000
0.818690 1.359759 0.662532 16.000000
0.826172 1.337755 0.659303 21.000000
0.855481 1.350809 0.673446 10.000000
0.860117 1.324718 0.668142 24.000000
0.856663 1.287173 0.656916 23.000000
0.886207 1.299304 0.671100 15.000000
0.903034 1.292059 0.675417 23.000000
0.914491 1.277073 0.675796 18.000000
0.935673 1.277325 0.684357 20.000000
0.941418 1.254737 0.680702 24.000000
0.960729 1.250317 0.686992 12.000000
0.977261 1.242002 0.691200 28.000000
0.972887 1.209022 0.681662 18.000000
0.997817 1.211093 0.691851 24.000000
1.014111 1.202236 0.696020 30.000000
1.029588 1.193623 0.700465 23.000000
1.048794 1.187729 0.706644 29.000000
1.052797 1.164601 0.702529 26.000000
1.086645 1.175552 0.719182 19.000000
1.090261 1.152176 0.715052 34.000000
1.105589 1.142440 0.719344 30.000000
1.120827 1.132469 0.723595 35.000000
1.130192 1.115441 0.723444 32.000000
1.145287 1.105072 0.727654 28.000000
1.170907 1.103387 0.737806 35.000000
1.182629 1.089343 0.739859 28.000000
1.211165 1.090377 0.752390 26.000000
1.216020 1.069867 0.750214 29.000000
1.227460 1.055268 0.752175 26.000000
1.249255 1.049249 0.760419 32.000000
1.253568 1.028507 0.758106 30.000000
1.275255 1.021868 0.766332 33.000000
1.293509 1.012130 0.772405 33.000000
1.304476 0.996511 0.774178 25.000000
1.329826 0.991588 0.784445 26.000000
1.336981 0.972913 0.783983 27.000000
1.358638 0.964616 0.792098 29.000000
1.372482 0.951140 0.796164 33.000000
1.386721 0.937124 0.799844 34.000000
1.408321 0.927809 0.807853 30.000000
1.418137 0.911146 0.809622 34.000000
1.439234 0.901484 0.817842 34.000000
1.476152 0.900469 0.834434 27.000000
1.478023 0.878350 0.831720 31.000000
1.491360 0.863001 0.835533 42.000000
1.531997 0.862949 0.854537 40.000000
1.541245 0.844693 0.856088 34.000000
1.554398 0.828430 0.859713 32.000000
1.579323 0.818152 0.869875 32.000000
1.600237 0.805294 0.877805 32.000000
1.609004 0.786177 0.879083 32.000000
1.645658 0.780703 0.896117 28.000000
1.662356 0.764751 0.901714 30.000000
1.678700 0.748793 0.907573 29.000000
1.698987 0.734232 0.915600 30.000000
1.723396 0.721046 0.925804 28.000000
1.735246 0.702301 0.929236 33.000000
1.763683 0.689853 0.941578 26.000000
1.787854 0.675267 0.951589 21.000000
1.820442 0.663216 0.966018 29.000000
1.835820 0.644708 0.971807 27.000000
1.855565 0.627166 0.979445 28.000000
1.883507 0.612221 0.991775 29.000000
1.911328 0.596641 1.004063 28.000000
1.930527 0.577857 1.011818 29.000000
1.971145 0.564855 1.030747 26.000000
1.972931 0.540353 1.029340 13.000000
2.013081 0.526184 1.048386 26.000000
2.040502 0.507682 1.060354 25.000000
2.063267 0.487785 1.070301 28.000000
2.085831 0.467335 1.080118 26.000000
2.134450 0.451946 1.103414 24.000000
2.147825 0.428621 1.108901 25.000000
2.178773 0.408226 1.123058 22.000000
2.165451 0.379514 1.114771 9.000000
2.253047 0.367656 1.158437 26.000000
2.270178 0.343092 1.165775 23.000000
2.313528 0.321823 1.186628 25.000000
2.356599 0.299699 1.207741 25.000000
2.399534 0.276558 1.228713 26.000000
2.411211 0.249272 1.233662 24.000000
2.453718 0.224538 1.254494 25.000000
2.496053 0.198779 1.275082 10.000000
2.529140 0.171561 1.291485 24.000000
2.584163 0.144860 1.319076 24.000000
2.612283 0.115634 1.332878 16.000000
2.657969 0.086358 1.355584 22.000000
2.720953 0.056405 1.387746 22.000000
2.734687 0.024547 1.394748 17.000000
2.752597 -0.007733 1.403834 24.000000
2.805853 -0.040855 1.430997 19.000000
2.858808 -0.075234 1.457862 20.000000
2.937854 -0.111887 1.498737 25.000000
2.971935 -0.148204 1.516801 21.000000
3.028006 -0.186731 1.545904 25.000000
3.070361 -0.225532 1.568077 19.000000
3.094150 -0.263864 1.581480 21.000000
3.086631 -0.299912 1.578787 26.000000
3.056653 -0.333229 1.564650 24.000000
3.048438 -0.368596 1.561646 29.000000
3.044338 -0.404342 1.560805 28.000000
2.999902 -0.434442 1.539899 26.000000
2.999430 -0.470411 1.541436 30.000000
2.972147 -0.501925 1.529190 23.000000
2.957800 -0.535304 1.523637 13.000000
2.947250 -0.569323 1.520761 29.000000
2.919136 -0.599341 1.508137 28.000000
2.903689 -0.631793 1.502606 28.000000
2.883629 -0.662939 1.494724 28.000000
2.871906 -0.695779 1.491258 25.000000
2.872578 -0.731924 1.494851 29.000000
2.851631 -0.762103 1.486584 26.000000
2.791445 -0.781343 1.458408 10.000000
2.799881 -0.819239 1.466101 30.000000
2.769445 -0.845695 1.453392 25.000000
2.764311 -0.879580 1.454150 29.000000
2.754705 -0.912062 1.452466 28.000000
2.727392 -0.938919 1.442235 24.000000
2.729894 -0.975421 1.446965 28.000000
2.706331 -1.002990 1.438790 24.000000
2.636612 -1.012512 1.405924 10.000000
2.650408 -1.053534 1.417543 29.000000
2.622175 -1.078020 1.406806 27.000000
2.614418 -1.110680 1.406997 27.000000
2.602325 -1.141444 1.404965 29.000000
2.602101 -1.177560 1.409378 32.000000
2.584817 -1.206572 1.405322 29.000000
2.559682 -1.231016 1.396278 26.000000
2.517717 -1.247491 1.378927 11.000000
2.531865 -1.291673 1.392221 34.000000
2.517570 -1.321615 1.390000 30.000000
2.483118 -1.340786 1.376721 29.000000
2.468457 -1.370204 1.374325 32.000000
2.445599 -1.394879 1.367560 29.000000
2.430316 -1.423821 1.364981 31.000000
2.422557 -1.457118 1.366659 25.000000
2.360099 -1.457755 1.338382 10.000000
2.378559 -1.507187 1.355076 30.000000
2.366031 -1.537586 1.354283 29.000000
2.371350 -1.580964 1.364756 29.000000
2.353702 -1.609413 1.362152 29.000000
2.321748 -1.626537 1.350273 16.000000
2.296301 -1.649058 1.343202 16.000000
2.285335 -1.681828 1.344619 23.000000
2.270355 -1.711860 1.343881 11.000000
2.262185 -1.747219 1.347205 31.000000
2.211053 -1.748955 1.324978 24.000000
2.205923 -1.786686 1.330232 30.000000
2.193380 -1.818779 1.331212 32.000000
2.176968 -1.847818 1.329964 26.000000
2.156877 -1.873581 1.326599 28.000000
2.136594 -1.899248 1.323042 24.000000
2.102587 -1.912311 1.311108 10.000000
2.105235 -1.958904 1.322098 32.000000
2.076535 -1.978326 1.314648 25.000000
2.068285 -2.015575 1.319202 29.000000
2.048833 -2.043981 1.317883 29.000000
2.030185 -2.071397 1.315970 24.000000
2.017578 -2.105176 1.318066 29.000000
1.990927 -2.126457 1.312399 20.000000
1.962243 -2.143129 1.304112 10.000000
1.956590 -2.187452 1.312569 30.000000
1.932159 -2.211294 1.308743 24.000000
1.920880 -2.247855 1.312442 27.000000
1.895804 -2.271351 1.308493 29.000000
1.876412 -2.301545 1.308477 22.000000
1.863864 -2.337851 1.311859 26.000000
1.846401 -2.371413 1.313582 12.000000
1.822950 -2.397585 1.311273 9.000000
1.706345 -2.298296 1.241316 12.000000
1.642096 -2.262470 1.206923 9.000000
1.569393 -2.215078 1.167192 10.000000
1.482301 -2.143553 1.115901 10.000000
1.430553 -2.119699 1.090349 10.000000
1.354153 -2.056455 1.045412 10.000000
1.299345 -2.022654 1.016266 9.000000
1.238054 -1.976099 0.981410 9.000000
1.185258 -1.940074 0.952585 14.000000
1.121544 -1.883301 0.914326 21.000000
1.110231 -1.913120 0.918444 21.000000
1.086980 -1.922765 0.912953 26.000000
0.775076 1.365072 0.665391 20.000000
0.789957 1.355238 0.667993 24.000000
0.804682 1.345247 0.670594 25.000000
0.840981 1.370285 0.690910 15.000000
0.824091 1.309207 0.667768 24.000000
0.840822 1.302725 0.672225 20.000000
0.856604 1.296493 0.676955 23.000000
0.870777 1.285682 0.679386 27.000000
0.887457 1.278528 0.683829 22.000000
0.901465 1.267426 0.686215 25.000000
0.918009 1.259862 0.690575 29.000000
0.936477 1.256156 0.697242 18.000000
0.941983 1.233600 0.693426 31.000000
0.958334 1.225417 0.697703 25.000000
0.976725 1.221037 0.704308 32.000000
0.984454 1.201794 0.702438 32.000000
1.000596 1.193055 0.706638 26.000000
1.024917 1.194866 0.717384 42.000000
1.038169 1.182089 0.719496 29.000000
1.056595 1.176390 0.726044 25.000000
1.060437 1.153194 0.721838 35.000000
1.081924 1.150371 0.730399 31.000000
1.094722 1.136937 0.732416 34.000000
1.109956 1.126997 0.736758 37.000000
1.118723 1.110439 0.736824 32.000000
1.140846 1.105980 0.745050 52.000000
1.152629 1.092215 0.747193 31.000000
1.170993 1.084488 0.753551 31.000000
1.189274 1.076386 0.759879 30.000000
1.214342 1.073998 0.770522 26.000000
1.229370 1.062268 0.774646 35.000000
1.247689 1.053256 0.780938 37.000000
1.255590 1.035253 0.780709 29.000000
1.266827 1.020050 0.782582 42.000000
1.281439 1.007519 0.786627 34.000000
1.296001 0.994683 0.790573 29.000000
1.321258 0.989740 0.801020 31.000000
1.335752 0.976377 0.804944 30.000000
1.349629 0.963152 0.809102 36.000000
1.374959 0.957030 0.819523 41.000000
1.385090 0.940696 0.821458 31.000000
1.406672 0.931279 0.829557 48.000000
1.424133 0.919391 0.835815 40.000000
1.430547 0.899643 0.835042 32.000000
1.447794 0.887240 0.841149 31.000000
1.461124 0.872244 0.845050 32.000000
1.482126 0.861540 0.853299 36.000000
1.499207 0.848180 0.859341 36.000000
1.535796 0.845298 0.876461 33.000000
1.552830 0.831154 0.882436 48.000000
1.565812 0.814519 0.886062 33.000000
1.590314 0.804076 0.896739 41.000000
1.607157 0.788894 0.902519 27.000000
1.635932 0.779216 0.915012 30.000000
1.656382 0.765377 0.923271 38.000000
1.676705 0.751188 0.931489 33.000000
1.692930 0.734810 0.937400 34.000000
1.713151 0.719837 0.945529 39.000000
1.733230 0.704443 0.953613 33.000000
1.753292 0.688692 0.961587 30.000000
1.789917 0.678764 0.978615 30.000000
1.805691 0.660432 0.984221 36.000000
1.821004 0.642033 0.990102 35.000000
1.848883 0.627660 1.002782 38.000000
1.864237 0.608246 1.008158 43.000000
1.883423 0.590162 1.016100 37.000000
1.928098 0.579314 1.037733 37.000000
1.946920 0.560259 1.045858 36.000000
1.970105 0.541800 1.055875 33.000000
2.014447 0.528713 1.077678 42.000000
2.024551 0.505743 1.080621 34.000000
2.042815 0.484865 1.088457 32.000000
2.073990 0.466531 1.103068 35.000000
2.104780 0.447583 1.117995 34.000000
2.131339 0.427000 1.130119 50.000000
2.140108 0.402624 1.133325 28.000000
2.196711 0.386598 1.161791 31.000000
2.240156 0.367031 1.183281 36.000000
2.283509 0.346533 1.204638 39.000000
2.304806 0.321957 1.214367 35.000000
2.338865 0.298649 1.231208 44.000000
2.368280 0.274106 1.245750 47.000000
2.402005 0.249315 1.262375 38.000000
2.431055 0.223306 1.276609 26.000000
2.473157 0.197729 1.297717 34.000000
2.528160 0.172204 1.325962 32.000000
2.556355 0.143847 1.340223 35.000000
2.610869 0.115955 1.368228 36.000000
2.643029 0.086176 1.384552 36.000000
2.692378 0.055942 1.410342 35.000000
2.719322 0.024453 1.424447 31.000000
2.768135 -0.007820 1.449966 33.000000
2.825517 -0.041277 1.480028 32.000000
2.873738 -0.075956 1.505249 33.000000
2.943469 -0.112531 1.542358 34.000000
2.986187 -0.149551 1.565346 35.000000
3.041914 -0.188335 1.595178 37.000000
3.092728 -0.228149 1.622467 30.000000
3.107607 -0.266191 1.631523 26.000000
3.086853 -0.301102 1.621826 34.000000
3.056900 -0.334631 1.607395 34.000000
3.035490 -0.368605 1.597394 35.000000
3.022702 -0.403125 1.591924 40.000000
3.004819 -0.437009 1.584460 35.000000
2.995422 -0.471753 1.581416 36.000000
2.985728 -0.506393 1.578270 33.000000
2.949557 -0.536067 1.561063 31.000000
2.934866 -0.569140 1.555313 35.000000
2.919697 -0.602109 1.549878 32.000000
2.908902 -0.635410 1.546036 34.000000
2.893086 -0.667816 1.540407 37.000000
2.877007 -0.699813 1.534479 34.000000
2.851762 -0.729608 1.524366 35.000000
2.809456 -0.753986 1.504473 30.000000
2.779579 -0.781258 1.491898 27.000000
2.779675 -0.816393 1.494697 32.000000
2.762123 -0.846718 1.488724 35.000000
2.735761 -0.873937 1.477985 33.000000
2.721487 -0.905161 1.474516 33.000000
2.715850 -0.938699 1.475028 35.000000
2.693033 -0.966129 1.466216 31.000000
2.673898 -0.995009 1.460188 30.000000
2.637823 -1.017186 1.444873 25.000000
2.634759 -1.051785 1.447674 30.000000
2.631331 -1.086483 1.450367 35.000000
2.607041 -1.112340 1.441617 31.000000
2.594813 -1.143201 1.439482 33.000000
2.594475 -1.179404 1.444029 35.000000
2.561501 -1.200456 1.430408 30.000000
2.547957 -1.231122 1.428570 30.000000
2.498245 -1.243687 1.406288 27.000000
2.496821 -1.279075 1.410451 31.000000
2.498356 -1.317213 1.417217 52.000000
2.475934 -1.342653 1.410425 33.000000
2.461034 -1.372165 1.408021 32.000000
2.449824 -1.403613 1.407753 34.000000
2.430560 -1.430420 1.402927 31.000000
2.407320 -1.454626 1.395790 30.000000
2.368660 -1.469012 1.379702 28.000000
2.359519 -1.502395 1.381758 30.000000
2.347088 -1.532745 1.381016 32.000000
2.337282 -1.566065 1.382948 30.000000
2.320443 -1.593619 1.379790 32.000000
2.324683 -1.637072 1.390290 25.000000
2.281687 -1.646001 1.371572 17.000000
2.295984 -1.697474 1.388384 24.000000
2.248498 -1.703355 1.367927 24.000000
2.229650 -1.730335 1.364865 26.000000
2.206990 -1.754225 1.359536 32.000000
2.201674 -1.792062 1.364955 30.000000
2.168209 -1.806952 1.353041 29.000000
2.158732 -1.841622 1.356070 32.000000
2.128377 -1.858533 1.346164 27.000000
2.135164 -1.908114 1.359788 25.000000
2.097786 -1.918308 1.345417 20.000000
2.086962 -1.952627 1.348169 26.000000
2.062573 -1.974282 1.342184 32.000000
2.043469 -2.002773 1.341033 26.000000
2.037961 -2.043112 1.347657 27.000000
2.013023 -2.064069 1.341465 32.000000
1.989732 -2.088816 1.337875 24.000000
1.973696 -2.119041 1.337896 25.000000
1.949942 -2.143281 1.334196 17.000000
1.930280 -2.169749 1.331900 25.000000
1.914950 -2.203740 1.334333 31.000000
1.903520 -2.240339 1.338112 25.000000
1.881489 -2.267205 1.336136 24.000000
1.870560 -2.308006 1.342283 29.000000
1.840721 -2.322945 1.333504 24.000000
1.831787 -2.367209 1.341509 18.000000
1.794552 -2.375060 1.328951 9.000000
1.704730 -2.308046 1.275242 10.000000
1.617648 -2.243732 1.224475 10.000000
1.556136 -2.211290 1.191992 10.000000
1.472089 -2.143607 1.141616 10.000000
1.412812 -2.108524 1.109589 13.000000
1.356015 -2.071390 1.077182 11.000000
1.293849 -2.026246 1.041428 10.000000
1.223086 -1.964290 0.997987 9.000000
1.180096 -1.944093 0.976540 10.000000
1.130705 -1.911187 0.949182 10.000000
1.102881 -1.913306 0.939697 16.000000
0.770356 1.366257 0.681015 30.000000
0.781944 1.352896 0.681938 28.000000
0.799110 1.346844 0.686547 24.000000
0.823397 1.352302 0.697216 30.000000
0.818748 1.310823 0.683674 22.000000
0.837964 1.308099 0.690262 28.000000
0.844763 1.286067 0.686691 31.000000
0.866498 1.286725 0.695294 27.000000
0.882263 1.279999 0.700045 34.000000
0.888477 1.257701 0.696310 33.000000
0.904969 1.250145 0.700750 32.000000
0.926859 1.249728 0.709299 34.000000
0.934253 1.231265 0.707745 24.000000
0.950685 1.223127 0.712116 34.000000
0.966154 1.215181 0.716762 36.000000
0.976753 1.199504 0.716903 30.000000
0.990074 1.187277 0.719089 49.000000
1.011277 1.185649 0.727882 35.000000
1.030408 1.179766 0.734279 37.000000
1.042815 1.167307 0.736707 37.000000
1.045968 1.144677 0.732622 23.000000
1.077258 1.151387 0.747515 48.000000
1.089453 1.138340 0.749805 48.000000
1.101489 1.125133 0.752095 36.000000
1.117302 1.114525 0.756226 85.000000
1.132438 1.104105 0.760582 48.000000
1.147480 1.093447 0.764897 62.000000
1.165776 1.085670 0.771404 61.000000
1.174117 1.068437 0.771272 24.000000
1.202438 1.069095 0.784272 36.000000
1.220746 1.060345 0.790741 41.000000
1.235649 1.048418 0.794921 32.000000
1.253905 1.039050 0.801263 35.000000
1.258234 1.018177 0.798776 35.000000
1.276393 1.008364 0.805030 35.000000
1.298056 1.001005 0.813526 35.000000
1.305425 0.982452 0.813085 20.000000
1.326543 0.974861 0.821790 36.000000
1.344536 0.963843 0.827949 36.000000
1.362021 0.952932 0.834412 34.000000
1.376269 0.938761 0.838248 37.000000
1.397378 0.929730 0.846884 33.000000
1.414789 0.917834 0.853176 43.000000
1.436308 0.907619 0.861401 33.000000
1.449812 0.892690 0.865410 20.000000
1.459429 0.875261 0.867101 35.000000
1.476562 0.862207 0.873281 39.000000
1.501357 0.853249 0.883917 52.000000
1.530059 0.845895 0.896867 49.000000
1.543211 0.829531 0.900592 34.000000
1.563684 0.817431 0.909206 33.000000
1.580572 0.802554 0.915126 36.000000
1.608948 0.793563 0.928258 18.000000
1.629714 0.779831 0.936393 30.000000
1.646085 0.764129 0.942555 35.000000
1.658305 0.746291 0.946298 29.000000
1.686571 0.735318 0.959232 35.000000
1.702652 0.718564 0.965191 35.000000
1.722720 0.703226 0.973352 31.000000
1.734467 0.684151 0.976890 30.000000
1.746056 0.664913 0.980305 18.000000
1.794617 0.659443 1.004919 34.000000
1.818552 0.643795 1.015222 37.000000
1.842084 0.627881 1.025745 35.000000
1.869807 0.612812 1.038555 35.000000
1.905909 0.599830 1.055995 36.000000
1.920785 0.579623 1.061707 34.000000
1.939544 0.560511 1.069978 33.000000
1.979741 0.546767 1.089560 27.000000
2.002568 0.527782 1.100078 35.000000
2.020923 0.507175 1.108122 34.000000
2.034910 0.485167 1.113686 31.000000
2.070246 0.467745 1.130940 31.000000
2.096809 0.447690 1.143438 37.000000
2.114677 0.425308 1.151093 32.000000
2.153748 0.406785 1.170835 30.000000
2.188389 0.386598 1.188094 27.000000
2.214215 0.364182 1.200580 33.000000
2.266034 0.345154 1.227081 32.000000
2.295712 0.322008 1.242043 33.000000
2.321099 0.297521 1.254173 31.000000
2.363489 0.274548 1.276007 38.000000
2.388283 0.248816 1.288238 36.000000
2.434476 0.224588 1.312637 31.000000
2.485232 0.199503 1.338826 28.000000
2.509103 0.171554 1.351176 31.000000
2.537141 0.143334 1.365726 30.000000
2.582635 0.115186 1.389575 32.000000
2.641022 0.086426 1.420349 32.000000
2.672482 0.055758 1.437290 32.000000
2.703676 0.024359 1.453959 31.000000
2.756612 -0.007833 1.482471 27.000000
2.813663 -0.041342 1.513062 32.000000
2.861504 -0.075974 1.538811 30.000000
2.917621 -0.112092 1.569587 29.000000
2.973385 -0.149463 1.600260 32.000000
3.037465 -0.188840 1.635347 29.000000
3.083676 -0.228373 1.660844 32.000000
3.085172 -0.265384 1.663103 29.000000
3.064844 -0.300138 1.652680 29.000000
3.035047 -0.333515 1.637965 34.000000
3.013744 -0.367335 1.627775 32.000000
2.996330 -0.401325 1.620373 33.000000
2.996295 -0.437447 1.621687 36.000000
2.973847 -0.470229 1.611620 32.000000
2.964082 -0.504715 1.608324 30.000000
2.932435 -0.535139 1.593246 24.000000
2.909238 -0.566426 1.582588 29.000000
2.906995 -0.601876 1.584224 34.000000
2.870052 -0.629761 1.566730 35.000000
2.867237 -0.664903 1.568065 32.000000
2.834082 -0.692610 1.552749 35.000000
2.822140 -0.725098 1.548990 33.000000
2.818448 -0.759581 1.549824 28.000000
2.788521 -0.787168 1.536999 24.000000
2.746208 -0.810099 1.516377 28.000000
2.741336 -0.844029 1.517430 31.000000
2.731928 -0.876609 1.515845 33.000000
2.688667 -0.897787 1.495497 28.000000
2.703863 -0.938375 1.507718 35.000000
2.684974 -0.967756 1.501680 35.000000
2.657857 -0.993249 1.490313 25.000000
2.621933 -1.015345 1.474716 18.000000
2.622930 -1.051586 1.480028 30.000000
2.603062 -1.079441 1.473448 29.000000
2.611398 -1.119226 1.483075 37.000000
2.570691 -1.137671 1.464751 29.000000
2.562247 -1.170084 1.464930 31.000000
2.553569 -1.202302 1.464908 34.000000
2.531995 -1.229188 1.458366 26.000000
2.490836 -1.245179 1.439777 22.000000
2.488719 -1.281226 1.444551 34.000000
2.475069 -1.310545 1.441763 31.000000
2.464362 -1.342377 1.441837 36.000000
2.457299 -1.376188 1.443896 35.000000
2.430464 -1.398889 1.434554 33.000000
2.418917 -1.430187 1.434231 37.000000
2.384180 -1.447510 1.420192 27.000000
2.345718 -1.461734 1.403741 21.000000
2.347946 -1.502323 1.412773 31.000000
2.331638 -1.530170 1.409817 32.000000
2.322453 -1.562908 1.411171 33.000000
2.308620 -1.593573 1.410834 32.000000
2.302414 -1.628626 1.414300 26.000000
2.280597 -1.653923 1.409175 24.000000
2.255821 -1.675503 1.401252 20.000000
2.226448 -1.694679 1.391602 22.000000
2.218257 -1.729836 1.395119 32.000000
2.199092 -1.756572 1.391957 35.000000
2.172794 -1.777436 1.384276 35.000000
2.146428 -1.797847 1.376521 33.000000
2.147072 -1.841281 1.386392 33.000000
2.126981 -1.867140 1.382835 34.000000
2.113288 -1.898719 1.383561 25.000000
2.079407 -1.912000 1.371163 21.000000
2.075003 -1.952336 1.378313 32.000000
2.050702 -1.974132 1.372278 29.000000
2.029390 -1.998627 1.368324 32.000000
2.009902 -2.026999 1.367012 29.000000
1.994452 -2.057529 1.367262 30.000000
1.978572 -2.087921 1.367388 31.000000
1.958119 -2.115731 1.365836 24.000000
1.935631 -2.139095 1.361552 22.000000
1.915947 -2.165556 1.359298 32.000000
1.909431 -2.209806 1.368027 32.000000
1.897802 -2.246386 1.371955 35.000000
1.863992 -2.259364 1.361473 29.000000
1.855836 -2.303628 1.369940 30.000000
1.837379 -2.332849 1.369253 31.000000
1.814103 -2.359203 1.367049 21.000000
1.764928 -2.348078 1.343336 10.000000
1.695836 -2.311166 1.305739 12.000000
1.617148 -2.258180 1.260005 14.000000
1.545220 -2.211057 1.218669 18.000000
1.455505 -2.131482 1.160656 14.000000
1.393979 -2.092566 1.125945 16.000000
1.348549 -2.075423 1.103584 17.000000
1.291560 -2.038169 1.071130 11.000000
1.216281 -1.968687 1.022717 10.000000
1.175698 -1.952531 1.002824 10.000000
1.126307 -1.919795 0.974951 16.000000
1.097621 -1.917380 0.962882 24.000000
0.777244 1.353993 0.697558 23.000000
0.792117 1.343974 0.700219 32.000000
0.811551 1.341545 0.706991 23.000000
0.825251 1.331625 0.709878 16.000000
0.830130 1.305713 0.704217 31.000000
0.844397 1.295077 0.706760 25.000000
0.861137 1.288116 0.711388 32.000000
0.871841 1.273859 0.712051 30.000000
0.885901 1.262756 0.714542 26.000000
0.905098 1.258808 0.721145 33.000000
0.918144 1.247797 0.723859 23.000000
0.945598 1.254179 0.736824 24.000000
0.940115 1.217154 0.724295 35.000000
0.961181 1.216327 0.733303 31.000000
0.977526 1.207643 0.737698 42.000000
0.987297 1.192304 0.738065 35.000000
1.009290 1.190114 0.746791 35.000000
1.024809 1.181217 0.751385 51.000000
1.034948 1.164931 0.751384 29.000000
1.053303 1.158973 0.758170 22.000000
1.068685 1.149417 0.762692 35.000000
1.084618 1.139145 0.766960 35.000000
1.096741 1.125954 0.769257 64.000000
1.111925 1.115728 0.773704 42.000000
1.123868 1.102124 0.775953 43.000000
1.142122 1.094615 0.782583 62.000000
1.160456 1.086733 0.789184 33.000000
1.178760 1.078583 0.795754 23.000000
1.193752 1.067128 0.800114 33.000000
1.218800 1.064248 0.811097 37.000000
1.233744 1.052233 0.815387 51.000000
1.238293 1.031342 0.812878 36.000000
1.256509 1.021768 0.819265 34.000000
1.267642 1.006370 0.821148 41.000000
1.285208 0.996654 0.827844 31.000000
1.303282 0.986212 0.834172 24.000000
1.321308 0.975483 0.840520 34.000000
1.335220 0.962205 0.844774 31.000000
1.349472 0.948389 0.848755 52.000000
1.374207 0.942192 0.859852 35.000000
1.380529 0.923130 0.859442 31.000000
1.413171 0.920660 0.874738 37.000000
1.415539 0.898857 0.871922 32.000000
1.440252 0.891116 0.882897 26.000000
1.453665 0.875975 0.886903 32.000000
1.470773 0.862866 0.893179 37.000000
1.491706 0.851592 0.901678 49.000000
1.524153 0.846424 0.917185 37.000000
1.536881 0.830370 0.921321 35.000000
1.557785 0.817851 0.929776 53.000000
1.566348 0.799207 0.931476 26.000000
1.598961 0.791898 0.946813 23.000000
1.627238 0.782352 0.960154 32.000000
1.639600 0.764684 0.964003 30.000000
1.647795 0.744977 0.965442 31.000000
1.675996 0.733988 0.978609 33.000000
1.700142 0.720732 0.989384 35.000000
1.716094 0.703551 0.995327 37.000000
1.727897 0.684488 0.998914 26.000000
1.755602 0.671748 1.012183 25.000000
1.783608 0.658191 1.025090 35.000000
1.803030 0.641322 1.033537 34.000000
1.826509 0.625449 1.044246 34.000000
1.845736 0.607669 1.052596 35.000000
1.889994 0.597470 1.075061 35.000000
1.917418 0.581133 1.088024 45.000000
1.919253 0.557086 1.086887 27.000000
1.954984 0.542252 1.104455 24.000000
1.994646 0.527904 1.124655 34.000000
2.004495 0.505166 1.128054 32.000000
2.031222 0.486343 1.140973 34.000000
2.062121 0.467835 1.156165 33.000000
2.079988 0.445955 1.164027 27.000000
2.101843 0.424637 1.174597 34.000000
2.140704 0.406103 1.194723 25.000000
2.170845 0.385217 1.209914 27.000000
2.226800 0.367846 1.239407 42.000000
2.256798 0.345261 1.254404 31.000000
2.281907 0.321446 1.267244 34.000000
2.311508 0.297513 1.282025 34.000000
2.340697 0.273039 1.297058 31.000000
2.387131 0.249684 1.321669 32.000000
2.415635 0.223761 1.336816 26.000000
2.461734 0.198453 1.361118 27.000000
2.489836 0.170993 1.376120 31.000000
2.530828 0.143566 1.398113 33.000000
2.549735 0.114223 1.408039 26.000000
2.638493 0.086674 1.456342 34.000000
2.665397 0.055849 1.471205 33.000000
2.692033 0.024399 1.485793 31.000000
2.744656 -0.007845 1.514880 33.000000
2.801367 -0.041309 1.546094 32.000000
2.857672 -0.076225 1.577200 34.000000
2.913445 -0.112396 1.608599 33.000000
2.955746 -0.149257 1.632546 29.000000
3.015065 -0.188251 1.666040 35.000000
3.074092 -0.228701 1.699307 26.000000
3.058104 -0.264201 1.691958 21.000000
3.055323 -0.300462 1.690996 32.000000
3.016965 -0.332986 1.671169 33.000000
3.008811 -0.368301 1.668124 35.000000
3.000034 -0.403618 1.665291 39.000000
2.952254 -0.432899 1.640257 29.000000
2.964577 -0.470875 1.649159 36.000000
2.946286 -0.503986 1.641104 31.000000
2.888823 -0.529572 1.611308 18.000000
2.904510 -0.568027 1.622097 34.000000
2.881053 -0.598961 1.611256 32.000000
2.865728 -0.631475 1.605535 33.000000
2.854310 -0.664677 1.602013 34.000000
2.825560 -0.693491 1.588808 30.000000
2.800870 -0.722692 1.577916 34.000000
2.788689 -0.754828 1.573915 34.000000
2.716679 -0.770293 1.537054 20.000000
2.742035 -0.812459 1.554390 32.000000
2.716105 -0.840046 1.543457 32.000000
2.706726 -0.872526 1.541877 32.000000
2.701220 -0.906207 1.542579 34.000000
2.678773 -0.933998 1.533666 32.000000
2.664401 -0.964388 1.529421 31.000000
2.653395 -0.996423 1.527947 32.000000
2.601648 -1.011908 1.502093 20.000000
2.614746 -1.053027 1.514551 33.000000
2.598960 -1.082681 1.510332 33.000000
2.578870 -1.110298 1.503563 31.000000
2.574584 -1.144693 1.506237 35.000000
2.554085 -1.171728 1.499287 33.000000
2.549136 -1.206023 1.501654 34.000000
2.524164 -1.230542 1.492178 32.000000
2.470721 -1.241283 1.466710 24.000000
2.476975 -1.280756 1.475729 35.000000
2.466532 -1.312681 1.475946 36.000000
2.456429 -1.344024 1.475384 32.000000
2.441458 -1.373580 1.472872 42.000000
2.414699 -1.396294 1.463393 33.000000
2.384084 -1.416275 1.451522 33.000000
2.376081 -1.449548 1.453381 32.000000
2.330203 -1.459180 1.432123 23.000000
2.336611 -1.501479 1.443021 32.000000
2.315903 -1.527596 1.438332 31.000000
2.302988 -1.557740 1.437481 30.000000
2.304436 -1.597912 1.445689 37.000000
2.279184 -1.620777 1.438419 24.000000
2.258216 -1.645319 1.432682 19.000000
2.254084 -1.683475 1.438915 28.000000
2.189301 -1.675766 1.406294 19.000000
2.196101 -1.720889 1.418568 33.000000
2.183952 -1.753218 1.419842 35.000000
2.154255 -1.771259 1.409817 29.000000
2.148367 -1.808893 1.415384 32.000000
2.118347 -1.826152 1.405195 31.000000
2.108344 -1.860721 1.408378 29.000000
2.101275 -1.898247 1.413664 31.000000
2.067361 -1.911494 1.400988 18.000000
2.059549 -1.948859 1.406130 31.000000
2.035272 -1.970564 1.399955 29.000000
2.017147 -1.998312 1.398210 29.000000
2.011273 -2.038629 1.405165 34.000000
1.973778 -2.046703 1.390000 26.000000
1.966005 -2.087596 1.397280 30.000000
1.937618 -2.104731 1.388630 28.000000
1.924137 -2.138060 1.390792 16.000000
1.911948 -2.175482 1.395574 31.000000
1.885953 -2.195120 1.388799 31.000000
1.869965 -2.228998 1.391254 29.000000
1.843580 -2.247849 1.384380 29.000000
1.835365 -2.292099 1.393013 26.000000
1.816837 -2.321238 1.392424 29.000000
1.801858 -2.358201 1.396462 24.000000
1.740346 -2.333544 1.364472 9.000000
1.694664 -2.325149 1.342554 18.000000
1.597837 -2.246602 1.281108 11.000000
1.521231 -2.191990 1.234750 10.000000
1.455119 -2.146303 1.194521 15.000000
1.386297 -2.096364 1.152815 14.000000
1.333596 -2.067796 1.123671 16.000000
1.279233 -2.034463 1.092722 16.000000
1.208241 -1.968323 1.045007 9.000000
1.174801 -1.963925 1.030871 13.000000
1.118667 -1.919658 0.996278 19.000000
0.771300 1.355440 0.713362 23.000000
0.781684 1.337547 0.711908 21.000000
0.803468 1.339026 0.720901 16.000000
0.811082 1.317046 0.717268 16.000000
0.822140 1.303223 0.718069 17.000000
0.833999 1.288785 0.718544 22.000000
0.850726 1.281848 0.723206 22.000000
0.867381 1.274639 0.727882 23.000000
0.888292 1.275093 0.737068 27.000000
0.889296 1.245335 0.728838 25.000000
0.918196 1.256216 0.744475 24.000000
0.932146 1.244476 0.746896 24.000000
0.932281 1.214664 0.738458 21.000000
0.956057 1.217406 0.749770 32.000000
0.966781 1.201672 0.749894 28.000000
0.987961 1.200198 0.759040 23.000000
1.000579 1.188055 0.761574 32.000000
1.013883 1.175331 0.763791 26.000000
1.032222 1.169593 0.770702 28.000000
1.044648 1.156902 0.773145 24.000000
1.048487 1.133768 0.768585 27.000000
1.069818 1.130618 0.777605 34.000000
1.091198 1.127082 0.786665 33.000000
1.106392 1.116865 0.791216 33.000000
1.121546 1.106357 0.795726 35.000000
1.130239 1.089419 0.795728 32.000000
1.148437 1.081619 0.802409 34.000000
1.169990 1.076513 0.811388 21.000000
1.181647 1.062077 0.813513 22.000000
1.203223 1.056280 0.822437 32.000000
1.218078 1.044342 0.826759 29.000000
1.236291 1.035006 0.833334 31.000000
1.251028 1.022528 0.837573 31.000000
1.265214 1.010244 0.842102 30.000000
1.279794 0.997319 0.846308 31.000000
1.283742 0.976150 0.843461 18.000000
1.315347 0.976433 0.859453 30.000000
1.333356 0.965363 0.865858 31.000000
1.347185 0.951794 0.870178 34.000000
1.364594 0.940475 0.876789 31.000000
1.374664 0.923939 0.878735 32.000000
1.392408 0.911724 0.884917 29.000000
1.405907 0.897185 0.889052 28.000000
1.423087 0.884711 0.895496 19.000000
1.436424 0.869714 0.899538 25.000000
1.464816 0.863399 0.912992 30.000000
1.496737 0.858995 0.929158 28.000000
1.517654 0.847186 0.937836 32.000000
1.530802 0.830781 0.941660 32.000000
1.547278 0.816454 0.948238 29.000000
1.560238 0.799571 0.951960 29.000000
1.588358 0.790542 0.965554 18.000000
1.612613 0.779008 0.976732 27.000000
1.628902 0.763307 0.983021 28.000000
1.645083 0.747228 0.989263 24.000000
1.665167 0.732658 0.997859 25.000000
1.677178 0.714175 1.001597 24.000000
1.701123 0.700534 1.012509 26.000000
1.729156 0.688057 1.025730 25.000000
1.736355 0.667305 1.027157 23.000000
1.755730 0.651052 1.035844 22.000000
1.795932 0.641466 1.056137 29.000000
1.831728 0.629796 1.074310 25.000000
1.855088 0.613247 1.085170 25.000000
1.873856 0.595116 1.093964 25.000000
1.901202 0.578886 1.107091 26.000000
1.915975 0.558349 1.112794 24.000000
1.951199 0.543608 1.131113 20.000000
1.961151 0.521365 1.134615 18.000000
1.996363 0.505303 1.152704 24.000000
2.031452 0.488458 1.170676 24.000000
2.040893 0.465015 1.173926 20.000000
2.084085 0.448887 1.197056 21.000000
2.097553 0.425549 1.202477 17.000000
2.119098 0.403713 1.213179 12.000000
2.166223 0.385978 1.238458 18.000000
2.187575 0.362861 1.248889 18.000000
2.225666 0.341979 1.269465 20.000000
2.268182 0.320804 1.291965 23.000000
2.301620 0.297584 1.309890 15.000000
