x y z intensity
2.567369 -0.852084 1.700074 32.000000
2.538186 -0.876471 1.684643 32.000000
2.508379 -0.900560 1.669629 34.000000
2.494330 -0.929983 1.665154 31.000000
2.487936 -0.962177 1.665886 30.000000
2.445870 -0.980072 1.642614 29.000000
2.427225 -1.006857 1.635057 30.000000
2.408462 -1.033260 1.627420 30.000000
2.385040 -1.057936 1.617634 31.000000
2.365972 -1.083532 1.609750 31.000000
2.323063 -1.098307 1.586588 35.000000
2.318364 -1.130794 1.589714 28.000000
2.305789 -1.159367 1.587310 27.000000
2.285460 -1.183927 1.579583 28.000000
2.257416 -1.204102 1.566559 31.000000
2.244232 -1.231934 1.563904 33.000000
2.223338 -1.255384 1.555862 33.000000
2.202352 -1.278377 1.547748 32.000000
2.187892 -1.305933 1.545293 34.000000
2.159297 -1.323726 1.531851 31.000000
2.140860 -1.348453 1.526558 29.000000
2.115727 -1.367628 1.515489 24.000000
2.100474 -1.394006 1.512707 25.000000
2.088588 -1.422530 1.512314 29.000000
2.065821 -1.443585 1.504134 19.000000
2.039491 -1.461782 1.493327 10.000000
2.033845 -1.494729 1.497774 26.000000
2.014107 -1.517398 1.491825 24.000000
2.004472 -1.547609 1.493507 25.000000
1.950597 -1.542957 1.462046 24.000000
1.939689 -1.573131 1.464110 26.000000
1.932777 -1.605438 1.467966 30.000000
1.904791 -1.621458 1.457218 27.000000
1.897255 -1.653482 1.460861 28.000000
1.862554 -1.663136 1.444965 27.000000
1.848231 -1.688949 1.443412 27.000000
1.842017 -1.724260 1.449849 25.000000
1.808320 -1.731810 1.433167 17.000000
1.798340 -1.763824 1.436902 27.000000
1.772735 -1.780409 1.428155 30.000000
1.750123 -1.799691 1.421810 27.000000
1.733312 -1.824947 1.420305 25.000000
1.716256 -1.850015 1.418698 29.000000
1.698953 -1.874982 1.416989 24.000000
1.681404 -1.899757 1.415177 24.000000
1.649402 -1.907720 1.401208 16.000000
1.639914 -1.941956 1.406577 24.000000
1.621778 -1.966079 1.404469 27.000000
1.589553 -1.972852 1.390319 25.000000
1.571011 -1.996409 1.388218 23.000000
1.557660 -2.026645 1.390793 24.000000
1.534481 -2.047159 1.386530 22.000000
1.525630 -2.084273 1.393605 22.000000
1.495734 -2.092869 1.381671 10.000000
1.461859 -2.098093 1.367782 8.000000
1.372712 -2.018058 1.299385 10.000000
1.236510 -1.862447 1.184548 10.000000
1.121752 -1.733934 1.089543 10.000000
1.011354 -1.602192 0.994831 17.000000
0.916620 -1.491074 0.914932 10.000000
0.894106 -1.491354 0.904454 10.000000
1.052093 1.751863 1.087629 32.000000
1.072773 1.741841 1.094226 35.000000
1.087747 1.719670 1.093246 31.000000
1.105865 1.705430 1.097405 32.000000
1.117874 1.679437 1.093921 35.000000
1.137927 1.668567 1.100305 32.000000
1.158057 1.657352 1.106707 29.000000
1.171803 1.634543 1.105407 33.000000
1.191693 1.622873 1.111676 35.000000
1.195888 1.589959 1.103342 37.000000
1.228822 1.595169 1.121619 35.000000
1.224225 1.551865 1.105819 35.000000
1.249102 1.546209 1.116760 50.000000
1.279610 1.546773 1.132593 39.000000
1.299093 1.533561 1.138645 36.000000
1.298573 1.497015 1.127267 35.000000
1.329202 1.496477 1.143074 41.000000
1.348299 1.482522 1.148867 62.000000
1.364513 1.465110 1.152180 36.000000
1.368493 1.434954 1.145419 53.000000
1.399258 1.432745 1.161103 60.000000
1.411040 1.412168 1.162191 44.000000
1.435812 1.403032 1.172788 71.000000
1.448159 1.381465 1.173240 28.000000
1.468836 1.369216 1.181639 35.000000
1.480868 1.347334 1.181941 41.000000
1.501418 1.334459 1.190303 35.000000
1.509817 1.309444 1.187901 42.000000
1.526929 1.293275 1.193585 43.000000
1.547265 1.279473 1.201707 35.000000
1.575038 1.270315 1.214498 52.000000
1.591944 1.253086 1.219958 31.000000
1.605368 1.233022 1.222845 35.000000
1.622142 1.215305 1.228179 56.000000
1.642133 1.199878 1.236048 36.000000
1.658611 1.181655 1.241193 51.000000
1.685511 1.170426 1.254170 53.000000
1.690562 1.144729 1.251879 35.000000
1.706689 1.125659 1.256836 41.000000
1.736974 1.115553 1.272222 31.000000
1.737924 1.087251 1.267074 35.000000
1.757247 1.069606 1.274399 62.000000
1.790471 1.060735 1.292740 49.000000
1.809115 1.042692 1.300494 46.000000
1.827700 1.024242 1.308117 50.000000
1.849796 1.007484 1.318336 44.000000
1.864460 0.986334 1.323192 43.000000
1.882629 0.966873 1.330566 27.000000
1.904594 0.948958 1.340545 33.000000
1.922569 0.928767 1.347725 36.000000
1.939931 0.908617 1.355383 35.000000
1.957680 0.887814 1.362439 36.000000
1.986323 0.872065 1.377940 52.000000
1.996126 0.847046 1.379351 34.000000
2.024651 0.830340 1.394670 35.000000
2.029603 0.803605 1.393722 29.000000
2.050102 0.782899 1.403542 36.000000
2.073933 0.763515 1.416401 48.000000
2.090196 0.740531 1.423164 59.000000
2.105878 0.717430 1.430421 48.000000
2.125857 0.695117 1.439751 44.000000
2.141182 0.671330 1.446712 35.000000
2.184561 0.655716 1.472586 36.000000
2.211784 0.634495 1.487567 32.000000
2.234835 0.611499 1.499604 35.000000
2.249611 0.585988 1.506137 35.000000
2.271899 0.562291 1.518544 36.000000
2.318594 0.543854 1.547145 44.000000
2.328753 0.515986 1.550563 42.000000
2.354735 0.491617 1.565327 37.000000
2.367773 0.464326 1.572275 32.000000
2.381022 0.436569 1.578528 30.000000
2.427151 0.414155 1.606467 51.000000
2.443682 0.386239 1.615745 50.000000
2.468358 0.359222 1.630324 57.000000
2.484622 0.330412 1.639262 52.000000
2.513017 0.302795 1.656235 45.000000
2.557839 0.276363 1.684080 40.000000
2.548070 0.243732 1.676706 29.000000
2.596626 0.216077 1.706938 30.000000
2.640526 0.187091 1.734819 35.000000
2.659059 0.155615 1.746074 33.000000
2.677028 0.123728 1.757820 35.000000
2.724261 0.092324 1.787986 35.000000
2.745854 0.059248 1.802098 35.000000
2.775515 0.025735 1.821501 35.000000
2.813238 -0.008523 1.846190 29.000000
2.875730 -0.043987 1.887234 42.000000
2.891922 -0.079827 1.897784 34.000000
2.924072 -0.116745 1.919830 35.000000
2.989706 -0.156122 1.962838 43.000000
3.008714 -0.194288 1.976215 35.000000
3.031422 -0.233178 1.992106 34.000000
2.990827 -0.267103 1.967444 26.000000
2.942201 -0.299150 1.936332 25.000000
2.942798 -0.335872 1.938638 32.000000
2.918046 -0.369435 1.924411 32.000000
2.872414 -0.399604 1.896191 29.000000
2.847280 -0.431785 1.881460 33.000000
2.830161 -0.464603 1.872106 32.000000
2.816375 -0.498056 1.865911 29.000000
2.785952 -0.528080 1.848589 24.000000
2.755732 -0.557290 1.830568 29.000000
2.753584 -0.592061 1.831963 32.000000
2.709826 -0.617718 1.806719 35.000000
2.678586 -0.645110 1.788765 29.000000
2.675735 -0.679024 1.789781 32.000000
2.647631 -0.706646 1.774885 31.000000
2.631575 -0.737064 1.768059 28.000000
2.587063 -0.758907 1.742048 21.000000
2.582753 -0.791976 1.743093 29.000000
2.562011 -0.819922 1.733008 29.000000
2.552539 -0.851660 1.731641 33.000000
2.527463 -0.877489 1.718683 30.000000
2.489856 -0.898832 1.698135 32.000000
2.472372 -0.926398 1.690248 31.000000
2.454281 -0.953865 1.682854 27.000000
2.412416 -0.971594 1.659336 19.000000
2.409563 -1.004591 1.662448 29.000000
2.397945 -1.034721 1.660748 30.000000
2.375138 -1.059032 1.650161 32.000000
2.347762 -1.081571 1.637485 31.000000
2.328548 -1.106798 1.629434 32.000000
2.308574 -1.132114 1.621865 31.000000
2.288312 -1.156963 1.614126 24.000000
2.245511 -1.169794 1.590354 20.000000
2.251221 -1.207638 1.601075 35.000000
2.230548 -1.231511 1.593105 32.000000
2.209690 -1.254924 1.584970 32.000000
2.185073 -1.275831 1.574031 32.000000
2.167697 -1.300655 1.568394 32.000000
2.149371 -1.325660 1.563220 35.000000
2.135141 -1.352126 1.559957 26.000000
2.098590 -1.365026 1.541508 19.000000
2.086791 -1.393770 1.541254 30.000000
2.079177 -1.424204 1.542880 31.000000
2.052922 -1.442904 1.531998 22.000000
2.030112 -1.463569 1.523657 13.000000
2.027765 -1.499127 1.530727 30.000000
2.014789 -1.527009 1.529984 35.000000
1.981201 -1.539037 1.513553 24.000000
1.931045 -1.537119 1.484209 18.000000
1.926755 -1.572574 1.491507 30.000000
1.923022 -1.607568 1.497961 30.000000
1.905735 -1.631539 1.494130 33.000000
1.877594 -1.647361 1.483174 30.000000
1.863242 -1.673552 1.481731 32.000000
1.834996 -1.688603 1.470559 32.000000
1.820288 -1.714264 1.468939 21.000000
1.791855 -1.728464 1.457643 18.000000
1.784862 -1.763497 1.463936 30.000000
1.754349 -1.773278 1.449455 30.000000
1.743735 -1.804889 1.453097 32.000000
1.717878 -1.820802 1.444030 30.000000
1.703732 -1.849139 1.444955 30.000000
1.686368 -1.874048 1.443280 32.000000
1.665889 -1.895502 1.439025 20.000000
1.636649 -1.906881 1.427273 23.000000
1.621515 -1.934454 1.427786 30.000000
1.608819 -1.965188 1.430634 26.000000
1.595727 -1.995955 1.433436 35.000000
1.566119 -2.005931 1.421472 28.000000
1.552539 -2.036371 1.424047 30.000000
1.528020 -2.052624 1.416797 30.000000
1.511210 -2.079257 1.416714 18.000000
1.477249 -2.085015 1.402701 14.000000
1.435131 -2.075005 1.378540 9.000000
1.361584 -2.016889 1.323375 12.000000
1.225028 -1.862337 1.207080 16.000000
1.114963 -1.737281 1.112458 18.000000
1.006473 -1.610265 1.018837 30.000000
0.911387 -1.495171 0.934891 18.000000
1.042754 1.751470 1.107820 32.000000
1.061162 1.737593 1.112068 29.000000
1.081897 1.727289 1.118651 28.000000
1.094374 1.701270 1.115240 35.000000
1.114758 1.690541 1.121752 30.000000
1.135078 1.679465 1.128281 35.000000
1.146662 1.653202 1.124644 26.000000
1.169298 1.645255 1.133480 18.000000
1.181692 1.622884 1.132523 44.000000
1.196396 1.603922 1.133926 35.000000
1.205678 1.577911 1.130297 35.000000
1.214597 1.551827 1.126548 54.000000
1.247565 1.556262 1.145157 32.000000
1.267089 1.543326 1.151234 45.000000
1.289330 1.533419 1.159831 30.000000
1.305932 1.516605 1.163364 22.000000
1.311038 1.486553 1.156745 51.000000
1.338783 1.482270 1.170217 36.000000
1.357888 1.467983 1.176143 52.000000
1.362116 1.437781 1.169232 52.000000
1.379919 1.423743 1.175432 41.000000
1.401660 1.411834 1.183640 60.000000
1.432507 1.408656 1.199564 34.000000
1.431756 1.375732 1.190210 23.000000
1.462643 1.371736 1.205991 41.000000
1.476996 1.353241 1.209347 34.000000
1.485759 1.328259 1.207024 43.000000
1.502985 1.312297 1.212749 45.000000
1.516881 1.293271 1.215956 34.000000
1.540538 1.282144 1.226779 54.000000
1.551716 1.259450 1.226674 33.000000
1.575182 1.247700 1.237473 26.000000
1.595381 1.232880 1.245537 40.000000
1.615477 1.217673 1.253625 35.000000
1.628696 1.197118 1.256313 59.000000
1.651313 1.184344 1.267374 47.000000
1.657374 1.158437 1.264629 36.000000
1.684043 1.146867 1.277656 67.000000
1.693140 1.123022 1.277344 29.000000
1.701380 1.099560 1.277460 23.000000
1.720740 1.082353 1.284996 35.000000
1.757399 1.076287 1.306303 36.000000
1.776041 1.058566 1.314273 38.000000
1.794701 1.040515 1.322040 54.000000
1.813152 1.022056 1.329826 35.000000
1.831543 1.003337 1.337480 35.000000
1.831298 0.974325 1.331497 25.000000
1.871793 0.966666 1.355244 26.000000
1.893615 0.948768 1.365282 40.000000
1.911629 0.928521 1.372630 35.000000
1.932749 0.910105 1.383098 40.000000
1.957566 0.893069 1.396159 59.000000
1.963750 0.866641 1.395000 35.000000
1.980676 0.845399 1.402488 36.000000
2.009050 0.828677 1.417953 25.000000
2.014111 0.802024 1.417039 26.000000
2.046235 0.785808 1.435131 40.000000
2.054311 0.760462 1.437210 46.000000
2.070579 0.737520 1.444060 38.000000
2.098040 0.718603 1.459650 63.000000
2.133825 0.701479 1.480124 36.000000
2.161113 0.681236 1.495454 46.000000
2.168404 0.654308 1.496945 30.000000
2.203491 0.635384 1.517586 30.000000
2.226448 0.612362 1.529891 39.000000
2.236734 0.585944 1.534261 36.000000
2.271548 0.565036 1.554556 32.000000
2.301693 0.542640 1.572539 44.000000
2.315538 0.515936 1.579381 35.000000
2.337305 0.490566 1.591515 33.000000
2.346642 0.462379 1.595165 26.000000
2.392541 0.440785 1.623711 31.000000
2.405199 0.412645 1.630516 38.000000
2.429932 0.386169 1.645488 37.000000
2.450351 0.358404 1.657516 39.000000
2.470551 0.330322 1.669373 45.000000
2.494739 0.302149 1.683838 36.000000
2.535130 0.275258 1.709355 36.000000
2.554286 0.245555 1.721340 31.000000
2.606767 0.218024 1.754764 29.000000
2.621305 0.186705 1.763603 32.000000
2.648102 0.155713 1.780709 35.000000
2.678294 0.124398 1.801005 32.000000
2.700414 0.091984 1.814845 34.000000
2.721855 0.059058 1.829185 34.000000
2.751304 0.025696 1.848906 30.000000
2.797055 -0.008536 1.879684 32.000000
2.859093 -0.044051 1.921307 34.000000
2.871014 -0.079721 1.929250 34.000000
2.931953 -0.117697 1.971177 36.000000
2.955638 -0.155251 1.987144 33.000000
3.007645 -0.195192 2.023042 37.000000
2.997039 -0.231774 2.016917 28.000000
2.998081 -0.269154 2.019703 19.000000
2.945629 -0.301145 1.985294 31.000000
2.904795 -0.333330 1.959805 29.000000
2.896807 -0.368685 1.956377 31.000000
2.855485 -0.399334 1.930590 33.000000
2.826389 -0.430945 1.912849 29.000000
2.809361 -0.463767 1.903358 31.000000
2.800250 -0.497637 1.899223 29.000000
2.745483 -0.523052 1.864980 18.000000
2.743510 -0.557821 1.866729 30.000000
2.725044 -0.589174 1.857181 29.000000
2.681984 -0.614544 1.830821 29.000000
2.671280 -0.646646 1.826440 32.000000
2.651619 -0.676789 1.817136 30.000000
2.628201 -0.705151 1.804179 31.000000
2.624243 -0.738864 1.805545 31.000000
2.567961 -0.757242 1.770849 21.000000
2.579470 -0.795225 1.782863 33.000000
2.546942 -0.819442 1.764471 29.000000
2.533398 -0.849902 1.760351 30.000000
2.508442 -0.875742 1.747214 31.000000
2.474972 -0.898434 1.729097 28.000000
2.449706 -0.923010 1.715635 32.000000
2.435493 -0.951958 1.710987 28.000000
2.393869 -0.969711 1.687015 20.000000
2.398586 -1.005941 1.695678 33.000000
2.376060 -1.030692 1.685129 30.000000
2.348876 -1.053626 1.672442 29.000000
2.333732 -1.081000 1.667099 31.000000
2.310770 -1.104378 1.656148 30.000000
2.294529 -1.131467 1.651202 31.000000
2.289385 -1.163991 1.654294 30.000000
2.242895 -1.175046 1.627447 26.000000
2.237259 -1.207152 1.630273 32.000000
2.201895 -1.222808 1.611341 29.000000
2.192141 -1.252365 1.611202 32.000000
2.182068 -1.281738 1.610962 37.000000
2.146561 -1.295840 1.591771 30.000000
2.136193 -1.324714 1.591273 31.000000
2.131817 -1.358585 1.596650 31.000000
2.078451 -1.359569 1.563966 22.000000
2.073679 -1.392896 1.569078 30.000000
2.061592 -1.421499 1.568762 31.000000
2.035426 -1.440123 1.557658 21.000000
2.020353 -1.465245 1.553890 15.000000
1.997386 -1.485655 1.545296 23.000000
1.987873 -1.515937 1.547161 29.000000
1.964570 -1.535728 1.538411 29.000000
1.924581 -1.541768 1.516500 22.000000
1.933259 -1.588150 1.534408 32.000000
1.912798 -1.609676 1.527949 33.000000
1.885836 -1.625276 1.516302 30.000000
1.878015 -1.657424 1.520080 37.000000
1.837116 -1.661480 1.498477 32.000000
1.825732 -1.690269 1.499575 31.000000
1.809780 -1.716712 1.498515 30.000000
1.773281 -1.721338 1.478760 18.000000
1.763169 -1.753185 1.482663 29.000000
1.731598 -1.763622 1.468559 28.000000
1.719220 -1.791415 1.469177 26.000000
1.714047 -1.829229 1.477823 32.000000
1.688068 -1.844891 1.468585 27.000000
1.662050 -1.860138 1.459288 27.000000
1.647269 -1.887991 1.460089 27.000000
1.612625 -1.892685 1.443115 15.000000
1.614067 -1.940101 1.458745 29.000000
1.592984 -1.960829 1.454208 31.000000
1.569027 -1.977979 1.447007 27.000000
1.558172 -2.011871 1.452303 32.000000
1.536444 -2.031990 1.447474 29.000000
1.512041 -2.048250 1.440184 27.000000
1.492540 -2.071244 1.437728 26.000000
1.470365 -2.090558 1.432721 10.000000
1.414401 -2.063416 1.396478 9.000000
1.343769 -2.009030 1.342841 13.000000
1.212418 -1.857850 1.226653 13.000000
1.108915 -1.744792 1.138155 20.000000
0.997932 -1.610178 1.037812 26.000000
0.901392 -1.491658 0.950096 15.000000
1.058599 1.748287 1.139436 24.000000
1.067817 1.719255 1.134016 30.000000
1.086084 1.704954 1.138193 25.000000
1.106589 1.694154 1.144833 30.000000
1.118624 1.667997 1.141183 28.000000
1.146228 1.667435 1.155187 23.000000
1.156440 1.641581 1.151778 27.000000
1.176497 1.629834 1.158301 26.000000
1.193984 1.614258 1.162195 35.000000
1.203499 1.588134 1.158550 31.000000
1.225888 1.579058 1.167391 27.000000
1.240300 1.559433 1.168606 31.000000
1.257148 1.543078 1.172271 32.000000
1.279441 1.533120 1.180957 30.000000
1.304530 1.526073 1.192227 30.000000
1.318304 1.505669 1.193158 30.000000
1.317545 1.469156 1.181235 35.000000
1.356883 1.477068 1.205134 36.000000
1.372093 1.459858 1.208990 32.000000
1.379263 1.432549 1.204504 33.000000
1.383084 1.402288 1.197238 34.000000
1.415836 1.402725 1.216455 30.000000
1.422246 1.375234 1.211685 24.000000
1.433593 1.354185 1.212464 26.000000
1.460301 1.347428 1.226360 32.000000
1.472320 1.325415 1.226507 32.000000
1.489517 1.309376 1.232417 29.000000
1.506703 1.293113 1.238198 33.000000
1.524522 1.276053 1.243420 32.000000
1.541470 1.259267 1.249083 31.000000
1.571568 1.252731 1.265343 28.000000
1.588458 1.235177 1.270912 32.000000
1.598530 1.212288 1.270996 35.000000
1.614315 1.194794 1.276940 35.000000
1.630808 1.176560 1.282243 34.000000
1.647136 1.158094 1.287484 33.000000
1.666186 1.142139 1.295801 32.000000
1.696272 1.132426 1.311741 31.000000
1.718753 1.117911 1.322684 30.000000
1.731188 1.095796 1.324918 29.000000
1.742878 1.073978 1.327524 33.000000
1.761461 1.056249 1.335582 34.000000
1.780062 1.038188 1.343436 32.000000
1.798454 1.019795 1.351309 35.000000
1.809534 0.997030 1.353570 32.000000
1.827759 0.978059 1.361245 28.000000
1.860669 0.966451 1.379780 21.000000
1.878695 0.946615 1.387277 28.000000
1.892363 0.924914 1.392418 28.000000
1.913914 0.906224 1.402472 30.000000
1.934885 0.887482 1.412938 30.000000
1.944242 0.863155 1.415043 27.000000
1.964990 0.843673 1.425390 27.000000
1.985531 0.823748 1.435603 26.000000
2.009876 0.805000 1.448459 23.000000
2.030324 0.784129 1.458398 27.000000
2.046661 0.761519 1.465570 29.000000
2.066325 0.740193 1.475866 26.000000
2.101520 0.723816 1.497277 28.000000
2.113553 0.698618 1.501217 29.000000
2.140758 0.678410 1.516849 24.000000
2.140109 0.649210 1.512653 20.000000
2.202779 0.638568 1.553222 25.000000
2.217179 0.613385 1.560696 21.000000
2.227966 0.586696 1.564523 21.000000
2.250129 0.562917 1.577299 23.000000
2.268014 0.537786 1.587111 22.000000
2.286221 0.512010 1.596158 22.000000
2.299320 0.485338 1.603438 19.000000
2.304617 0.456600 1.604393 10.000000
2.370450 0.439141 1.647490 21.000000
2.383039 0.411048 1.654295 17.000000
2.416211 0.385826 1.674508 24.000000
2.428355 0.356985 1.681064 19.000000
2.460690 0.330597 1.701576 20.000000
2.480184 0.302001 1.714084 18.000000
2.512106 0.274249 1.734258 17.000000
2.510716 0.242611 1.732269 9.000000
2.571017 0.216162 1.771992 13.000000
2.593670 0.185730 1.786627 13.000000
2.612050 0.154448 1.798243 15.000000
2.658481 0.124102 1.830182 16.000000
2.688683 0.091968 1.849914 13.000000
2.705854 0.058947 1.861647 12.000000
2.763820 0.025904 1.901522 21.000000
2.792757 -0.008587 1.921462 24.000000
2.821381 -0.043690 1.941091 26.000000
2.853909 -0.079731 1.963338 26.000000
2.889580 -0.116650 1.988943 24.000000
2.933770 -0.154924 2.019347 26.000000
2.964708 -0.193518 2.041675 27.000000
2.995378 -0.232929 2.063772 24.000000
2.942899 -0.265746 2.029801 15.000000
2.903150 -0.298493 2.003458 19.000000
2.895381 -0.334103 2.000196 21.000000
2.863297 -0.366257 1.979004 24.000000
2.846877 -0.400209 1.969778 23.000000
2.830176 -0.433644 1.960241 25.000000
2.812670 -0.466880 1.951345 25.000000
2.791357 -0.498876 1.938687 14.000000
2.740886 -0.525134 1.906717 18.000000
2.722766 -0.556794 1.897228 23.000000
2.712978 -0.589600 1.892461 24.000000
2.681642 -0.617973 1.874954 24.000000
2.666800 -0.649349 1.867703 22.000000
2.627764 -0.674258 1.843498 23.000000
2.615962 -0.706012 1.839489 26.000000
2.588554 -0.732758 1.823364 13.000000
2.564443 -0.760284 1.810566 21.000000
2.544096 -0.788640 1.800490 24.000000
2.535364 -0.820233 1.798626 26.000000
2.502278 -0.844169 1.780482 25.000000
2.461734 -0.864280 1.756009 21.000000
2.468117 -0.900491 1.764858 29.000000
2.430698 -0.921099 1.743527 26.000000
2.408687 -0.947010 1.733270 10.000000
2.378889 -0.969303 1.717285 24.000000
2.368139 -0.999101 1.715022 25.000000
2.353386 -1.026953 1.709893 26.000000
2.326998 -1.049478 1.696376 25.000000
2.315586 -1.078474 1.693757 27.000000
2.299576 -1.105944 1.688846 28.000000
2.272764 -1.127105 1.674932 26.000000
2.230408 -1.140472 1.650604 10.000000
2.213894 -1.166631 1.645385 27.000000
2.211938 -1.200491 1.651054 28.000000
2.194967 -1.226284 1.645560 31.000000
2.177948 -1.251709 1.639984 27.000000
2.160608 -1.276951 1.634326 29.000000
2.143131 -1.301829 1.628495 26.000000
2.121959 -1.324212 1.619866 26.000000
2.060907 -1.321838 1.581953 10.000000
2.071338 -1.363727 1.597527 25.000000
2.062913 -1.394817 1.600051 25.000000
2.055108 -1.425270 1.601831 29.000000
2.028857 -1.444134 1.590585 16.000000
2.016211 -1.472412 1.590115 10.000000
1.994185 -1.492285 1.580692 23.000000
1.960950 -1.504722 1.563993 23.000000
1.941112 -1.527012 1.557755 10.000000
1.917858 -1.546293 1.548868 26.000000
1.901073 -1.570537 1.545138 23.000000
1.895987 -1.606099 1.552539 26.000000
1.865817 -1.619025 1.538123 26.000000
1.851587 -1.645381 1.536762 28.000000
1.823385 -1.660809 1.525403 26.000000
1.808887 -1.686723 1.523866 24.000000
1.790979 -1.709418 1.519522 10.000000
1.759544 -1.720717 1.505363 23.000000
1.747443 -1.748945 1.506163 21.000000
1.727918 -1.771562 1.502276 25.000000
1.708128 -1.794002 1.498212 25.000000
1.701158 -1.827924 1.503847 22.000000
1.672226 -1.840466 1.491949 25.000000
1.646263 -1.855728 1.482571 21.000000
1.634240 -1.886814 1.485922 11.000000
1.607941 -1.901522 1.476390 20.000000
1.592573 -1.929013 1.476968 21.000000
1.571562 -1.949669 1.472447 24.000000
1.560958 -1.983712 1.477853 24.000000
1.534093 -1.997124 1.468086 21.000000
1.520259 -2.027430 1.470723 25.000000
1.511137 -2.064658 1.478312 19.000000
1.501459 -2.101951 1.485726 12.000000
1.456573 -2.089468 1.458274 17.000000
1.397532 -2.054578 1.415948 8.000000
1.340338 -2.022852 1.376864 10.000000
1.217090 -1.883157 1.266204 10.000000
1.089987 -1.729481 1.148812 10.000000
0.977916 -1.591285 1.044465 16.000000
1.066013 1.733989 1.164342 21.000000
1.088223 1.722554 1.170769 24.000000
1.097165 1.693388 1.165071 28.000000
1.120012 1.685803 1.174213 23.000000
1.133144 1.663666 1.173391 18.000000
1.148451 1.644912 1.174988 24.000000
1.173642 1.640099 1.186639 29.000000
1.181099 1.610505 1.180461 31.000000
1.203611 1.601591 1.189460 29.000000
1.218340 1.582118 1.190810 33.000000
1.238097 1.569237 1.197140 35.000000
1.257856 1.556073 1.203486 29.000000
1.266626 1.529438 1.199436 31.000000
1.297164 1.528887 1.216011 26.000000
1.308236 1.505194 1.214388 32.000000
1.310584 1.471948 1.204840 56.000000
1.342958 1.473997 1.224344 33.000000
1.344718 1.440658 1.214654 44.000000
1.362561 1.426423 1.220959 44.000000
1.378420 1.408369 1.224216 35.000000
1.415099 1.411074 1.245847 37.000000
1.423760 1.386976 1.244135 23.000000
1.432225 1.362820 1.242321 36.000000
1.459945 1.355376 1.255837 36.000000
1.471188 1.333780 1.256541 33.000000
1.491709 1.320442 1.265201 40.000000
1.502563 1.298455 1.265755 36.000000
1.519725 1.281766 1.271539 39.000000
1.537596 1.264345 1.276759 35.000000
1.566833 1.258163 1.293830 28.000000
1.577166 1.235370 1.294034 36.000000
1.593965 1.217538 1.299519 53.000000
1.607240 1.196896 1.302290 47.000000
1.623759 1.178643 1.307646 71.000000
1.632622 1.155687 1.307979 58.000000
1.648828 1.136909 1.313201 49.000000
1.688479 1.134644 1.338106 56.000000
1.690706 1.105942 1.332152 25.000000
1.702375 1.084451 1.334885 42.000000
1.735143 1.075987 1.354124 67.000000
1.757351 1.060383 1.364973 51.000000
1.768785 1.038041 1.367455 56.000000
1.787215 1.019593 1.375344 42.000000
1.809141 1.002824 1.386035 55.000000
1.823814 0.981690 1.390950 43.000000
1.860285 0.971836 1.412547 26.000000
1.859310 0.942818 1.406705 49.000000
1.884617 0.926411 1.419826 62.000000
1.905574 0.908002 1.430562 42.000000
1.922734 0.887422 1.438359 36.000000
1.947834 0.869474 1.451171 52.000000
1.960996 0.846546 1.455956 39.000000
1.981500 0.826465 1.466309 48.000000
1.993817 0.803251 1.471434 27.000000
2.021780 0.785436 1.487241 52.000000
2.045889 0.765611 1.500087 82.000000
2.069396 0.745478 1.513364 71.000000
2.081109 0.720833 1.518076 72.000000
2.108798 0.700955 1.533417 55.000000
2.139811 0.681917 1.552038 69.000000
2.151075 0.656123 1.556383 52.000000
2.173447 0.633932 1.569697 32.000000
2.196254 0.610842 1.582278 58.000000
2.238237 0.592864 1.609658 81.000000
2.252824 0.566639 1.616230 71.000000
2.274747 0.542203 1.629044 66.000000
2.292490 0.516378 1.638842 64.000000
2.306019 0.489315 1.645702 66.000000
2.339420 0.465966 1.666625 36.000000
2.360238 0.439661 1.679421 34.000000
2.401481 0.416362 1.705849 91.000000
2.417878 0.388258 1.715545 72.000000
2.442142 0.360957 1.730809 78.000000
2.462140 0.332601 1.742939 63.000000
2.494188 0.305239 1.763601 68.000000
2.529627 0.277706 1.787624 86.000000
2.544975 0.247192 1.796532 40.000000
2.604420 0.220163 1.837456 34.000000
2.614821 0.188184 1.843697 60.000000
2.645255 0.157214 1.864127 83.000000
2.675030 0.125531 1.885064 50.000000
2.688788 0.092471 1.893597 63.000000
2.734350 0.059922 1.925662 38.000000
2.755197 0.025917 1.940362 36.000000
2.783916 -0.008625 1.960514 32.000000
2.800059 -0.043690 1.971821 33.000000
2.856753 -0.080208 2.011694 36.000000
2.875898 -0.116768 2.026191 35.000000
2.923827 -0.155248 2.059964 34.000000
2.958588 -0.194149 2.085526 35.000000
2.964420 -0.231736 2.090724 30.000000
2.941388 -0.266938 2.075684 26.000000
2.889142 -0.298686 2.040968 31.000000
2.869741 -0.332769 2.028285 33.000000
2.845459 -0.366138 2.013385 34.000000
2.829128 -0.399931 2.003917 34.000000
2.796327 -0.430926 1.982871 34.000000
2.779358 -0.463804 1.973108 32.000000
2.761699 -0.496483 1.963773 32.000000
2.720256 -0.523896 1.936424 23.000000
2.710155 -0.557110 1.932529 32.000000
2.659810 -0.581466 1.899821 32.000000
2.649228 -0.613773 1.895644 32.000000
2.642551 -0.646854 1.894127 32.000000
2.611017 -0.673982 1.875883 32.000000
2.599836 -0.705488 1.871125 32.000000
2.575925 -0.733619 1.858423 29.000000
2.536752 -0.756260 1.833360 18.000000
2.547931 -0.794217 1.845812 32.000000
2.511731 -0.817194 1.824140 33.000000
2.490438 -0.844967 1.814251 34.000000
2.465741 -0.870683 1.800762 30.000000
2.452474 -0.899979 1.795604 33.000000
2.438367 -0.929468 1.790937 32.000000
2.408662 -0.952694 1.774874 26.000000
2.375684 -0.973204 1.755164 16.000000
2.364864 -1.003100 1.752982 32.000000
2.331149 -1.022844 1.733722 35.000000
2.334271 -1.059381 1.743182 32.000000
2.303998 -1.079835 1.726497 30.000000
2.292361 -1.108738 1.723682 30.000000
2.272373 -1.134128 1.715831 32.000000
2.252839 -1.158771 1.707250 28.000000
2.217884 -1.175640 1.687992 13.000000
2.212064 -1.207776 1.690979 36.000000
2.191389 -1.231676 1.682638 34.000000
2.177727 -1.259370 1.679776 39.000000
2.149664 -1.278372 1.665644 33.000000
2.128618 -1.301264 1.656993 30.000000
2.107391 -1.323610 1.648272 32.000000
2.086168 -1.345595 1.639391 29.000000
2.036021 -1.349313 1.609161 13.000000
2.059663 -1.400786 1.635872 32.000000
2.036981 -1.422370 1.627300 29.000000
2.021935 -1.447929 1.623494 23.000000
1.999048 -1.468799 1.614866 10.000000
1.965952 -1.481831 1.597913 21.000000
1.959525 -1.514612 1.602568 34.000000
1.942870 -1.539729 1.599057 27.000000
1.913960 -1.553254 1.583924 12.000000
1.902458 -1.583677 1.586190 32.000000
1.872407 -1.597053 1.571567 28.000000
1.858296 -1.623621 1.570331 31.000000
1.834507 -1.641734 1.560959 29.000000
1.820010 -1.667897 1.559448 27.000000
1.810281 -1.700380 1.563876 30.000000
1.779975 -1.711655 1.548861 25.000000
1.746718 -1.719377 1.531255 10.000000
1.742346 -1.757291 1.540587 32.000000
1.719642 -1.777011 1.534037 26.000000
1.698070 -1.795678 1.526703 27.000000
1.680923 -1.821059 1.525157 27.000000
1.659151 -1.839118 1.517749 26.000000
1.641582 -1.864041 1.516098 28.000000
1.632119 -1.898491 1.522048 26.000000
1.602947 -1.910033 1.509719 10.000000
1.579240 -1.927715 1.502600 28.000000
1.576844 -1.971841 1.515999 26.000000
1.552634 -1.989219 1.508670 29.000000
1.525714 -2.002751 1.498710 26.000000
1.511595 -2.033136 1.501439 22.000000
1.489576 -2.052998 1.496407 28.000000
1.474851 -2.083147 1.498970 21.000000
1.459809 -2.113223 1.501391 10.000000
1.408039 -2.089374 1.465951 9.000000
1.342841 -2.042883 1.415604 10.000000
1.204045 -1.878285 1.285693 10.000000
1.083563 -1.736726 1.174454 10.000000
1.053990 1.729409 1.181946 28.000000
1.072526 1.715025 1.186312 28.000000
1.097896 1.711230 1.198221 29.000000
1.102000 1.674759 1.187256 31.000000
1.127200 1.670440 1.199122 21.000000
1.145163 1.655126 1.203272 24.000000
1.152992 1.625684 1.197125 33.000000
1.175552 1.617070 1.206265 33.000000
1.187972 1.594322 1.205072 44.000000
1.210469 1.585075 1.214174 36.000000
1.227713 1.568757 1.218022 33.000000
1.236819 1.542253 1.213950 52.000000
1.261775 1.535550 1.225576 26.000000
1.284068 1.525095 1.234474 27.000000
1.285884 1.492339 1.225349 51.000000
1.313536 1.487851 1.239483 34.000000
1.321436 1.460788 1.234943 69.000000
1.336549 1.443688 1.238775 52.000000
1.358402 1.431940 1.247452 50.000000
1.367484 1.408283 1.245799 52.000000
1.398109 1.404922 1.262422 29.000000
1.415889 1.389729 1.268702 29.000000
1.422367 1.362096 1.263620 36.000000
1.442932 1.349414 1.272534 37.000000
1.463477 1.336359 1.281334 55.000000
1.480868 1.320136 1.287369 34.000000
1.495014 1.300866 1.290617 42.000000
1.509016 1.281451 1.293792 54.000000
1.519653 1.259152 1.294082 31.000000
1.546259 1.249849 1.308027 32.000000
1.569672 1.237480 1.319267 46.000000
1.583194 1.217088 1.322118 44.000000
1.596569 1.196477 1.324822 62.000000
1.608994 1.176085 1.328038 55.000000
1.625391 1.157593 1.333374 44.000000
1.630653 1.132055 1.330809 54.000000
1.653584 1.117802 1.341583 32.000000
1.686249 1.110345 1.361142 34.000000
1.715424 1.099973 1.377969 63.000000
1.727210 1.077977 1.380597 47.000000
1.738771 1.055830 1.383224 62.000000
1.760854 1.039835 1.394151 47.000000
1.772108 1.017251 1.396493 39.000000
1.794019 1.000468 1.407236 68.000000
1.801337 0.975481 1.406609 30.000000
1.833982 0.963771 1.425663 35.000000
1.851369 0.944332 1.433874 39.000000
1.868603 0.924477 1.442029 40.000000
1.890166 0.905745 1.452351 47.000000
1.914637 0.888614 1.465938 48.000000
1.924127 0.864300 1.468056 35.000000
1.956030 0.849634 1.487176 69.000000
1.953897 0.819961 1.480490 30.000000
1.993183 0.807335 1.505161 36.000000
2.005327 0.783751 1.510275 49.000000
2.029391 0.763913 1.523297 47.000000
2.052693 0.743849 1.536749 82.000000
2.087526 0.727266 1.558792 61.000000
2.103031 0.703441 1.566295 52.000000
2.122232 0.680584 1.576532 55.000000
2.137364 0.656068 1.583812 33.000000
2.164122 0.634715 1.599612 35.000000
2.186830 0.611598 1.612373 58.000000
2.208869 0.588256 1.625578 55.000000
2.238636 0.566429 1.644521 55.000000
2.260441 0.542021 1.657430 79.000000
2.274129 0.515242 1.664459 47.000000
2.295639 0.489960 1.677135 54.000000
2.308985 0.462504 1.683920 31.000000
2.353537 0.441013 1.714352 36.000000
2.374497 0.414058 1.726537 59.000000
2.402818 0.387994 1.745103 66.000000
2.422912 0.360221 1.757676 67.000000
2.454948 0.333501 1.778825 75.000000
2.490822 0.306567 1.802720 61.000000
2.501721 0.276150 1.809595 44.000000
2.537259 0.247804 1.833040 31.000000
2.572007 0.218644 1.857070 35.000000
2.594477 0.187793 1.872257 47.000000
2.616588 0.156335 1.887157 53.000000
2.650189 0.125040 1.911325 49.000000
2.667904 0.092270 1.922915 44.000000
2.696895 0.059361 1.943777 44.000000
2.758142 0.026044 1.987933 59.000000
2.754189 -0.008599 1.985010 35.000000
2.790486 -0.043777 2.011111 30.000000
2.822402 -0.079757 2.034071 32.000000
2.853555 -0.116553 2.057559 32.000000
2.905154 -0.155137 2.094787 32.000000
2.939626 -0.194084 2.120749 34.000000
2.941346 -0.231292 2.123116 29.000000
2.886244 -0.263436 2.084388 20.000000
2.882757 -0.299715 2.084280 30.000000
2.851367 -0.332593 2.062659 29.000000
2.839320 -0.367474 2.056286 29.000000
2.806868 -0.399079 2.035123 33.000000
2.774291 -0.430083 2.013659 30.000000
2.765538 -0.464204 2.009587 32.000000
2.735854 -0.494714 1.991486 25.000000
2.686722 -0.520544 1.957919 20.000000
2.676680 -0.553608 1.953984 32.000000
2.646480 -0.581998 1.935319 33.000000
2.655832 -0.619026 1.945613 31.000000
2.613399 -0.643692 1.917965 30.000000
2.590566 -0.672378 1.904654 30.000000
2.579417 -0.703787 1.899753 29.000000
2.559550 -0.733051 1.889770 28.000000
2.512111 -0.753712 1.859359 23.000000
2.491992 -0.781738 1.848926 31.000000
2.491061 -0.815725 1.852842 29.000000
2.474316 -0.844434 1.845117 31.000000
2.438078 -0.866009 1.822811 29.000000
2.428805 -0.896628 1.820493 30.000000
2.418470 -0.927536 1.818658 30.000000
2.404813 -0.956255 1.813181 29.000000
2.352439 -0.969649 1.779538 25.000000
2.345313 -1.001012 1.780221 32.000000
2.334303 -1.030719 1.777848 34.000000
2.311710 -1.055122 1.766817 31.000000
2.289039 -1.079053 1.755529 31.000000
2.276632 -1.108285 1.753461 32.000000
2.249989 -1.129570 1.739180 29.000000
2.241599 -1.159851 1.738935 29.000000
2.195786 -1.171024 1.711008 26.000000
2.186312 -1.201027 1.711163 30.000000
2.172834 -1.228906 1.708486 34.000000
2.152125 -1.252447 1.699894 31.000000
2.134778 -1.277652 1.694135 35.000000
2.110246 -1.298339 1.682585 33.000000
2.085582 -1.318483 1.670975 31.000000
2.078254 -1.349460 1.673206 29.000000
2.049942 -1.366628 1.658570 25.000000
2.041293 -1.397784 1.661245 29.000000
2.029778 -1.426001 1.660297 32.000000
2.003626 -1.444938 1.648781 24.000000
1.985052 -1.467660 1.642115 10.000000
1.955394 -1.483195 1.627713 27.000000
1.945531 -1.513572 1.629723 30.000000
1.922231 -1.533435 1.620613 29.000000
1.876309 -1.534341 1.592221 23.000000
1.875435 -1.571938 1.602198 29.000000
1.861473 -1.598767 1.601092 33.000000
1.844126 -1.622641 1.597157 33.000000
1.829717 -1.649146 1.595763 33.000000
1.811983 -1.672613 1.591553 33.000000
1.794069 -1.695901 1.587343 31.000000
1.768675 -1.713689 1.578186 32.000000
1.735504 -1.721521 1.560272 24.000000
1.727869 -1.756384 1.567112 29.000000
1.712260 -1.781529 1.565153 33.000000
1.686480 -1.798034 1.555710 30.000000
1.670481 -1.822683 1.553567 32.000000
1.644512 -1.838465 1.543984 29.000000
1.632369 -1.869722 1.547568 30.000000
1.615846 -1.893841 1.545117 29.000000
1.589390 -1.908675 1.535299 23.000000
1.573730 -1.936225 1.535997 32.000000
1.562956 -1.970418 1.541710 36.000000
1.530900 -1.977625 1.526429 30.000000
1.516988 -2.008151 1.529390 34.000000
1.492520 -2.024839 1.521769 34.000000
1.470448 -2.044667 1.516745 30.000000
1.468083 -2.092311 1.532197 30.000000
1.433222 -2.094147 1.514113 19.000000
1.393879 -2.088146 1.491011 9.000000
1.319674 -2.027405 1.429697 20.000000
1.200818 -1.892236 1.318091 15.000000
1.085084 -1.754208 1.207253 21.000000
1.061258 1.714593 1.206699 24.000000
1.084283 1.707197 1.216227 32.000000
1.093304 1.677876 1.210204 26.000000
1.123317 1.680645 1.227464 24.000000
1.129367 1.647598 1.218702 32.000000
1.144769 1.628685 1.220231 29.000000
1.167347 1.619988 1.229536 35.000000
1.179828 1.597189 1.228355 32.000000
1.199850 1.584542 1.234913 33.000000
1.219732 1.571539 1.241487 37.000000
1.236907 1.555008 1.245280 32.000000
1.254011 1.538191 1.249073 34.000000
1.272462 1.525047 1.255968 39.000000
1.286573 1.504556 1.256874 32.000000
1.297618 1.480824 1.255077 63.000000
1.310127 1.460730 1.256371 41.000000
1.343489 1.461532 1.276005 39.000000
1.341414 1.425603 1.263624 78.000000
1.354500 1.404522 1.264176 36.000000
1.389871 1.407660 1.286880 43.000000
1.401731 1.386495 1.287819 35.000000
1.411380 1.361786 1.285428 32.000000
1.425836 1.343323 1.288863 43.000000
1.449360 1.333118 1.300564 43.000000
1.466722 1.316960 1.306639 35.000000
1.480868 1.297690 1.309887 46.000000
1.491781 1.275572 1.310287 33.000000
1.508727 1.258716 1.316166 36.000000
1.532096 1.246725 1.327565 31.000000
1.542503 1.224102 1.327675 35.000000
1.578032 1.222063 1.350624 46.000000
1.588189 1.198830 1.350611 43.000000
1.594815 1.173088 1.347699 46.000000
1.610376 1.155029 1.353662 54.000000
1.646939 1.150398 1.375929 54.000000
1.645499 1.119944 1.367576 37.000000
1.677953 1.112368 1.387400 33.000000
1.703639 1.099651 1.401608 59.000000
1.722333 1.082057 1.409937 58.000000
1.737544 1.061916 1.415435 62.000000
1.749048 1.039438 1.417932 47.000000
1.767423 1.020909 1.426081 57.000000
1.785736 1.002045 1.434097 59.000000
1.789611 0.975012 1.430565 46.000000
1.825015 0.965600 1.453293 34.000000
1.846709 0.947539 1.463942 35.000000
1.860363 0.925793 1.469231 51.000000
1.884846 0.909116 1.483204 51.000000
1.894552 0.885006 1.485396 37.000000
1.915159 0.865774 1.496208 55.000000
1.931988 0.844469 1.503983 35.000000
1.944983 0.821233 1.508787 35.000000
1.980285 0.807027 1.530903 45.000000
1.999974 0.786364 1.541894 36.000000
2.012570 0.762134 1.546265 49.000000
2.035744 0.742137 1.559972 52.000000
2.074265 0.726956 1.585161 48.000000
2.093563 0.704369 1.595682 62.000000
2.108841 0.680161 1.603207 49.000000
2.123924 0.655674 1.610493 36.000000
2.162183 0.637691 1.635236 41.000000
2.192088 0.616898 1.654740 37.000000
2.206773 0.590984 1.661653 39.000000
2.228647 0.567038 1.674893 58.000000
2.242492 0.540627 1.682174 41.000000
2.260055 0.514827 1.692238 37.000000
2.289255 0.491269 1.710989 52.000000
2.294211 0.462329 1.712494 32.000000
2.338988 0.440591 1.742740 45.000000
2.359287 0.413850 1.755824 59.000000
2.383441 0.387171 1.771609 54.000000
2.411470 0.360585 1.790278 56.000000
2.455177 0.335484 1.820620 58.000000
2.442844 0.302349 1.809245 44.000000
2.489765 0.276377 1.842861 56.000000
2.509024 0.246442 1.854903 34.000000
2.543507 0.217473 1.879285 32.000000
2.581772 0.187888 1.906453 54.000000
2.607844 0.156665 1.924540 36.000000
2.633153 0.124931 1.943232 51.000000
2.662708 0.092528 1.963898 42.000000
2.703647 0.059780 1.993975 42.000000
2.720050 0.025787 2.006050 35.000000
2.740273 -0.008625 2.020887 27.000000
2.788454 -0.043989 2.056392 35.000000
2.808040 -0.079880 2.070803 32.000000
2.838823 -0.116668 2.094645 29.000000
2.885980 -0.155025 2.129371 35.000000
2.904091 -0.192841 2.143979 31.000000
2.921953 -0.231166 2.158251 29.000000
2.895227 -0.265836 2.139692 21.000000
2.859770 -0.299171 2.115874 27.000000
2.852609 -0.334763 2.111714 32.000000
2.800641 -0.364534 2.075639 30.000000
2.788384 -0.398904 2.068970 29.000000
2.755920 -0.429755 2.047300 29.000000
2.739242 -0.462585 2.037163 30.000000
2.730227 -0.496453 2.032842 28.000000
2.668911 -0.520186 1.990653 17.000000
2.667412 -0.554638 1.991959 26.000000
2.657084 -0.587549 1.987773 29.000000
2.618940 -0.613806 1.962757 31.000000
2.604287 -0.644993 1.955343 30.000000
2.581650 -0.673837 1.941852 29.000000
2.565895 -0.704627 1.934863 31.000000
2.542812 -0.732477 1.921005 23.000000
2.491802 -0.751946 1.887125 20.000000
2.463956 -0.777446 1.870893 29.000000
2.455291 -0.808793 1.869043 31.000000
2.450170 -0.841164 1.869925 31.000000
2.421904 -0.865442 1.853165 27.000000
2.420130 -0.898839 1.856682 32.000000
2.390802 -0.922487 1.840352 27.000000
2.380981 -0.952720 1.837656 22.000000
2.325123 -0.964354 1.800726 20.000000
2.325477 -0.998829 1.807270 32.000000
2.314372 -1.028536 1.804897 33.000000
2.310483 -1.061360 1.808130 35.000000
2.273079 -1.078545 1.785210 32.000000
2.264975 -1.109149 1.785275 34.000000
2.249354 -1.136069 1.779467 32.000000
2.214707 -1.153736 1.759832 24.000000
2.187982 -1.173969 1.745162 24.000000
2.174737 -1.202126 1.742569 30.000000
2.164868 -1.232031 1.742656 32.000000
2.144062 -1.255719 1.734057 35.000000
2.112615 -1.272595 1.716724 32.000000
2.102076 -1.301810 1.716457 35.000000
2.073966 -1.319896 1.701858 33.000000
2.059640 -1.346449 1.698482 26.000000
2.034872 -1.365842 1.686420 24.000000
2.026954 -1.396486 1.688536 29.000000
2.011104 -1.422903 1.685439 32.000000
1.979265 -1.436370 1.667529 23.000000
1.959780 -1.459644 1.661466 11.000000
1.953322 -1.492614 1.666456 31.000000
1.921422 -1.504675 1.648294 29.000000
1.914407 -1.537361 1.653076 24.000000
1.868578 -1.538541 1.624298 24.000000
1.858028 -1.568099 1.626121 33.000000
1.853477 -1.603087 1.633285 32.000000
1.832834 -1.624321 1.626564 36.000000
1.818336 -1.650900 1.625196 33.000000
1.797394 -1.671605 1.618220 34.000000
1.773397 -1.689078 1.608424 32.000000
1.754083 -1.712684 1.604668 24.000000
1.721032 -1.720500 1.586455 23.000000
1.720264 -1.760749 1.598271 30.000000
1.694586 -1.777602 1.588808 32.000000
1.675841 -1.799471 1.583988 34.000000
1.655578 -1.821787 1.579793 29.000000
1.639362 -1.846272 1.577486 31.000000
1.624231 -1.874465 1.578473 31.000000
1.611507 -1.905852 1.582018 24.000000
1.570300 -1.900514 1.555444 23.000000
1.559846 -1.934692 1.561368 30.000000
1.543680 -1.962225 1.561925 34.000000
1.516852 -1.976163 1.551785 33.000000
1.502818 -2.006699 1.554764 28.000000
1.485872 -2.033645 1.554976 31.000000
1.453760 -2.039732 1.539355 30.000000
1.455855 -2.094223 1.560242 21.000000
1.418755 -2.092632 1.539348 19.000000
1.360620 -2.058274 1.495150 9.000000
1.301147 -2.019090 1.448554 14.000000
1.172139 -1.866011 1.322490 18.000000
1.068331 1.699412 1.231402 26.000000
1.089037 1.688112 1.238409 23.000000
1.104984 1.669371 1.240098 26.000000
1.142171 1.682157 1.265546 10.000000
1.141062 1.638539 1.248578 27.000000
1.149044 1.609018 1.242108 28.000000
1.176566 1.606773 1.256843 27.000000
1.191566 1.587225 1.258191 33.000000
1.206350 1.567532 1.259521 29.000000
1.223596 1.550929 1.263386 31.000000
1.239484 1.534756 1.267680 29.000000
1.261802 1.524267 1.276823 17.000000
1.278691 1.507019 1.280488 32.000000
1.297035 1.493221 1.287312 32.000000
1.310889 1.472378 1.288106 30.000000
1.326197 1.455058 1.292131 37.000000
1.336882 1.430917 1.290008 32.000000
1.346074 1.407214 1.288283 36.000000
1.378380 1.407322 1.308588 36.000000
1.397279 1.391420 1.314537 24.000000
1.403096 1.364287 1.309811 33.000000
1.417686 1.345745 1.313332 32.000000
1.432060 1.327059 1.316782 33.000000
1.446290 1.308086 1.320088 35.000000
1.466649 1.294442 1.329013 34.000000
1.477521 1.272403 1.329373 35.000000
1.519786 1.276702 1.357877 32.000000
1.530542 1.253979 1.358130 25.000000
1.540217 1.231706 1.358809 32.000000
1.573275 1.226487 1.378716 38.000000
1.563915 1.188217 1.361588 34.000000
1.602696 1.187562 1.387713 33.000000
1.615971 1.166278 1.390309 35.000000
1.631557 1.147723 1.396291 36.000000
1.643744 1.126544 1.399263 33.000000
1.665907 1.112025 1.410799 26.000000
1.677870 1.090343 1.413565 30.000000
1.699878 1.075127 1.424928 32.000000
1.721953 1.059343 1.436172 32.000000
1.740447 1.041122 1.444546 34.000000
1.758881 1.022491 1.452713 32.000000
1.763015 0.995605 1.449258 34.000000
1.787594 0.980775 1.463656 33.000000
1.794965 0.955582 1.462804 26.000000
1.822993 0.941801 1.479951 30.000000
1.854687 0.929219 1.500000 33.000000
1.868877 0.906768 1.504652 32.000000
1.885908 0.886099 1.512797 31.000000
1.902777 0.865164 1.520802 29.000000
1.919641 0.843882 1.528665 32.000000
1.939340 0.824148 1.539970 27.000000
1.959618 0.803650 1.550583 19.000000
1.979194 0.783105 1.561699 31.000000
2.010566 0.766093 1.580912 30.000000
2.033754 0.745890 1.594807 32.000000
2.053020 0.723881 1.605516 29.000000
2.068398 0.700127 1.613191 27.000000
2.095053 0.679732 1.629634 32.000000
2.098658 0.651699 1.628079 24.000000
2.120731 0.629561 1.641919 12.000000
2.166325 0.613166 1.672916 26.000000
2.180405 0.587690 1.680512 24.000000
2.194358 0.561845 1.688034 23.000000
2.227567 0.540439 1.710344 26.000000
2.233328 0.511899 1.711479 18.000000
2.250656 0.485893 1.721508 22.000000
2.299166 0.465860 1.755335 19.000000
2.292111 0.434386 1.747683 9.000000
2.327982 0.410767 1.772928 23.000000
2.376180 0.388100 1.806294 22.000000
2.375810 0.357376 1.804852 16.000000
2.411337 0.331374 1.829527 21.000000
2.422892 0.301603 1.836095 18.000000
2.473425 0.276156 1.873202 17.000000
2.484512 0.245380 1.879406 14.000000
2.502813 0.215182 1.892106 9.000000
2.536880 0.185649 1.916657 17.000000
2.574695 0.155546 1.944033 17.000000
2.591827 0.123680 1.956863 13.000000
2.629122 0.091908 1.983858 17.000000
2.641798 0.058790 1.993293 12.000000
2.678021 0.025494 2.020700 10.000000
2.718035 -0.008625 2.050814 21.000000
2.741773 -0.043608 2.068673 21.000000
2.797218 -0.080009 2.110402 21.000000
2.823746 -0.116783 2.131692 24.000000
2.850574 -0.154159 2.151895 24.000000
2.868530 -0.191711 2.166614 24.000000
2.910013 -0.231561 2.199157 22.000000
2.891538 -0.267123 2.186458 16.000000
2.832373 -0.298099 2.144135 17.000000
2.813346 -0.332127 2.131024 20.000000
2.777644 -0.363785 2.106444 19.000000
2.777322 -0.399760 2.108699 22.000000
2.749655 -0.431177 2.088871 21.000000
2.716638 -0.461534 2.067441 22.000000
2.699785 -0.493963 2.057079 19.000000
2.663128 -0.522032 2.031538 9.000000
2.660840 -0.556785 2.033602 21.000000
2.627051 -0.584678 2.011406 23.000000
2.616589 -0.617186 2.007082 25.000000
2.601848 -0.648522 1.999568 24.000000
2.583169 -0.678642 1.988874 23.000000
2.548677 -0.703988 1.966059 24.000000
2.525012 -0.732098 1.952827 23.000000
2.475041 -0.751248 1.917771 10.000000
2.466492 -0.782890 1.916101 23.000000
2.453831 -0.813169 1.911261 25.000000
2.425891 -0.837901 1.894452 23.000000
2.409067 -0.866135 1.886378 22.000000
2.395881 -0.895391 1.881087 26.000000
2.378000 -0.923286 1.873423 26.000000
2.371889 -0.955024 1.873674 22.000000
2.331166 -0.973158 1.848026 13.000000
2.309918 -0.997868 1.836223 26.000000
2.295011 -1.025879 1.830902 28.000000
2.283716 -1.055206 1.828435 29.000000
2.264737 -1.081046 1.819907 26.000000
2.244889 -1.106791 1.811961 27.000000
2.222074 -1.130040 1.800256 26.000000
2.202781 -1.154613 1.791315 23.000000
2.171733 -1.173491 1.774199 15.000000
2.155750 -1.199162 1.767947 28.000000
2.131732 -1.220977 1.756444 28.000000
2.118000 -1.248533 1.753587 29.000000
2.097208 -1.271681 1.744749 28.000000
2.079693 -1.296621 1.738733 27.000000
2.065479 -1.323491 1.735523 29.000000
2.040843 -1.343347 1.723484 23.000000
2.012690 -1.360464 1.708421 16.000000
2.008097 -1.393389 1.713496 31.000000
1.986571 -1.414414 1.703943 26.000000
1.967190 -1.438050 1.697997 16.000000
1.955249 -1.465710 1.696861 10.000000
1.925692 -1.481287 1.682027 19.000000
1.915559 -1.511636 1.684190 26.000000
1.890204 -1.528296 1.671439 23.000000
1.863754 -1.545156 1.659178 11.000000
1.846646 -1.569519 1.655416 28.000000
1.841915 -1.604563 1.662729 30.000000
1.818156 -1.623129 1.653057 26.000000
1.800541 -1.646856 1.648923 29.000000
1.770550 -1.659059 1.633440 25.000000
1.761595 -1.690805 1.637510 26.000000
1.734576 -1.704941 1.624693 22.000000
1.715028 -1.728328 1.620854 12.000000
1.693739 -1.747651 1.613450 25.000000
1.683809 -1.778842 1.617080 27.000000
1.674903 -1.813689 1.623861 27.000000
1.639064 -1.816878 1.602466 25.000000
1.629600 -1.851500 1.609019 25.000000
1.607543 -1.869620 1.601263 25.000000
1.600130 -1.907325 1.610264 18.000000
1.549490 -1.893081 1.575776 14.000000
1.543096 -1.929766 1.584029 26.000000
1.529466 -1.960515 1.587263 26.000000
1.507770 -1.981221 1.582312 24.000000
1.493539 -2.011744 1.585381 25.000000
1.476333 -2.038866 1.585553 24.000000
1.458886 -2.065761 1.585690 25.000000
1.417137 -2.057581 1.559139 15.000000
1.408785 -2.098061 1.569756 10.000000
1.355537 -2.071048 1.530130 9.000000
1.291754 -2.024896 1.477643 10.000000
1.066168 1.669592 1.245481 31.000000
1.091257 1.665130 1.257778 10.000000
1.109440 1.649822 1.262090 27.000000
1.127479 1.634299 1.266330 31.000000
1.142871 1.615123 1.267873 27.000000
1.158044 1.595799 1.269326 34.000000
1.180590 1.586434 1.278763 29.000000
1.197983 1.570048 1.282788 29.000000
1.206348 1.544123 1.278973 34.000000
1.223487 1.527413 1.282830 13.000000
1.255085 1.530432 1.303543 34.000000
1.269470 1.509882 1.304546 35.000000
1.280847 1.486033 1.302696 30.000000
1.296299 1.468928 1.306720 52.000000
1.317249 1.457772 1.316311 32.000000
1.333705 1.439656 1.319703 36.000000
1.357416 1.430847 1.331995 37.000000
1.369640 1.409794 1.332966 25.000000
1.376907 1.382164 1.327788 31.000000
1.394620 1.366688 1.334210 32.000000
1.409199 1.348140 1.337746 32.000000
1.429726 1.334923 1.346882 35.000000
1.438068 1.310320 1.344603 36.000000
1.467566 1.304770 1.362172 35.000000
1.481788 1.285223 1.365381 46.000000
1.507427 1.276561 1.380557 25.000000
1.508775 1.245983 1.372164 35.000000
1.532043 1.233546 1.383785 40.000000
1.548025 1.216106 1.390119 37.000000
1.571277 1.202879 1.401583 42.000000
1.580592 1.179942 1.401943 44.000000
1.600398 1.163609 1.410406 41.000000
1.609463 1.140345 1.410612 37.000000
1.634900 1.128484 1.425230 29.000000
1.640251 1.102542 1.422299 39.000000
1.679205 1.098825 1.448534 55.000000
1.694480 1.078945 1.454185 42.000000
1.716531 1.063162 1.465569 60.000000
