x y z intensity
2.426630 -0.636304 0.558109 47.000000
2.405371 -0.659257 0.554384 31.000000
2.477820 -0.708582 0.572263 15.000000
2.586956 -0.770821 0.598768 10.000000
2.667023 -0.826806 0.618730 8.000000
2.899482 -0.934058 0.674216 3.000000
2.954021 -0.987627 0.688467 2.000000
3.058545 -1.060116 0.714534 1.000000
2.964189 -1.064010 0.694249 1.000000
2.929492 -1.088379 0.688086 1.000000
2.871991 -1.103000 0.676373 3.000000
2.855147 -1.133018 0.674532 3.000000
2.883539 -1.180966 0.683112 4.000000
2.780509 -1.174781 0.660755 6.000000
2.754062 -1.199764 0.656703 6.000000
2.776483 -1.246171 0.664295 8.000000
2.762699 -1.276876 0.663344 9.000000
2.744503 -1.304913 0.661046 10.000000
2.756412 -1.348165 0.666368 18.000000
2.728558 -1.371956 0.662041 14.000000
2.700465 -1.395362 0.657724 14.000000
2.663505 -1.413707 0.651307 10.000000
2.634815 -1.436533 0.647203 9.000000
2.708652 -1.515702 0.668079 8.000000
2.658168 -1.526074 0.658419 6.000000
2.595084 -1.528063 0.645646 6.000000
2.578353 -1.556637 0.644330 8.000000
2.569279 -1.590641 0.645384 8.000000
2.568445 -1.629409 0.648138 9.000000
2.563000 -1.665592 0.649834 12.000000
2.524521 -1.680176 0.643216 10.000000
2.533985 -1.727847 0.649234 9.000000
2.487152 -1.735992 0.640567 9.000000
2.463778 -1.761056 0.638212 9.000000
2.456452 -1.796735 0.639786 10.000000
2.433078 -1.820757 0.637147 9.000000
2.408914 -1.845071 0.634796 9.000000
2.388952 -1.871371 0.633093 10.000000
2.371865 -1.901301 0.632788 9.000000
2.392951 -1.961306 0.642261 9.000000
2.359902 -1.978678 0.637676 9.000000
2.346030 -2.010773 0.637875 9.000000
2.330961 -2.043612 0.638351 9.000000
2.298093 -2.059113 0.633499 9.000000
2.275213 -2.084875 0.631865 9.000000
2.269823 -2.127196 0.635233 9.000000
2.247053 -2.151807 0.633295 9.000000
2.244224 -2.197569 0.637518 9.000000
2.210356 -2.211427 0.632587 8.000000
2.144711 -2.194095 0.618874 8.000000
2.093256 -2.189819 0.609268 19.000000
1.992927 -2.130019 0.584595 14.000000
1.913055 -2.090858 0.566217 18.000000
1.848389 -2.063919 0.551585 19.000000
1.751228 -1.999750 0.527477 15.000000
1.706733 -1.993270 0.519114 13.000000
1.624861 -1.940905 0.499025 10.000000
1.560860 -1.905173 0.483723 10.000000
1.512265 -1.888168 0.473547 15.000000
1.455051 -1.858723 0.460479 15.000000
1.402771 -1.831348 0.448227 21.000000
1.356073 -1.811684 0.438096 26.000000
1.330229 -1.818953 0.434725 24.000000
1.308392 -1.829107 0.432031 21.000000
1.296633 -1.855790 0.433313 20.000000
1.284468 -1.882451 0.434575 22.000000
1.263723 -1.896824 0.432947 24.000000
1.243970 -1.910276 0.431177 19.000000
1.228142 -1.932446 0.431400 21.000000
1.217241 -1.962947 0.433453 24.000000
1.205758 -1.993395 0.435406 19.000000
1.180072 -1.997660 0.431697 18.000000
1.180188 -2.049182 0.438167 9.000000
0.795391 1.405740 0.311751 8.000000
0.792668 1.367380 0.306494 24.000000
0.807653 1.358290 0.307771 24.000000
0.827650 1.357432 0.310919 32.000000
0.839979 1.343780 0.311191 29.000000
0.859165 1.342926 0.314457 35.000000
0.868516 1.324903 0.313705 52.000000
0.885789 1.319019 0.315862 31.000000
0.905036 1.317510 0.319106 33.000000
0.919462 1.307164 0.320299 25.000000
0.936702 1.300695 0.322479 26.000000
0.953831 1.293912 0.324617 33.000000
0.967344 1.283552 0.325868 31.000000
0.984400 1.276421 0.328016 35.000000
0.998406 1.265226 0.329171 34.000000
1.017758 1.261958 0.332384 32.000000
1.028531 1.246564 0.332487 33.000000
1.042177 1.234882 0.333595 25.000000
1.048723 1.216086 0.332775 35.000000
1.078277 1.222531 0.338914 45.000000
1.091132 1.210692 0.340083 34.000000
1.111078 1.205491 0.343199 49.000000
1.120961 1.189253 0.343194 34.000000
1.136892 1.180546 0.345397 34.000000
1.160173 1.178018 0.349470 49.000000
1.183062 1.175622 0.353717 17.000000
1.189004 1.155329 0.352625 50.000000
1.198184 1.138460 0.352565 67.000000
1.217413 1.131915 0.355740 43.000000
1.251568 1.137794 0.362968 66.000000
1.263658 1.124014 0.364077 44.000000
1.276065 1.109601 0.364975 48.000000
1.299005 1.105057 0.369204 72.000000
1.318714 1.096500 0.372231 21.000000
1.334180 1.085015 0.374312 54.000000
1.349604 1.073285 0.376398 41.000000
1.365311 1.060930 0.378329 33.000000
1.384432 1.051769 0.381444 42.000000
1.403846 1.041836 0.384406 36.000000
1.414989 1.026267 0.385335 40.000000
1.441902 1.021881 0.390635 62.000000
1.473242 1.019364 0.396814 18.000000
1.476129 0.997546 0.395543 40.000000
1.494969 0.986548 0.398606 36.000000
1.530167 0.985773 0.406034 39.000000
1.528644 0.960625 0.403502 61.000000
1.568034 0.961483 0.411999 35.000000
1.595135 0.954070 0.417242 36.000000
1.613853 0.941253 0.420250 41.000000
1.619723 0.920901 0.419969 19.000000
1.650962 0.914649 0.426293 33.000000
1.677990 0.905548 0.431475 50.000000
1.700664 0.893678 0.435567 34.000000
1.714684 0.876961 0.437456 55.000000
1.732816 0.862198 0.440398 39.000000
1.777251 0.859859 0.450014 35.000000
1.773288 0.833799 0.447416 40.000000
1.808844 0.826198 0.454779 19.000000
1.826532 0.810228 0.457822 31.000000
1.857672 0.799465 0.464038 35.000000
1.888641 0.788397 0.470398 30.000000
1.915233 0.774620 0.475525 34.000000
1.941595 0.760572 0.480729 35.000000
1.968047 0.745796 0.485815 30.000000
2.003468 0.734032 0.493231 37.000000
1.997511 0.706968 0.490517 17.000000
2.023448 0.691162 0.495697 36.000000
2.058573 0.677862 0.503083 70.000000
2.084408 0.660935 0.508153 36.000000
2.124071 0.647721 0.516632 48.000000
2.149722 0.629608 0.521725 35.000000
2.151702 0.604427 0.521082 9.000000
2.176954 0.585674 0.526188 9.000000
2.249184 0.578636 0.542681 7.000000
2.255298 0.553671 0.543190 8.000000
2.289563 0.535356 0.550539 9.000000
2.338081 0.519507 0.561248 8.000000
2.381668 0.501556 0.570831 9.000000
2.415576 0.480938 0.578145 12.000000
2.482862 0.465893 0.593473 33.000000
2.521326 0.444326 0.601879 30.000000
2.554795 0.421064 0.609150 28.000000
2.597745 0.398721 0.618640 37.000000
2.630774 0.374075 0.625847 45.000000
2.687770 0.351865 0.638796 36.000000
2.701088 0.323274 0.641516 9.000000
2.762470 0.299719 0.655549 10.000000
2.833326 0.275736 0.671889 57.000000
2.894360 0.249327 0.685854 76.000000
2.872649 0.215442 0.680381 35.000000
2.865105 0.183025 0.678172 60.000000
2.857187 0.150822 0.676143 63.000000
2.805145 0.117009 0.663582 61.000000
2.786748 0.085334 0.659156 47.000000
2.729157 0.053330 0.645352 10.000000
2.700391 0.022950 0.638619 9.000000
2.695610 -0.006932 0.637469 9.000000
2.739144 -0.037370 0.647739 9.000000
2.689901 -0.066492 0.636234 9.000000
2.674469 -0.095757 0.632698 10.000000
2.663573 -0.124842 0.630314 9.000000
2.662068 -0.154276 0.630147 10.000000
2.665083 -0.184128 0.631213 17.000000
2.628952 -0.210809 0.622999 25.000000
2.641008 -0.241248 0.626281 75.000000
2.628582 -0.269445 0.623817 71.000000
2.586753 -0.294129 0.614381 82.000000
2.597975 -0.324511 0.617498 84.000000
2.574992 -0.350617 0.612581 95.000000
2.537297 -0.374085 0.604229 81.000000
2.537922 -0.402913 0.605134 83.000000
2.509340 -0.426949 0.599085 26.000000
2.485397 -0.451163 0.594107 26.000000
2.456511 -0.474032 0.587991 10.000000
2.465485 -0.504015 0.590950 13.000000
2.431336 -0.525144 0.583701 22.000000
2.463460 -0.560687 0.592364 81.000000
2.452469 -0.586718 0.590749 95.000000
2.450710 -0.615014 0.591335 65.000000
2.392102 -0.628411 0.578259 28.000000
2.399289 -0.658633 0.581050 35.000000
2.448131 -0.701313 0.594137 12.000000
2.556960 -0.763183 0.621952 10.000000
2.664779 -0.827552 0.649714 8.000000
2.891960 -0.933296 0.706685 4.000000
2.941712 -0.985301 0.720630 4.000000
2.912422 -1.011374 0.715235 4.000000
2.882981 -1.036944 0.709756 4.000000
2.844263 -1.058518 0.702130 7.000000
2.814289 -1.083080 0.696772 8.000000
2.834079 -1.126659 0.703600 10.000000
2.817154 -1.156330 0.701618 10.000000
2.813444 -1.191028 0.702811 11.000000
2.764513 -1.206623 0.692899 11.000000
2.773704 -1.246934 0.697258 9.000000
2.764320 -1.279736 0.697422 9.000000
2.741405 -1.306155 0.694145 10.000000
2.740087 -1.343011 0.696341 11.000000
2.716575 -1.368904 0.693069 16.000000
2.684213 -1.390024 0.687396 10.000000
2.660278 -1.415150 0.684047 11.000000
2.644719 -1.444571 0.682821 10.000000
2.662907 -1.492978 0.690419 8.000000
2.600068 -1.495647 0.676973 8.000000
2.600450 -1.534277 0.680054 10.000000
2.579463 -1.560465 0.677635 10.000000
2.574834 -1.596657 0.679598 14.000000
2.561042 -1.628270 0.679458 10.000000
2.539206 -1.653795 0.676945 13.000000
2.533381 -1.689873 0.678691 14.000000
2.502819 -1.709512 0.673912 9.000000
2.467680 -1.726557 0.668348 9.000000
2.441006 -1.747987 0.664586 10.000000
2.441647 -1.789255 0.668381 10.000000
2.433404 -1.825576 0.670189 10.000000
2.401913 -1.843369 0.665259 10.000000
2.381384 -1.870425 0.663840 10.000000
2.364947 -1.899500 0.663205 10.000000
2.363261 -1.940967 0.666730 9.000000
2.356540 -1.980093 0.669452 9.000000
2.324079 -1.996305 0.664351 10.000000
2.305458 -2.025744 0.663781 10.000000
2.290979 -2.057382 0.664069 10.000000
2.268004 -2.083241 0.662338 9.000000
2.256395 -2.117888 0.663464 10.000000
2.229300 -2.139905 0.660680 10.000000
2.195012 -2.154701 0.655816 9.000000
2.161618 -2.168209 0.650587 10.000000
2.130718 -2.185466 0.646699 28.000000
2.097259 -2.197891 0.641505 33.000000
2.036188 -2.182135 0.628281 33.000000
1.945930 -2.132736 0.605881 29.000000
1.858136 -2.080792 0.583342 25.000000
1.770699 -2.027840 0.561195 26.000000
1.711050 -2.002313 0.546981 19.000000
1.613544 -1.931343 0.520933 10.000000
1.558060 -1.907740 0.508173 15.000000
1.510433 -1.890038 0.497196 16.000000
1.456385 -1.864461 0.484503 23.000000
1.394204 -1.826306 0.468886 19.000000
1.351571 -1.809856 0.459129 30.000000
1.328635 -1.821020 0.456519 33.000000
1.308560 -1.835971 0.454974 26.000000
1.302278 -1.870757 0.458217 26.000000
1.277178 -1.876557 0.454409 28.000000
1.259192 -1.894983 0.453762 24.000000
1.238235 -1.909143 0.452063 30.000000
1.220966 -1.926455 0.451122 26.000000
1.207419 -1.952737 0.452318 28.000000
1.190921 -1.974708 0.452458 23.000000
1.176654 -2.000737 0.453614 21.000000
1.177861 -2.051604 0.460186 9.000000
0.783910 1.392026 0.323284 8.000000
0.801683 1.387215 0.325573 22.000000
0.806909 1.361128 0.322921 34.000000
0.824436 1.356048 0.325206 29.000000
0.838477 1.347050 0.326591 29.000000
0.858526 1.345665 0.329900 32.000000
0.870670 1.331718 0.330128 30.000000
0.881735 1.318178 0.330496 33.000000
0.907285 1.324192 0.335828 30.000000
0.927470 1.321793 0.339134 24.000000
0.926956 1.291798 0.335335 30.000000
0.946981 1.289069 0.338596 25.000000
0.961101 1.278242 0.339793 30.000000
0.980434 1.275518 0.343227 31.000000
0.994440 1.264272 0.344382 32.000000
1.014475 1.260543 0.347637 36.000000
1.027658 1.249432 0.348950 29.000000
1.028811 1.222707 0.345831 26.000000
1.048005 1.218840 0.349201 30.000000
1.067861 1.214229 0.352435 33.000000
1.084512 1.205638 0.354614 44.000000
1.097227 1.193733 0.355830 34.000000
1.120381 1.191843 0.360119 46.000000
1.132956 1.179523 0.361295 37.000000
1.156253 1.177038 0.365613 32.000000
1.179056 1.174633 0.370055 24.000000
1.181525 1.150941 0.367831 42.000000
1.200812 1.144626 0.371149 39.000000
1.209850 1.127603 0.371040 61.000000
1.232663 1.124066 0.375419 45.000000
1.252364 1.116467 0.378612 48.000000
1.275253 1.112226 0.383026 62.000000
1.294957 1.103992 0.386192 32.000000
1.299291 1.083369 0.385038 25.000000
1.333930 1.087020 0.392611 34.000000
1.349322 1.075245 0.394804 34.000000
1.364672 1.063277 0.396948 49.000000
1.380304 1.050628 0.398936 35.000000
1.391548 1.035309 0.399913 36.000000
1.410565 1.025557 0.403143 35.000000
1.429816 1.015137 0.406219 34.000000
1.460702 1.013084 0.412864 32.000000
1.471618 0.996822 0.413811 34.000000
1.494495 0.988450 0.418166 52.000000
1.505107 0.971829 0.419065 54.000000
1.540547 0.970211 0.426639 36.000000
1.567579 0.963226 0.432125 63.000000
1.586310 0.950754 0.435281 67.000000
1.604976 0.937980 0.438447 34.000000
1.636199 0.932069 0.445012 32.000000
1.646238 0.913822 0.445898 36.000000
1.664658 0.900025 0.448974 35.000000
1.691610 0.890510 0.454430 55.000000
1.709862 0.876057 0.457526 34.000000
1.732201 0.863702 0.461912 42.000000
1.754681 0.850693 0.466128 67.000000
1.785852 0.841476 0.472684 33.000000
1.803801 0.825513 0.475697 27.000000
1.830350 0.813489 0.481178 33.000000
1.856943 0.800693 0.486548 32.000000
1.865513 0.780127 0.487310 33.000000
1.905488 0.772083 0.496155 34.000000
1.931781 0.758014 0.501629 35.000000
1.962576 0.745203 0.508228 36.000000
1.988798 0.730148 0.513599 32.000000
2.005740 0.711309 0.516690 36.000000
2.027149 0.693706 0.520834 57.000000
2.043778 0.674274 0.523805 35.000000
2.055641 0.652965 0.525597 12.000000
2.099783 0.641418 0.535619 20.000000
2.143826 0.629187 0.545801 33.000000
2.141214 0.602621 0.543917 9.000000
2.147644 0.578929 0.544476 8.000000
2.214927 0.570855 0.560506 8.000000
2.253972 0.554394 0.569346 9.000000
2.278791 0.533807 0.574625 8.000000
2.317631 0.515817 0.583418 9.000000
2.351507 0.496163 0.591106 9.000000
2.413928 0.481501 0.605977 13.000000
2.471439 0.464600 0.619599 34.000000
2.519365 0.444769 0.630766 32.000000
2.567215 0.423903 0.641865 36.000000
2.595621 0.399129 0.648266 54.000000
2.604554 0.371004 0.649877 35.000000
2.675818 0.350978 0.667003 35.000000
2.684285 0.321863 0.668543 9.000000
2.740676 0.297885 0.682092 10.000000
2.801764 0.273114 0.696680 39.000000
2.872202 0.247893 0.713859 57.000000
2.884420 0.216807 0.716444 47.000000
2.857543 0.182935 0.709412 72.000000
2.854496 0.150989 0.708389 84.000000
2.797749 0.116921 0.694045 64.000000
2.779491 0.085247 0.689408 59.000000
2.726818 0.053425 0.676259 10.000000
2.698130 0.022906 0.669124 9.000000
2.707921 -0.006982 0.671531 9.000000
2.693108 -0.036839 0.667836 9.000000
2.678046 -0.066288 0.664226 9.000000
2.672269 -0.095847 0.662939 10.000000
2.651701 -0.124531 0.658043 9.000000
2.645354 -0.153629 0.656756 10.000000
2.638680 -0.182620 0.655387 18.000000
2.622005 -0.210644 0.651614 35.000000
2.629189 -0.240557 0.653853 95.000000
2.621622 -0.269197 0.652402 95.000000
2.575155 -0.293335 0.641344 91.000000
2.571814 -0.321854 0.641018 98.000000
2.553720 -0.348323 0.637174 95.000000
2.530542 -0.373763 0.632053 83.000000
2.526361 -0.401747 0.631651 95.000000
2.507502 -0.427365 0.627735 39.000000
2.478824 -0.450767 0.621428 30.000000
2.454690 -0.474561 0.616167 10.000000
2.439913 -0.499724 0.613305 10.000000
2.429609 -0.525625 0.611641 24.000000
2.447419 -0.557974 0.617140 91.000000
2.431744 -0.582848 0.614281 87.000000
2.434719 -0.612092 0.616115 81.000000
2.395061 -0.630341 0.607228 34.000000
2.388057 -0.656799 0.606606 41.000000
2.441427 -0.700754 0.621509 18.000000
2.531489 -0.756865 0.645718 10.000000
2.722542 -0.847055 0.696041 10.000000
2.893397 -0.935523 0.741522 9.000000
2.883081 -0.967522 0.740662 9.000000
2.886148 -1.004216 0.743348 9.000000
2.852160 -1.027939 0.736582 8.000000
2.854584 -1.064549 0.739071 9.000000
2.820241 -1.087285 0.732228 10.000000
2.826342 -1.125608 0.735886 10.000000
2.827313 -1.162579 0.738549 16.000000
2.810169 -1.191874 0.736225 11.000000
2.774677 -1.213375 0.729413 10.000000
2.788059 -1.255869 0.735190 10.000000
2.721217 -1.262319 0.720128 9.000000
2.742386 -1.309395 0.728321 15.000000
2.727890 -1.339912 0.727272 14.000000
2.696028 -1.360996 0.721196 10.000000
2.689596 -1.395419 0.722378 20.000000
2.644243 -1.409254 0.713040 10.000000
2.628734 -1.438580 0.711818 10.000000
2.672232 -1.501076 0.726649 9.000000
2.588345 -1.491903 0.706883 8.000000
2.597082 -1.535431 0.712466 11.000000
2.580243 -1.564191 0.711047 13.000000
2.563119 -1.592761 0.709628 10.000000
2.545239 -1.621710 0.708398 15.000000
2.511147 -1.639258 0.702324 11.000000
2.513526 -1.680517 0.706509 10.000000
2.511215 -1.719284 0.709438 10.000000
2.476476 -1.735855 0.703287 9.000000
2.453094 -1.760968 0.700830 10.000000
2.414262 -1.773605 0.693489 10.000000
2.406707 -1.809038 0.695175 9.000000
2.382571 -1.833225 0.692638 10.000000
2.358877 -1.856478 0.689729 9.000000
2.342559 -1.885477 0.689060 10.000000
2.362858 -1.946018 0.699716 10.000000
2.326860 -1.959426 0.693354 9.000000
2.312349 -1.992070 0.693953 10.000000
2.298176 -2.023828 0.694254 10.000000
2.242949 -2.020421 0.682604 10.000000
2.231991 -2.054889 0.683919 19.000000
2.173508 -2.046692 0.671149 21.000000
2.172656 -2.090710 0.675655 29.000000
2.152842 -2.118651 0.674953 36.000000
2.150822 -2.162838 0.679398 36.000000
2.126694 -2.187157 0.677490 62.000000
2.093328 -2.199626 0.672055 32.000000
2.028928 -2.180367 0.657135 24.000000
1.930124 -2.119294 0.630208 25.000000
1.861096 -2.090083 0.613342 24.000000
1.767276 -2.030013 0.588027 21.000000
1.714152 -2.011910 0.575291 26.000000
1.629238 -1.956135 0.552275 10.000000
1.562334 -1.916880 0.534444 15.000000
1.510569 -1.896253 0.522217 19.000000
1.456569 -1.870850 0.508933 17.000000
1.398369 -1.835972 0.493419 21.000000
1.337184 -1.796750 0.477107 24.000000
1.323019 -1.819757 0.477576 27.000000
1.306762 -1.837993 0.476715 31.000000
1.286433 -1.852694 0.475026 21.000000
1.268709 -1.871235 0.474294 26.000000
1.238297 -1.868522 0.468301 25.000000
1.230904 -1.903050 0.471647 22.000000
1.209850 -1.916968 0.469881 24.000000
1.197638 -1.942401 0.470935 21.000000
1.188783 -1.976898 0.474191 24.000000
1.164458 -1.986040 0.471320 20.000000
1.161959 -2.033265 0.477373 8.000000
0.787811 1.403330 0.340566 8.000000
0.788624 1.368768 0.335686 16.000000
0.805204 1.364354 0.338258 18.000000
0.825297 1.363424 0.341689 22.000000
0.837742 1.349720 0.341980 26.000000
0.846534 1.332296 0.341305 17.000000
0.874503 1.343010 0.347939 26.000000
0.881134 1.320709 0.346046 24.000000
0.908638 1.331259 0.352780 17.000000
0.912149 1.304776 0.349797 20.000000
0.929317 1.298250 0.352168 16.000000
0.942889 1.288071 0.353565 24.000000
0.962913 1.285056 0.356932 25.000000
0.977020 1.273961 0.358187 18.000000
0.993384 1.267058 0.360635 32.000000
1.004279 1.251873 0.360747 23.000000
1.023567 1.248371 0.364304 24.000000
1.024819 1.221709 0.361049 23.000000
1.041416 1.213634 0.363304 18.000000
1.057443 1.205838 0.365717 28.000000
1.080459 1.204574 0.370217 25.000000
1.099760 1.199854 0.373722 25.000000
1.113011 1.187215 0.374792 30.000000
1.132288 1.181968 0.378318 25.000000
1.152179 1.175955 0.381653 29.000000
1.157717 1.156333 0.380625 26.000000
1.173967 1.146456 0.382786 23.000000
1.193193 1.140121 0.386299 35.000000
1.205815 1.126465 0.387282 29.000000
1.217816 1.113068 0.388472 31.000000
1.255475 1.121850 0.397497 35.000000
1.263796 1.104657 0.397506 27.000000
1.290378 1.103246 0.403233 32.000000
1.298840 1.085376 0.403033 21.000000
1.321766 1.080111 0.407633 21.000000
1.340932 1.071453 0.411033 35.000000
1.368111 1.068069 0.416616 29.000000
1.375687 1.049868 0.416481 26.000000
1.390881 1.037400 0.418741 35.000000
1.410177 1.027217 0.421908 28.000000
1.425201 1.014313 0.424127 29.000000
1.456023 1.012249 0.431020 25.000000
1.470958 0.998715 0.433206 28.000000
1.481737 0.982240 0.434156 35.000000
1.524911 0.986761 0.444616 35.000000
1.535582 0.969697 0.445529 32.000000
1.558657 0.959815 0.449850 46.000000
1.577335 0.947326 0.453162 30.000000
1.595949 0.934594 0.456426 33.000000
1.610047 0.919444 0.458673 25.000000
1.619956 0.901375 0.459547 26.000000
1.659554 0.899373 0.468799 33.000000
1.686453 0.889851 0.474399 36.000000
1.704739 0.875394 0.477657 31.000000
1.722882 0.860562 0.480803 34.000000
1.745117 0.847900 0.485352 31.000000
1.780586 0.840733 0.493437 27.000000
1.793915 0.822993 0.495522 26.000000
1.825006 0.812734 0.502301 24.000000
1.860322 0.804033 0.510445 29.000000
1.878003 0.786859 0.513528 29.000000
1.899873 0.771503 0.518036 29.000000
1.921667 0.755653 0.522425 28.000000
1.952377 0.742886 0.529346 29.000000
1.978528 0.727876 0.534922 28.000000
1.995426 0.709085 0.538115 34.000000
2.003028 0.686813 0.538715 27.000000
2.028764 0.670557 0.544319 29.000000
2.022114 0.643540 0.541151 9.000000
2.061357 0.631010 0.550546 8.000000
2.100611 0.617555 0.559689 10.000000
2.158444 0.608705 0.573946 23.000000
2.164943 0.584684 0.574582 9.000000
2.194607 0.566719 0.581358 8.000000
2.238223 0.551566 0.591804 7.000000
2.281822 0.535431 0.602267 8.000000
2.320517 0.517552 0.611577 8.000000
2.363884 0.499792 0.622075 7.000000
2.407198 0.481115 0.632512 13.000000
2.464563 0.464205 0.646710 29.000000
2.483765 0.439308 0.650853 10.000000
2.555242 0.422785 0.668832 35.000000
2.564435 0.395113 0.670491 27.000000
2.602151 0.371357 0.679661 29.000000
2.673236 0.351270 0.697440 34.000000
2.691308 0.323340 0.701538 8.000000
2.742760 0.298672 0.714413 9.000000
2.803610 0.273789 0.729720 34.000000
2.840207 0.245536 0.738766 25.000000
2.842633 0.213991 0.738946 34.000000
2.839960 0.182135 0.738051 33.000000
2.812757 0.149017 0.730697 34.000000
2.775583 0.116138 0.720741 36.000000
2.737935 0.084119 0.710782 28.000000
2.704841 0.053055 0.702077 9.000000
2.685825 0.022865 0.697137 9.000000
2.690749 -0.006957 0.698394 8.000000
2.676062 -0.036621 0.694625 9.000000
2.660957 -0.065964 0.690857 9.000000
2.631016 -0.094463 0.683154 9.000000
2.644356 -0.124364 0.686922 10.000000
2.609033 -0.151776 0.677966 9.000000
2.626533 -0.182036 0.682822 9.000000
2.614727 -0.210478 0.680147 95.000000
2.617148 -0.239949 0.681153 56.000000
2.599887 -0.267462 0.677225 72.000000
2.572793 -0.293558 0.670628 90.000000
2.559841 -0.320926 0.667877 74.000000
2.541794 -0.347424 0.663875 95.000000
2.513969 -0.372025 0.657291 65.000000
2.509804 -0.399982 0.656891 55.000000
2.491002 -0.425336 0.652659 67.000000
2.462408 -0.448636 0.646092 19.000000
2.433594 -0.471328 0.639453 10.000000
2.433102 -0.499333 0.640232 10.000000
2.394420 -0.519079 0.630956 13.000000
2.431115 -0.555266 0.641628 75.000000
2.424986 -0.582298 0.641078 69.000000
2.409071 -0.606808 0.638119 34.000000
2.402339 -0.633501 0.637493 60.000000
2.367356 -0.652394 0.629418 30.000000
2.429989 -0.698698 0.647402 13.000000
2.533548 -0.759065 0.676501 10.000000
2.710214 -0.844718 0.725257 9.000000
2.880573 -0.933075 0.772667 9.000000
2.888547 -0.971295 0.776844 8.000000
2.868743 -1.000161 0.773417 8.000000
2.866760 -1.035216 0.775021 8.000000
2.837181 -1.060295 0.769043 8.000000
2.821025 -1.089924 0.766860 9.000000
2.804527 -1.119358 0.764491 9.000000
2.796746 -1.152195 0.764575 9.000000
2.792910 -1.187314 0.766166 10.000000
2.753274 -1.206396 0.757593 9.000000
2.748679 -1.241134 0.758993 9.000000
2.730804 -1.269461 0.756541 9.000000
2.734184 -1.308250 0.760269 9.000000
2.689511 -1.323302 0.750340 9.000000
2.666238 -1.348910 0.746783 9.000000
2.647083 -1.376468 0.744351 9.000000
2.640439 -1.410506 0.745548 10.000000
2.624811 -1.439880 0.744230 9.000000
2.613223 -1.471541 0.744116 7.000000
2.635206 -1.521960 0.753326 7.000000
2.585054 -1.531443 0.742298 9.000000
2.555795 -1.552595 0.737290 10.000000
2.538312 -1.581545 0.736068 9.000000
2.529108 -1.614970 0.736949 9.000000
2.519601 -1.648389 0.737820 10.000000
2.477324 -1.660168 0.729088 9.000000
2.479174 -1.701362 0.733419 8.000000
2.460567 -1.728848 0.731813 9.000000
2.437826 -1.753213 0.728934 8.000000
2.433769 -1.792464 0.732133 9.000000
2.394810 -1.804699 0.724553 9.000000
2.382927 -1.837090 0.725107 9.000000
2.373691 -1.873232 0.727008 9.000000
2.330679 -1.881105 0.718115 8.000000
2.347786 -1.937719 0.727863 8.000000
2.288945 -1.932989 0.714637 10.000000
2.227485 -1.923212 0.699937 10.000000
2.221304 -1.960646 0.702614 29.000000
2.199373 -1.985829 0.700848 30.000000
2.188729 -2.019798 0.702246 32.000000
2.176842 -2.054661 0.703906 35.000000
2.161703 -2.085256 0.704029 23.000000
2.173108 -2.144023 0.713526 18.000000
2.160434 -2.178122 0.714729 30.000000
2.142894 -2.209531 0.714973 11.000000
2.102501 -2.215299 0.707021 19.000000
2.011539 -2.167698 0.682523 16.000000
1.929511 -2.124717 0.660037 10.000000
1.844394 -2.077226 0.636832 16.000000
1.767953 -2.034766 0.615729 10.000000
1.726402 -2.032470 0.607129 10.000000
1.629108 -1.961968 0.578655 10.000000
1.559155 -1.919043 0.558941 10.000000
1.507547 -1.898483 0.546172 13.000000
1.439565 -1.853218 0.526608 10.000000
1.392463 -1.834459 0.515026 11.000000
1.340175 -1.807112 0.501335 18.000000
1.312585 -1.809749 0.496115 19.000000
1.306638 -1.844483 0.499765 15.000000
1.286150 -1.859319 0.497999 21.000000
1.261250 -1.865075 0.493878 19.000000
1.245952 -1.887508 0.494184 26.000000
1.227686 -1.905745 0.493411 18.000000
1.205117 -1.914778 0.490298 19.000000
1.196708 -1.949310 0.493737 19.000000
1.180164 -1.971266 0.493910 17.000000
1.167055 -1.996551 0.494898 18.000000
1.164335 -2.043824 0.501286 6.000000
0.777245 1.388942 0.351538 8.000000
0.798855 1.393089 0.356380 14.000000
0.809267 1.375390 0.355660 20.000000
0.829478 1.374364 0.359241 20.000000
0.843735 1.365227 0.360798 24.000000
0.856185 1.351318 0.361052 25.000000
0.873756 1.345498 0.363559 21.000000
0.893159 1.343980 0.367284 28.000000
0.905214 1.329597 0.367534 21.000000
0.910756 1.307631 0.365640 14.000000
0.930784 1.305036 0.369231 23.000000
0.939446 1.286425 0.368284 23.000000
0.964524 1.291706 0.374254 24.000000
0.981724 1.284413 0.376651 29.000000
0.989204 1.265950 0.375792 25.000000
1.006192 1.258321 0.378193 26.000000
1.029327 1.258055 0.382895 24.000000
1.026970 1.228027 0.378519 20.000000
1.046850 1.223573 0.382032 31.000000
1.059729 1.212007 0.383396 27.000000
1.079598 1.207034 0.386881 32.000000
1.095632 1.198682 0.389368 34.000000
1.108882 1.186042 0.390540 27.000000
1.131492 1.184303 0.395333 35.000000
1.147950 1.174717 0.397641 28.000000
1.170731 1.172292 0.402471 14.000000
1.176744 1.152019 0.401197 35.000000
1.192511 1.142291 0.403625 40.000000
1.208246 1.132331 0.406061 33.000000
1.227946 1.124998 0.409490 41.000000
1.247161 1.117765 0.413088 30.000000
1.266834 1.109843 0.416489 47.000000
1.286064 1.102021 0.420061 44.000000
1.320200 1.106341 0.428474 24.000000
1.328310 1.088479 0.428402 35.000000
1.344142 1.076224 0.430587 33.000000
1.359499 1.064208 0.432941 34.000000
1.378663 1.054892 0.436465 55.000000
1.386088 1.036529 0.436336 31.000000
1.397636 1.020568 0.437207 37.000000
1.416477 1.010564 0.440697 35.000000
1.455210 1.014073 0.450352 24.000000
1.470162 1.000492 0.452590 36.000000
1.484949 0.986653 0.454778 50.000000
1.515939 0.983155 0.461981 35.000000
1.530617 0.968727 0.464190 54.000000
1.545238 0.954037 0.466347 36.000000
1.563834 0.941695 0.469754 37.000000
1.594892 0.936348 0.476917 43.000000
1.609236 0.920799 0.479101 27.000000
1.657279 0.923954 0.491196 76.000000
1.671521 0.907601 0.493349 59.000000
1.681116 0.889071 0.494368 36.000000
1.699375 0.874610 0.497668 62.000000
1.721816 0.861941 0.502237 50.000000
1.735336 0.844989 0.504473 45.000000
1.779445 0.841996 0.515333 60.000000
1.788450 0.822185 0.516202 24.000000
1.815058 0.809946 0.522028 35.000000
1.845835 0.799360 0.529204 36.000000
1.890066 0.793771 0.540222 38.000000
1.916452 0.779969 0.546168 61.000000
1.942800 0.765637 0.552063 36.000000
1.973555 0.752561 0.559186 50.000000
1.981623 0.730556 0.559920 43.000000
1.984872 0.706797 0.559370 24.000000
2.019876 0.693997 0.567675 54.000000
2.031949 0.672922 0.569635 36.000000
2.029841 0.647409 0.567804 9.000000
2.064551 0.633164 0.576074 9.000000
2.122205 0.625193 0.590950 21.000000
2.161381 0.610767 0.600620 52.000000
2.195882 0.594284 0.608945 71.000000
2.225585 0.575825 0.615991 23.000000
2.259816 0.557930 0.624270 26.000000
2.279802 0.536093 0.628822 10.000000
2.294851 0.512890 0.632009 9.000000
2.366402 0.501336 0.650713 9.000000
2.404892 0.481598 0.660270 28.000000
2.452705 0.462836 0.672441 44.000000
2.500378 0.443042 0.684548 44.000000
2.533526 0.419927 0.692844 29.000000
2.585698 0.399123 0.706281 72.000000
2.623281 0.375125 0.715905 70.000000
2.675073 0.352190 0.729201 37.000000
2.697823 0.324728 0.734848 9.000000
2.763633 0.301465 0.752080 17.000000
2.833956 0.277283 0.770720 95.000000
2.880018 0.249522 0.782842 98.000000
2.848892 0.214900 0.773875 55.000000
2.841428 0.182574 0.771530 81.000000
2.799857 0.148672 0.759938 95.000000
2.781989 0.116657 0.754794 95.000000
2.763840 0.085160 0.749737 87.000000
2.725942 0.053624 0.739269 10.000000
2.687770 0.022948 0.728972 9.000000
2.658901 -0.006894 0.721119 10.000000
2.644174 -0.036290 0.717109 9.000000
2.643588 -0.065724 0.717109 10.000000
2.628284 -0.094553 0.713100 9.000000
2.603018 -0.122690 0.706476 9.000000
2.591900 -0.151132 0.703777 10.000000
2.575651 -0.178943 0.699608 16.000000
2.597580 -0.209537 0.705981 24.000000
2.585579 -0.237493 0.703120 95.000000
2.577987 -0.265730 0.701568 81.000000
2.574955 -0.294409 0.701322 98.000000
2.547651 -0.319999 0.694467 80.000000
2.529653 -0.346446 0.690309 82.000000
2.525778 -0.374455 0.689825 95.000000
2.507280 -0.400263 0.685591 71.000000
2.498028 -0.427299 0.683807 29.000000
2.450480 -0.447296 0.671770 30.000000
2.426484 -0.470937 0.666172 12.000000
2.392876 -0.492056 0.657902 10.000000
2.387394 -0.518616 0.657361 20.000000
2.409844 -0.551562 0.664609 67.000000
2.413140 -0.580540 0.666578 95.000000
2.392661 -0.603818 0.662142 74.000000
2.353271 -0.621848 0.652533 24.000000
2.364972 -0.653061 0.657092 66.000000
2.380970 -0.686025 0.662855 12.000000
2.493665 -0.748511 0.695709 15.000000
2.637522 -0.823926 0.737606 10.000000
2.867395 -0.930630 0.803613 9.000000
2.852533 -0.961079 0.801470 9.000000
2.837324 -0.991237 0.799329 9.000000
2.844491 -1.029419 0.803514 8.000000
2.824072 -1.057646 0.799995 9.000000
2.794427 -1.081992 0.793826 10.000000
2.818411 -1.127479 0.802919 16.000000
2.783708 -1.149493 0.795386 10.000000
2.771065 -1.180293 0.794245 10.000000
2.727240 -1.197391 0.784099 11.000000
2.722704 -1.231926 0.785608 9.000000
2.687300 -1.251891 0.777942 8.000000
2.703985 -1.296555 0.785690 15.000000
2.672535 -1.317892 0.779211 10.000000
2.666502 -1.352158 0.780610 18.000000
2.642927 -1.377484 0.776862 10.000000
2.615277 -1.399678 0.771488 10.000000
2.612567 -1.435948 0.773948 10.000000
2.609328 -1.472316 0.776395 9.000000
2.601461 -1.506259 0.777482 6.000000
2.580716 -1.532782 0.774811 12.000000
2.534836 -1.544005 0.764566 10.000000
2.546658 -1.590207 0.771783 12.000000
2.496522 -1.597703 0.760331 10.000000
2.487067 -1.630844 0.761223 10.000000
2.473194 -1.661277 0.760773 11.000000
2.466964 -1.697010 0.762881 9.000000
2.412731 -1.699338 0.750099 8.000000
2.429622 -1.751704 0.759392 11.000000
2.355228 -1.739025 0.740715 10.000000
2.347846 -1.773967 0.742634 14.000000
2.309400 -1.785167 0.734680 24.000000
2.297626 -1.816811 0.735277 28.000000
2.277165 -1.842985 0.733710 63.000000
2.257166 -1.868238 0.731775 35.000000
2.229483 -1.886853 0.727423 24.000000
2.227439 -1.927347 0.731427 64.000000
2.234837 -1.978462 0.739284 35.000000
2.242234 -2.029199 0.746809 36.000000
2.248014 -2.081156 0.754473 34.000000
2.243216 -2.122588 0.758220 30.000000
2.237866 -2.164118 0.761833 32.000000
2.192986 -2.169054 0.752764 26.000000
2.179982 -2.203542 0.753984 18.000000
2.175622 -2.249224 0.758913 24.000000
2.118138 -2.237806 0.744710 19.000000
2.040354 -2.204812 0.723842 24.000000
1.958038 -2.162292 0.700470 24.000000
1.853378 -2.093517 0.669266 22.000000
1.796149 -2.073261 0.654225 26.000000
1.697553 -2.004565 0.624408 16.000000
1.620417 -1.955668 0.601444 9.000000
1.586422 -1.958940 0.594938 17.000000
1.513335 -1.912081 0.573578 14.000000
1.457315 -1.882325 0.557751 17.000000
1.401173 -1.852291 0.542244 20.000000
1.349804 -1.824437 0.527748 19.000000
1.306714 -1.808141 0.516871 28.000000
1.281039 -1.815066 0.512805 28.000000
1.270276 -1.840945 0.514148 16.000000
1.252548 -1.859485 0.513443 33.000000
1.238396 -1.881105 0.513560 28.000000
1.212259 -1.886999 0.509442 27.000000
1.199112 -1.913224 0.510857 28.000000
1.181665 -1.930312 0.509836 23.000000
1.167714 -1.956332 0.511138 26.000000
1.148505 -1.973875 0.510233 21.000000
1.149703 -2.024426 0.517788 9.000000
0.779929 1.400519 0.369131 8.000000
0.792974 1.387153 0.369511 13.000000
0.802415 1.369990 0.368849 24.000000
0.822553 1.368936 0.372563 22.000000
0.840271 1.363470 0.375155 29.000000
0.849234 1.346001 0.374471 24.000000
0.874673 1.352415 0.380517 26.000000
0.880709 1.330598 0.378619 30.000000
0.903613 1.332414 0.383497 29.000000
0.909988 1.309928 0.381372 18.000000
0.920885 1.295905 0.381756 29.000000
0.938065 1.289158 0.384275 26.000000
0.960282 1.290443 0.389254 31.000000
0.971581 1.275467 0.389438 30.000000
0.988616 1.268018 0.391931 27.000000
1.011031 1.268452 0.396961 34.000000
1.021977 1.253018 0.397043 24.000000
1.028971 1.234179 0.396123 27.000000
1.039407 1.218617 0.396185 32.000000
1.058676 1.214402 0.399954 32.000000
1.085017 1.216626 0.406003 37.000000
1.091351 1.197357 0.404963 31.000000
1.104601 1.184768 0.406186 40.000000
1.120483 1.175996 0.408731 33.000000
1.143153 1.173892 0.413732 30.000000
1.173253 1.177859 0.421004 21.000000
1.171934 1.151191 0.417388 40.000000
1.188205 1.140994 0.419760 41.000000
1.207406 1.134347 0.423482 69.000000
1.223131 1.124108 0.425976 35.000000
1.249996 1.122921 0.432056 55.000000
1.269289 1.115281 0.435771 58.000000
1.284889 1.104218 0.438248 57.000000
1.296745 1.089798 0.439423 26.000000
1.323827 1.087128 0.445471 34.000000
1.339267 1.075303 0.447921 36.000000
1.362220 1.069204 0.452853 37.000000
1.373746 1.053908 0.454001 43.000000
1.381240 1.035548 0.453822 48.000000
1.388832 1.016732 0.453474 35.000000
1.407669 1.006766 0.457114 30.000000
1.450183 1.013068 0.468390 34.000000
1.457137 0.993981 0.468113 34.000000
1.483973 0.988264 0.474313 62.000000
1.490620 0.968909 0.474038 60.000000
1.525595 0.967643 0.482737 41.000000
1.544253 0.955491 0.486294 60.000000
1.562849 0.943097 0.489861 63.000000
1.576988 0.928242 0.492256 32.000000
1.603801 0.920039 0.498328 34.000000
1.634862 0.913697 0.505781 40.000000
1.657466 0.902147 0.510527 38.000000
1.684126 0.892752 0.516834 71.000000
1.698118 0.875978 0.518928 44.000000
1.711735 0.859230 0.521268 60.000000
1.734070 0.846191 0.526001 61.000000
1.764892 0.837241 0.533503 34.000000
1.782736 0.821316 0.536883 31.000000
1.809163 0.809257 0.543037 35.000000
1.835509 0.796742 0.549209 35.000000
1.879541 0.791189 0.560635 36.000000
1.914776 0.781071 0.569438 33.000000
1.936604 0.764978 0.574211 35.000000
1.958350 0.748386 0.578929 42.000000
1.970902 0.728153 0.580992 32.000000
1.992300 0.710856 0.585726 37.000000
2.013603 0.693255 0.590403 76.000000
2.025527 0.672314 0.592550 29.000000
2.037281 0.651271 0.594633 10.000000
2.067348 0.635448 0.601878 9.000000
2.120255 0.625998 0.615983 20.000000
2.163980 0.612823 0.627360 66.000000
2.184479 0.592377 0.631964 35.000000
2.241990 0.581360 0.647489 36.000000
2.262251 0.559728 0.652118 53.000000
2.300888 0.542276 0.662149 38.000000
2.330147 0.521838 0.669497 34.000000
2.359216 0.500801 0.676781 20.000000
2.402247 0.482003 0.688054 29.000000
2.445211 0.462362 0.699342 52.000000
2.469058 0.438433 0.705309 28.000000
2.544806 0.422758 0.726024 49.000000
2.582597 0.399445 0.736003 81.000000
2.615323 0.374707 0.744471 60.000000
2.662199 0.351219 0.757101 32.000000
2.694525 0.324961 0.765586 9.000000
2.745629 0.300155 0.779598 17.000000
2.801459 0.274665 0.794717 62.000000
2.856955 0.248000 0.810024 81.000000
2.830714 0.213994 0.802229 58.000000
2.828074 0.182085 0.800959 86.000000
2.777021 0.147728 0.786177 95.000000
2.764011 0.116165 0.782272 79.000000
2.741020 0.084627 0.775644 59.000000
2.708132 0.053348 0.766204 10.000000
2.689317 0.023030 0.760846 10.000000
2.636481 -0.006857 0.745874 9.000000
2.641040 -0.036273 0.747235 9.000000
2.616406 -0.065161 0.740347 9.000000
2.615576 -0.094297 0.740264 9.000000
2.585579 -0.122071 0.731935 9.000000
2.569691 -0.150044 0.727690 9.000000
2.563096 -0.178445 0.726330 14.000000
2.584956 -0.208902 0.732802 62.000000
2.572988 -0.236806 0.729919 82.000000
2.560630 -0.264496 0.727037 70.000000
2.548048 -0.291891 0.723912 92.000000
2.544714 -0.320275 0.723587 95.000000
2.522065 -0.346042 0.717834 78.000000
2.508590 -0.372718 0.714798 73.000000
2.509160 -0.401462 0.715752 82.000000
2.471443 -0.423726 0.705865 49.000000
2.438345 -0.445957 0.697265 29.000000
2.390791 -0.464878 0.684694 13.000000
2.380826 -0.490621 0.682878 10.000000
2.365948 -0.515081 0.679636 18.000000
2.397807 -0.550017 0.689900 73.000000
2.391726 -0.576684 0.689276 71.000000
2.371251 -0.599808 0.684687 58.000000
2.360007 -0.624853 0.682643 37.000000
2.353044 -0.651156 0.682024 45.000000
2.401373 -0.693415 0.697454 24.000000
2.485934 -0.747853 0.723508 10.000000
2.615528 -0.818823 0.763170 10.000000
2.817217 -0.916457 0.823835 9.000000
2.834563 -0.956952 0.830830 9.000000
2.842140 -0.994968 0.835228 9.000000
2.817488 -1.021797 0.830270 8.000000
2.810706 -1.054906 0.830654 9.000000
2.781136 -1.079302 0.824282 10.000000
2.778183 -1.113869 0.825808 10.000000
2.783680 -1.152134 0.829983 14.000000
2.766658 -1.181235 0.827417 14.000000
2.727231 -1.200336 0.818235 10.000000
2.735987 -1.240562 0.823524 10.000000
2.669769 -1.246874 0.806636 9.000000
2.690935 -1.293141 0.815781 13.000000
2.676578 -1.323366 0.814648 16.000000
2.649225 -1.346466 0.809196 13.000000
2.647109 -1.382870 0.811814 18.000000
2.606578 -1.398462 0.802449 11.000000
2.582690 -1.423081 0.798432 10.000000
2.587941 -1.463865 0.803650 9.000000
2.580123 -1.497756 0.804750 7.000000
2.563998 -1.526140 0.803053 13.000000
2.534754 -1.547260 0.797653 11.000000
2.509581 -1.570569 0.793469 10.000000
2.476014 -1.588199 0.786712 10.000000
2.450470 -1.610584 0.782553 12.000000
2.428771 -1.635209 0.779600 16.000000
2.426746 -1.673367 0.783070 21.000000
2.361031 -1.667002 0.765932 21.000000
2.350616 -1.699036 0.766754 36.000000
2.335276 -1.728737 0.766565 93.000000
2.304822 -1.746022 0.760913 79.000000
2.301041 -1.783605 0.764166 85.000000
2.281659 -1.809142 0.762237 57.000000
2.303333 -1.868015 0.774201 37.000000
2.312073 -1.919115 0.782504 37.000000
2.265399 -1.922872 0.771622 34.000000
2.270095 -1.970189 0.778335 36.000000
2.266881 -2.011461 0.782404 58.000000
2.247828 -2.040601 0.781741 30.000000
2.250673 -2.088535 0.788243 49.000000
2.245704 -2.130065 0.792120 35.000000
2.221816 -2.155708 0.790072 31.000000
2.195169 -2.176867 0.786402 33.000000
2.174234 -2.205435 0.785489 31.000000
2.167368 -2.246768 0.789179 31.000000
2.110012 -2.235388 0.774409 23.000000
2.039011 -2.209583 0.755133 27.000000
1.963442 -2.174311 0.733249 29.000000
1.862060 -2.109509 0.701990 26.000000
1.798349 -2.082126 0.683920 26.000000
1.709416 -2.024755 0.656590 25.000000
1.626092 -1.968647 0.630291 10.000000
1.576733 -1.953187 0.617535 23.000000
1.519870 -1.924650 0.600967 24.000000
1.454015 -1.884305 0.581247 19.000000
1.406684 -1.865989 0.568663 27.000000
1.352411 -1.834393 0.552400 24.000000
1.306384 -1.814352 0.539905 30.000000
1.273300 -1.808655 0.531953 32.000000
1.261499 -1.835257 0.533574 24.000000
1.246512 -1.857730 0.534009 33.000000
1.226999 -1.871277 0.531833 31.000000
1.203530 -1.881216 0.528716 30.000000
1.194166 -1.910822 0.531133 33.000000
1.175435 -1.928613 0.530227 29.000000
1.156540 -1.946251 0.529312 28.000000
1.148465 -1.979872 0.532709 26.000000
1.148018 -2.031160 0.540790 9.000000
0.775361 1.399164 0.383388 7.000000
0.786065 1.381577 0.382604 19.000000
0.803834 1.376543 0.385276 20.000000
0.825581 1.380143 0.390517 28.000000
0.828182 1.349744 0.386110 23.000000
0.847427 1.348766 0.390131 29.000000
0.862341 1.338856 0.391582 32.000000
0.879830 1.332797 0.394232 25.000000
0.899169 1.331051 0.398244 31.000000
0.897350 1.296608 0.392464 15.000000
0.922150 1.302476 0.398850 24.000000
0.933711 1.287806 0.399039 28.000000
0.955888 1.289080 0.404255 26.000000
0.967200 1.274107 0.404443 30.000000
0.983565 1.267160 0.407184 28.000000
0.997606 1.255695 0.408497 26.000000
1.016947 1.252104 0.412490 32.000000
1.015290 1.221692 0.407598 11.000000
1.040742 1.225091 0.414037 33.000000
1.051143 1.209330 0.414053 34.000000
1.070401 1.204849 0.417978 29.000000
1.093477 1.203142 0.423025 34.000000
1.102950 1.187395 0.423197 33.000000
1.119470 1.178071 0.425640 30.000000
1.142087 1.175968 0.430837 35.000000
1.154605 1.163140 0.432233 11.000000
1.174425 1.156526 0.435928 43.000000
1.186756 1.143361 0.437281 62.000000
1.198984 1.130041 0.438582 35.000000
1.222183 1.125916 0.443542 68.000000
1.245019 1.121915 0.448734 35.000000
1.257038 1.107884 0.450005 36.000000
1.276266 1.100051 0.453824 40.000000
1.292152 1.088356 0.456192 20.000000
1.307574 1.076898 0.458727 34.000000
1.334229 1.074219 0.465147 39.000000
1.353349 1.065128 0.468966 35.000000
1.364843 1.049875 0.470110 66.000000
1.380028 1.037356 0.472574 34.000000
1.395113 1.024642 0.475044 37.000000
1.410095 1.011621 0.477466 59.000000
1.444710 1.012286 0.486540 18.000000
1.455712 0.995978 0.487602 57.000000
1.466491 0.979503 0.488663 61.000000
1.485173 0.968123 0.492344 47.000000
1.499738 0.953918 0.494695 57.000000
1.534653 0.952148 0.503712 50.000000
1.557312 0.942231 0.508722 45.000000
1.580020 0.931920 0.513748 56.000000
1.573153 0.904763 0.509447 14.000000
1.620839 0.908104 0.522492 36.000000
1.656023 0.903557 0.531511 56.000000
1.669902 0.887332 0.533947 42.000000
1.696652 0.877282 0.540229 71.000000
1.710278 0.860422 0.542622 60.000000
1.719691 0.841049 0.543412 37.000000
1.737305 0.825928 0.547119 43.000000
1.798539 0.830651 0.564476 18.000000
1.798630 0.806599 0.562611 36.000000
1.833711 0.797964 0.571733 49.000000
1.868852 0.788545 0.580817 35.000000
1.895146 0.774829 0.587167 37.000000
1.925808 0.762418 0.594914 47.000000
1.960885 0.751027 0.603929 52.000000
1.973459 0.730691 0.606046 49.000000
1.963119 0.702164 0.601372 28.000000
2.007061 0.692648 0.613132 71.000000
2.028085 0.674738 0.618108 72.000000
2.039925 0.653388 0.620110 34.000000
2.088171 0.643246 0.633387 25.000000
2.122671 0.628022 0.642372 35.000000
2.157068 0.612111 0.651446 72.000000
2.177379 0.591875 0.656348 66.000000
2.234871 0.580699 0.672296 32.000000
2.259598 0.560367 0.678627 45.000000
2.288875 0.540648 0.686221 68.000000
2.322730 0.521309 0.695229 72.000000
2.342336 0.498345 0.699967 37.000000
2.371113 0.476807 0.707443 16.000000
2.394970 0.453848 0.713677 15.000000
2.470636 0.439717 0.735229 32.000000
2.532058 0.421561 0.752589 48.000000
2.564913 0.397561 0.761442 65.000000
2.583286 0.370962 0.766162 50.000000
2.644258 0.349621 0.783317 30.000000
2.681243 0.324127 0.793695 9.000000
2.751350 0.301372 0.813695 25.000000
2.797395 0.274866 0.826745 74.000000
2.819371 0.245233 0.832658 91.000000
2.836150 0.214810 0.837073 77.000000
2.809603 0.181288 0.828872 82.000000
2.758711 0.147041 0.813516 71.000000
2.750533 0.115876 0.810954 93.000000
2.727703 0.084391 0.804063 42.000000
2.675652 0.052789 0.788519 10.000000
2.676077 0.022904 0.788604 10.000000
2.618611 -0.006832 0.771728 9.000000
2.618361 -0.036075 0.771645 9.000000
2.598600 -0.064839 0.765992 9.000000
2.578601 -0.093175 0.760257 9.000000
2.567870 -0.121536 0.757185 10.000000
2.561610 -0.149963 0.755691 10.000000
2.559814 -0.178535 0.755446 18.000000
2.591156 -0.209817 0.765248 35.000000
2.564876 -0.236560 0.757942 91.000000
2.543087 -0.263263 0.752052 76.000000
2.549528 -0.292741 0.754629 98.000000
2.517706 -0.317549 0.745682 87.000000
2.504569 -0.344412 0.742702 93.000000
2.491219 -0.370983 0.739403 89.000000
2.501184 -0.401060 0.743306 72.000000
2.458844 -0.422516 0.731567 37.000000
2.435284 -0.446429 0.725468 33.000000
2.387935 -0.465333 0.712272 15.000000
2.373275 -0.490082 0.709077 17.000000
2.367804 -0.516589 0.708538 24.000000
2.380734 -0.547321 0.713607 82.000000
2.370010 -0.572756 0.711584 91.000000
2.373038 -0.601469 0.713686 65.000000
2.347708 -0.623080 0.707548 36.000000
2.340914 -0.649177 0.706698 67.000000
2.375243 -0.687363 0.718561 18.000000
2.468761 -0.744340 0.748519 17.000000
2.584283 -0.810681 0.785294 10.000000
2.817153 -0.918590 0.858336 9.000000
2.807079 -0.949941 0.857206 9.000000
2.814664 -0.987748 0.861910 9.000000
2.790317 -1.014095 0.856521 8.000000
2.761107 -1.038542 0.850040 10.000000
2.776453 -1.079910 0.857211 10.000000
2.742238 -1.101981 0.849266 11.000000
2.761112 -1.145560 0.857699 13.000000
2.721976 -1.165057 0.848203 15.000000
2.687203 -1.185714 0.840106 12.000000
2.713635 -1.233548 0.851157 10.000000
2.660912 -1.245382 0.837403 9.000000
2.664631 -1.283377 0.841477 13.000000
2.663296 -1.319813 0.844450 17.000000
2.661726 -1.355974 0.847034 24.000000
2.608303 -1.365831 0.833450 10.000000
2.597692 -1.397059 0.833222 15.000000
2.573740 -1.421682 0.829105 12.000000
2.541238 -1.441180 0.822288 9.000000
2.529839 -1.471665 0.821880 8.000000
2.497067 -1.490185 0.814998 20.000000
2.476462 -1.515781 0.812177 26.000000
2.443400 -1.533420 0.805235 32.000000
2.426491 -1.560840 0.803681 37.000000
2.401263 -1.582775 0.799358 56.000000
2.399745 -1.620525 0.803063 89.000000
2.381954 -1.647486 0.801321 36.000000
2.356021 -1.668601 0.796918 34.000000
2.349358 -1.703505 0.799072 37.000000
2.342325 -1.738489 0.801208 42.000000
2.354030 -1.787948 0.809838 37.000000
2.342098 -1.820245 0.810510 33.000000
2.341083 -1.861438 0.815112 34.000000
2.324486 -1.890593 0.814342 32.000000
2.322474 -1.931988 0.818798 28.000000
2.278644 -1.939865 0.809152 26.000000
2.279394 -1.984237 0.814786 34.000000
2.272330 -2.022487 0.817685 34.000000
2.246840 -2.044519 0.814084 35.000000
2.227341 -2.073532 0.813359 30.000000
2.229442 -2.121649 0.820064 33.000000
2.213431 -2.153076 0.820201 33.000000
2.175642 -2.164887 0.812838 25.000000
2.165849 -2.202705 0.815423 32.000000
2.148958 -2.233660 0.815432 30.000000
2.113978 -2.247739 0.809377 21.000000
2.037426 -2.214053 0.786516 32.000000
1.964118 -2.183444 0.765326 28.000000
1.864041 -2.117930 0.732575 27.000000
1.783557 -2.073316 0.707802 26.000000
1.708486 -2.029915 0.684164 18.000000
1.627376 -1.978423 0.658344 11.000000
1.585052 -1.969925 0.647323 18.000000
1.524142 -1.938574 0.629182 21.000000
1.459326 -1.897652 0.608379 25.000000
1.400299 -1.864007 0.590388 21.000000
1.351926 -1.840275 0.575957 26.000000
1.297451 -1.808517 0.559392 29.000000
1.272830 -1.814793 0.554793 26.000000
1.255349 -1.833370 0.554050 24.000000
1.233362 -1.843034 0.550609 31.000000
1.226130 -1.877580 0.554589 31.000000
1.194758 -1.875301 0.547761 32.000000
1.182747 -1.900668 0.549098 26.000000
1.171653 -1.930925 0.551733 29.000000
1.149026 -1.939446 0.548281 29.000000
1.142010 -1.977936 0.553148 26.000000
1.138984 -2.025023 0.560375 10.000000
0.774092 1.401503 0.398653 6.000000
0.779185 1.375959 0.395562 9.000000
0.806641 1.387669 0.403194 21.000000
0.813594 1.366183 0.401291 21.000000
0.833812 1.364896 0.405299 21.000000
0.846346 1.350920 0.405627 26.000000
0.857887 1.337405 0.406046 17.000000
0.883344 1.343481 0.412568 21.000000
0.894674 1.329636 0.412992 23.000000
0.923159 1.339058 0.420718 10.000000
0.926050 1.312883 0.417381 21.000000
0.932090 1.290277 0.415065 18.000000
0.948518 1.283775 0.417938 16.000000
0.965686 1.276504 0.420619 25.000000
0.979121 1.265695 0.422185 21.000000
0.999163 1.261809 0.426107 25.000000
1.006394 1.243119 0.425114 21.000000
1.038675 1.253671 0.434208 15.000000
1.033163 1.219936 0.427993 32.000000
1.043587 1.204216 0.428009 23.000000
1.065929 1.203375 0.433374 25.000000
1.085162 1.198539 0.437459 30.000000
1.095224 1.182373 0.437427 23.000000
1.117763 1.180549 0.442796 33.000000
1.130310 1.168002 0.444184 25.000000
1.163675 1.175346 0.453349 18.000000
1.162467 1.148708 0.449458 34.000000
1.178244 1.138919 0.452133 28.000000
1.194405 1.128532 0.454660 35.000000
1.210015 1.118326 0.457298 33.000000
1.236310 1.117573 0.463966 29.000000
1.255563 1.109962 0.467975 35.000000
1.267936 1.095359 0.469091 30.000000
1.283348 1.084128 0.471717 27.000000
1.302485 1.075719 0.475652 27.000000
1.314054 1.060991 0.476884 25.000000
1.344398 1.061003 0.484926 31.000000
1.355859 1.045793 0.486121 32.000000
1.367158 1.030366 0.487262 29.000000
1.386037 1.020586 0.491147 35.000000
1.404877 1.010468 0.495044 29.000000
1.435528 1.008350 0.503033 27.000000
1.450407 0.994750 0.505529 35.000000
1.485139 0.994312 0.514894 34.000000
1.503967 0.982709 0.518747 42.000000
1.510304 0.963348 0.518555 38.000000
1.528931 0.951233 0.522366 33.000000
1.555707 0.943799 0.528978 41.000000
1.570132 0.928546 0.531302 34.000000
1.588305 0.915830 0.535264 25.000000
1.615008 0.907161 0.541811 33.000000
1.641504 0.898292 0.548497 32.000000
1.664025 0.886373 0.553616 36.000000
1.681956 0.872139 0.557518 39.000000
1.700044 0.857291 0.561189 32.000000
1.717802 0.842432 0.564990 34.000000
1.765825 0.841699 0.578730 35.000000
1.774790 0.821840 0.579664 25.000000
1.796745 0.807751 0.584867 32.000000
