x y z intensity
2.053354 1.263143 -0.142241 62.000000
2.070973 1.243677 -0.142831 62.000000
2.093027 1.226049 -0.143643 66.000000
2.114969 1.208086 -0.144458 41.000000
2.119279 1.180146 -0.144163 36.000000
2.131960 1.156934 -0.144385 52.000000
2.157656 1.140647 -0.145500 76.000000
2.178842 1.121712 -0.146320 60.000000
2.208753 1.106831 -0.147739 91.000000
2.234070 1.089299 -0.148862 78.000000
2.272830 1.077737 -0.150809 62.000000
2.298040 1.059241 -0.151939 53.000000
2.332187 1.044375 -0.153672 33.000000
2.352435 1.023200 -0.154507 57.000000
2.377209 1.003376 -0.155567 56.000000
2.411032 0.986874 -0.157310 56.000000
2.440182 0.967950 -0.158676 67.000000
2.464512 0.946753 -0.159743 47.000000
2.493395 0.926829 -0.161195 43.000000
2.512711 0.903041 -0.161963 35.000000
2.527058 0.877330 -0.162429 36.000000
2.550578 0.854771 -0.163503 81.000000
2.578703 0.833109 -0.164882 95.000000
2.601865 0.809469 -0.165959 81.000000
2.643997 0.791157 -0.168256 95.000000
2.671621 0.767898 -0.169643 75.000000
2.703836 0.745634 -0.171337 68.000000
2.716550 0.717495 -0.171728 37.000000
2.743551 0.692744 -0.173121 9.000000
2.770312 0.667572 -0.174430 9.000000
2.791961 0.640863 -0.175521 18.000000
2.862180 0.624297 -0.179586 47.000000
2.898041 0.599280 -0.181603 86.000000
2.928864 0.572487 -0.183225 91.000000
2.954610 0.544258 -0.184543 76.000000
2.994727 0.518063 -0.186781 29.000000
3.064253 0.495903 -0.190863 33.000000
3.074313 0.463333 -0.191265 95.000000
3.128586 0.436772 -0.194432 98.000000
3.138172 0.403409 -0.194739 95.000000
3.142332 0.369259 -0.194836 89.000000
3.141239 0.334485 -0.194625 64.000000
3.114813 0.297542 -0.192780 71.000000
3.132792 0.264935 -0.193799 32.000000
3.135484 0.230809 -0.193799 28.000000
3.127830 0.196058 -0.193184 10.000000
3.134826 0.162298 -0.193491 32.000000
3.136362 0.128226 -0.193491 40.000000
3.127633 0.093759 -0.192876 36.000000
3.138377 0.059986 -0.193491 47.000000
3.143847 0.025859 -0.193799 42.000000
3.094040 -0.008136 -0.190723 36.000000
3.108821 -0.042018 -0.191550 64.000000
3.108155 -0.075860 -0.191550 61.000000
3.117085 -0.109959 -0.192070 91.000000
3.095809 -0.142988 -0.190841 95.000000
3.079155 -0.175774 -0.189825 95.000000
3.042134 -0.206880 -0.187581 34.000000
2.965086 -0.233995 -0.182976 10.000000
2.917713 -0.262258 -0.180123 10.000000
2.879910 -0.290372 -0.177887 9.000000
2.851749 -0.318928 -0.176266 9.000000
2.833292 -0.348074 -0.175172 9.000000
2.779900 -0.372260 -0.172023 9.000000
2.790515 -0.404594 -0.172855 22.000000
2.771153 -0.432545 -0.171766 16.000000
2.667822 -0.446181 -0.165571 8.000000
2.697251 -0.481263 -0.167542 24.000000
2.706599 -0.513373 -0.168373 61.000000
2.681300 -0.538835 -0.166985 42.000000
2.645988 -0.561634 -0.164992 70.000000
2.659184 -0.594688 -0.166043 31.000000
2.740051 -0.644070 -0.171345 28.000000
2.795900 -0.689290 -0.175118 26.000000
2.918713 -0.753341 -0.183128 32.000000
2.939329 -0.792844 -0.184761 54.000000
3.012252 -0.847564 -0.189623 86.000000
3.002876 -0.880188 -0.189432 91.000000
2.950154 -0.899710 -0.186524 95.000000
2.925980 -0.927155 -0.185337 83.000000
2.901528 -0.954289 -0.184246 95.000000
2.900517 -0.988700 -0.184567 79.000000
2.851999 -1.006887 -0.181885 35.000000
2.817462 -1.029300 -0.180201 95.000000
2.806091 -1.059838 -0.179926 95.000000
2.766546 -1.079400 -0.177857 80.000000
2.750024 -1.107587 -0.177286 94.000000
2.733269 -1.135491 -0.176716 95.000000
2.702429 -1.157311 -0.175255 95.000000
2.676147 -1.180208 -0.174094 77.000000
2.663092 -1.209269 -0.173736 37.000000
2.663424 -1.244489 -0.174356 62.000000
2.663259 -1.279915 -0.174973 64.000000
2.658117 -1.313243 -0.175202 81.000000
2.648157 -1.344324 -0.175224 68.000000
2.642210 -1.377720 -0.175449 42.000000
2.622687 -1.404059 -0.174882 36.000000
2.629100 -1.444542 -0.175983 28.000000
2.591494 -1.460808 -0.174246 10.000000
2.588452 -1.496495 -0.174757 14.000000
2.593469 -1.537372 -0.175847 10.000000
2.602478 -1.580568 -0.177129 10.000000
2.589403 -1.611501 -0.177046 10.000000
2.601152 -1.658348 -0.178697 9.000000
2.616293 -1.708471 -0.180628 9.000000
2.618319 -1.750809 -0.181686 9.000000
2.574348 -1.762390 -0.179577 8.000000
2.599957 -1.821843 -0.182252 10.000000
2.567796 -1.841356 -0.181006 9.000000
2.535535 -1.860507 -0.179668 9.000000
2.539012 -1.905981 -0.180991 10.000000
2.522106 -1.936680 -0.180789 9.000000
2.547931 -2.001090 -0.183799 7.000000
2.572651 -2.066331 -0.186693 5.000000
2.461230 -2.021398 -0.179710 2.000000
2.454326 -2.061010 -0.180347 2.000000
2.446847 -2.100663 -0.180978 2.000000
2.435136 -2.137156 -0.181323 1.000000
2.385655 -2.140261 -0.178878 2.000000
2.391579 -2.193214 -0.180611 1.000000
2.305655 -2.161160 -0.175307 1.000000
2.314437 -2.217259 -0.177310 1.000000
2.218798 -2.172482 -0.171312 2.000000
2.177331 -2.178932 -0.169370 6.000000
1.968527 -2.013364 -0.154391 8.000000
1.822251 -1.904831 -0.144053 8.000000
1.664916 -1.778770 -0.132693 9.000000
1.545093 -1.685632 -0.124116 9.000000
1.446711 -1.613129 -0.117215 9.000000
1.356653 -1.546257 -0.110896 9.000000
1.264950 -1.473767 -0.104349 9.000000
1.245713 -1.483595 -0.103726 21.000000
1.210537 -1.473885 -0.101772 30.000000
1.185069 -1.475322 -0.100626 31.000000
1.153627 -1.468470 -0.098956 32.000000
1.137591 -1.480911 -0.098556 32.000000
1.124496 -1.497173 -0.098476 32.000000
1.105233 -1.505279 -0.097871 27.000000
1.106323 -1.541489 -0.099036 27.000000
1.089566 -1.553433 -0.098688 28.000000
1.072693 -1.565146 -0.098282 32.000000
1.052868 -1.572593 -0.097676 29.000000
1.038483 -1.588107 -0.097528 29.000000
1.026578 -1.607715 -0.097633 28.000000
1.011733 -1.623028 -0.097480 26.000000
0.994084 -1.633898 -0.097129 24.000000
0.953319 -1.606004 -0.094447 8.000000
1.196355 2.043300 -0.101981 6.000000
1.190210 1.983024 -0.099967 14.000000
1.195985 1.944426 -0.099020 18.000000
1.224963 1.943994 -0.100021 25.000000
1.235186 1.913800 -0.099500 17.000000
1.266867 1.916971 -0.100723 24.000000
1.276377 1.886525 -0.100195 27.000000
1.299677 1.876645 -0.100764 21.000000
1.322788 1.866495 -0.101334 23.000000
1.351782 1.864160 -0.102349 11.000000
1.357020 1.829330 -0.101587 18.000000
1.376781 1.814440 -0.101865 24.000000
1.393340 1.795464 -0.101989 20.000000
1.412780 1.780190 -0.102336 26.000000
1.428864 1.760829 -0.102388 24.000000
1.441467 1.737554 -0.102282 18.000000
1.476450 1.740806 -0.103692 26.000000
1.505093 1.735950 -0.104724 10.000000
1.500714 1.693289 -0.103407 29.000000
1.515679 1.673137 -0.103455 31.000000
1.543928 1.667579 -0.104488 27.000000
1.561980 1.650638 -0.104766 33.000000
1.579892 1.633490 -0.105044 27.000000
1.601107 1.619755 -0.105553 28.000000
1.615092 1.598707 -0.105599 30.000000
1.639554 1.587952 -0.106342 10.000000
1.660404 1.573397 -0.106855 32.000000
1.673793 1.551831 -0.106900 34.000000
1.694298 1.536777 -0.107344 26.000000
1.710931 1.518187 -0.107623 35.000000
1.742440 1.512554 -0.108845 31.000000
1.762672 1.496682 -0.109293 32.000000
1.782693 1.480515 -0.109812 35.000000
1.779381 1.445231 -0.108909 11.000000
1.810713 1.438185 -0.110070 33.000000
1.842033 1.430587 -0.111235 33.000000
1.857497 1.410420 -0.111520 28.000000
1.888786 1.401947 -0.112690 35.000000
1.904023 1.381248 -0.112906 29.000000
1.927120 1.366183 -0.113602 29.000000
1.941843 1.345108 -0.113819 36.000000
1.944014 1.315421 -0.113312 12.000000
1.974879 1.305135 -0.114493 35.000000
2.009964 1.297121 -0.115920 52.000000
2.019699 1.272459 -0.115897 30.000000
2.050206 1.261264 -0.117087 50.000000
2.063812 1.238832 -0.117308 34.000000
2.081508 1.218776 -0.117773 30.000000
2.103300 1.201029 -0.118408 34.000000
2.129341 1.185300 -0.119364 18.000000
2.137759 1.159687 -0.119342 35.000000
2.154658 1.138687 -0.119736 37.000000
2.180191 1.122012 -0.120622 33.000000
2.201183 1.102660 -0.121339 53.000000
2.248981 1.096167 -0.123461 47.000000
2.287828 1.084461 -0.125094 34.000000
2.313116 1.065820 -0.126068 36.000000
2.297208 1.028364 -0.124739 16.000000
2.349424 1.021288 -0.127123 33.000000
2.378787 1.003455 -0.128272 41.000000
2.403381 0.983173 -0.129175 31.000000
2.423218 0.960749 -0.129831 34.000000
2.447399 0.939915 -0.130737 32.000000
2.485579 0.923757 -0.132393 32.000000
2.509562 0.901761 -0.133223 32.000000
2.523895 0.876020 -0.133636 18.000000
2.538018 0.850177 -0.134049 35.000000
2.566104 0.828671 -0.135132 69.000000
2.593994 0.806753 -0.136299 51.000000
2.631332 0.787117 -0.137886 86.000000
2.673236 0.768153 -0.139811 43.000000
2.691023 0.741825 -0.140398 39.000000
2.708612 0.715117 -0.141072 35.000000
2.740440 0.691782 -0.142415 6.000000
2.752635 0.663069 -0.142754 8.000000
2.788846 0.639834 -0.144352 9.000000
2.810215 0.612773 -0.145195 9.000000
2.865620 0.592384 -0.147805 13.000000
2.915987 0.569797 -0.150166 37.000000
2.966177 0.546251 -0.152530 33.000000
2.957222 0.511441 -0.151864 21.000000
3.036575 0.491213 -0.155748 9.000000
3.041650 0.458221 -0.155748 12.000000
3.110736 0.434108 -0.159131 34.000000
3.154966 0.405415 -0.161155 92.000000
3.174023 0.372852 -0.162012 89.000000
3.192826 0.339965 -0.162771 90.000000
3.181347 0.303809 -0.162109 33.000000
3.179497 0.268720 -0.161856 32.000000
3.162307 0.232738 -0.160843 8.000000
3.194534 0.200215 -0.162363 8.000000
3.131759 0.162136 -0.159070 9.000000
3.198153 0.130770 -0.162460 24.000000
3.169477 0.095052 -0.160843 31.000000
3.175245 0.060654 -0.161096 31.000000
3.180723 0.026244 -0.161349 32.000000
3.190807 -0.008385 -0.161856 48.000000
3.140585 -0.042422 -0.159323 40.000000
3.125033 -0.076225 -0.158468 84.000000
3.118992 -0.109959 -0.158215 84.000000
3.082739 -0.142298 -0.156348 60.000000
3.061006 -0.174636 -0.155336 78.000000
3.004143 -0.204171 -0.152461 10.000000
2.966904 -0.234086 -0.150601 8.000000
2.884601 -0.259131 -0.146469 9.000000
2.846901 -0.286955 -0.144614 8.000000
2.843579 -0.317906 -0.144527 9.000000
2.830081 -0.347552 -0.143935 22.000000
2.821211 -0.377559 -0.143596 27.000000
2.782355 -0.403247 -0.141747 32.000000
2.723529 -0.424933 -0.138893 9.000000
2.669476 -0.446263 -0.136294 6.000000
2.679262 -0.477923 -0.136882 21.000000
2.678846 -0.507876 -0.137050 32.000000
2.668284 -0.535969 -0.136716 37.000000
2.667182 -0.565945 -0.136800 67.000000
2.641357 -0.590414 -0.135632 25.000000
2.712604 -0.637388 -0.139551 29.000000
2.758872 -0.679907 -0.142128 21.000000
2.973745 -0.767249 -0.153431 23.000000
2.926726 -0.789130 -0.151342 38.000000
2.985322 -0.839642 -0.154549 58.000000
2.966451 -0.869146 -0.153862 75.000000
2.932933 -0.894074 -0.152432 59.000000
2.923096 -0.925834 -0.152245 68.000000
2.893907 -0.951263 -0.151067 83.000000
2.873935 -0.979409 -0.150386 42.000000
2.820791 -0.995622 -0.147977 24.000000
2.842659 -1.038234 -0.149521 88.000000
2.817177 -1.063733 -0.148505 77.000000
2.754404 -1.074048 -0.145615 50.000000
2.737938 -1.101993 -0.145099 71.000000
2.721242 -1.129747 -0.144673 36.000000
2.708818 -1.159276 -0.144403 40.000000
2.700604 -1.190639 -0.144467 26.000000
2.660243 -1.207562 -0.142733 10.000000
2.696805 -1.259643 -0.145144 37.000000
2.705399 -1.299648 -0.146087 29.000000
2.691184 -1.329085 -0.145903 35.000000
2.672058 -1.355988 -0.145386 25.000000
2.648369 -1.380393 -0.144627 14.000000
2.642029 -1.413757 -0.144836 12.000000
2.643975 -1.452122 -0.145526 9.000000
2.628030 -1.480784 -0.145249 9.000000
2.646310 -1.529346 -0.146799 9.000000
2.638094 -1.563200 -0.146998 8.000000
2.633755 -1.599553 -0.147434 9.000000
2.650452 -1.648712 -0.148964 9.000000
2.649275 -1.688249 -0.149629 8.000000
2.634837 -1.719772 -0.149483 9.000000
2.649215 -1.770524 -0.151089 8.000000
2.662719 -1.821902 -0.152589 6.000000
2.618262 -1.833594 -0.150879 7.000000
2.618344 -1.876657 -0.151664 7.000000
2.569582 -1.884425 -0.149629 8.000000
2.556836 -1.918262 -0.149805 9.000000
2.531878 -1.943053 -0.149181 8.000000
2.573385 -2.019890 -0.152516 5.000000
2.539613 -2.038395 -0.151420 2.000000
2.636912 -2.164285 -0.158202 1.000000
2.486893 -2.086990 -0.150162 1.000000
2.418493 -2.074941 -0.147000 1.000000
2.519629 -2.209910 -0.154092 1.000000
2.454556 -2.200571 -0.151163 1.000000
2.345691 -2.149544 -0.145506 1.000000
2.314878 -2.168182 -0.144662 1.000000
2.547314 -2.438509 -0.160298 1.000000
2.184994 -2.137742 -0.138582 1.000000
2.211097 -2.210906 -0.141274 5.000000
1.991295 -2.034956 -0.128288 6.000000
1.868850 -1.951896 -0.121349 8.000000
1.700629 -1.815372 -0.111324 8.000000
1.562667 -1.704882 -0.103146 8.000000
1.464048 -1.632518 -0.097532 8.000000
1.373753 -1.565723 -0.092326 8.000000
1.278557 -1.489641 -0.086712 8.000000
1.243034 -1.480480 -0.085093 10.000000
1.207891 -1.470724 -0.083483 19.000000
1.176205 -1.464275 -0.082101 22.000000
1.154141 -1.469098 -0.081322 27.000000
1.141148 -1.485558 -0.081253 22.000000
1.118954 -1.489871 -0.080535 31.000000
1.102734 -1.501937 -0.080251 21.000000
1.103874 -1.538126 -0.081194 16.000000
1.087161 -1.550039 -0.080905 25.000000
1.070275 -1.561721 -0.080616 21.000000
1.053272 -1.573287 -0.080269 25.000000
1.036155 -1.584622 -0.079980 25.000000
1.021609 -1.599994 -0.079843 21.000000
1.012142 -1.623671 -0.080123 24.000000
0.997090 -1.638867 -0.080039 17.000000
0.994519 -1.675365 -0.080933 8.000000
1.175272 2.004504 -0.079113 8.000000
1.173746 1.953043 -0.077860 18.000000
1.194899 1.940171 -0.078069 25.000000
1.218508 1.931316 -0.078519 27.000000
1.234004 1.909603 -0.078453 30.000000
1.254624 1.896065 -0.078731 28.000000
1.275105 1.882387 -0.079008 27.000000
1.303989 1.880752 -0.079809 32.000000
1.318473 1.858345 -0.079669 23.000000
1.332711 1.835854 -0.079597 28.000000
1.340607 1.805260 -0.079170 30.000000
1.363130 1.794544 -0.079553 23.000000
1.388598 1.787572 -0.080182 33.000000
1.411060 1.776278 -0.080567 31.000000
1.430250 1.760829 -0.080844 32.000000
1.452423 1.749087 -0.081230 35.000000
1.474541 1.736997 -0.081687 24.000000
1.483503 1.709533 -0.081357 31.000000
1.495396 1.685813 -0.081273 33.000000
1.513633 1.669504 -0.081479 31.000000
1.545248 1.667579 -0.082410 42.000000
1.559863 1.647080 -0.082437 36.000000
1.574191 1.626379 -0.082463 35.000000
1.595332 1.612720 -0.082922 37.000000
1.616341 1.598707 -0.083313 29.000000
1.637219 1.584547 -0.083705 32.000000
1.661592 1.573466 -0.084282 36.000000
1.671313 1.548435 -0.084122 34.000000
1.695486 1.536847 -0.084631 60.000000
1.708450 1.514942 -0.084655 35.000000
1.743709 1.512624 -0.085793 59.000000
1.756254 1.490287 -0.085818 53.000000
1.772363 1.471084 -0.086030 32.000000
1.768934 1.435924 -0.085236 32.000000
1.815757 1.441362 -0.086943 35.000000
1.834925 1.425098 -0.087344 32.000000
1.846343 1.401997 -0.087297 50.000000
1.881625 1.396638 -0.088453 34.000000
1.880548 1.364291 -0.087840 37.000000
1.923838 1.363871 -0.089379 56.000000
1.934495 1.339996 -0.089333 30.000000
1.961354 1.327266 -0.090047 39.000000
1.988252 1.314050 -0.090835 35.000000
2.006643 1.294997 -0.091171 35.000000
2.024874 1.275706 -0.091508 62.000000
2.042871 1.256177 -0.091846 37.000000
2.064989 1.239052 -0.092375 41.000000
2.082687 1.218997 -0.092715 53.000000
2.087127 1.191271 -0.092477 27.000000
2.113069 1.175806 -0.093202 36.000000
2.143265 1.162217 -0.094121 55.000000
2.151357 1.136502 -0.094077 35.000000
2.181390 1.122236 -0.094999 71.000000
2.211321 1.107360 -0.095924 61.000000
2.236729 1.089831 -0.096582 39.000000
2.261976 1.071857 -0.097316 50.000000
2.296133 1.057693 -0.098442 33.000000
2.302922 1.030636 -0.098325 32.000000
2.327765 1.011566 -0.099064 35.000000
2.356953 0.993984 -0.099922 34.000000
2.376905 0.972064 -0.100469 42.000000
2.405835 0.953624 -0.101330 36.000000
2.444097 0.938204 -0.102664 35.000000
2.454091 0.911579 -0.102744 52.000000
2.477952 0.889940 -0.103412 28.000000
2.525119 0.876265 -0.105145 35.000000
2.543982 0.852009 -0.105620 62.000000
2.567340 0.828918 -0.106293 72.000000
2.590468 0.805518 -0.106966 81.000000
2.608659 0.780211 -0.107526 75.000000
2.636182 0.757371 -0.108399 53.000000
2.668306 0.735274 -0.109471 80.000000
2.666506 0.703729 -0.109076 19.000000
2.664314 0.672310 -0.108765 8.000000
2.705448 0.651544 -0.110234 9.000000
2.751289 0.631073 -0.111903 9.000000
2.767689 0.603372 -0.112386 9.000000
2.813232 0.581352 -0.114059 9.000000
2.843890 0.555609 -0.115051 9.000000
2.893951 0.532775 -0.116926 13.000000
2.899613 0.501319 -0.116926 9.000000
2.949212 0.477042 -0.118804 9.000000
2.998693 0.451619 -0.120685 9.000000
3.023208 0.421778 -0.121480 9.000000
3.082191 0.395963 -0.123667 10.000000
3.135891 0.368287 -0.125752 26.000000
3.204332 0.341121 -0.128339 60.000000
3.237616 0.309130 -0.129532 95.000000
3.255730 0.275128 -0.130129 33.000000
3.293401 0.242368 -0.131522 49.000000
3.290836 0.206250 -0.131424 30.000000
3.292950 0.170398 -0.131424 62.000000
3.279586 0.134035 -0.130726 95.000000
3.270902 0.098046 -0.130328 92.000000
3.256816 0.062279 -0.129731 84.000000
3.252218 0.026820 -0.129532 95.000000
3.212351 -0.008438 -0.127941 81.000000
3.152208 -0.042557 -0.125457 95.000000
3.121567 -0.076103 -0.124264 61.000000
3.085568 -0.108727 -0.122872 65.000000
3.069276 -0.141607 -0.122182 95.000000
3.012719 -0.171792 -0.119996 79.000000
2.960755 -0.201124 -0.117919 10.000000
2.908594 -0.229373 -0.115845 9.000000
2.876153 -0.258237 -0.114655 15.000000
2.907951 -0.293053 -0.115954 42.000000
2.884698 -0.322344 -0.115072 62.000000
2.821558 -0.346422 -0.112609 67.000000
2.812699 -0.376321 -0.112324 86.000000
2.773841 -0.401815 -0.110854 36.000000
2.724877 -0.425017 -0.109076 9.000000
2.695437 -0.450464 -0.107921 9.000000
2.680592 -0.477923 -0.107443 19.000000
2.680179 -0.507959 -0.107557 62.000000
2.659735 -0.534085 -0.106883 78.000000
2.639191 -0.559808 -0.106210 67.000000
2.647556 -0.591586 -0.106635 75.000000
2.684784 -0.630619 -0.108318 27.000000
2.755410 -0.678799 -0.111371 26.000000
2.825274 -0.728663 -0.114330 34.000000
2.904088 -0.782629 -0.117762 33.000000
2.972314 -0.835775 -0.120703 94.000000
2.972662 -0.870834 -0.120999 98.000000
2.934432 -0.894261 -0.119641 98.000000
2.910212 -0.921590 -0.118870 95.000000
2.895303 -0.951543 -0.118582 95.000000
2.894337 -0.986133 -0.118784 95.000000
2.826965 -0.997284 -0.116272 76.000000
2.792512 -1.019388 -0.115121 52.000000
2.767322 -1.044329 -0.114360 58.000000
2.760414 -1.076043 -0.114373 36.000000
2.757921 -1.109724 -0.114577 39.000000
2.764123 -1.147255 -0.115164 59.000000
2.769884 -1.185003 -0.115749 34.000000
2.793486 -1.231211 -0.117098 35.000000
2.739019 -1.242838 -0.115190 31.000000
2.738914 -1.278849 -0.115579 26.000000
2.697858 -1.295597 -0.114250 23.000000
2.714961 -1.340327 -0.115308 10.000000
2.718082 -1.378773 -0.115883 9.000000
2.720634 -1.417514 -0.116455 9.000000
2.691864 -1.439863 -0.115607 8.000000
2.706768 -1.485969 -0.116743 8.000000
2.707773 -1.525103 -0.117213 8.000000
2.747313 -1.587016 -0.119469 9.000000
2.712676 -1.606577 -0.118428 10.000000
2.707870 -1.643818 -0.118798 9.000000
2.689779 -1.673227 -0.118507 9.000000
2.675612 -1.705128 -0.118404 7.000000
2.690384 -1.756045 -0.119699 5.000000
2.696079 -1.801842 -0.120519 3.000000
2.560810 -1.752153 -0.115035 2.000000
2.590687 -1.814312 -0.116968 1.000000
2.627648 -1.883266 -0.119259 2.000000
2.631091 -1.929526 -0.120066 2.000000
2.701792 -2.027092 -0.123986 5.000000
2.671688 -2.050303 -0.123310 5.000000
2.582947 -2.026158 -0.119899 2.000000
2.591872 -2.079139 -0.121055 1.000000
2.410744 -1.977422 -0.113210 1.000000
2.400521 -2.013143 -0.113468 1.000000
2.348074 -2.013148 -0.111737 1.000000
2.450074 -2.147334 -0.117395 1.000000
2.311125 -2.070537 -0.111434 1.000000
2.233201 -2.045028 -0.108465 1.000000
2.283788 -2.137451 -0.111663 1.000000
2.393987 -2.289988 -0.117959 1.000000
2.115215 -2.067881 -0.104966 1.000000
2.173934 -2.172057 -0.108762 3.000000
2.073274 -2.117069 -0.104510 6.000000
1.887622 -1.969936 -0.095893 8.000000
1.743086 -1.859116 -0.089337 8.000000
1.594411 -1.738022 -0.082393 8.000000
1.475334 -1.643674 -0.076886 8.000000
1.417827 -1.614534 -0.074536 8.000000
1.302551 -1.516113 -0.069092 9.000000
1.241000 -1.476655 -0.066438 9.000000
1.205881 -1.466864 -0.065173 16.000000
1.189935 -1.479852 -0.064941 24.000000
1.161460 -1.476954 -0.064028 22.000000
1.139246 -1.481539 -0.063459 26.000000
1.126156 -1.497803 -0.063400 23.000000
1.112808 -1.513960 -0.063340 17.000000
1.093426 -1.521835 -0.062943 20.000000
1.099863 -1.566340 -0.064052 19.000000
1.065892 -1.553480 -0.062760 24.000000
1.074022 -1.602286 -0.064023 21.000000
1.059325 -1.618011 -0.063953 20.000000
1.031019 -1.612567 -0.063000 25.000000
1.016133 -1.627851 -0.062930 18.000000
1.000979 -1.643076 -0.062800 16.000000
0.972906 -1.636702 -0.061915 7.000000
1.180612 2.013624 -0.058361 8.000000
1.168875 1.945031 -0.056944 29.000000
1.197798 1.944983 -0.057529 28.000000
1.210856 1.919192 -0.057360 32.000000
1.234282 1.910158 -0.057625 31.000000
1.252144 1.892452 -0.057706 31.000000
1.272580 1.878805 -0.057914 38.000000
1.304268 1.881311 -0.058564 35.000000
1.315929 1.854825 -0.058389 32.000000
1.324179 1.824273 -0.058013 34.000000
1.337970 1.801796 -0.057961 32.000000
1.369520 1.803056 -0.058685 35.000000
1.385947 1.784109 -0.058693 32.000000
1.405189 1.769004 -0.058831 35.000000
1.430596 1.761384 -0.059299 36.000000
1.446453 1.741951 -0.059307 37.000000
1.465255 1.726122 -0.059514 35.000000
1.477366 1.702536 -0.059389 36.000000
1.495809 1.686364 -0.059527 35.000000
1.524117 1.681094 -0.060131 59.000000
1.538870 1.660802 -0.060136 37.000000
1.553405 1.640307 -0.060142 48.000000
1.578152 1.630523 -0.060546 45.000000
1.606362 1.623865 -0.061086 57.000000
1.623934 1.606292 -0.061295 46.000000
1.630523 1.578082 -0.061031 34.000000
1.654893 1.567083 -0.061439 44.000000
1.657205 1.535404 -0.061038 74.000000
1.692342 1.534049 -0.061853 57.000000
1.708938 1.515500 -0.061992 62.000000
1.732876 1.503292 -0.062404 56.000000
1.749195 1.484312 -0.062474 43.000000
1.769080 1.468384 -0.062750 68.000000
1.765610 1.433261 -0.062207 27.000000
1.796751 1.426321 -0.062894 44.000000
1.820126 1.412769 -0.063309 76.000000
1.839371 1.395883 -0.063517 42.000000
1.854457 1.375792 -0.063658 56.000000
1.877424 1.361357 -0.064075 53.000000
1.912540 1.355202 -0.064837 44.000000
1.923102 1.331460 -0.064841 69.000000
1.941667 1.313266 -0.065123 26.000000
1.964177 1.297521 -0.065473 37.000000
1.978191 1.276032 -0.065616 70.000000
2.013064 1.267716 -0.066385 43.000000
2.031049 1.248398 -0.066671 62.000000
2.061659 1.236482 -0.067303 67.000000
2.074944 1.213950 -0.067376 44.000000
2.096764 1.196298 -0.067804 42.000000
2.122690 1.180665 -0.068299 29.000000
2.122264 1.150383 -0.067951 35.000000
2.152323 1.136576 -0.068663 65.000000
2.182289 1.122311 -0.069302 59.000000
2.216697 1.109673 -0.070083 58.000000
2.224161 1.083341 -0.070017 55.000000
2.249344 1.065515 -0.070518 42.000000
2.269821 1.045227 -0.070953 52.000000
2.299285 1.028749 -0.071598 27.000000
2.328695 1.011644 -0.072244 35.000000
2.353285 0.992121 -0.072748 41.000000
2.363967 0.966546 -0.072826 35.000000
2.392845 0.948180 -0.073475 37.000000
2.421726 0.929331 -0.074125 52.000000
2.459736 0.913479 -0.074982 33.000000
2.478917 0.890101 -0.075348 34.000000
2.493047 0.864961 -0.075571 29.000000
2.535486 0.848999 -0.076655 62.000000
2.554060 0.824477 -0.077023 73.000000
2.577145 0.801233 -0.077536 44.000000
2.604868 0.778945 -0.078110 67.000000
2.622776 0.753316 -0.078481 64.000000
2.650047 0.730133 -0.079140 49.000000
2.662684 0.702622 -0.079284 21.000000
2.679859 0.676146 -0.079656 8.000000
2.682173 0.645864 -0.079512 8.000000
2.727966 0.625659 -0.080750 9.000000
2.763931 0.602394 -0.081615 9.000000
2.794708 0.577395 -0.082423 9.000000
2.825332 0.551865 -0.083145 9.000000
2.855797 0.525627 -0.083955 9.000000
2.930241 0.506607 -0.085978 28.000000
2.984935 0.482719 -0.087423 27.000000
2.990012 0.450316 -0.087515 10.000000
3.019470 0.421181 -0.088239 9.000000
3.068459 0.394148 -0.089540 9.000000
3.122157 0.366635 -0.090987 9.000000
3.155815 0.335832 -0.091855 10.000000
3.199106 0.305331 -0.093012 62.000000
3.256927 0.275228 -0.094603 60.000000
3.334486 0.245301 -0.096773 95.000000
3.352002 0.210000 -0.097207 94.000000
3.369026 0.174374 -0.097641 98.000000
3.345706 0.136687 -0.096918 95.000000
3.297079 0.098895 -0.095471 81.000000
3.258010 0.062279 -0.094314 75.000000
3.228521 0.026614 -0.093446 72.000000
3.188637 -0.008372 -0.092191 55.000000
3.143368 -0.042422 -0.090891 61.000000
3.117715 -0.075981 -0.090168 84.000000
3.076804 -0.108375 -0.088918 66.000000
3.045439 -0.140456 -0.088052 59.000000
2.998856 -0.170939 -0.086753 38.000000
2.971906 -0.201801 -0.085941 31.000000
2.939647 -0.231729 -0.085075 18.000000
2.922012 -0.262348 -0.084553 59.000000
2.884158 -0.290549 -0.083456 53.000000
2.841147 -0.317438 -0.082305 50.000000
2.812679 -0.345204 -0.081499 62.000000
2.793924 -0.373757 -0.080982 68.000000
2.769922 -0.401184 -0.080408 68.000000
2.735764 -0.426642 -0.079462 9.000000
2.632355 -0.439839 -0.076512 7.000000
2.656989 -0.473621 -0.077289 16.000000
2.656626 -0.503308 -0.077349 49.000000
2.631411 -0.528183 -0.076696 62.000000
2.630401 -0.557735 -0.076756 86.000000
2.609529 -0.583034 -0.076247 35.000000
2.671198 -0.627275 -0.078158 30.000000
2.722480 -0.670605 -0.079781 25.000000
2.865061 -0.738735 -0.084099 20.000000
2.880970 -0.776311 -0.084718 52.000000
2.954200 -0.830553 -0.087037 80.000000
2.954612 -0.865310 -0.087227 100.000000
2.930682 -0.892992 -0.086615 95.000000
2.901801 -0.918667 -0.085957 95.000000
2.867931 -0.942275 -0.085159 79.000000
2.862247 -0.974946 -0.085207 47.000000
2.809210 -0.990726 -0.083758 15.000000
2.831163 -1.033186 -0.084650 48.000000
2.805725 -1.058533 -0.084045 36.000000
2.836009 -1.105262 -0.085213 45.000000
2.814655 -1.132197 -0.084748 35.000000
2.811384 -1.166500 -0.084934 33.000000
2.793965 -1.195015 -0.084609 30.000000
2.794605 -1.231304 -0.084934 15.000000
2.762880 -1.253253 -0.084192 8.000000
2.789840 -1.302195 -0.085253 10.000000
2.762036 -1.325972 -0.084744 9.000000
2.769854 -1.366868 -0.085247 10.000000
2.777149 -1.408252 -0.085746 9.000000
2.775048 -1.445218 -0.085968 9.000000
2.759191 -1.475307 -0.085872 9.000000
2.729808 -1.497991 -0.085271 6.000000
2.730783 -1.537363 -0.085627 6.000000
2.752901 -1.589515 -0.086662 9.000000
2.748336 -1.626946 -0.086876 8.000000
2.734766 -1.659375 -0.086816 6.000000
2.771683 -1.723372 -0.088381 6.000000
2.744320 -1.747993 -0.087911 4.000000
2.691660 -1.755946 -0.086635 3.000000
2.676586 -1.787961 -0.086573 2.000000
2.669309 -1.825413 -0.086779 1.000000
2.641079 -1.848706 -0.086314 2.000000
2.661437 -1.906452 -0.087452 2.000000
2.620392 -1.920563 -0.086586 2.000000
2.611263 -1.958023 -0.086687 3.000000
2.681059 -2.056283 -0.089534 4.000000
2.509029 -1.968147 -0.084306 2.000000
2.475721 -1.986022 -0.083716 1.000000
2.508022 -2.057240 -0.085264 1.000000
2.366818 -1.984906 -0.081003 2.000000
2.291912 -1.965009 -0.078892 1.000000
2.262828 -1.983304 -0.078447 1.000000
2.263486 -2.027842 -0.079043 1.000000
2.263338 -2.072587 -0.079542 1.000000
2.258912 -2.114212 -0.080001 1.000000
2.282726 -2.183590 -0.081392 1.000000
2.194477 -2.145477 -0.078792 1.000000
2.118016 -2.116188 -0.076685 2.000000
2.122870 -2.167698 -0.077431 6.000000
1.905497 -1.988564 -0.070035 8.000000
1.777740 -1.896124 -0.065936 8.000000
1.499110 -1.670184 -0.056522 9.000000
1.395133 -1.588703 -0.053056 9.000000
1.312628 -1.527976 -0.050363 8.000000
1.241354 -1.477067 -0.048062 9.000000
1.209345 -1.471131 -0.047323 15.000000
1.193357 -1.484154 -0.047148 25.000000
1.167926 -1.485214 -0.046604 26.000000
1.139588 -1.481938 -0.045940 26.000000
1.120434 -1.490213 -0.045646 29.000000
1.107174 -1.506306 -0.045540 25.000000
1.102462 -1.534471 -0.045854 18.000000
1.080048 -1.538114 -0.045439 26.000000
1.063295 -1.549761 -0.045267 22.000000
1.068750 -1.594394 -0.046055 26.000000
1.045930 -1.597515 -0.045640 22.000000
1.025868 -1.604553 -0.045346 26.000000
1.016367 -1.628320 -0.045469 21.000000
1.006415 -1.652025 -0.045647 18.000000
0.947597 -1.594141 -0.043590 8.000000
1.170641 1.996801 -0.037020 8.000000
1.163933 1.936808 -0.036278 27.000000
1.187521 1.928305 -0.036427 29.000000
1.205660 1.911151 -0.036485 28.000000
1.239916 1.918903 -0.036958 32.000000
1.252352 1.892867 -0.036854 33.000000
1.275591 1.883290 -0.037005 36.000000
1.298851 1.873444 -0.037225 32.000000
1.313244 1.851095 -0.037131 32.000000
1.318581 1.816526 -0.036859 29.000000
1.338176 1.802139 -0.036928 32.000000
1.363680 1.795508 -0.037161 36.000000
1.386154 1.784523 -0.037382 35.000000
1.399246 1.761520 -0.037285 32.000000
1.421418 1.750157 -0.037505 34.000000
1.443536 1.738451 -0.037657 35.000000
1.468766 1.730279 -0.037893 31.000000
1.474365 1.699173 -0.037697 31.000000
1.489450 1.679297 -0.037682 35.000000
1.521036 1.677806 -0.038086 39.000000
1.535749 1.657480 -0.038071 37.000000
1.557118 1.644351 -0.038294 49.000000
1.574952 1.627277 -0.038363 45.000000
1.592578 1.610066 -0.038432 37.000000
1.624213 1.606641 -0.038841 39.000000
1.641646 1.588859 -0.038911 44.000000
1.633392 1.546875 -0.038383 52.000000
1.650146 1.528954 -0.038521 48.000000
1.681579 1.524325 -0.038932 40.000000
1.713027 1.519166 -0.039345 75.000000
1.706794 1.480780 -0.038899 52.000000
1.738110 1.475028 -0.039313 60.000000
1.773347 1.471928 -0.039814 63.000000
1.769839 1.436759 -0.039452 32.000000
1.789340 1.420454 -0.039608 36.000000
1.816528 1.410056 -0.039938 41.000000
1.835812 1.393214 -0.040096 58.000000
1.846851 1.370117 -0.040079 49.000000
1.869755 1.355771 -0.040253 52.000000
1.880339 1.332438 -0.040236 41.000000
1.902980 1.317589 -0.040481 37.000000
1.929673 1.305150 -0.040815 35.000000
1.960437 1.295125 -0.041237 59.000000
1.974422 1.273682 -0.041309 51.000000
1.996652 1.257423 -0.041484 64.000000
2.001674 1.230365 -0.041380 61.000000
2.053525 1.231633 -0.042246 69.000000
2.071142 1.211792 -0.042407 52.000000
2.088522 1.191638 -0.042496 48.000000
2.123209 1.181036 -0.043011 34.000000
2.113990 1.145913 -0.042642 53.000000
2.139508 1.129870 -0.042908 50.000000
2.173922 1.118038 -0.043426 64.000000
2.199346 1.101024 -0.043768 54.000000
2.220196 1.081454 -0.043946 57.000000
2.254393 1.067959 -0.044467 59.000000
2.270355 1.045532 -0.044556 55.000000
2.286134 1.022855 -0.044721 30.000000
2.315482 1.005978 -0.045155 57.000000
2.330877 0.982722 -0.045245 48.000000
2.369141 0.968672 -0.045859 56.000000
2.393474 0.948494 -0.046128 37.000000
2.403611 0.922483 -0.046128 37.000000
2.469669 0.917200 -0.047283 57.000000
2.479480 0.890342 -0.047283 34.000000
2.493772 0.865041 -0.047454 35.000000
2.521918 0.844319 -0.047813 64.000000
2.549958 0.823024 -0.048173 80.000000
2.573113 0.799749 -0.048524 80.000000
2.600743 0.777513 -0.048885 84.000000
2.618638 0.752019 -0.049065 69.000000
2.641080 0.727562 -0.049418 61.000000
2.629522 0.693779 -0.049058 10.000000
2.656298 0.670116 -0.049418 8.000000
2.673126 0.643608 -0.049599 9.000000
2.714032 0.622392 -0.050315 9.000000
2.754853 0.600352 -0.050947 9.000000
2.790596 0.576471 -0.051489 9.000000
2.816310 0.550037 -0.051851 9.000000
2.856507 0.525716 -0.052483 9.000000
2.891559 0.499796 -0.053025 18.000000
3.005413 0.485910 -0.055012 57.000000
3.005581 0.452549 -0.055015 52.000000
3.025166 0.421964 -0.055286 33.000000
3.054339 0.392238 -0.055739 15.000000
3.068405 0.360318 -0.055919 9.000000
3.136706 0.333813 -0.057096 9.000000
3.209843 0.306379 -0.058264 61.000000
3.312620 0.279857 -0.060071 33.000000
3.345376 0.246137 -0.060613 85.000000
3.357812 0.210415 -0.060793 98.000000
3.369850 0.174374 -0.060974 95.000000
3.346626 0.136789 -0.060522 95.000000
3.302882 0.099045 -0.059709 32.000000
3.243812 0.061992 -0.058526 15.000000
3.204315 0.026408 -0.057805 44.000000
3.144424 -0.008254 -0.056723 66.000000
3.129140 -0.042220 -0.056452 79.000000
3.088491 -0.075157 -0.055637 36.000000
3.032592 -0.106792 -0.054646 26.000000
2.986259 -0.137693 -0.053836 10.000000
2.949679 -0.168094 -0.053116 9.000000
2.957671 -0.200785 -0.053295 42.000000
2.900498 -0.228587 -0.052307 25.000000
2.912771 -0.261454 -0.052487 74.000000
2.855023 -0.287543 -0.051500 69.000000
2.821973 -0.315219 -0.050875 71.000000
2.818332 -0.345813 -0.050875 78.000000
2.784702 -0.372431 -0.050252 70.000000
2.760710 -0.399751 -0.049894 69.000000
2.716682 -0.423561 -0.049095 9.000000
2.638020 -0.440663 -0.047675 8.000000
2.647805 -0.471866 -0.047942 13.000000
2.652374 -0.502460 -0.048038 64.000000
2.622264 -0.526298 -0.047511 57.000000
2.596825 -0.550559 -0.047156 55.000000
2.600425 -0.580854 -0.047252 42.000000
2.647534 -0.621646 -0.048145 31.000000
2.708602 -0.667018 -0.049384 25.000000
2.793171 -0.720105 -0.050977 24.000000
2.857654 -0.769810 -0.052212 41.000000
2.930887 -0.823789 -0.053618 52.000000
2.950566 -0.863999 -0.054053 98.000000
2.907612 -0.885708 -0.053438 80.000000
2.893012 -0.915650 -0.053257 40.000000
2.882916 -0.946956 -0.053164 36.000000
2.900937 -0.987838 -0.053596 34.000000
2.875850 -1.014278 -0.053241 21.000000
2.897554 -1.057456 -0.053758 44.000000
2.881296 -1.087042 -0.053577 35.000000
2.855385 -1.112709 -0.053222 30.000000
2.861684 -1.151132 -0.053475 23.000000
2.844357 -1.180190 -0.053295 13.000000
2.831385 -1.211020 -0.053201 10.000000
2.850157 -1.255772 -0.053710 10.000000
2.850031 -1.292768 -0.053873 8.000000
2.840328 -1.325735 -0.053864 9.000000
2.857334 -1.371687 -0.054368 10.000000
2.837759 -1.400431 -0.054186 9.000000
2.862531 -1.451494 -0.054858 10.000000
2.828827 -1.473311 -0.054322 9.000000
2.808259 -1.501522 -0.054140 9.000000
2.712942 -1.488751 -0.052515 6.000000
2.700958 -1.520578 -0.052505 5.000000
2.796777 -1.614901 -0.054609 6.000000
2.804846 -1.660443 -0.054917 6.000000
2.803735 -1.701260 -0.055154 5.000000
2.780871 -1.729050 -0.054970 3.000000
2.723933 -1.735060 -0.054017 3.000000
2.696436 -1.759070 -0.053752 2.000000
2.756160 -1.841116 -0.055237 2.000000
2.719421 -1.859772 -0.054702 2.000000
2.678530 -1.874901 -0.054187 2.000000
2.597010 -1.860272 -0.052847 2.000000
2.560406 -1.876630 -0.052322 2.000000
2.591861 -1.943426 -0.053295 2.000000
2.673642 -2.050714 -0.055227 6.000000
2.482078 -1.947034 -0.051608 2.000000
2.425606 -1.945743 -0.050682 1.000000
2.365598 -1.940422 -0.049774 1.000000
2.294509 -1.924339 -0.048533 1.000000
2.292372 -1.965470 -0.048846 2.000000
2.270806 -1.990262 -0.048662 2.000000
2.267674 -2.031641 -0.048972 2.000000
2.237998 -2.049422 -0.048626 2.000000
2.295885 -2.148847 -0.050196 1.000000
2.236243 -2.139147 -0.049304 1.000000
2.087700 -2.041006 -0.046338 1.000000
2.090089 -2.088376 -0.046713 2.000000
2.126738 -2.171733 -0.047964 6.000000
1.926586 -2.010643 -0.043771 7.000000
1.815752 -1.936640 -0.041565 9.000000
1.656038 -1.805200 -0.038206 8.000000
1.539457 -1.715174 -0.035875 9.000000
1.438276 -1.637861 -0.033796 8.000000
1.335678 -1.554829 -0.031656 9.000000
1.251180 -1.488844 -0.029916 9.000000
1.215927 -1.479146 -0.029337 13.000000
1.190457 -1.480548 -0.028992 26.000000
1.171247 -1.489432 -0.028858 27.000000
1.139760 -1.482224 -0.028363 26.000000
1.123609 -1.494493 -0.028249 30.000000
1.104441 -1.502563 -0.028059 21.000000
1.093941 -1.522579 -0.028095 21.000000
1.083093 -1.542492 -0.028130 24.000000
1.063467 -1.550048 -0.027941 23.000000
1.043873 -1.557312 -0.027752 21.000000
1.037890 -1.585258 -0.027932 25.000000
1.026042 -1.604844 -0.027963 21.000000
1.013896 -1.624372 -0.027993 22.000000
1.006592 -1.652379 -0.028168 18.000000
0.955373 -1.607317 -0.027107 8.000000
1.158069 1.975446 -0.016004 8.000000
1.179453 1.962797 -0.016004 18.000000
1.187590 1.928582 -0.015829 25.000000
1.208465 1.915587 -0.015898 20.000000
1.229133 1.902384 -0.015898 29.000000
1.252421 1.893075 -0.015933 24.000000
1.278534 1.887707 -0.016073 24.000000
1.287527 1.857286 -0.015932 30.000000
1.307597 1.843216 -0.015932 17.000000
1.315713 1.812754 -0.015859 23.000000
1.335332 1.798330 -0.015859 26.000000
1.351722 1.779788 -0.015824 20.000000
1.377090 1.772884 -0.015963 30.000000
1.399384 1.761795 -0.015999 21.000000
1.418404 1.746483 -0.015999 30.000000
1.440411 1.734811 -0.016034 30.000000
1.472140 1.734368 -0.016246 23.000000
1.471226 1.695603 -0.016032 29.000000
1.489587 1.679502 -0.016032 25.000000
1.504385 1.659492 -0.015996 27.000000
1.532558 1.654089 -0.016172 32.000000
1.550450 1.637297 -0.016172 26.000000
1.571613 1.623892 -0.016208 31.000000
1.592716 1.610273 -0.016244 32.000000
1.599541 1.582306 -0.016205 19.000000
1.627416 1.575228 -0.016313 29.000000
1.640859 1.553957 -0.016277 27.000000
1.657687 1.535956 -0.016277 32.000000
1.681718 1.524533 -0.016349 43.000000
1.690793 1.499471 -0.016346 30.000000
1.722107 1.494093 -0.016490 36.000000
1.749755 1.484942 -0.016599 36.000000
1.761947 1.462559 -0.016563 29.000000
1.766166 1.433816 -0.016454 31.000000
1.777802 1.411338 -0.016418 27.000000
1.804891 1.401069 -0.016596 27.000000
1.820092 1.381334 -0.016596 35.000000
1.847061 1.370328 -0.016705 28.000000
1.861871 1.350113 -0.016705 35.000000
1.880550 1.332649 -0.016742 32.000000
1.907302 1.320647 -0.016851 24.000000
1.942311 1.313767 -0.017032 34.000000
1.956481 1.292512 -0.017032 26.000000
1.987241 1.282028 -0.017177 30.000000
1.984176 1.249646 -0.017104 35.000000
2.018926 1.241053 -0.017286 33.000000
2.049457 1.229280 -0.017432 36.000000
2.067047 1.209414 -0.017468 39.000000
2.071445 1.181946 -0.017395 24.000000
2.105955 1.171462 -0.017578 36.000000
2.118605 1.148516 -0.017578 34.000000
2.126540 1.123087 -0.017541 30.000000
2.165328 1.113614 -0.017760 52.000000
2.190704 1.096773 -0.017870 32.000000
2.211432 1.077226 -0.017943 35.000000
2.241067 1.061765 -0.018088 36.000000
2.243412 1.033137 -0.018015 25.000000
2.272748 1.016882 -0.018161 30.000000
2.306619 1.002147 -0.018344 33.000000
2.321971 0.978992 -0.018380 30.000000
2.364825 0.966936 -0.018635 34.000000
2.379844 0.943125 -0.018672 32.000000
2.417929 0.928015 -0.018891 32.000000
2.423122 0.899954 -0.018854 33.000000
2.446863 0.878674 -0.018964 19.000000
2.479923 0.860287 -0.019146 39.000000
2.517502 0.842813 -0.019365 35.000000
2.536012 0.818580 -0.019438 36.000000
2.568668 0.798430 -0.019620 69.000000
2.586704 0.773383 -0.019693 43.000000
2.614165 0.750806 -0.019839 56.000000
2.641498 0.727729 -0.019985 53.000000
2.600848 0.686292 -0.019620 8.000000
2.651785 0.668977 -0.019948 8.000000
2.658879 0.640181 -0.019865 8.000000
2.709499 0.621360 -0.020192 8.000000
2.730772 0.595115 -0.020301 8.000000
2.776255 0.573523 -0.020591 8.000000
2.787218 0.544374 -0.020627 8.000000
2.847027 0.523994 -0.021027 8.000000
2.892007 0.499885 -0.021317 9.000000
2.971236 0.480417 -0.021862 35.000000
3.005952 0.452642 -0.021987 33.000000
3.025539 0.422058 -0.022096 34.000000
3.059769 0.392968 -0.022313 46.000000
3.108508 0.364982 -0.022638 28.000000
3.092442 0.329052 -0.022494 10.000000
3.165443 0.302104 -0.023000 37.000000
3.283134 0.277432 -0.023731 30.000000
3.305895 0.243203 -0.023875 48.000000
3.353232 0.210103 -0.024199 91.000000
3.360379 0.173960 -0.024235 94.000000
3.332048 0.136176 -0.023917 83.000000
3.263406 0.097846 -0.023415 13.000000
3.229310 0.061706 -0.023164 9.000000
3.184806 0.026341 -0.022842 35.000000
3.119905 -0.008093 -0.022280 26.000000
3.079624 -0.041451 -0.021995 12.000000
3.038980 -0.073940 -0.021709 9.000000
3.007979 -0.105912 -0.021495 8.000000
2.986715 -0.137693 -0.021261 9.000000
2.930163 -0.166957 -0.020870 8.000000
2.933091 -0.199092 -0.020905 34.000000
2.920790 -0.230158 -0.020745 45.000000
2.873378 -0.257879 -0.020426 31.000000
2.845511 -0.286541 -0.020249 72.000000
2.822319 -0.315219 -0.020021 42.000000
2.784027 -0.341637 -0.019774 35.000000
2.780175 -0.371769 -0.019774 77.000000
2.736395 -0.396254 -0.019408 32.000000
2.677581 -0.417400 -0.019022 8.000000
2.618620 -0.437449 -0.018636 9.000000
2.603914 -0.464053 -0.018485 9.000000
2.637967 -0.499750 -0.018764 58.000000
2.602983 -0.522444 -0.018555 35.000000
2.577585 -0.546492 -0.018334 32.000000
2.591072 -0.578756 -0.018474 37.000000
2.623529 -0.616014 -0.018670 21.000000
2.674960 -0.658735 -0.019085 19.000000
2.740267 -0.706464 -0.019518 31.000000
2.829049 -0.762097 -0.020208 29.000000
2.902471 -0.815765 -0.020794 35.000000
2.936640 -0.859878 -0.021011 29.000000
2.927115 -0.891628 -0.021011 28.000000
2.960211 -0.936958 -0.021226 31.000000
2.945038 -0.967426 -0.021191 26.000000
2.967573 -1.010590 -0.021335 26.000000
2.946949 -1.039410 -0.021267 19.000000
2.907324 -1.060978 -0.020968 10.000000
2.895706 -1.092431 -0.020968 10.000000
2.907004 -1.132866 -0.021042 9.000000
2.903809 -1.168019 -0.021110 9.000000
2.890913 -1.199540 -0.021014 10.000000
2.877732 -1.230775 -0.021014 9.000000
2.928320 -1.290137 -0.021387 9.000000
2.882190 -1.307417 -0.021153 8.000000
2.890548 -1.349188 -0.021223 8.000000
2.916318 -1.400010 -0.021522 9.000000
2.923335 -1.442665 -0.021589 8.000000
2.885220 -1.462996 -0.021423 8.000000
2.895735 -1.508149 -0.021522 7.000000
2.865967 -1.532364 -0.021324 7.000000
2.739525 -1.503372 -0.020504 5.000000
2.675101 -1.506050 -0.020049 5.000000
2.749444 -1.587597 -0.020735 4.000000
2.783731 -1.647907 -0.021028 4.000000
2.709998 -1.644399 -0.020606 2.000000
2.725973 -1.694929 -0.020768 2.000000
2.694709 -1.716454 -0.020573 2.000000
2.747080 -1.792148 -0.021121 1.000000
2.773094 -1.852427 -0.021373 1.000000
2.657817 -1.817637 -0.020538 1.000000
2.629677 -1.840695 -0.020474 1.000000
2.674531 -1.915887 -0.020884 1.000000
2.588925 -1.897611 -0.020376 1.000000
2.612159 -1.958721 -0.020625 1.000000
2.463684 -1.889646 -0.019520 1.000000
2.596353 -2.036719 -0.020746 1.000000
2.620796 -2.102461 -0.021021 1.000000
2.435367 -1.997685 -0.019611 1.000000
2.405787 -2.017695 -0.019548 1.000000
2.334403 -2.001453 -0.019050 1.000000
2.282363 -2.000425 -0.018709 1.000000
2.375853 -2.128581 -0.019568 1.000000
2.278837 -2.086844 -0.018954 1.000000
2.303377 -2.155968 -0.019257 1.000000
2.355660 -2.253487 -0.019798 1.000000
2.152231 -2.104189 -0.018280 1.000000
2.086823 -2.085112 -0.017825 1.000000
2.140917 -2.186208 -0.018397 3.000000
1.995940 -2.083014 -0.017256 5.000000
1.846692 -1.969629 -0.016150 8.000000
1.703507 -1.857008 -0.014996 7.000000
1.546277 -1.722827 -0.013706 7.000000
1.497793 -1.705687 -0.013370 7.000000
1.361868 -1.585295 -0.012310 8.000000
1.273815 -1.515817 -0.011602 8.000000
1.219219 -1.483184 -0.011191 9.000000
1.181116 -1.469032 -0.010930 15.000000
1.162034 -1.477815 -0.010844 16.000000
1.136826 -1.478431 -0.010757 20.000000
1.123724 -1.494665 -0.010729 18.000000
1.095615 -1.490648 -0.010558 12.000000
1.085246 -1.510569 -0.010558 18.000000
1.077461 -1.534481 -0.010586 13.000000
1.052267 -1.533728 -0.010444 19.000000
1.060633 -1.582403 -0.010697 16.000000
1.040686 -1.589615 -0.010611 15.000000
1.020714 -1.596593 -0.010525 18.000000
1.011307 -1.620306 -0.010550 14.000000
0.996246 -1.635417 -0.010519 14.000000
0.986086 -1.659065 -0.010543 7.000000
1.153011 1.966890 0.004662 7.000000
1.169152 1.945724 0.004711 21.000000
1.192834 1.937166 0.004721 20.000000
1.205729 1.911427 0.004759 26.000000
1.229133 1.902453 0.004839 23.000000
1.255180 1.897314 0.004929 25.000000
1.267319 1.871218 0.004966 28.000000
1.290375 1.861464 0.005046 21.000000
1.310490 1.847363 0.005115 26.000000
1.321587 1.820915 0.005081 24.000000
1.338313 1.802413 0.005138 26.000000
1.357770 1.787820 0.005207 29.000000
1.374023 1.769004 0.005264 24.000000
1.393096 1.754033 0.005332 29.000000
1.418404 1.746552 0.005356 27.000000
1.443605 1.738727 0.005449 28.000000
1.449492 1.707754 0.005469 28.000000
1.467949 1.691895 0.005537 23.000000
1.489587 1.679571 0.005618 32.000000
1.511101 1.666969 0.005630 36.000000
1.529160 1.650490 0.005699 27.000000
1.550450 1.637366 0.005781 35.000000
1.568136 1.620368 0.005849 33.000000
1.589200 1.606788 0.005862 36.000000
1.613759 1.596440 0.005958 36.000000
1.620231 1.568342 0.005987 21.000000
1.622708 1.536835 0.005934 37.000000
1.643018 1.522432 0.006016 50.000000
1.666901 1.511169 0.006111 35.000000
1.698274 1.506175 0.006235 70.000000
1.718330 1.490886 0.006248 61.000000
1.745943 1.481777 0.006360 36.000000
1.738865 1.443467 0.006345 64.000000
1.785574 1.449643 0.006458 18.000000
1.793465 1.423842 0.006499 36.000000
1.812789 1.407270 0.006584 38.000000
1.824075 1.384427 0.006569 36.000000
1.851077 1.373377 0.006683 57.000000
1.853846 1.344313 0.006709 36.000000
1.864303 1.321155 0.006694 35.000000
1.890930 1.309262 0.006808 56.000000
1.917463 1.297030 0.006924 17.000000
1.952309 1.289828 0.006998 37.000000
1.962033 1.265766 0.007055 59.000000
1.984176 1.249646 0.007085 37.000000
2.001961 1.230652 0.007172 51.000000
2.040955 1.224210 0.007336 65.000000
2.054173 1.201912 0.007336 42.000000
2.080130 1.186975 0.007455 49.000000
2.084182 1.159383 0.007424 20.000000
2.118605 1.148589 0.007575 37.000000
2.153067 1.137171 0.007654 68.000000
2.169774 1.115975 0.007744 37.000000
2.204117 1.103488 0.007899 47.000000
2.220497 1.081680 0.007915 51.000000
2.236624 1.059624 0.008006 47.000000
2.261654 1.041578 0.008055 73.000000
2.277388 1.019000 0.008147 20.000000
2.306619 1.002224 0.008212 58.000000
2.331186 0.982954 0.008339 51.000000
2.360197 0.965121 0.008405 38.000000
2.393788 0.948651 0.008566 52.000000
2.403925 0.922640 0.008566 46.000000
2.446636 0.908737 0.008762 35.000000
2.451648 0.880444 0.008745 48.000000
2.465752 0.855371 0.008841 28.000000
2.508101 0.839720 0.008960 71.000000
2.536093 0.818580 0.009109 93.000000
2.549570 0.792575 0.009126 71.000000
2.581995 0.772033 0.009294 82.000000
2.609442 0.749508 0.009363 89.000000
2.622217 0.722417 0.009380 57.000000
2.610599 0.688843 0.009393 9.000000
2.651868 0.669060 0.009515 8.000000
2.692990 0.648458 0.009721 9.000000
2.714457 0.622562 0.009774 9.000000
2.730857 0.595200 0.009894 9.000000
2.761565 0.570575 0.009983 9.000000
2.821655 0.551083 0.010178 9.000000
2.847115 0.524083 0.010337 9.000000
2.916641 0.504233 0.010569 55.000000
2.981199 0.482105 0.010783 37.000000
3.001101 0.451897 0.010929 78.000000
3.035536 0.423439 0.011037 95.000000
3.064728 0.393700 0.011222 78.000000
3.108603 0.364982 0.011367 95.000000
3.157075 0.336026 0.011530 78.000000
3.140654 0.299825 0.011554 15.000000
3.213485 0.271539 0.011810 33.000000
3.301010 0.242836 0.012122 67.000000
3.338365 0.209165 0.012250 98.000000
3.340406 0.172926 0.012352 95.000000
3.307172 0.135156 0.012223 81.000000
3.243515 0.097346 0.011983 24.000000
3.179321 0.060848 0.011840 28.000000
3.139808 0.025969 0.011691 10.000000
3.129904 -0.008119 0.011653 9.000000
3.024631 -0.040711 0.011263 8.000000
3.014080 -0.073332 0.011317 9.000000
2.963100 -0.104329 0.011130 9.000000
2.936860 -0.135390 0.011036 8.000000
2.895221 -0.164966 0.010886 9.000000
2.918216 -0.198077 0.011069 32.000000
2.866051 -0.225838 0.010880 19.000000
2.873378 -0.257879 0.010917 95.000000
2.825613 -0.284537 0.010747 48.000000
2.807499 -0.313554 0.010690 72.000000
2.784027 -0.341551 0.010615 80.000000
2.760352 -0.369118 0.010624 55.000000
2.726498 -0.394821 0.010509 95.000000
2.657820 -0.414320 0.010262 10.000000
2.594043 -0.433330 0.010033 7.000000
2.598992 -0.463176 0.010071 12.000000
2.613486 -0.495097 0.010147 46.000000
2.593259 -0.520476 0.010090 58.000000
2.562991 -0.543381 0.010074 62.000000
2.552035 -0.570036 0.010055 35.000000
2.594406 -0.609157 0.010247 31.000000
2.655624 -0.653953 0.010517 27.000000
2.672571 -0.688989 0.010613 10.000000
2.775944 -0.747879 0.011055 33.000000
2.825457 -0.794120 0.011286 25.000000
2.951035 -0.864093 0.011824 35.000000
3.013206 -0.917853 0.012112 35.000000
2.974512 -0.941484 0.011997 22.000000
2.978384 -0.978348 0.012055 16.000000
2.972306 -1.012202 0.012074 9.000000
2.994197 -1.056040 0.012209 8.000000
3.001358 -1.095259 0.012383 9.000000
3.003301 -1.133022 0.012441 9.000000
3.018812 -1.176438 0.012557 11.000000
3.001221 -1.207300 0.012538 10.000000
2.992610 -1.241697 0.012557 10.000000
2.992756 -1.280027 0.012616 10.000000
2.987802 -1.316442 0.012654 9.000000
2.991567 -1.356987 0.012732 7.000000
2.949446 -1.376680 0.012616 7.000000
3.010974 -1.445451 0.012945 5.000000
2.909884 -1.436027 0.012478 3.000000
2.916435 -1.478825 0.012574 2.000000
2.953383 -1.538174 0.012805 2.000000
2.883604 -1.541894 0.012574 2.000000
2.700076 -1.481724 0.011843 4.000000
2.662030 -1.498785 0.011747 4.000000
2.693252 -1.555095 0.011959 5.000000
2.684773 -1.589421 0.011997 2.000000
2.688722 -1.631430 0.012093 2.000000
2.649543 -1.647407 0.011997 1.000000
2.677840 -1.705710 0.012209 1.000000
2.596326 -1.693799 0.011920 1.000000
2.631737 -1.758097 0.012170 1.000000
2.690933 -1.840217 0.012535 1.000000
2.502698 -1.751907 0.011654 1.000000
