x y z intensity
1.771649 -1.960174 -0.666946 33.000000
1.717672 -1.944044 -0.652668 48.000000
1.690674 -1.955564 -0.648032 69.000000
1.668878 -1.974839 -0.645999 32.000000
1.663354 -2.011754 -0.649760 30.000000
1.643993 -2.034491 -0.648830 31.000000
1.631558 -2.063927 -0.650125 28.000000
1.602631 -2.074851 -0.645502 34.000000
1.579559 -2.093060 -0.643359 30.000000
1.566129 -2.122088 -0.644448 32.000000
1.542598 -2.139902 -0.642211 31.000000
1.525661 -2.164665 -0.642081 25.000000
1.507138 -2.190053 -0.642101 22.000000
1.488187 -2.215401 -0.642103 28.000000
1.464983 -2.231569 -0.639506 26.000000
1.448057 -2.260609 -0.640642 28.000000
1.432130 -2.288731 -0.641414 27.000000
1.411793 -2.313382 -0.641261 28.000000
1.381148 -2.321166 -0.636502 24.000000
1.374128 -2.365621 -0.641786 20.000000
1.376580 -2.432248 -0.652862 9.000000
0.944863 1.684341 -0.436327 8.000000
0.954975 1.661327 -0.434881 17.000000
0.973265 1.650233 -0.436560 24.000000
0.988912 1.634729 -0.437124 16.000000
0.998201 1.611415 -0.435559 24.000000
1.026456 1.616292 -0.441657 19.000000
1.044206 1.604418 -0.443276 23.000000
1.052838 1.580804 -0.441618 32.000000
1.086680 1.592737 -0.450044 13.000000
1.072649 1.536863 -0.439246 22.000000
1.095228 1.532387 -0.443004 21.000000
1.129359 1.543312 -0.451432 18.000000
1.128002 1.507526 -0.446193 27.000000
1.162401 1.517646 -0.454610 20.000000
1.178292 1.504873 -0.456289 25.000000
1.185722 1.479877 -0.454234 28.000000
1.220521 1.488807 -0.462673 15.000000
1.214319 1.449253 -0.456097 30.000000
1.233508 1.438934 -0.458638 25.000000
1.251825 1.428961 -0.461365 27.000000
1.270818 1.418201 -0.463921 31.000000
1.295672 1.414830 -0.469038 24.000000
1.311282 1.399943 -0.470364 32.000000
1.326109 1.385417 -0.471811 29.000000
1.361794 1.390981 -0.480324 22.000000
1.359377 1.358712 -0.475785 29.000000
1.388245 1.356628 -0.481873 27.000000
1.399203 1.337834 -0.482068 28.000000
1.409847 1.318934 -0.482257 42.000000
1.445957 1.322358 -0.490760 24.000000
1.456460 1.303035 -0.490898 33.000000
1.496397 1.308589 -0.500613 31.000000
1.506727 1.288797 -0.500703 24.000000
1.501931 1.256459 -0.495876 31.000000
1.519121 1.242698 -0.498402 26.000000
1.544257 1.234347 -0.503152 25.000000
1.576541 1.231955 -0.510578 32.000000
1.597474 1.220253 -0.514317 25.000000
1.606701 1.199435 -0.514278 30.000000
1.647422 1.200958 -0.524002 29.000000
1.656390 1.179712 -0.523975 21.000000
1.665106 1.158362 -0.523878 31.000000
1.697591 1.153293 -0.531229 27.000000
1.726211 1.144973 -0.537351 32.000000
1.722306 1.115057 -0.533429 40.000000
1.758882 1.111284 -0.542093 27.000000
1.787363 1.101688 -0.548195 34.000000
1.807508 1.086541 -0.551719 34.000000
1.815111 1.063804 -0.551450 23.000000
1.839191 1.050623 -0.556255 31.000000
1.859003 1.034674 -0.559735 30.000000
1.874465 1.016098 -0.561949 31.000000
1.923706 1.015686 -0.574585 53.000000
1.934692 0.993988 -0.575478 30.000000
1.971412 0.985184 -0.583986 34.000000
2.016689 0.980237 -0.595293 37.000000
2.022940 0.955517 -0.594858 24.000000
2.024331 0.929020 -0.593273 29.000000
2.052042 0.914092 -0.599201 27.000000
2.101668 0.908495 -0.611739 27.000000
2.120341 0.888868 -0.615192 31.000000
2.147681 0.872534 -0.621240 30.000000
2.179525 0.857423 -0.628526 31.000000
2.206753 0.839946 -0.634530 34.000000
2.224769 0.818658 -0.637949 24.000000
2.251730 0.800327 -0.643826 33.000000
2.278606 0.781363 -0.649790 36.000000
2.309897 0.763506 -0.656916 33.000000
2.363964 0.752537 -0.670813 37.000000
2.381272 0.728853 -0.674053 31.000000
2.402957 0.706482 -0.678685 30.000000
2.442991 0.688962 -0.688481 35.000000
2.482903 0.670560 -0.698294 24.000000
2.508748 0.647651 -0.704190 28.000000
2.548423 0.627788 -0.713950 33.000000
2.587941 0.607196 -0.723726 27.000000
2.636707 0.587891 -0.736230 24.000000
2.624066 0.554592 -0.731481 18.000000
2.606270 0.520682 -0.725407 13.000000
2.635435 0.496053 -0.732414 18.000000
2.616947 0.462502 -0.726248 9.000000
2.612307 0.431838 -0.724031 13.000000
2.607298 0.401302 -0.721810 16.000000
2.601923 0.370979 -0.719587 12.000000
2.601050 0.341411 -0.718516 16.000000
2.604619 0.312441 -0.718848 15.000000
2.607857 0.283472 -0.719097 18.000000
2.615561 0.254970 -0.720751 22.000000
2.589315 0.223377 -0.712981 10.000000
2.634892 0.197841 -0.725053 29.000000
2.607945 0.166729 -0.717363 36.000000
2.609599 0.137700 -0.717445 42.000000
2.606188 0.108471 -0.716204 36.000000
2.602359 0.079349 -0.714963 35.000000
2.593460 0.050240 -0.712315 39.000000
2.608334 0.021463 -0.716369 54.000000
2.603595 -0.007498 -0.714963 43.000000
2.608169 -0.036487 -0.716204 86.000000
2.612411 -0.065583 -0.717445 84.000000
2.611584 -0.094612 -0.717363 73.000000
2.600794 -0.123184 -0.714633 85.000000
2.594497 -0.151824 -0.713145 42.000000
2.578257 -0.179686 -0.708931 27.000000
2.537681 -0.205203 -0.698108 12.000000
2.520939 -0.232075 -0.693901 9.000000
2.518295 -0.260033 -0.693581 9.000000
2.524914 -0.289168 -0.695901 9.000000
2.555110 -0.321365 -0.704819 32.000000
2.570556 -0.352422 -0.709852 69.000000
2.571468 -0.381616 -0.710678 52.000000
2.557584 -0.408715 -0.707549 32.000000
2.567340 -0.439508 -0.711008 68.000000
2.543415 -0.464551 -0.705332 36.000000
2.547652 -0.494688 -0.707553 72.000000
2.542152 -0.523010 -0.706979 47.000000
2.545752 -0.553299 -0.709030 63.000000
2.544358 -0.582556 -0.709683 81.000000
2.533228 -0.609576 -0.707712 49.000000
2.535828 -0.640118 -0.709671 29.000000
2.468064 -0.652290 -0.692085 9.000000
2.479488 -0.684793 -0.696586 8.000000
2.444098 -0.704264 -0.688021 8.000000
2.464117 -0.739690 -0.695041 10.000000
2.483548 -0.775816 -0.702207 33.000000
2.475077 -0.803286 -0.701302 34.000000
2.470770 -0.832379 -0.701862 16.000000
2.461542 -0.859900 -0.701038 10.000000
2.474770 -0.895471 -0.706614 14.000000
2.451306 -0.917917 -0.701815 9.000000
2.445720 -0.946869 -0.702198 10.000000
2.439766 -0.975757 -0.702495 11.000000
2.424675 -1.000974 -0.700209 10.000000
2.435964 -1.037283 -0.705570 17.000000
2.424592 -1.064292 -0.704399 10.000000
2.417205 -1.093376 -0.704763 10.000000
2.418453 -1.126220 -0.707351 10.000000
2.392828 -1.147073 -0.702501 10.000000
2.415117 -1.190475 -0.711463 16.000000
2.380382 -1.206573 -0.703982 10.000000
2.384142 -1.242126 -0.707896 10.000000
2.370737 -1.268341 -0.706453 12.000000
2.356824 -1.294811 -0.705266 10.000000
2.388830 -1.347335 -0.717921 10.000000
2.374036 -1.373982 -0.716623 10.000000
2.371376 -1.407866 -0.719023 10.000000
2.364161 -1.439339 -0.720150 13.000000
2.327835 -1.452886 -0.712384 10.000000
2.328226 -1.489274 -0.715928 10.000000
2.332090 -1.528418 -0.720703 15.000000
2.307351 -1.549036 -0.716624 9.000000
2.338241 -1.607619 -0.729996 9.000000
2.328636 -1.639215 -0.730783 10.000000
2.310782 -1.665055 -0.729078 10.000000
2.303724 -1.699973 -0.731355 12.000000
2.281371 -1.722664 -0.728317 10.000000
2.270315 -1.753887 -0.728980 10.000000
2.277874 -1.800034 -0.735771 15.000000
2.257675 -1.825992 -0.734126 10.000000
2.260257 -1.869485 -0.739448 10.000000
2.265958 -1.916422 -0.746043 10.000000
2.245226 -1.941449 -0.743989 10.000000
2.238000 -1.979892 -0.746971 10.000000
2.213065 -2.001265 -0.743600 10.000000
2.215571 -2.049574 -0.750166 10.000000
2.207659 -2.087303 -0.752793 10.000000
2.202665 -2.128431 -0.756495 10.000000
2.230679 -2.204656 -0.772408 10.000000
2.111362 -2.132485 -0.736572 9.000000
1.999771 -2.065803 -0.703596 9.000000
1.910914 -2.017134 -0.677644 10.000000
1.832272 -1.978271 -0.655556 10.000000
1.768761 -1.951534 -0.638051 19.000000
1.727753 -1.949805 -0.629106 34.000000
1.684767 -1.942906 -0.618711 28.000000
1.681998 -1.984290 -0.623769 30.000000
1.648518 -1.987685 -0.616918 24.000000
1.632605 -2.013958 -0.617208 21.000000
1.622324 -2.047755 -0.619874 27.000000
1.591749 -2.053833 -0.614048 24.000000
1.589501 -2.099082 -0.620033 25.000000
1.558686 -2.104600 -0.614214 26.000000
1.532518 -2.118387 -0.610942 20.000000
1.525862 -2.159621 -0.615614 21.000000
1.494937 -2.164169 -0.609741 13.000000
1.484496 -2.201339 -0.613142 19.000000
1.466824 -2.225526 -0.612888 23.000000
1.439565 -2.238120 -0.609518 18.000000
1.425102 -2.271049 -0.611633 22.000000
1.403900 -2.290565 -0.610223 20.000000
1.386014 -2.319182 -0.611094 20.000000
1.367767 -2.347549 -0.612023 17.000000
1.362669 -2.396267 -0.618055 8.000000
0.963350 1.711947 -0.425579 7.000000
0.947976 1.641552 -0.412357 13.000000
0.979830 1.656476 -0.420537 18.000000
0.987913 1.628412 -0.417815 22.000000
1.008405 1.621192 -0.420497 16.000000
1.025289 1.610095 -0.422167 21.000000
1.037614 1.590106 -0.421551 22.000000
1.063262 1.590347 -0.426357 17.000000
1.082525 1.582710 -0.429124 28.000000
1.097176 1.566241 -0.429528 10.000000
1.111560 1.549657 -0.429923 21.000000
1.116192 1.521757 -0.427120 28.000000
1.135831 1.512842 -0.429703 18.000000
1.155437 1.503683 -0.432235 30.000000
1.168156 1.487148 -0.432664 23.000000
1.187609 1.477566 -0.435203 23.000000
1.209227 1.472037 -0.438992 30.000000
1.253662 1.491699 -0.450500 10.000000
1.231978 1.433035 -0.438288 29.000000
1.253503 1.426794 -0.442035 30.000000
1.282231 1.426879 -0.447891 28.000000
1.290676 1.405580 -0.447113 32.000000
1.306168 1.390806 -0.448369 27.000000
1.324252 1.379902 -0.450952 29.000000
1.349709 1.375148 -0.455663 34.000000
1.384942 1.380832 -0.463978 13.000000
1.389706 1.354759 -0.461733 47.000000
1.404135 1.339356 -0.463073 33.000000
1.418929 1.323283 -0.464290 33.000000
1.443767 1.317406 -0.469070 48.000000
1.461933 1.304080 -0.471405 32.000000
1.472168 1.284651 -0.471523 32.000000
1.496997 1.277737 -0.476340 42.000000
1.533474 1.279295 -0.484463 22.000000
1.539616 1.256095 -0.483416 35.000000
1.553097 1.238932 -0.484602 32.000000
1.570595 1.224132 -0.486850 30.000000
1.587595 1.209558 -0.489229 46.000000
1.600577 1.191872 -0.490358 29.000000
1.617673 1.176415 -0.492494 33.000000
1.638224 1.163996 -0.496022 32.000000
1.674655 1.162344 -0.504364 21.000000
1.695186 1.149077 -0.507860 44.000000
1.715642 1.135502 -0.511367 38.000000
1.740095 1.124185 -0.516028 33.000000
1.764525 1.112465 -0.520703 61.000000
1.789257 1.099943 -0.525195 39.000000
1.805243 1.082417 -0.527401 33.000000
1.829524 1.069562 -0.531980 36.000000
1.828156 1.042286 -0.529520 18.000000
1.877558 1.043013 -0.541380 53.000000
1.901570 1.028843 -0.545999 51.000000
1.921309 1.012061 -0.549336 33.000000
1.940872 0.994949 -0.552681 46.000000
1.968931 0.981902 -0.558425 52.000000
1.992471 0.966425 -0.563161 37.000000
2.011697 0.948242 -0.566396 45.000000
2.043806 0.936057 -0.573557 22.000000
2.071637 0.920989 -0.579216 37.000000
2.090315 0.901904 -0.582623 36.000000
2.149219 0.899013 -0.596993 39.000000
2.167810 0.878798 -0.600360 37.000000
2.204216 0.865316 -0.608638 39.000000
2.217995 0.842487 -0.610706 33.000000
2.245222 0.824489 -0.616445 35.000000
2.267729 0.804394 -0.620871 19.000000
2.276299 0.779141 -0.621629 37.000000
2.312222 0.762835 -0.629748 64.000000
2.361953 0.750234 -0.641719 36.000000
2.392987 0.731212 -0.648696 55.000000
2.419451 0.709920 -0.654271 51.000000
2.450295 0.689685 -0.661272 43.000000
2.480960 0.668692 -0.668206 40.000000
2.497462 0.643559 -0.671292 18.000000
2.551278 0.627380 -0.684467 37.000000
2.590881 0.606682 -0.693794 55.000000
2.602066 0.579031 -0.695644 36.000000
2.664920 0.562175 -0.711396 30.000000
2.670848 0.532537 -0.711911 24.000000
2.681272 0.503793 -0.713606 26.000000
2.686608 0.473930 -0.714036 26.000000
2.681969 0.442578 -0.711933 10.000000
2.681905 0.412087 -0.711094 26.000000
2.690973 0.382979 -0.712705 26.000000
2.675822 0.350538 -0.707888 24.000000
2.689087 0.321973 -0.710767 27.000000
2.687611 0.291629 -0.709753 33.000000
2.661717 0.258966 -0.702304 59.000000
2.659515 0.229017 -0.701287 91.000000
2.666696 0.199814 -0.702726 32.000000
2.668721 0.170281 -0.702895 75.000000
2.675238 0.140918 -0.704335 84.000000
2.662096 0.110560 -0.700521 67.000000
2.619689 0.079725 -0.689161 30.000000
2.601012 0.050323 -0.684157 10.000000
2.601423 0.021426 -0.684157 9.000000
2.620847 -0.007526 -0.689244 37.000000
2.644774 -0.036892 -0.695519 48.000000
2.620102 -0.065666 -0.689078 70.000000
2.599863 -0.093996 -0.683829 36.000000
2.584222 -0.122207 -0.679934 18.000000
2.577925 -0.150579 -0.678500 10.000000
2.571309 -0.178762 -0.676985 9.000000
2.549994 -0.205753 -0.671663 6.000000
2.528309 -0.232235 -0.666344 9.000000
2.549719 -0.262752 -0.672528 9.000000
2.551532 -0.291606 -0.673473 9.000000
2.538612 -0.318679 -0.670613 10.000000
2.592484 -0.354718 -0.685496 49.000000
2.593307 -0.384154 -0.686349 63.000000
2.593783 -0.413696 -0.687201 47.000000
2.550997 -0.435847 -0.676587 16.000000
2.584172 -0.471115 -0.686290 77.000000
2.569453 -0.497942 -0.683267 57.000000
2.559183 -0.525449 -0.681509 73.000000
2.562789 -0.555762 -0.683455 91.000000
2.547235 -0.581973 -0.680273 68.000000
2.559546 -0.614756 -0.684731 80.000000
2.552739 -0.643145 -0.684150 65.000000
2.526965 -0.666513 -0.678461 14.000000
2.524215 -0.695732 -0.679057 10.000000
2.530576 -0.727646 -0.682075 16.000000
2.550262 -0.764122 -0.688927 33.000000
2.532627 -0.789439 -0.685585 63.000000
2.537748 -0.822010 -0.688582 37.000000
2.510311 -0.844004 -0.682832 29.000000
2.500962 -0.871881 -0.681997 18.000000
2.454927 -0.886435 -0.671200 9.000000
2.495125 -0.932304 -0.683975 20.000000
2.484886 -0.959915 -0.683052 16.000000
2.474312 -0.987358 -0.682045 19.000000
2.472528 -1.018407 -0.683514 16.000000
2.456698 -1.044139 -0.681351 13.000000
2.458663 -1.077044 -0.683962 21.000000
2.459993 -1.110498 -0.686731 13.000000
2.447924 -1.137611 -0.685541 9.000000
2.444089 -1.169076 -0.686979 19.000000
2.440079 -1.200223 -0.688153 17.000000
2.435463 -1.231734 -0.689489 18.000000
2.413286 -1.254409 -0.685927 16.000000
2.425167 -1.294991 -0.692052 17.000000
2.436404 -1.335974 -0.698151 20.000000
2.421628 -1.363078 -0.696840 10.000000
2.398625 -1.384720 -0.692926 9.000000
2.425207 -1.436099 -0.703643 19.000000
2.409426 -1.463050 -0.702314 13.000000
2.409501 -1.500616 -0.705899 18.000000
2.376713 -1.516863 -0.699654 14.000000
2.372232 -1.551250 -0.701752 12.000000
2.375467 -1.591044 -0.706232 20.000000
2.378139 -1.631107 -0.710596 10.000000
2.332469 -1.637950 -0.700609 9.000000
2.350133 -1.689255 -0.709714 19.000000
2.335128 -1.718780 -0.709448 12.000000
2.331883 -1.756340 -0.712459 15.000000
2.320597 -1.787948 -0.712989 13.000000
2.304354 -1.817364 -0.712605 10.000000
2.318673 -1.870166 -0.721353 18.000000
2.309718 -1.905073 -0.722909 10.000000
2.277236 -1.921798 -0.717705 9.000000
2.285920 -1.972274 -0.725081 15.000000
2.268246 -2.000696 -0.724161 10.000000
2.271218 -2.049126 -0.730487 18.000000
2.259871 -2.083972 -0.731849 14.000000
2.250785 -2.122976 -0.734540 10.000000
2.248998 -2.167886 -0.739217 17.000000
2.214406 -2.183107 -0.733813 10.000000
2.208247 -2.224559 -0.737196 9.000000
2.041083 -2.102903 -0.687189 12.000000
1.961575 -2.065121 -0.665552 10.000000
1.872356 -2.015985 -0.640901 19.000000
1.788647 -1.967936 -0.617266 24.000000
1.740931 -1.958968 -0.606416 30.000000
1.691305 -1.944843 -0.594173 71.000000
1.660284 -1.952836 -0.588957 29.000000
1.654189 -1.990359 -0.592692 25.000000
1.639274 -2.015829 -0.592728 35.000000
1.616909 -2.034372 -0.590776 27.000000
1.595519 -2.051939 -0.588580 37.000000
1.578648 -2.077680 -0.588830 31.000000
1.561443 -2.103392 -0.588983 29.000000
1.539401 -2.120271 -0.586688 35.000000
1.513061 -2.133662 -0.583469 24.000000
1.500540 -2.166888 -0.585764 21.000000
1.483355 -2.191124 -0.585535 30.000000
1.459123 -2.207912 -0.583384 26.000000
1.426702 -2.212140 -0.577935 32.000000
1.424423 -2.260581 -0.584092 29.000000
1.401942 -2.280936 -0.582902 28.000000
1.376689 -2.296824 -0.580645 28.000000
1.360264 -2.324195 -0.581301 21.000000
1.361179 -2.386373 -0.590505 9.000000
0.950553 1.684066 -0.401051 8.000000
0.951883 1.643447 -0.395483 19.000000
0.964941 1.624079 -0.394976 22.000000
0.987820 1.621364 -0.398503 26.000000
0.999456 1.602345 -0.398098 27.000000
1.030241 1.611407 -0.404746 25.000000
1.042600 1.591412 -0.404160 29.000000
1.064547 1.588199 -0.407849 29.000000
1.079201 1.571938 -0.408293 26.000000
1.079590 1.535566 -0.403418 21.000000
1.104145 1.535694 -0.408105 28.000000
1.123871 1.526992 -0.410580 29.000000
1.140626 1.514145 -0.411942 30.000000
1.156434 1.501712 -0.413481 28.000000
1.169929 1.484673 -0.413774 31.000000
1.201553 1.490277 -0.420436 31.000000
1.210954 1.469582 -0.419778 24.000000
1.217642 1.444577 -0.417848 29.000000
1.232818 1.431231 -0.419325 33.000000
1.255038 1.424501 -0.422738 35.000000
1.273975 1.413762 -0.425075 37.000000
1.288852 1.399777 -0.426503 33.000000
1.300861 1.381527 -0.426597 35.000000
1.325608 1.377766 -0.431262 33.000000
1.347642 1.369585 -0.434665 35.000000
1.365588 1.358174 -0.437094 29.000000
1.380535 1.342564 -0.438300 35.000000
1.401821 1.334035 -0.441791 66.000000
1.416542 1.318043 -0.442942 49.000000
1.434199 1.305695 -0.445333 35.000000
1.466791 1.305495 -0.452034 52.000000
1.477014 1.286061 -0.452140 35.000000
1.491184 1.269193 -0.453182 35.000000
1.508483 1.255808 -0.455540 30.000000
1.537428 1.250884 -0.461117 34.000000
1.550781 1.233868 -0.462297 42.000000
1.575537 1.225633 -0.466830 36.000000
1.592926 1.210561 -0.468972 35.000000
1.602000 1.189973 -0.468958 55.000000
1.626578 1.180783 -0.473460 36.000000
1.643530 1.165070 -0.475554 37.000000
1.664038 1.152290 -0.478931 34.000000
1.688506 1.141931 -0.483407 36.000000
1.712958 1.131176 -0.487899 46.000000
1.721040 1.109481 -0.487771 59.000000
1.729193 1.087299 -0.487445 41.000000
1.765726 1.083266 -0.495384 67.000000
1.802395 1.078616 -0.503350 48.000000
1.818262 1.060961 -0.505440 33.000000
1.850820 1.052694 -0.512212 42.000000
1.866366 1.034399 -0.514252 42.000000
1.907491 1.029728 -0.523405 74.000000
1.935791 1.017471 -0.528923 78.000000
1.942451 0.993629 -0.528638 43.000000
1.961632 0.976584 -0.531956 58.000000
1.985349 0.961051 -0.536326 59.000000
2.008928 0.945017 -0.540637 36.000000
2.050037 0.936694 -0.549697 34.000000
2.082146 0.923959 -0.556551 59.000000
2.092165 0.900629 -0.557267 52.000000
2.110718 0.881256 -0.560506 42.000000
2.156216 0.872251 -0.570684 34.000000
2.197219 0.860749 -0.579839 44.000000
2.224499 0.843309 -0.585434 56.000000
2.238105 0.820306 -0.587378 31.000000
2.256022 0.798673 -0.590448 37.000000
2.282897 0.779899 -0.595921 71.000000
2.309679 0.760643 -0.601405 56.000000
2.327035 0.737891 -0.604420 61.000000
2.358150 0.719103 -0.611048 51.000000
2.412317 0.706622 -0.623788 54.000000
2.443263 0.686390 -0.630288 43.000000
2.459896 0.661858 -0.633339 34.000000
2.513935 0.646627 -0.645974 39.000000
2.544351 0.624573 -0.652588 50.000000
2.569922 0.600728 -0.657920 52.000000
2.604729 0.578484 -0.665680 53.000000
2.639252 0.555695 -0.673536 37.000000
2.692680 0.535893 -0.686082 34.000000
2.712682 0.508780 -0.690239 28.000000
2.694181 0.474446 -0.684518 16.000000
2.713530 0.446949 -0.688505 23.000000
2.718202 0.416927 -0.688938 26.000000
2.717726 0.386050 -0.688068 27.000000
2.726594 0.356538 -0.689543 34.000000
2.725499 0.325768 -0.688672 66.000000
2.728867 0.295627 -0.688932 76.000000
2.698103 0.262031 -0.680582 95.000000
2.715327 0.233423 -0.684492 34.000000
2.712807 0.202962 -0.683445 68.000000
2.695504 0.171683 -0.678657 41.000000
2.682677 0.141087 -0.675171 23.000000
2.630819 0.109120 -0.661848 10.000000
2.656047 0.080692 -0.668025 9.000000
2.656800 0.051342 -0.668025 9.000000
2.657218 0.021908 -0.668109 9.000000
2.628207 -0.007443 -0.660794 10.000000
2.671597 -0.037162 -0.671598 33.000000
2.617685 -0.065424 -0.658191 11.000000
2.612015 -0.094253 -0.656808 9.000000
2.610863 -0.123203 -0.656725 9.000000
2.619065 -0.152635 -0.658914 9.000000
2.607574 -0.180939 -0.656396 8.000000
2.600602 -0.209417 -0.654932 8.000000
2.593391 -0.237789 -0.653469 9.000000
2.585781 -0.265972 -0.652007 9.000000
2.582755 -0.294597 -0.651680 9.000000
2.593921 -0.324949 -0.654998 9.000000
2.566192 -0.350454 -0.648596 10.000000
2.624575 -0.388031 -0.664052 52.000000
2.625025 -0.417840 -0.664764 36.000000
2.620342 -0.446855 -0.664430 49.000000
2.610553 -0.475003 -0.662800 61.000000
2.610057 -0.504803 -0.663510 80.000000
2.609207 -0.534625 -0.664218 85.000000
2.603260 -0.563442 -0.663548 81.000000
2.582786 -0.589023 -0.659422 49.000000
2.595161 -0.622124 -0.663750 80.000000
2.592986 -0.652009 -0.664284 26.000000
2.548212 -0.670796 -0.653976 10.000000
2.587631 -0.711755 -0.665345 33.000000
2.579699 -0.740529 -0.664754 72.000000
2.594850 -0.775918 -0.669913 68.000000
2.590885 -0.806053 -0.670431 65.000000
2.572691 -0.831811 -0.667268 43.000000
2.577405 -0.864917 -0.670093 59.000000
2.540322 -0.883800 -0.662152 17.000000
2.535168 -0.913596 -0.662501 19.000000
2.506976 -0.934756 -0.656801 15.000000
2.528437 -0.974644 -0.664209 23.000000
2.504258 -0.997096 -0.659621 18.000000
2.493164 -1.025043 -0.658859 16.000000
2.495402 -1.058170 -0.661314 20.000000
2.497005 -1.091765 -0.664013 21.000000
2.507341 -1.129133 -0.668722 12.000000
2.503634 -1.161117 -0.670132 18.000000
2.486422 -1.186845 -0.667914 18.000000
2.477720 -1.216586 -0.668052 22.000000
2.464633 -1.243713 -0.666752 22.000000
2.463797 -1.277815 -0.669141 19.000000
2.479801 -1.321173 -0.676109 21.000000
2.469603 -1.350935 -0.676130 18.000000
2.463239 -1.383084 -0.677225 13.000000
2.447991 -1.410390 -0.675895 16.000000
2.453499 -1.449888 -0.680370 18.000000
2.454312 -1.487154 -0.683664 21.000000
2.433885 -1.511775 -0.681067 18.000000
2.421002 -1.541890 -0.681053 16.000000
2.408242 -1.571287 -0.680765 19.000000
2.411337 -1.611408 -0.684978 16.000000
2.417884 -1.654545 -0.690312 10.000000
2.391907 -1.675598 -0.686462 13.000000
2.388959 -1.714049 -0.689656 14.000000
2.366418 -1.737434 -0.686858 14.000000
2.359235 -1.772339 -0.688519 17.000000
2.358656 -1.813813 -0.692708 15.000000
2.346641 -1.845753 -0.693198 21.000000
2.353287 -1.892941 -0.699222 17.000000
2.339618 -1.925717 -0.699864 12.000000
2.333745 -1.963987 -0.702454 12.000000
2.319161 -1.996709 -0.702974 19.000000
2.308673 -2.031763 -0.704310 19.000000
2.293292 -2.064378 -0.704804 17.000000
2.289016 -2.105898 -0.708229 16.000000
2.297513 -2.161866 -0.716344 18.000000
2.284859 -2.197083 -0.717484 19.000000
2.260361 -2.222870 -0.715500 14.000000
2.195364 -2.205975 -0.700052 10.000000
2.095975 -2.153876 -0.674032 14.000000
1.988908 -2.088285 -0.644512 18.000000
1.869189 -2.007167 -0.611086 20.000000
1.811752 -1.987723 -0.597107 23.000000
1.750664 -1.964419 -0.582376 34.000000
1.693586 -1.943664 -0.568718 58.000000
1.669873 -1.958318 -0.565631 57.000000
1.638779 -1.965879 -0.560572 32.000000
1.627334 -1.994906 -0.561771 45.000000
1.617404 -2.028521 -0.564171 36.000000
1.582946 -2.031333 -0.557992 36.000000
1.570445 -2.060042 -0.559065 35.000000
1.559401 -2.093352 -0.561329 36.000000
1.536260 -2.110952 -0.559373 36.000000
1.511262 -2.123509 -0.556130 30.000000
1.487758 -2.140507 -0.554097 26.000000
1.469666 -2.165356 -0.554135 32.000000
1.447054 -2.181111 -0.551931 32.000000
1.425549 -2.201545 -0.550836 33.000000
1.424704 -2.254894 -0.558006 33.000000
1.403824 -2.274278 -0.556614 34.000000
1.378747 -2.290107 -0.554448 31.000000
1.360940 -2.318356 -0.555316 27.000000
1.364493 -2.384781 -0.565143 10.000000
0.950777 1.676738 -0.381750 8.000000
0.953269 1.640983 -0.377516 16.000000
0.971220 1.630058 -0.378993 24.000000
0.986557 1.614773 -0.379427 22.000000
1.001684 1.599310 -0.379913 22.000000
1.026185 1.600820 -0.384412 29.000000
1.046399 1.593193 -0.386828 26.000000
1.058439 1.573073 -0.386256 29.000000
1.083069 1.573723 -0.390738 25.000000
1.086220 1.541328 -0.387138 21.000000
1.097408 1.521048 -0.386413 32.000000
1.122790 1.520299 -0.390794 28.000000
1.141584 1.512014 -0.393283 30.000000
1.158118 1.499023 -0.394582 27.000000
1.174594 1.485854 -0.395881 28.000000
1.196275 1.480653 -0.399352 32.000000
1.215596 1.470831 -0.401688 27.000000
1.212832 1.434551 -0.396738 22.000000
1.234227 1.428770 -0.400159 36.000000
1.259608 1.425688 -0.404516 35.000000
1.274626 1.411918 -0.405881 35.000000
1.286801 1.393842 -0.405962 33.000000
1.305491 1.382773 -0.408196 32.000000
1.323427 1.371986 -0.410554 36.000000
1.352271 1.370848 -0.415908 34.000000
1.363291 1.352557 -0.416171 27.000000
1.381669 1.340427 -0.418312 42.000000
1.396399 1.324736 -0.419395 35.000000
1.414046 1.312669 -0.421725 54.000000
1.442917 1.309767 -0.427030 63.000000
1.456859 1.293815 -0.428248 42.000000
1.478479 1.283658 -0.431435 59.000000
1.495845 1.270542 -0.433676 33.000000
1.509831 1.253551 -0.434719 30.000000
1.530781 1.243020 -0.437991 37.000000
1.547857 1.229102 -0.440250 36.000000
1.565308 1.214543 -0.442266 37.000000
1.589917 1.206043 -0.446595 48.000000
1.595371 1.182198 -0.445343 36.000000
1.627795 1.178804 -0.451882 76.000000
1.640368 1.160762 -0.452951 34.000000
1.669243 1.153242 -0.458174 29.000000
1.677579 1.131979 -0.458086 41.000000
1.710031 1.126776 -0.464630 38.000000
1.713943 1.102531 -0.463374 67.000000
1.742579 1.093506 -0.468581 54.000000
1.762677 1.079215 -0.471772 58.000000
1.778442 1.062111 -0.473793 63.000000
1.819336 1.059565 -0.482520 37.000000
1.856167 1.053764 -0.490090 33.000000
1.876056 1.037830 -0.493268 67.000000
1.904357 1.026194 -0.498565 50.000000
1.924028 1.009516 -0.501696 55.000000
1.943594 0.992510 -0.504766 53.000000
1.962982 0.975243 -0.507774 56.000000
1.973488 0.953339 -0.508598 71.000000
1.997013 0.937575 -0.512749 35.000000
2.024827 0.923400 -0.517974 29.000000
2.065825 0.914958 -0.526829 48.000000
2.084613 0.895793 -0.529810 35.000000
2.116611 0.882119 -0.536286 59.000000
2.144226 0.865837 -0.541492 45.000000
2.185166 0.854547 -0.550281 38.000000
2.208017 0.835370 -0.554298 49.000000
2.239752 0.819308 -0.560760 34.000000
2.230145 0.788074 -0.556924 33.000000
2.270767 0.774375 -0.565623 67.000000
2.297533 0.755252 -0.570819 54.000000
2.314926 0.732784 -0.573725 53.000000
2.387858 0.726886 -0.590448 66.000000
2.405025 0.703159 -0.593300 37.000000
2.435913 0.683008 -0.599536 67.000000
2.457229 0.659895 -0.603633 36.000000
2.487810 0.638811 -0.609968 33.000000
2.532374 0.620519 -0.619783 47.000000
2.567421 0.599181 -0.627217 37.000000
2.606946 0.578102 -0.635820 50.000000
2.636944 0.554203 -0.642033 39.000000
2.680940 0.532621 -0.651819 48.000000
2.729536 0.511091 -0.662693 34.000000
2.744518 0.482542 -0.665452 25.000000
2.768783 0.455271 -0.670449 19.000000
2.754397 0.421689 -0.666064 33.000000
2.758769 0.391262 -0.666413 62.000000
2.762878 0.360661 -0.666676 72.000000
2.752066 0.328418 -0.663533 78.000000
2.755545 0.297977 -0.663881 71.000000
2.758589 0.267535 -0.664055 78.000000
2.751683 0.236176 -0.661898 32.000000
2.724931 0.203581 -0.655078 10.000000
2.697876 0.171544 -0.648169 9.000000
2.694717 0.141511 -0.647088 9.000000
2.686441 0.111299 -0.644840 9.000000
2.697173 0.081892 -0.647257 9.000000
2.697935 0.051997 -0.647342 16.000000
2.717721 0.022348 -0.652007 31.000000
2.722668 -0.007690 -0.653174 35.000000
2.703051 -0.037499 -0.648423 35.000000
2.678154 -0.066840 -0.642508 11.000000
2.648160 -0.095385 -0.635345 9.000000
2.642139 -0.124429 -0.634097 8.000000
2.660061 -0.154694 -0.638592 9.000000
2.643669 -0.183119 -0.634930 8.000000
2.631813 -0.211529 -0.632351 7.000000
2.634170 -0.241055 -0.633350 9.000000
2.626593 -0.269694 -0.631937 9.000000
2.618696 -0.298143 -0.630525 9.000000
2.605655 -0.325882 -0.627786 9.000000
2.621304 -0.357266 -0.632105 9.000000
2.626858 -0.387655 -0.634095 15.000000
2.675361 -0.425042 -0.646530 39.000000
2.670601 -0.454619 -0.646105 32.000000
2.641575 -0.479766 -0.639884 69.000000
2.640960 -0.509831 -0.640537 70.000000
2.625775 -0.536993 -0.637716 37.000000
2.634070 -0.569165 -0.640681 32.000000
2.594527 -0.590686 -0.632085 15.000000
2.569092 -0.614786 -0.626883 9.000000
2.604767 -0.653782 -0.636683 9.000000
2.569289 -0.675085 -0.629096 8.000000
2.580643 -0.708481 -0.633034 10.000000
2.628887 -0.753095 -0.646245 60.000000
2.620569 -0.782166 -0.645559 42.000000
2.630497 -0.816924 -0.649463 63.000000
2.626147 -0.847437 -0.649918 66.000000
2.607573 -0.873415 -0.646850 49.000000
2.607113 -0.905317 -0.648274 33.000000
2.565186 -0.922510 -0.639417 10.000000
2.564142 -0.954189 -0.640843 18.000000
2.553594 -0.982660 -0.640071 21.000000
2.570023 -1.021492 -0.645951 16.000000
2.554165 -1.048158 -0.643949 17.000000
2.547229 -1.078087 -0.644044 18.000000
2.535355 -1.106341 -0.643177 16.000000
2.554405 -1.148052 -0.649963 18.000000
2.515248 -1.164116 -0.642139 11.000000
2.528786 -1.204556 -0.647945 19.000000
2.519912 -1.234687 -0.648018 23.000000
2.519343 -1.269125 -0.650333 18.000000
2.527108 -1.308243 -0.654790 24.000000
2.512672 -1.336224 -0.653632 21.000000
2.519445 -1.375705 -0.658059 22.000000
2.500094 -1.401094 -0.655686 18.000000
2.467849 -1.419009 -0.649978 10.000000
2.502734 -1.475995 -0.662061 21.000000
2.478203 -1.498596 -0.658479 19.000000
2.486664 -1.541290 -0.663757 16.000000
2.473567 -1.571921 -0.663671 19.000000
2.456419 -1.599157 -0.662204 17.000000
2.443053 -1.628916 -0.661836 13.000000
2.449497 -1.672334 -0.666948 13.000000
2.414857 -1.688704 -0.661270 10.000000
2.412388 -1.726606 -0.663979 15.000000
2.413332 -1.767557 -0.667850 17.000000
2.405310 -1.803465 -0.669708 15.000000
2.405124 -1.844731 -0.673439 21.000000
2.384467 -1.871831 -0.671922 16.000000
2.371898 -1.904097 -0.672280 12.000000
2.389107 -1.961029 -0.681236 17.000000
2.367182 -1.987880 -0.679594 10.000000
2.349542 -2.016947 -0.678733 17.000000
2.349121 -2.062695 -0.683496 19.000000
2.345034 -2.104694 -0.686769 14.000000
2.339607 -2.147591 -0.690308 18.000000
2.313033 -2.169638 -0.687166 13.000000
2.303076 -2.209216 -0.689608 15.000000
2.299401 -2.255659 -0.694034 21.000000
2.220124 -2.225226 -0.675024 9.000000
2.116870 -2.169754 -0.648987 15.000000
2.012737 -2.107772 -0.621773 16.000000
1.915932 -2.051777 -0.597070 16.000000
1.830494 -2.004694 -0.575613 23.000000
1.753820 -1.962416 -0.556011 29.000000
1.696651 -1.941592 -0.542954 35.000000
1.666604 -1.948689 -0.537944 58.000000
1.645096 -1.967399 -0.536265 26.000000
1.613974 -1.974499 -0.531446 42.000000
1.590167 -1.988006 -0.528442 35.000000
1.571204 -2.009717 -0.527710 34.000000
1.551997 -2.031257 -0.526891 34.000000
1.548245 -2.071362 -0.530933 33.000000
1.528333 -2.092721 -0.530001 34.000000
1.505167 -2.109914 -0.528144 33.000000
1.479119 -2.122764 -0.525212 24.000000
1.456963 -2.138555 -0.523118 31.000000
1.444216 -2.171235 -0.525132 33.000000
1.438874 -2.216253 -0.529986 29.000000
1.400085 -2.206709 -0.521890 32.000000
1.396417 -2.255845 -0.527742 28.000000
1.379092 -2.284126 -0.528594 33.000000
1.353940 -2.299649 -0.526436 26.000000
1.349678 -2.348038 -0.531819 9.000000
0.947328 1.665546 -0.361757 6.000000
0.953159 1.633559 -0.358529 11.000000
0.974999 1.631711 -0.361927 15.000000
0.990327 1.616363 -0.362405 24.000000
1.002832 1.596797 -0.361875 13.000000
1.025607 1.593628 -0.365114 18.000000
1.044798 1.586655 -0.367537 22.000000
1.064904 1.578796 -0.369789 16.000000
1.084981 1.570756 -0.372107 24.000000
1.082361 1.530367 -0.366693 10.000000
1.103965 1.526602 -0.370020 21.000000
1.126501 1.521948 -0.373242 21.000000
1.140208 1.505257 -0.373509 17.000000
1.155893 1.492921 -0.374919 26.000000
1.169180 1.475977 -0.375176 19.000000
1.197699 1.477971 -0.380327 18.000000
1.216278 1.468722 -0.382613 23.000000
1.213355 1.432451 -0.377939 10.000000
1.241912 1.433535 -0.383067 28.000000
1.251121 1.412144 -0.382204 26.000000
1.275789 1.409413 -0.386484 22.000000
1.294569 1.398562 -0.388608 34.000000
1.305924 1.380876 -0.388912 24.000000
1.327890 1.373117 -0.391988 25.000000
1.356720 1.371990 -0.397090 26.000000
1.374689 1.360585 -0.399364 10.000000
1.379082 1.334759 -0.397407 32.000000
1.393198 1.319686 -0.398603 32.000000
1.411324 1.307221 -0.400640 28.000000
1.429284 1.294496 -0.402621 31.000000
1.457702 1.291787 -0.407863 28.000000
1.479309 1.281677 -0.410950 29.000000
1.496652 1.268544 -0.413078 33.000000
1.525671 1.264080 -0.418188 11.000000
1.523942 1.235013 -0.415159 32.000000
1.545194 1.223770 -0.418090 30.000000
1.565964 1.212726 -0.421278 26.000000
1.583212 1.198002 -0.423185 34.000000
1.599904 1.183440 -0.425283 28.000000
1.628422 1.177197 -0.430466 30.000000
1.641341 1.158760 -0.431282 32.000000
1.657782 1.143411 -0.433337 12.000000
1.678464 1.130136 -0.436262 35.000000
1.698760 1.116934 -0.439321 35.000000
1.739479 1.116623 -0.447682 30.000000
1.747344 1.094794 -0.447525 44.000000
1.767659 1.080121 -0.450422 28.000000
1.796090 1.070588 -0.455521 32.000000
1.816031 1.055579 -0.458568 34.000000
1.835815 1.040251 -0.461558 20.000000
1.864124 1.029326 -0.466630 34.000000
1.896873 1.019866 -0.472654 50.000000
1.916494 1.003401 -0.475608 32.000000
1.940361 0.988759 -0.479646 35.000000
1.955352 0.969423 -0.481540 31.000000
1.974583 0.951974 -0.484448 32.000000
1.997915 0.936540 -0.488513 37.000000
2.030197 0.924446 -0.494684 21.000000
2.066954 0.913764 -0.501885 30.000000
2.090231 0.896575 -0.505777 36.000000
2.131445 0.886442 -0.514024 29.000000
2.140827 0.862985 -0.514818 37.000000
2.181958 0.851587 -0.523096 33.000000
2.200169 0.831012 -0.526011 29.000000
2.222818 0.811614 -0.529877 32.000000
2.254482 0.795158 -0.536012 14.000000
2.262930 0.770261 -0.536685 35.000000
2.294330 0.752893 -0.542766 42.000000
2.316290 0.731924 -0.546663 36.000000
2.338117 0.710571 -0.550491 34.000000
2.397187 0.699766 -0.563125 35.000000
2.418777 0.677148 -0.566975 30.000000
2.454271 0.657928 -0.574057 33.000000
2.465911 0.632109 -0.575717 11.000000
2.534180 0.619933 -0.590626 35.000000
2.555122 0.595169 -0.594266 34.000000
2.589927 0.573252 -0.601392 34.000000
2.634163 0.552792 -0.610825 33.000000
2.654322 0.526495 -0.614484 32.000000
2.707838 0.506152 -0.625987 30.000000
2.746797 0.482136 -0.634178 29.000000
2.799969 0.459661 -0.645621 26.000000
2.799946 0.428019 -0.644777 56.000000
2.794813 0.395712 -0.643000 59.000000
2.789209 0.363618 -0.641043 36.000000
2.797835 0.333380 -0.642418 62.000000
2.796517 0.301900 -0.641483 60.000000
2.770486 0.268266 -0.634987 29.000000
2.739190 0.234771 -0.627460 9.000000
2.707573 0.201940 -0.619843 7.000000
2.729071 0.173344 -0.624380 8.000000
2.750254 0.144147 -0.628918 9.000000
2.746849 0.113599 -0.627891 10.000000
2.757626 0.083601 -0.630204 34.000000
2.753530 0.053020 -0.629090 36.000000
2.753961 0.022674 -0.629176 36.000000
2.758922 -0.007773 -0.630290 48.000000
2.734293 -0.037836 -0.624636 33.000000
2.723948 -0.067811 -0.622324 31.000000
2.703609 -0.097135 -0.617702 10.000000
2.697555 -0.126801 -0.616504 8.000000
2.710547 -0.157404 -0.619758 8.000000
2.694089 -0.186312 -0.616251 8.000000
2.667680 -0.214034 -0.610437 6.000000
2.655457 -0.242551 -0.607880 8.000000
2.657552 -0.272344 -0.608824 8.000000
2.654459 -0.301694 -0.608573 8.000000
2.665543 -0.332772 -0.611652 8.000000
2.652098 -0.360884 -0.609097 8.000000
2.648077 -0.390120 -0.608678 8.000000
2.682160 -0.425467 -0.617208 21.000000
2.662980 -0.452593 -0.613546 11.000000
2.681896 -0.486276 -0.618571 32.000000
2.614278 -0.503794 -0.603769 10.000000
2.594280 -0.529693 -0.600038 9.000000
2.626616 -0.566419 -0.608205 9.000000
2.615555 -0.594261 -0.606598 8.000000
2.599438 -0.620948 -0.603974 8.000000
2.611505 -0.654287 -0.607793 8.000000
2.571236 -0.674348 -0.599420 6.000000
2.615497 -0.716888 -0.611010 9.000000
2.621677 -0.749843 -0.613709 16.000000
2.655480 -0.791210 -0.622897 34.000000
2.642066 -0.819060 -0.621108 33.000000
2.637712 -0.849712 -0.621510 34.000000
2.632979 -0.880207 -0.621823 36.000000
2.623255 -0.909205 -0.620955 31.000000
2.572021 -0.923193 -0.610364 9.000000
2.602939 -0.966942 -0.619392 15.000000
2.592346 -0.995507 -0.618524 10.000000
2.590393 -1.027758 -0.619913 11.000000
2.579241 -1.056162 -0.618868 10.000000
2.567566 -1.084653 -0.617997 10.000000
2.573532 -1.120853 -0.621449 15.000000
2.552253 -1.145283 -0.618413 10.000000
2.544094 -1.175572 -0.618528 8.000000
2.579906 -1.226308 -0.629221 20.000000
2.535717 -1.239768 -0.620634 10.000000
2.552591 -1.283169 -0.627079 13.000000
2.525558 -1.304562 -0.622797 11.000000
2.524205 -1.339226 -0.624847 10.000000
2.534944 -1.381549 -0.630354 16.000000
2.528321 -1.414275 -0.631311 9.000000
2.487423 -1.427552 -0.623670 8.000000
2.535003 -1.492048 -0.638321 13.000000
2.510376 -1.514923 -0.634918 10.000000
2.497594 -1.545601 -0.634876 10.000000
2.484848 -1.575731 -0.634554 10.000000
2.484067 -1.613664 -0.637384 10.000000
2.474731 -1.646357 -0.638003 11.000000
2.468482 -1.682357 -0.639939 9.000000
2.470260 -1.723382 -0.643578 8.000000
2.462928 -1.759639 -0.645484 10.000000
2.432004 -1.777993 -0.640758 9.000000
2.432319 -1.819241 -0.644348 10.000000
2.423694 -1.855452 -0.646033 10.000000
2.426811 -1.900017 -0.650514 9.000000
2.420840 -1.939458 -0.653097 13.000000
2.411300 -1.975170 -0.654437 9.000000
2.408088 -2.018005 -0.658007 8.000000
2.397590 -2.053713 -0.659212 11.000000
2.382021 -2.087132 -0.659577 9.000000
2.385140 -2.135859 -0.664818 10.000000
2.375933 -2.175830 -0.667076 10.000000
2.351736 -2.202436 -0.665370 9.000000
2.363523 -2.261798 -0.673341 14.000000
2.324446 -2.274597 -0.667485 10.000000
2.303695 -2.303187 -0.666360 9.000000
2.141094 -2.188969 -0.624466 10.000000
2.032196 -2.124390 -0.597748 9.000000
1.939247 -2.071240 -0.574883 10.000000
1.843465 -2.013362 -0.551340 10.000000
1.756787 -1.960243 -0.529740 12.000000
1.702763 -1.942959 -0.518267 28.000000
1.662150 -1.939679 -0.510697 28.000000
1.637616 -1.954523 -0.508130 10.000000
1.616986 -1.972058 -0.506226 32.000000
1.589110 -1.982494 -0.502619 29.000000
1.576292 -2.011863 -0.503781 29.000000
1.558210 -2.032611 -0.502836 28.000000
1.538691 -2.053902 -0.502044 26.000000
1.527621 -2.086980 -0.504114 30.000000
1.497257 -2.091250 -0.499246 21.000000
1.482670 -2.120030 -0.500335 10.000000
1.453732 -2.128567 -0.496593 29.000000
1.438433 -2.157085 -0.497578 23.000000
1.432126 -2.196997 -0.501114 24.000000
1.413199 -2.221338 -0.501110 25.000000
1.393927 -2.245470 -0.501009 24.000000
1.371680 -2.265353 -0.499967 29.000000
1.353243 -2.288287 -0.499675 21.000000
1.364888 -2.367344 -0.511409 9.000000
0.941264 1.649994 -0.341143 8.000000
0.956802 1.635028 -0.341610 10.000000
0.971074 1.620527 -0.342129 25.000000
0.988828 1.609512 -0.343477 19.000000
1.001223 1.589937 -0.342970 27.000000
1.018593 1.578571 -0.344252 22.000000
1.041270 1.575234 -0.347285 23.000000
1.057559 1.564043 -0.348691 30.000000
1.083064 1.564156 -0.352715 22.000000
1.088817 1.535892 -0.350296 21.000000
1.094043 1.507649 -0.347795 27.000000
1.118441 1.507692 -0.351888 26.000000
1.140879 1.502871 -0.354961 32.000000
1.151316 1.482220 -0.354278 22.000000
1.163708 1.465957 -0.354630 30.000000
1.195177 1.471825 -0.360461 34.000000
1.211315 1.458337 -0.361639 21.000000
1.220918 1.437187 -0.360879 32.000000
1.239136 1.427653 -0.363052 29.000000
1.251504 1.410000 -0.363223 28.000000
1.273571 1.403090 -0.366233 34.000000
1.284959 1.385709 -0.366460 26.000000
1.303492 1.374701 -0.368472 34.000000
1.328818 1.370546 -0.372404 34.000000
1.346695 1.359608 -0.374551 27.000000
1.365123 1.347821 -0.376526 33.000000
1.369272 1.322146 -0.374644 26.000000
1.386869 1.310596 -0.376737 35.000000
1.422846 1.314899 -0.383512 62.000000
1.436769 1.299348 -0.384657 34.000000
1.454667 1.286323 -0.386598 67.000000
1.472515 1.273095 -0.388483 51.000000
1.497253 1.266479 -0.392517 34.000000
1.511169 1.249573 -0.393433 30.000000
1.539720 1.245301 -0.398415 28.000000
1.549560 1.224877 -0.398290 34.000000
1.570351 1.213838 -0.401255 38.000000
1.579789 1.193149 -0.401127 30.000000
1.604314 1.184558 -0.405100 45.000000
1.625241 1.172155 -0.407902 35.000000
1.633780 1.151422 -0.407900 28.000000
1.662560 1.144102 -0.412654 35.000000
1.682949 1.131273 -0.415605 32.000000
1.690920 1.110013 -0.415483 32.000000
1.715454 1.098906 -0.419263 35.000000
1.731413 1.082586 -0.421161 31.000000
1.759713 1.073699 -0.426036 37.000000
1.788300 1.063862 -0.430798 36.000000
1.803948 1.046604 -0.432656 31.000000
1.827976 1.033878 -0.436554 36.000000
1.864760 1.027828 -0.443456 33.000000
1.888915 1.013864 -0.447183 35.000000
1.904146 0.995212 -0.448941 43.000000
1.927950 0.980836 -0.452818 35.000000
1.947242 0.963798 -0.455612 34.000000
1.975244 0.950742 -0.460400 43.000000
1.976566 0.924720 -0.459094 29.000000
2.022134 0.919070 -0.468021 28.000000
2.040992 0.900645 -0.470709 32.000000
2.055161 0.879956 -0.472439 29.000000
2.087022 0.866814 -0.478313 34.000000
2.123624 0.854577 -0.485167 30.000000
2.141879 0.834634 -0.487814 32.000000
2.178229 0.821466 -0.494768 36.000000
2.205469 0.803979 -0.499512 25.000000
2.223190 0.782985 -0.502255 34.000000
2.264057 0.769286 -0.510071 38.000000
2.290777 0.750453 -0.514846 35.000000
2.312815 0.729590 -0.518584 36.000000
2.343927 0.711182 -0.524347 42.000000
2.374963 0.692183 -0.530120 34.000000
2.434166 0.680408 -0.542118 59.000000
2.465035 0.659828 -0.547839 30.000000
2.476780 0.633799 -0.549367 31.000000
2.521472 0.615865 -0.558257 34.000000
2.556600 0.594554 -0.564974 37.000000
2.605864 0.575943 -0.574943 36.000000
2.631081 0.551208 -0.579575 44.000000
2.651254 0.525104 -0.583242 31.000000
2.690454 0.502100 -0.590967 34.000000
2.719821 0.476667 -0.596588 18.000000
2.758580 0.452199 -0.604329 36.000000
2.801941 0.427725 -0.613135 78.000000
2.820971 0.398802 -0.616573 86.000000
2.839689 0.369648 -0.620014 95.000000
2.833829 0.337108 -0.618165 95.000000
2.827588 0.304871 -0.616226 92.000000
2.830696 0.273701 -0.616492 95.000000
2.799458 0.239525 -0.609165 21.000000
2.777550 0.206914 -0.604129 11.000000
2.813773 0.178376 -0.611636 26.000000
2.791136 0.146107 -0.606511 54.000000
2.797414 0.115586 -0.607658 74.000000
2.783812 0.084279 -0.604477 58.000000
2.789480 0.053671 -0.605537 67.000000
2.799688 0.022995 -0.607746 92.000000
2.819320 -0.007924 -0.611900 64.000000
2.804398 -0.038713 -0.608631 89.000000
2.823412 -0.070116 -0.612784 85.000000
2.817559 -0.101074 -0.611724 95.000000
2.772397 -0.130092 -0.602009 16.000000
2.761081 -0.160034 -0.599717 9.000000
2.754306 -0.190098 -0.598485 8.000000
2.742322 -0.219664 -0.596108 9.000000
2.734965 -0.249460 -0.594878 8.000000
2.717465 -0.278067 -0.591447 9.000000
2.733732 -0.310210 -0.595421 9.000000
2.730210 -0.340278 -0.595164 9.000000
2.745714 -0.372976 -0.599046 9.000000
2.722220 -0.400412 -0.594562 12.000000
2.761111 -0.437274 -0.603718 30.000000
2.693582 -0.457019 -0.589570 11.000000
2.712512 -0.490970 -0.594413 8.000000
2.663892 -0.512521 -0.584505 8.000000
2.677376 -0.545642 -0.588206 8.000000
2.671234 -0.575155 -0.587694 8.000000
2.674457 -0.606660 -0.589283 9.000000
2.662939 -0.635059 -0.587805 8.000000
2.670161 -0.667841 -0.590353 8.000000
2.653228 -0.694744 -0.587742 8.000000
2.650239 -0.725311 -0.588189 8.000000
2.661071 -0.759837 -0.591771 9.000000
2.676127 -0.796086 -0.596389 32.000000
2.671998 -0.826893 -0.596735 36.000000
2.676888 -0.860798 -0.599075 58.000000
2.667412 -0.890102 -0.598373 39.000000
2.652963 -0.918071 -0.596632 31.000000
2.638287 -0.945412 -0.594806 29.000000
2.655311 -0.984819 -0.600327 21.000000
2.644621 -1.013798 -0.599355 21.000000
2.637949 -1.044842 -0.599683 16.000000
2.635500 -1.077663 -0.600862 17.000000
2.641810 -1.113951 -0.604008 21.000000
2.625073 -1.141150 -0.602085 14.000000
2.608021 -1.168071 -0.600165 13.000000
2.626296 -1.211110 -0.606367 18.000000
2.612949 -1.240057 -0.605375 15.000000
2.621323 -1.279559 -0.609496 21.000000
2.607318 -1.308388 -0.608495 15.000000
2.593040 -1.337035 -0.607404 16.000000
2.587051 -1.370173 -0.608347 21.000000
2.584623 -1.406026 -0.610391 16.000000
2.586408 -1.444002 -0.613345 10.000000
2.540879 -1.455399 -0.605063 11.000000
2.554559 -1.500591 -0.610853 10.000000
2.562926 -1.544281 -0.615885 16.000000
2.529475 -1.562143 -0.610557 10.000000
2.533128 -1.602933 -0.614185 13.000000
2.519402 -1.633893 -0.614066 15.000000
2.501630 -1.661487 -0.612663 10.000000
2.512033 -1.708084 -0.618240 9.000000
2.504986 -1.744678 -0.619996 11.000000
2.498039 -1.780493 -0.621453 10.000000
2.486185 -1.814258 -0.622097 15.000000
2.478323 -1.850173 -0.623528 10.000000
2.477193 -1.892783 -0.627014 10.000000
2.476129 -1.934854 -0.630280 15.000000
2.435464 -1.947226 -0.624005 10.000000
2.463855 -2.014063 -0.634977 10.000000
2.445236 -2.044739 -0.634369 10.000000
2.441858 -2.087253 -0.637450 10.000000
2.433441 -2.127451 -0.639734 15.000000
2.420781 -2.164510 -0.641030 10.000000
2.404892 -2.197291 -0.641041 13.000000
2.405570 -2.247690 -0.646059 18.000000
2.399255 -2.290639 -0.648810 12.000000
2.419532 -2.361919 -0.659500 18.000000
2.292618 -2.288388 -0.629929 10.000000
2.172114 -2.214931 -0.601276 10.000000
2.069463 -2.157742 -0.577721 13.000000
1.961608 -2.091354 -0.552312 12.000000
1.879642 -2.047276 -0.533475 17.000000
1.801239 -2.006142 -0.515860 24.000000
1.707829 -1.944969 -0.493660 24.000000
1.690444 -1.967029 -0.492825 30.000000
1.640327 -1.951952 -0.482840 25.000000
1.603191 -1.951264 -0.476620 25.000000
1.587856 -1.976808 -0.476900 29.000000
1.564111 -1.989873 -0.474168 24.000000
1.557080 -2.026807 -0.477106 30.000000
1.522978 -2.028380 -0.471782 30.000000
1.507619 -2.052524 -0.471793 25.000000
1.496560 -2.085260 -0.473684 25.000000
1.484833 -2.118014 -0.475548 21.000000
1.469812 -2.146722 -0.476565 24.000000
1.442061 -2.154125 -0.472753 28.000000
1.426413 -2.182562 -0.473665 21.000000
1.415624 -2.219153 -0.476337 28.000000
1.383414 -2.222457 -0.471799 25.000000
1.369116 -2.254707 -0.473466 21.000000
1.345807 -2.269183 -0.471421 23.000000
1.338195 -2.313981 -0.475672 6.000000
0.957155 1.672740 -0.328379 8.000000
0.952902 1.623628 -0.322044 24.000000
0.969572 1.613486 -0.323443 28.000000
0.987234 1.602469 -0.324667 31.000000
1.002148 1.587112 -0.325038 25.000000
1.019473 1.575776 -0.326259 36.000000
1.039402 1.568371 -0.328281 33.000000
1.058369 1.561314 -0.330485 33.000000
1.075376 1.549392 -0.331654 32.000000
1.078064 1.517168 -0.328477 26.000000
1.103305 1.516942 -0.332247 30.000000
1.119060 1.505141 -0.333526 32.000000
1.135454 1.492525 -0.334631 33.000000
1.151790 1.479735 -0.335793 33.000000
1.174083 1.474412 -0.338667 35.000000
1.190154 1.461204 -0.339718 31.000000
1.208555 1.452187 -0.341836 33.000000
1.211679 1.423608 -0.339377 28.000000
1.240137 1.424766 -0.344004 37.000000
1.255078 1.411348 -0.345176 35.000000
1.267180 1.393588 -0.345270 34.000000
1.285781 1.382930 -0.347227 39.000000
1.311062 1.379148 -0.350943 35.000000
1.332380 1.371970 -0.353885 33.000000
1.347456 1.356953 -0.354894 43.000000
1.358793 1.338368 -0.354929 25.000000
1.372884 1.323567 -0.355994 49.000000
1.387389 1.308115 -0.356942 52.000000
1.419780 1.309140 -0.362501 43.000000
1.444576 1.303544 -0.366295 73.000000
1.451528 1.280789 -0.365347 42.000000
1.472492 1.271338 -0.368289 66.000000
1.490204 1.257950 -0.370067 56.000000
1.507804 1.244297 -0.371850 21.000000
1.524804 1.230863 -0.373819 34.000000
1.542175 1.216736 -0.375549 32.000000
1.559002 1.202890 -0.377467 44.000000
1.587902 1.197153 -0.382036 41.000000
1.604585 1.182639 -0.383908 35.000000
1.629484 1.173216 -0.387556 37.000000
1.646043 1.158130 -0.389442 35.000000
1.650652 1.134053 -0.388290 21.000000
1.670880 1.121407 -0.391069 37.000000
1.695521 1.110706 -0.394624 36.000000
1.719770 1.099985 -0.398379 36.000000
1.740157 1.085884 -0.400996 64.000000
1.751765 1.066686 -0.401825 38.000000
1.788491 1.062458 -0.408369 45.000000
1.817054 1.052236 -0.412940 59.000000
1.819808 1.027364 -0.411790 24.000000
1.847984 1.016801 -0.416379 47.000000
1.863396 0.998384 -0.418005 47.000000
1.904554 0.993747 -0.425529 54.000000
1.928298 0.979424 -0.429184 53.000000
1.952053 0.964611 -0.432781 39.000000
1.971190 0.947314 -0.435479 50.000000
1.985772 0.927680 -0.437137 45.000000
2.009125 0.911797 -0.440689 20.000000
2.036890 0.897526 -0.445299 33.000000
2.069058 0.884648 -0.450834 43.000000
2.083112 0.863693 -0.452377 34.000000
2.115120 0.849809 -0.457933 42.000000
2.147043 0.835280 -0.463431 42.000000
2.169769 0.816722 -0.466966 33.000000
2.219880 0.807991 -0.476513 34.000000
2.237806 0.786677 -0.479008 25.000000
2.246151 0.762158 -0.479598 45.000000
2.300926 0.752503 -0.489960 60.000000
2.318264 0.730195 -0.492549 34.000000
2.349508 0.711794 -0.498049 36.000000
2.385304 0.694092 -0.504555 55.000000
2.397373 0.669184 -0.506016 35.000000
2.461304 0.657935 -0.518445 35.000000
2.458872 0.628372 -0.516925 24.000000
2.508348 0.611708 -0.526308 35.000000
2.538640 0.589668 -0.531789 38.000000
2.588027 0.571164 -0.541116 34.000000
