x y z intensity
2.324037 -1.685426 1.436017 29.000000
2.291742 -1.702183 1.423565 10.000000
2.258509 -1.719083 1.411641 18.000000
2.253580 -1.757381 1.417334 32.000000
2.237612 -1.787340 1.416338 33.000000
2.214445 -1.811509 1.410812 34.000000
2.187706 -1.832421 1.402992 33.000000
2.174336 -1.864662 1.403997 33.000000
2.143861 -1.881959 1.393810 32.000000
2.130008 -1.913741 1.394507 24.000000
2.095963 -1.927223 1.382080 22.000000
2.088115 -1.964673 1.387022 30.000000
2.066926 -1.989750 1.383134 30.000000
2.048656 -2.017601 1.381314 32.000000
2.032129 -2.049414 1.382129 30.000000
2.010156 -2.073730 1.378027 33.000000
1.984784 -2.094476 1.371681 31.000000
1.964258 -2.122363 1.370117 24.000000
1.929564 -2.132389 1.357284 21.000000
1.918945 -2.168945 1.361426 32.000000
1.909431 -2.209806 1.368027 33.000000
1.889030 -2.236002 1.365613 33.000000
1.866878 -2.262861 1.363581 30.000000
1.855836 -2.303628 1.369940 32.000000
1.834570 -2.329282 1.367159 32.000000
1.808564 -2.352000 1.362874 24.000000
1.784052 -2.373522 1.357892 19.000000
1.746980 -2.380868 1.345118 10.000000
1.672820 -2.335921 1.303382 13.000000
1.581762 -2.263346 1.247489 17.000000
1.468363 -2.150311 1.170909 13.000000
1.386389 -2.081172 1.119815 16.000000
1.311228 -2.017985 1.073042 16.000000
1.245083 -1.964826 1.032586 10.000000
1.153784 -1.867529 0.970166 10.000000
1.130842 -1.878037 0.964563 18.000000
1.086910 -1.852642 0.940848 24.000000
1.065740 -1.861688 0.934915 26.000000
0.881786 1.536110 0.791381 26.000000
0.907924 1.540461 0.802590 35.000000
0.924791 1.528738 0.805641 26.000000
0.942802 1.521304 0.810994 18.000000
0.942442 1.482368 0.799494 33.000000
0.966089 1.481721 0.808616 28.000000
0.977303 1.461879 0.807352 32.000000
0.987232 1.442458 0.806293 33.000000
1.013575 1.444742 0.817520 28.000000
1.026836 1.428121 0.818141 36.000000
1.047006 1.422926 0.825453 24.000000
1.068226 1.416825 0.832378 18.000000
1.064542 1.378248 0.820158 36.000000
1.087283 1.375903 0.829509 32.000000
1.096875 1.355088 0.827765 44.000000
1.108191 1.338300 0.828441 45.000000
1.137639 1.341458 0.841759 35.000000
1.145895 1.320784 0.840165 61.000000
1.160578 1.306338 0.842593 31.000000
1.195560 1.315501 0.860567 24.000000
1.203418 1.294329 0.858848 59.000000
1.214772 1.275842 0.858995 35.000000
1.234617 1.267502 0.865963 60.000000
1.244976 1.249233 0.866284 43.000000
1.261550 1.237142 0.871013 37.000000
1.281247 1.227953 0.877912 60.000000
1.307556 1.224487 0.889221 29.000000
1.314136 1.202454 0.887144 22.000000
1.330467 1.189341 0.891747 48.000000
1.350107 1.178904 0.898481 37.000000
1.366295 1.165282 0.902991 52.000000
1.375500 1.145618 0.902947 45.000000
1.394967 1.134360 0.909542 33.000000
1.403835 1.114493 0.909370 61.000000
1.422532 1.103146 0.916299 30.000000
1.452432 1.099075 0.929636 25.000000
1.460958 1.078583 0.929355 35.000000
1.475960 1.063627 0.933818 33.000000
1.491330 1.048085 0.937978 51.000000
1.506130 1.032643 0.942398 35.000000
1.517105 1.014456 0.944467 33.000000
1.547051 1.007881 0.957607 58.000000
1.561587 0.991597 0.961882 29.000000
1.583524 0.979761 0.970724 26.000000
1.616871 0.974322 0.986477 37.000000
1.638862 0.961479 0.995257 36.000000
1.653180 0.943774 0.999283 54.000000
1.675021 0.930207 1.007972 51.000000
1.688624 0.912356 1.012287 36.000000
1.706518 0.895937 1.018549 61.000000
1.708027 0.871496 1.015731 28.000000
1.741443 0.862463 1.031183 25.000000
1.770467 0.851215 1.044666 35.000000
1.783564 0.831827 1.048647 32.000000
1.800518 0.814023 1.054922 35.000000
1.821383 0.797659 1.063500 36.000000
1.842158 0.780936 1.072029 34.000000
1.870991 0.767054 1.085166 42.000000
1.879395 0.744502 1.086497 28.000000
1.907727 0.729956 1.099890 30.000000
1.928114 0.711517 1.108142 51.000000
1.939812 0.689974 1.111943 33.000000
1.972131 0.675314 1.127500 37.000000
1.987715 0.654413 1.133565 44.000000
2.028286 0.641188 1.153724 37.000000
2.051974 0.621914 1.164376 49.000000
2.058452 0.597490 1.165717 30.000000
2.086163 0.578637 1.178563 26.000000
2.121964 0.561600 1.196442 36.000000
2.132170 0.537343 1.199905 33.000000
2.150706 0.514951 1.208090 33.000000
2.186190 0.495982 1.225726 36.000000
2.204359 0.472620 1.233628 29.000000
2.226493 0.449820 1.244256 35.000000
2.261307 0.428982 1.262032 25.000000
2.283056 0.405129 1.272454 28.000000
2.321925 0.383560 1.292353 42.000000
2.365089 0.361828 1.314596 33.000000
2.399039 0.337946 1.332293 36.000000
2.411442 0.310375 1.337450 36.000000
2.436414 0.284204 1.350098 33.000000
2.461185 0.257430 1.362669 33.000000
2.485400 0.230223 1.375424 28.000000
2.522841 0.203380 1.394905 26.000000
2.564094 0.176093 1.417162 32.000000
2.622620 0.148773 1.448822 36.000000
2.628458 0.117750 1.451512 29.000000
2.673498 0.087824 1.475663 35.000000
2.700411 0.056582 1.490531 32.000000
2.740183 0.024835 1.512368 32.000000
2.779675 -0.007945 1.534209 35.000000
2.849516 -0.042019 1.572667 35.000000
2.879553 -0.076808 1.589276 36.000000
2.904696 -0.112058 1.603768 35.000000
2.964491 -0.149699 1.637376 33.000000
3.006325 -0.187705 1.661211 36.000000
3.074092 -0.228701 1.699307 29.000000
3.110454 -0.268724 1.720922 26.000000
3.151210 -0.309892 1.744065 34.000000
3.204165 -0.353647 1.774863 33.000000
3.217514 -0.393848 1.783832 36.000000
3.182380 -0.428150 1.766510 35.000000
3.151672 -0.462140 1.751052 30.000000
3.133363 -0.497684 1.743053 36.000000
3.106129 -0.531329 1.730138 32.000000
3.082848 -0.565140 1.719530 20.000000
3.068023 -0.600005 1.713415 35.000000
3.035625 -0.631096 1.697702 32.000000
3.019938 -0.665456 1.691931 35.000000
2.995316 -0.697513 1.681155 34.000000
2.966199 -0.728009 1.667889 29.000000
2.953877 -0.762171 1.664114 32.000000
2.924309 -0.791537 1.650458 33.000000
2.864554 -0.812222 1.620720 18.000000
2.851548 -0.844907 1.616470 32.000000
2.829451 -0.875102 1.607867 32.000000
2.815497 -0.907589 1.603838 29.000000
2.805433 -0.941169 1.602092 32.000000
2.786755 -0.971648 1.595488 31.000000
2.784381 -1.007816 1.598293 34.000000
2.764640 -1.038199 1.592007 32.000000
2.712444 -1.055002 1.566062 20.000000
2.720970 -1.095807 1.576079 32.000000
2.672170 -1.113179 1.552876 33.000000
2.680082 -1.153874 1.562573 32.000000
2.659195 -1.182312 1.555737 36.000000
2.622247 -1.202998 1.539299 32.000000
2.616953 -1.238108 1.541604 33.000000
2.587665 -1.261499 1.529717 29.000000
2.553604 -1.282923 1.515913 23.000000
2.559410 -1.323380 1.524842 35.000000
2.540684 -1.352144 1.520318 35.000000
2.526280 -1.382243 1.517338 32.000000
2.510884 -1.412639 1.514755 36.000000
2.495189 -1.442837 1.512172 34.000000
2.464061 -1.463786 1.500215 34.000000
2.451753 -1.495712 1.499667 33.000000
2.386579 -1.494482 1.466771 18.000000
2.392600 -1.537457 1.477598 31.000000
2.367779 -1.561814 1.470550 32.000000
2.361850 -1.597555 1.474221 31.000000
2.355565 -1.633365 1.477764 37.000000
2.315419 -1.646544 1.461287 31.000000
2.297771 -1.674138 1.457777 25.000000
2.282617 -1.704785 1.457129 18.000000
2.235279 -1.710959 1.435829 15.000000
2.248723 -1.762124 1.452559 33.000000
2.215251 -1.778343 1.440190 33.000000
2.188723 -1.799599 1.432374 30.000000
2.172275 -1.829024 1.431136 34.000000
2.145419 -1.849489 1.423153 31.000000
2.138511 -1.887345 1.428530 30.000000
2.121192 -1.916239 1.427064 30.000000
2.077222 -1.920610 1.407670 19.000000
2.075817 -1.964252 1.417237 31.000000
2.057815 -1.992390 1.415461 32.000000
2.042640 -2.023567 1.415881 31.000000
2.023883 -2.051410 1.413975 35.000000
1.992487 -2.066103 1.403175 29.000000
1.972168 -2.094141 1.401660 29.000000
1.952851 -2.121278 1.399547 27.000000
1.927148 -2.141406 1.392969 17.000000
1.923842 -2.189015 1.404255 32.000000
1.883016 -2.191700 1.386636 29.000000
1.878662 -2.239365 1.397725 28.000000
1.849305 -2.254829 1.388679 32.000000
1.835365 -2.292099 1.393013 29.000000
1.814051 -2.317677 1.390289 29.000000
1.790871 -2.343821 1.387947 26.000000
1.767412 -2.369835 1.385692 17.000000
1.734695 -2.380074 1.374268 15.000000
1.663537 -2.338978 1.333786 13.000000
1.572974 -2.266548 1.276748 11.000000
1.467861 -2.165097 1.204980 14.000000
1.373763 -2.077410 1.142391 12.000000
1.301550 -2.018108 1.096670 13.000000
1.230778 -1.957400 1.051331 10.000000
1.141513 -1.859619 0.987294 9.000000
1.118635 -1.870032 0.981586 18.000000
1.075023 -1.844764 0.957409 24.000000
0.879237 1.545123 0.813191 23.000000
0.896300 1.533668 0.816294 26.000000
0.913244 1.521974 0.819396 16.000000
0.930009 1.510161 0.822439 21.000000
0.940625 1.491040 0.821556 20.000000
0.954548 1.475070 0.822404 23.000000
0.973331 1.466585 0.827432 29.000000
0.986932 1.450323 0.828206 21.000000
1.014822 1.456719 0.842057 30.000000
1.015214 1.421665 0.832036 27.000000
1.040622 1.423711 0.843738 24.000000
1.051029 1.403192 0.842153 28.000000
1.066640 1.389718 0.844883 25.000000
1.072785 1.366043 0.841312 31.000000
1.099255 1.366333 0.852649 32.000000
1.119308 1.359762 0.859952 24.000000
1.124928 1.335703 0.856220 35.000000
1.136955 1.318002 0.856506 31.000000
1.153835 1.307390 0.861503 31.000000
1.173728 1.299853 0.868677 29.000000
1.188285 1.284938 0.871063 30.000000
1.198933 1.267071 0.871454 31.000000
1.224877 1.265157 0.883037 33.000000
1.247834 1.259646 0.892366 35.000000
1.254988 1.237991 0.890401 33.000000
1.265097 1.219406 0.890672 32.000000
1.297668 1.222168 0.906677 31.000000
1.301081 1.197130 0.902300 24.000000
1.317355 1.184052 0.906942 22.000000
1.333572 1.170711 0.911534 31.000000
1.349670 1.157166 0.916077 32.000000
1.369116 1.146205 0.922865 30.000000
1.381630 1.129276 0.925012 32.000000
1.400401 1.118188 0.932080 32.000000
1.412668 1.100865 0.934176 31.000000
1.424813 1.083420 0.936149 25.000000
1.446882 1.074076 0.945398 29.000000
1.476727 1.069166 0.958961 34.000000
1.469984 1.038553 0.949497 32.000000
1.502872 1.035777 0.965637 31.000000
1.510298 1.015101 0.965436 35.000000
1.525370 0.998785 0.969418 32.000000
1.547241 0.987378 0.978428 29.000000
1.576630 0.980166 0.992115 24.000000
1.594770 0.965588 0.998700 26.000000
1.616611 0.952871 1.007603 30.000000
1.645647 0.944457 1.021599 31.000000
1.659814 0.926543 1.025684 32.000000
1.673831 0.908404 1.029644 34.000000
1.691121 0.892355 1.036391 32.000000
1.704921 0.873716 1.040237 31.000000
1.722032 0.857073 1.046813 18.000000
1.754903 0.847744 1.062914 27.000000
1.763981 0.826606 1.064540 27.000000
1.792821 0.814333 1.078104 27.000000
1.805603 0.794449 1.082016 25.000000
1.830382 0.779412 1.093089 26.000000
1.842883 0.758912 1.096885 26.000000
1.863420 0.741483 1.105375 24.000000
1.879349 0.722260 1.111746 25.000000
1.907510 0.707334 1.125391 26.000000
1.935982 0.691489 1.138496 30.000000
1.980582 0.680976 1.161613 29.000000
1.983741 0.655777 1.160428 23.000000
2.011272 0.638757 1.174188 29.000000
2.039092 0.620872 1.187385 30.000000
2.041750 0.595003 1.185844 22.000000
2.081559 0.579927 1.206683 24.000000
2.091895 0.556123 1.210256 22.000000
2.119021 0.536349 1.223527 28.000000
2.141719 0.514971 1.234220 22.000000
2.159946 0.492141 1.242405 22.000000
2.190633 0.471836 1.258255 24.000000
2.225714 0.451550 1.275948 20.000000
2.226123 0.424103 1.274451 10.000000
2.252014 0.401264 1.287506 20.000000
2.312211 0.383535 1.320044 22.000000
2.337594 0.359177 1.333306 22.000000
2.367361 0.334832 1.348458 22.000000
2.387985 0.308750 1.359042 19.000000
2.417136 0.283185 1.374385 21.000000
2.472074 0.259728 1.404324 21.000000
2.431519 0.226074 1.379987 9.000000
2.524759 0.204432 1.432266 18.000000
2.552761 0.176034 1.447569 18.000000
2.584967 0.147261 1.465166 18.000000
2.621195 0.117865 1.485049 22.000000
2.639787 0.087064 1.494900 19.000000
2.692635 0.056671 1.524832 19.000000
2.749570 0.024977 1.557048 24.000000
2.775771 -0.007983 1.571830 25.000000
2.827782 -0.041954 1.601196 28.000000
2.849034 -0.076258 1.613213 25.000000
2.908807 -0.112698 1.647694 26.000000
2.950732 -0.149712 1.672220 27.000000
2.996745 -0.187935 1.698889 24.000000
3.037933 -0.226974 1.722977 21.000000
3.104859 -0.269308 1.761703 27.000000
3.144900 -0.310624 1.785976 26.000000
3.193165 -0.354045 1.814933 29.000000
3.189111 -0.392220 1.814145 28.000000
3.167458 -0.427950 1.803416 27.000000
3.140876 -0.462633 1.790575 28.000000
3.114362 -0.496689 1.777079 27.000000
3.091553 -0.530969 1.766382 23.000000
3.038370 -0.559315 1.738422 20.000000
3.027927 -0.594717 1.734674 22.000000
2.999678 -0.626560 1.721672 25.000000
2.997070 -0.663330 1.722617 26.000000
2.964072 -0.693250 1.706871 26.000000
2.952061 -0.727672 1.703149 29.000000
2.922859 -0.757509 1.689453 26.000000
2.910306 -0.791314 1.685430 19.000000
2.868066 -0.816440 1.664250 23.000000
2.858687 -0.850936 1.662999 24.000000
2.828241 -0.878847 1.649377 27.000000
2.806355 -0.908432 1.639915 24.000000
2.796261 -0.942009 1.638165 26.000000
2.773476 -0.971147 1.629038 28.000000
2.758189 -1.003183 1.625283 26.000000
2.735053 -1.031519 1.615876 16.000000
2.719763 -1.062543 1.611116 26.000000
2.691515 -1.088746 1.599734 27.000000
2.691499 -1.126294 1.605042 30.000000
2.662808 -1.151752 1.593382 28.000000
2.646078 -1.181985 1.588756 29.000000
2.609066 -1.202739 1.572036 29.000000
2.607763 -1.239674 1.576826 25.000000
2.566610 -1.257478 1.557568 14.000000
2.549080 -1.286194 1.552498 26.000000
2.530601 -1.315112 1.547931 26.000000
2.535827 -1.355681 1.556962 29.000000
2.516804 -1.384297 1.552190 30.000000
2.489868 -1.408287 1.542580 27.000000
2.463469 -1.431207 1.532301 29.000000
2.443792 -1.458764 1.527173 29.000000
2.405176 -1.474414 1.510254 13.000000
2.396430 -1.508116 1.512035 24.000000
2.379973 -1.537015 1.508998 24.000000
2.366117 -1.568745 1.508895 30.000000
2.338086 -1.589746 1.498633 28.000000
2.320898 -1.617773 1.495312 26.000000
2.303418 -1.645703 1.491894 30.000000
2.281391 -1.671310 1.486638 18.000000
2.263450 -1.698611 1.483031 9.000000
2.251462 -1.731705 1.484542 21.000000
2.221649 -1.751054 1.474382 24.000000
2.196246 -1.771961 1.465975 27.000000
2.169701 -1.793186 1.457979 26.000000
2.160042 -1.828303 1.461379 26.000000
2.139825 -1.854644 1.457880 25.000000
2.119510 -1.880791 1.454187 22.000000
2.098807 -1.906645 1.450493 14.000000
2.068123 -1.923109 1.439889 24.000000
2.050456 -1.951334 1.438187 22.000000
2.045117 -1.991894 1.445508 27.000000
2.014050 -2.007343 1.434747 22.000000
2.001758 -2.041308 1.437305 24.000000
1.976594 -2.062397 1.430866 27.000000
1.942226 -2.073323 1.417646 20.000000
1.957961 -2.140686 1.442714 14.000000
1.917105 -2.144376 1.424947 21.000000
1.900083 -2.174345 1.424767 18.000000
1.869790 -2.191397 1.416326 26.000000
1.849351 -2.217475 1.413823 21.000000
1.854298 -2.274679 1.431028 25.000000
1.820290 -2.287338 1.420090 28.000000
1.807242 -2.323568 1.423839 21.000000
1.802984 -2.375022 1.436710 17.000000
1.754951 -2.368774 1.414858 22.000000
1.727556 -2.386375 1.407513 10.000000
1.654066 -2.341717 1.364161 10.000000
1.565489 -2.268791 1.305521 10.000000
1.469564 -2.183477 1.241332 10.000000
1.363369 -2.077179 1.166843 10.000000
1.298909 -2.029581 1.126652 9.000000
1.227520 -1.964515 1.077891 9.000000
1.134903 -1.863860 1.010866 9.000000
1.102624 -1.858794 0.996654 10.000000
1.072904 -1.857146 0.984606 23.000000
0.902812 1.558088 0.846880 18.000000
0.933929 1.569556 0.862852 16.000000
0.925351 1.514887 0.842477 21.000000
0.927758 1.479890 0.832626 23.000000
0.945430 1.472110 0.838093 25.000000
0.961652 1.459855 0.841053 25.000000
0.979267 1.451687 0.846486 27.000000
0.987735 1.427828 0.842844 24.000000
1.024378 1.444374 0.863198 24.000000
1.039408 1.431689 0.866384 23.000000
1.055340 1.418282 0.869210 19.000000
1.053892 1.383777 0.858992 30.000000
1.063774 1.363157 0.857274 33.000000
1.086524 1.360455 0.866904 29.000000
1.098887 1.342986 0.867281 32.000000
1.110168 1.326002 0.867939 29.000000
1.132938 1.322415 0.877524 29.000000
1.156584 1.317896 0.886793 31.000000
1.173595 1.306941 0.891875 24.000000
1.187483 1.292392 0.894580 42.000000
1.192163 1.267934 0.890513 35.000000
1.214957 1.262753 0.899991 35.000000
1.237839 1.257223 0.909509 51.000000
1.245103 1.235580 0.907458 32.000000
1.261609 1.223240 0.912294 35.000000
1.274843 1.207529 0.914771 35.000000
1.294399 1.197717 0.921820 18.000000
1.314026 1.187622 0.928894 35.000000
1.330283 1.174193 0.933541 39.000000
1.343071 1.157672 0.935805 33.000000
1.369260 1.152349 0.947427 45.000000
1.377900 1.132983 0.947615 35.000000
1.397236 1.121307 0.954474 53.000000
1.398595 1.096234 0.949881 43.000000
1.438713 1.100185 0.970744 21.000000
1.446849 1.080054 0.970760 42.000000
1.458861 1.062036 0.972636 36.000000
1.470184 1.044269 0.974889 37.000000
1.488546 1.031320 0.981844 45.000000
1.510467 1.020529 0.991084 49.000000
1.521992 1.001659 0.992793 58.000000
1.558610 0.999623 1.011535 48.000000
1.565709 0.978239 1.011065 24.000000
1.594575 0.970876 1.025413 73.000000
1.627778 0.964709 1.041702 71.000000
1.642118 0.946923 1.045897 57.000000
1.656307 0.928912 1.049968 55.000000
1.669881 0.911007 1.054445 44.000000
1.691556 0.896638 1.063321 39.000000
1.697162 0.874120 1.062760 40.000000
1.733833 0.867255 1.081613 23.000000
1.758818 0.853877 1.093135 48.000000
1.779818 0.838055 1.102106 46.000000
1.792799 0.818257 1.106136 35.000000
1.805682 0.798224 1.110104 46.000000
1.822402 0.779601 1.116463 57.000000
1.830872 0.757454 1.117782 39.000000
1.855022 0.741841 1.129290 59.000000
1.879454 0.725486 1.140332 25.000000
1.891230 0.704326 1.144282 61.000000
1.923288 0.690269 1.160513 71.000000
1.951214 0.674129 1.174236 53.000000
1.974954 0.655979 1.185294 63.000000
1.998595 0.637357 1.196371 60.000000
2.017683 0.617140 1.205285 47.000000
2.036928 0.596327 1.213621 41.000000
2.084979 0.583547 1.239734 26.000000
2.099604 0.560659 1.245849 53.000000
2.126580 0.540621 1.259364 52.000000
2.140800 0.517023 1.265272 37.000000
2.175642 0.498136 1.284042 62.000000
2.193770 0.474559 1.292234 43.000000
2.219973 0.452486 1.305744 66.000000
2.250203 0.430717 1.321612 43.000000
2.271854 0.406647 1.332419 31.000000
2.301787 0.383508 1.348076 57.000000
2.344403 0.361732 1.371171 72.000000
2.356651 0.334770 1.377014 52.000000
2.398712 0.311503 1.400229 75.000000
2.427734 0.285707 1.415862 64.000000
2.439356 0.257389 1.421307 61.000000
2.463660 0.230071 1.434189 36.000000
2.508951 0.203988 1.459884 35.000000
2.541105 0.175974 1.477892 53.000000
2.594710 0.148379 1.508369 55.000000
2.613456 0.117979 1.518593 44.000000
2.649231 0.087737 1.538673 63.000000
2.671499 0.056391 1.551601 47.000000
2.706464 0.024644 1.571877 53.000000
2.749795 -0.007958 1.596987 34.000000
2.788511 -0.041533 1.619389 38.000000
2.835566 -0.076274 1.646707 35.000000
2.856069 -0.111148 1.659258 32.000000
2.919335 -0.148741 1.696808 35.000000
2.960741 -0.186531 1.721594 34.000000
2.997357 -0.224929 1.743651 31.000000
3.029392 -0.263882 1.762971 25.000000
3.099353 -0.307617 1.805273 32.000000
3.151623 -0.350976 1.837309 35.000000
3.164773 -0.391014 1.846661 37.000000
3.121793 -0.423674 1.823221 35.000000
3.100001 -0.458576 1.812099 32.000000
3.077490 -0.493176 1.801428 35.000000
3.063354 -0.528618 1.795548 34.000000
3.036038 -0.561492 1.782065 26.000000
3.017088 -0.595422 1.773375 31.000000
3.001999 -0.629828 1.766975 35.000000
2.994761 -0.666019 1.766111 35.000000
2.966425 -0.696929 1.751922 34.000000
2.941760 -0.728374 1.740674 34.000000
2.900079 -0.755043 1.719381 32.000000
2.895934 -0.790981 1.720286 30.000000
2.853792 -0.816174 1.698728 21.000000
2.832027 -0.846990 1.689927 34.000000
2.822883 -0.880865 1.687952 32.000000
2.804750 -0.912158 1.681441 36.000000
2.773915 -0.939071 1.667311 31.000000
2.767628 -0.973835 1.667931 33.000000
2.752832 -1.005611 1.663506 33.000000
2.725555 -1.032562 1.651486 29.000000
2.669244 -1.048089 1.622763 18.000000
2.678047 -1.088362 1.632745 37.000000
2.645714 -1.112344 1.618540 32.000000
2.657220 -1.154739 1.631145 34.000000
2.620575 -1.176197 1.614317 37.000000
2.599589 -1.204206 1.607112 33.000000
2.578483 -1.231823 1.599821 34.000000
2.568906 -1.264834 1.599761 26.000000
2.535618 -1.285888 1.584885 17.000000
2.529458 -1.320428 1.586964 34.000000
2.510662 -1.349247 1.582246 35.000000
2.492308 -1.377176 1.576839 35.000000
2.465497 -1.401086 1.567101 34.000000
2.449874 -1.431145 1.564431 35.000000
2.433955 -1.460907 1.561761 37.000000
2.403601 -1.480779 1.548682 28.000000
2.372461 -1.500586 1.536133 16.000000
2.370682 -1.538855 1.542687 34.000000
2.349340 -1.565802 1.537741 32.000000
2.328739 -1.591775 1.532117 34.000000
2.304199 -1.614844 1.524023 32.000000
2.283243 -1.640109 1.518132 30.000000
2.285884 -1.683952 1.529434 31.000000
2.246679 -1.695589 1.511599 10.000000
2.217207 -1.715189 1.501397 10.000000
2.198963 -1.741877 1.497612 34.000000
2.182884 -1.771734 1.496662 29.000000
2.170919 -1.803525 1.497266 32.000000
2.150931 -1.830241 1.493854 30.000000
2.130748 -1.856665 1.490148 29.000000
2.113477 -1.885840 1.488867 30.000000
2.089406 -1.908829 1.482738 28.000000
2.058829 -1.925390 1.471895 10.000000
2.053692 -1.965958 1.479554 32.000000
2.035443 -1.994299 1.477748 28.000000
2.013793 -2.019181 1.473634 32.000000
1.985644 -2.037500 1.464844 28.000000
1.966642 -2.065038 1.462829 29.000000
1.947375 -2.092358 1.460703 30.000000
1.942932 -2.135940 1.469905 24.000000
1.914067 -2.152906 1.460834 13.000000
1.898396 -2.187265 1.463459 30.000000
1.875025 -2.210438 1.458804 27.000000
1.860114 -2.243638 1.460673 31.000000
1.831931 -2.263739 1.454161 28.000000
1.805115 -2.282578 1.446968 26.000000
1.787639 -2.316129 1.449162 29.000000
1.768628 -2.345011 1.448504 24.000000
1.745002 -2.371113 1.446111 14.000000
1.720078 -2.392434 1.440806 11.000000
1.670120 -2.381133 1.416300 10.000000
1.574881 -2.302200 1.352655 12.000000
1.468396 -2.197846 1.275822 10.000000
1.375067 -2.110750 1.210700 10.000000
1.299891 -2.043822 1.158463 10.000000
1.220113 -1.968368 1.102775 10.000000
1.174838 -1.945349 1.077287 8.000000
1.091293 -1.855235 1.015684 13.000000
0.881935 1.535456 0.851832 28.000000
0.910464 1.543149 0.865888 20.000000
0.922989 1.523370 0.864679 19.000000
0.920861 1.480695 0.850289 29.000000
0.938548 1.472877 0.855864 28.000000
0.954930 1.460590 0.858891 31.000000
0.960091 1.433704 0.853349 28.000000
0.981082 1.428515 0.860676 28.000000
0.995963 1.416232 0.863924 32.000000
1.030090 1.428623 0.882436 23.000000
1.029086 1.394197 0.872136 26.000000
1.042023 1.377199 0.872604 34.000000
1.061950 1.371258 0.880200 32.000000
1.080093 1.360918 0.885141 36.000000
1.091688 1.344013 0.885899 32.000000
1.108717 1.333781 0.891092 35.000000
1.120892 1.316056 0.891359 45.000000
1.146510 1.315437 0.903403 31.000000
1.163495 1.304416 0.908528 29.000000
1.171466 1.283319 0.906727 35.000000
1.194234 1.278434 0.916439 37.000000
1.207976 1.263486 0.919151 65.000000
1.224690 1.251518 0.924137 43.000000
1.238165 1.236231 0.926735 40.000000
1.254740 1.223845 0.931620 53.000000
1.264812 1.205112 0.931811 35.000000
1.287605 1.198291 0.941305 29.000000
1.297375 1.179194 0.941375 32.000000
1.323418 1.174667 0.953229 34.000000
1.339623 1.160925 0.957875 71.000000
1.348383 1.141789 0.958136 35.000000
1.374500 1.136114 0.969900 41.000000
1.386456 1.119325 0.972440 50.000000
1.391955 1.096489 0.969745 30.000000
1.417379 1.090162 0.981775 29.000000
1.436589 1.077614 0.988589 39.000000
1.455101 1.065205 0.995738 42.000000
1.462921 1.044809 0.995579 36.000000
1.481257 1.031807 1.002629 42.000000
1.499575 1.018503 1.009637 57.000000
1.514170 1.002485 1.014102 52.000000
1.536022 0.990918 1.023461 32.000000
1.554146 0.976633 1.030273 35.000000
1.575961 0.964313 1.039556 44.000000
1.605215 0.955981 1.053647 58.000000
1.630753 0.944875 1.065256 72.000000
1.655887 0.933666 1.077230 47.000000
1.669969 0.915285 1.081299 52.000000
1.683494 0.897011 1.085777 59.000000
1.689217 0.874516 1.085176 34.000000
1.706329 0.857831 1.091943 28.000000
1.735022 0.846529 1.106117 36.000000
1.767637 0.836472 1.122752 33.000000
1.780660 0.816671 1.126827 35.000000
1.801435 0.800152 1.135834 32.000000
1.806135 0.776364 1.134792 35.000000
1.830295 0.761190 1.146537 41.000000
1.838681 0.738687 1.147795 29.000000
1.862635 0.722650 1.159441 35.000000
1.882464 0.704638 1.168460 61.000000
1.898114 0.684652 1.174840 42.000000
1.942248 0.674314 1.198861 69.000000
1.961798 0.654810 1.207659 62.000000
1.981219 0.634861 1.216326 55.000000
2.008459 0.617221 1.230430 41.000000
2.011157 0.591556 1.228793 29.000000
2.058897 0.578904 1.255364 33.000000
2.085844 0.559512 1.269165 43.000000
2.108584 0.538473 1.280377 51.000000
2.130800 0.517186 1.291839 39.000000
2.165852 0.498080 1.310471 59.000000
2.187799 0.475598 1.321820 35.000000
2.197253 0.449801 1.324919 37.000000
2.227382 0.428123 1.341061 26.000000
2.248826 0.404230 1.352050 34.000000
2.295304 0.384270 1.378586 53.000000
2.333518 0.361722 1.399558 52.000000
2.345718 0.334790 1.405497 37.000000
2.374661 0.309794 1.421482 57.000000
2.394967 0.283171 1.432289 38.000000
2.427884 0.257410 1.450594 36.000000
2.469172 0.231642 1.473843 32.000000
2.497161 0.203982 1.489881 33.000000
2.516264 0.175018 1.500551 37.000000
2.573730 0.147858 1.534149 43.000000
2.592455 0.117600 1.544469 36.000000
2.623712 0.087264 1.562368 36.000000
2.650136 0.056206 1.578087 46.000000
2.710654 0.024745 1.614087 34.000000
2.723638 -0.007933 1.621761 33.000000
2.770697 -0.041533 1.649801 30.000000
2.817449 -0.076174 1.677537 32.000000
2.846299 -0.111384 1.695538 30.000000
2.896374 -0.148315 1.726021 30.000000
2.945978 -0.186489 1.756391 33.000000
2.999588 -0.226227 1.789093 26.000000
3.026995 -0.264952 1.806337 26.000000
3.100742 -0.309200 1.851994 35.000000
3.131266 -0.350416 1.871870 35.000000
3.144305 -0.390339 1.881410 35.000000
3.139920 -0.428237 1.880511 36.000000
3.096910 -0.460332 1.856436 30.000000
3.061742 -0.492981 1.837925 32.000000
3.052222 -0.528992 1.833948 32.000000
3.025134 -0.561976 1.820230 21.000000
3.010362 -0.596741 1.813942 32.000000
2.969701 -0.626083 1.792836 32.000000
2.958613 -0.660967 1.788789 32.000000
2.942603 -0.694759 1.782636 33.000000
2.905943 -0.722827 1.762952 29.000000
2.897883 -0.757929 1.761573 30.000000
2.889400 -0.792925 1.759982 29.000000
2.801951 -0.805184 1.710217 21.000000
2.813323 -0.845431 1.721620 30.000000
2.800061 -0.877911 1.717120 31.000000
2.769585 -0.905239 1.702950 29.000000
2.775843 -0.944276 1.711280 34.000000
2.736768 -0.967866 1.691895 30.000000
2.726104 -1.000986 1.689844 30.000000
2.715132 -1.033901 1.687793 31.000000
2.667640 -1.052326 1.662963 24.000000
2.659607 -1.086538 1.663647 34.000000
2.655931 -1.121924 1.666118 34.000000
2.635392 -1.150774 1.659088 31.000000
2.606726 -1.175766 1.646979 32.000000
2.601494 -1.211047 1.649646 32.000000
2.572521 -1.235156 1.637269 30.000000
2.554978 -1.264456 1.632174 31.000000
2.521804 -1.285575 1.617166 27.000000
2.500183 -1.311981 1.609329 31.000000
2.497374 -1.348427 1.613867 36.000000
2.467024 -1.370569 1.601605 33.000000
2.459826 -1.404593 1.603461 40.000000
2.436622 -1.430383 1.595861 35.000000
2.416948 -1.457941 1.590634 33.000000
2.411847 -1.494391 1.595216 32.000000
2.369503 -1.507508 1.575115 28.000000
2.352895 -1.536497 1.571971 32.000000
2.307072 -1.545747 1.549338 33.000000
2.315295 -1.591213 1.563152 35.000000
2.298026 -1.619372 1.559718 36.000000
2.280464 -1.647334 1.556284 35.000000
2.259187 -1.672397 1.550240 27.000000
2.233203 -1.695117 1.542383 16.000000
2.194273 -1.706023 1.524150 19.000000
2.192272 -1.746973 1.532953 34.000000
2.170247 -1.770719 1.526562 34.000000
2.153856 -1.800405 1.525542 32.000000
2.141525 -1.832057 1.526111 37.000000
2.121180 -1.858661 1.522492 35.000000
2.100640 -1.884874 1.518776 31.000000
2.073318 -1.904929 1.510234 30.000000
2.042719 -1.921509 1.499262 24.000000
2.043813 -1.968167 1.511741 35.000000
2.019181 -1.990282 1.505275 35.000000
1.984988 -2.002706 1.491710 32.000000
1.981644 -2.046206 1.501415 42.000000
1.965521 -2.077105 1.501741 32.000000
1.940039 -2.098100 1.494987 30.000000
1.935239 -2.141656 1.504325 30.000000
1.897507 -2.148963 1.488138 26.000000
1.888949 -2.189039 1.494888 34.000000
1.849699 -2.196179 1.479267 41.000000
1.848855 -2.246428 1.492696 34.000000
1.824905 -2.269181 1.487706 34.000000
1.796507 -2.288928 1.480948 32.000000
1.777623 -2.318126 1.480386 32.000000
1.759560 -2.351635 1.482548 32.000000
1.740033 -2.380536 1.481717 23.000000
1.710548 -2.399152 1.474746 18.000000
1.654719 -2.376197 1.442560 13.000000
1.570188 -2.312197 1.386614 18.000000
1.456901 -2.197015 1.301592 17.000000
1.368983 -2.117790 1.239751 14.000000
1.294299 -2.051038 1.186606 14.000000
1.217162 -1.979693 1.131963 16.000000
1.127964 -1.883539 1.064596 9.000000
1.088745 -1.867090 1.043335 19.000000
0.898544 1.536000 0.879402 23.000000
0.892564 1.485618 0.860381 24.000000
0.926746 1.504756 0.881662 22.000000
0.926840 1.465953 0.869116 32.000000
0.938319 1.446204 0.867699 24.000000
0.968097 1.456602 0.884536 27.000000
0.974322 1.429128 0.878470 35.000000
0.994340 1.424116 0.886272 26.000000
1.015470 1.418260 0.893748 29.000000
1.025107 1.398230 0.892401 30.000000
1.045138 1.392421 0.900148 31.000000
1.060809 1.378723 0.902959 40.000000
1.067174 1.354876 0.899076 32.000000
1.089819 1.351747 0.909060 30.000000
1.096674 1.327275 0.904715 35.000000
1.116452 1.320198 0.912349 29.000000
1.133424 1.309458 0.917554 32.000000
1.150348 1.298526 0.922773 29.000000
1.164260 1.284014 0.925591 29.000000
1.184048 1.275842 0.933074 65.000000
1.200822 1.264087 0.938216 35.000000
1.220612 1.255289 0.945627 48.000000
1.231114 1.236748 0.945916 59.000000
1.250832 1.227393 0.953299 33.000000
1.260997 1.208587 0.953461 50.000000
1.270974 1.189679 0.953549 21.000000
1.296935 1.185512 0.965604 32.000000
1.312499 1.172520 0.970772 52.000000
1.325381 1.155959 0.973103 34.000000
1.338139 1.139274 0.975373 37.000000
1.366893 1.136800 0.990174 57.000000
1.369332 1.111284 0.985034 34.000000
1.384463 1.097102 0.989944 37.000000
1.420210 1.098713 1.009568 21.000000
1.422039 1.072926 1.004214 35.000000
1.440532 1.060487 1.011445 65.000000
1.458948 1.047814 1.018636 46.000000
1.477285 1.034714 1.025785 42.000000
1.488430 1.016477 1.028001 67.000000
1.499448 0.997986 1.030028 35.000000
1.532112 0.993592 1.046975 52.000000
1.550299 0.979207 1.053950 25.000000
1.564703 0.962242 1.058318 35.000000
1.582159 0.947606 1.065585 58.000000
1.603840 0.934510 1.074857 35.000000
1.632467 0.925535 1.089503 36.000000
1.661657 0.915700 1.103663 63.000000
1.663755 0.891257 1.100635 35.000000
1.688607 0.878824 1.112661 63.000000
1.713429 0.865881 1.124586 25.000000
1.722800 0.844832 1.126352 35.000000
1.755250 0.834821 1.143190 37.000000
1.772158 0.816818 1.149919 34.000000
1.788938 0.798486 1.156454 35.000000
1.805169 0.780169 1.163420 46.000000
1.817785 0.759583 1.167293 35.000000
1.833795 0.740649 1.174075 35.000000
1.858025 0.724221 1.185488 35.000000
1.865742 0.701565 1.186975 36.000000
1.893505 0.686081 1.201126 49.000000
1.924831 0.671665 1.218304 48.000000
1.944355 0.652203 1.227238 44.000000
1.971916 0.634925 1.241181 67.000000
1.990838 0.614767 1.250299 41.000000
2.005509 0.593022 1.256859 37.000000
2.057492 0.581187 1.285951 32.000000
2.071930 0.558365 1.292252 35.000000
2.090028 0.536561 1.301528 37.000000
2.124982 0.518127 1.320463 58.000000
2.143105 0.495051 1.329078 36.000000
2.164999 0.472741 1.340527 41.000000
2.157411 0.443835 1.333785 44.000000
2.204029 0.425777 1.360565 32.000000
2.242250 0.405020 1.382111 35.000000
2.276148 0.382736 1.400922 43.000000
2.317937 0.361052 1.425276 63.000000
2.343105 0.335852 1.438594 52.000000
2.367749 0.310224 1.452260 37.000000
2.387956 0.283493 1.463253 53.000000
2.416097 0.257342 1.479803 39.000000
2.440130 0.229999 1.493069 30.000000
2.489213 0.204236 1.522307 35.000000
2.500052 0.174660 1.527511 33.000000
2.556885 0.147583 1.562164 36.000000
2.588197 0.117906 1.580575 37.000000
2.610824 0.087220 1.593501 34.000000
2.636986 0.056202 1.609501 33.000000
2.692842 0.024745 1.643550 36.000000
2.697206 -0.007908 1.646251 28.000000
2.739687 -0.041242 1.672104 33.000000
2.803197 -0.076190 1.710871 29.000000
2.831949 -0.111349 1.729099 29.000000
2.890107 -0.148664 1.765453 33.000000
2.914222 -0.185257 1.780137 29.000000
3.001112 -0.227412 1.834898 30.000000
3.028303 -0.266392 1.852356 22.000000
3.088774 -0.309499 1.891158 34.000000
3.098289 -0.348202 1.897737 33.000000
3.132428 -0.390496 1.920457 35.000000
3.106866 -0.425598 1.906568 34.000000
3.059457 -0.457029 1.880151 34.000000
3.037610 -0.491309 1.868555 31.000000
3.040319 -0.529580 1.872864 33.000000
2.996436 -0.559425 1.848539 20.000000
2.977545 -0.593256 1.839569 29.000000
2.958491 -0.626673 1.830502 32.000000
2.934888 -0.658633 1.818643 32.000000
2.914780 -0.691391 1.809814 32.000000
2.906876 -0.726852 1.808640 35.000000
2.866052 -0.753179 1.785858 29.000000
2.857710 -0.788024 1.784379 28.000000
2.815593 -0.813461 1.762707 20.000000
2.794307 -0.843768 1.753105 29.000000
2.776983 -0.874963 1.745885 31.000000
2.762962 -0.907504 1.741865 34.000000
2.740540 -0.937065 1.732510 29.000000
2.742788 -0.974439 1.737623 34.000000
2.707749 -0.998833 1.720298 30.000000
2.696777 -1.031748 1.718247 24.000000
2.660911 -1.055360 1.701280 23.000000
2.633515 -1.081043 1.688637 29.000000
2.629211 -1.116731 1.691915 31.000000
2.609272 -1.144984 1.684092 34.000000
2.604287 -1.180562 1.687052 31.000000
2.579409 -1.206898 1.677110 33.000000
2.558230 -1.234619 1.669622 32.000000
2.533071 -1.260129 1.659519 23.000000
2.500056 -1.281120 1.644188 25.000000
2.417311 -1.275350 1.596022 45.000000
2.475543 -1.343874 1.640944 36.000000
2.456547 -1.372408 1.636043 36.000000
2.437996 -1.399956 1.630455 35.000000
2.418598 -1.427907 1.625273 36.000000
2.395941 -1.452630 1.616908 35.000000
2.390785 -1.489021 1.621529 27.000000
2.348653 -1.502027 1.601122 24.000000
2.328445 -1.528590 1.595498 31.000000
2.325998 -1.566897 1.602284 35.000000
2.290976 -1.583036 1.586557 34.000000
2.266570 -1.606080 1.578292 31.000000
2.259676 -1.641540 1.582175 34.000000
2.241847 -1.669165 1.578550 32.000000
2.219380 -1.694538 1.573060 10.000000
2.197754 -1.718945 1.566699 16.000000
2.172584 -1.740345 1.558007 31.000000
2.156391 -1.770179 1.557036 34.000000
2.150954 -1.807653 1.562662 35.000000
2.120801 -1.825976 1.551758 32.000000
2.110236 -1.861125 1.555303 35.000000
2.077705 -1.874898 1.541338 31.000000
2.069813 -1.912733 1.547062 27.000000
2.042346 -1.932507 1.538337 26.000000
2.030483 -1.967101 1.541410 33.000000
1.996387 -1.979980 1.527734 31.000000
1.983963 -2.014183 1.530677 32.000000
1.968089 -2.045249 1.531107 30.000000
1.945846 -2.069756 1.526678 34.000000
1.923308 -2.093868 1.522151 33.000000
1.915405 -2.134201 1.529289 25.000000
1.877838 -2.141405 1.512900 26.000000
1.866212 -2.178155 1.517529 27.000000
1.848520 -2.208111 1.517338 35.000000
1.823388 -2.231852 1.512967 36.000000
1.807841 -2.264890 1.514950 29.000000
1.794600 -2.301333 1.518994 37.000000
1.763120 -2.317361 1.509773 29.000000
1.738496 -2.339282 1.504568 22.000000
1.729447 -2.382497 1.512975 27.000000
1.684574 -2.379392 1.492080 16.000000
1.641753 -2.374629 1.470795 11.000000
1.552747 -2.303453 1.409298 15.000000
1.457537 -2.214630 1.338621 12.000000
1.367579 -2.132047 1.273362 16.000000
1.274811 -2.039911 1.203965 13.000000
1.227919 -2.013803 1.174765 10.000000
1.127560 -1.898926 1.094987 10.000000
0.924190 1.551379 0.916280 10.000000
0.917162 1.501441 0.897212 20.000000
0.933918 1.489146 0.900407 23.000000
0.949468 1.477151 0.903842 19.000000
0.958706 1.453312 0.900088 27.000000
0.966386 1.430081 0.896583 21.000000
0.987463 1.424487 0.904176 25.000000
1.012694 1.426342 0.916740 26.000000
1.054770 1.448671 0.942977 11.000000
1.038329 1.392734 0.918215 28.000000
1.045042 1.368951 0.914360 28.000000
1.063234 1.358620 0.919509 30.000000
1.069404 1.334816 0.915473 35.000000
1.100370 1.341630 0.932696 24.000000
1.106191 1.317513 0.928577 27.000000
1.120271 1.303492 0.931501 33.000000
1.166202 1.325503 0.960651 18.000000
1.168688 1.297678 0.954007 32.000000
1.173741 1.273130 0.949649 29.000000
1.190550 1.261428 0.954833 29.000000
1.207247 1.249409 0.959970 36.000000
1.236192 1.249625 0.974759 30.000000
1.237373 1.221644 0.967672 35.000000
1.250673 1.205915 0.970222 31.000000
1.292493 1.216976 0.994770 26.000000
1.285860 1.183310 0.982920 29.000000
1.298832 1.166973 0.985367 32.000000
1.311743 1.150452 0.987692 28.000000
1.330399 1.139894 0.995324 37.000000
1.336401 1.117411 0.992649 28.000000
1.364959 1.114555 1.007566 35.000000
1.380183 1.100346 1.012594 29.000000
1.389058 1.080110 1.012150 25.000000
1.407480 1.068124 1.019564 30.000000
1.425829 1.055780 1.026939 34.000000
1.451236 1.048140 1.039232 34.000000
1.455416 1.025096 1.036475 32.000000
1.495019 1.026544 1.058780 31.000000
1.509757 1.010295 1.063421 34.000000
1.527966 0.996118 1.070538 33.000000
1.538874 0.977077 1.072539 26.000000
1.556396 0.962761 1.079945 32.000000
1.578028 0.949965 1.089396 34.000000
1.595441 0.934917 1.096718 34.000000
1.617077 0.921288 1.106021 34.000000
1.634303 0.905564 1.113187 32.000000
1.659111 0.893594 1.125433 32.000000
1.668690 0.873097 1.127376 31.000000
1.689536 0.858358 1.136901 27.000000
1.710374 0.843134 1.146383 29.000000
1.734997 0.829406 1.158332 29.000000
1.744040 0.807893 1.159976 26.000000
1.772398 0.795068 1.174348 29.000000
1.792478 0.778495 1.183991 29.000000
1.809007 0.759560 1.190503 29.000000
1.840814 0.747068 1.207768 27.000000
1.856713 0.727621 1.214602 22.000000
1.884442 0.712292 1.229119 31.000000
1.896157 0.690634 1.233094 31.000000
1.915737 0.671554 1.242222 31.000000
1.934755 0.652252 1.251732 30.000000
1.954080 0.632360 1.260675 28.000000
1.968909 0.611056 1.267383 31.000000
1.995740 0.593044 1.281819 25.000000
2.010196 0.570970 1.288336 15.000000
2.053299 0.556335 1.313095 25.000000
2.079919 0.536470 1.327228 25.000000
2.094036 0.512988 1.333412 23.000000
2.124141 0.493227 1.350445 26.000000
2.166982 0.475356 1.374774 23.000000
2.188643 0.452352 1.386352 24.000000
2.205889 0.428053 1.395147 22.000000
2.193455 0.398220 1.385799 9.000000
2.268947 0.383409 1.431334 27.000000
2.281553 0.356934 1.437114 20.000000
2.314610 0.333445 1.456447 22.000000
2.347506 0.309073 1.475631 24.000000
2.380232 0.283983 1.494746 21.000000
2.391685 0.255832 1.500470 16.000000
2.427887 0.229961 1.522430 21.000000
2.438621 0.201091 1.528342 9.000000
2.495905 0.175192 1.562686 20.000000
2.527248 0.146481 1.581500 18.000000
2.541138 0.116272 1.590179 14.000000
2.601743 0.087318 1.627284 19.000000
2.615020 0.055923 1.635611 16.000000
2.640830 0.024336 1.651707 11.000000
2.687554 -0.007933 1.680870 26.000000
2.729748 -0.041370 1.707284 21.000000
2.775874 -0.075858 1.736046 22.000000
2.808665 -0.110979 1.757351 24.000000
2.858368 -0.147697 1.788334 23.000000
2.907296 -0.185755 1.819812 21.000000
2.947062 -0.224406 1.846514 18.000000
2.974082 -0.262861 1.864307 10.000000
3.059921 -0.307983 1.918922 26.000000
3.102529 -0.350503 1.947588 27.000000
3.102696 -0.388765 1.949559 28.000000
3.073087 -0.423078 1.932795 25.000000
3.060007 -0.459185 1.926395 26.000000
3.046176 -0.495198 1.920555 27.000000
2.986040 -0.522840 1.885450 24.000000
2.972135 -0.557445 1.878539 10.000000
2.953337 -0.591122 1.869434 25.000000
2.938533 -0.625378 1.862758 26.000000
2.918652 -0.658496 1.854102 24.000000
2.890884 -0.689017 1.839227 27.000000
2.866493 -0.720176 1.827429 24.000000
2.862440 -0.756365 1.828784 28.000000
2.837542 -0.786757 1.816690 26.000000
2.775740 -0.805857 1.780904 9.000000
2.807578 -0.852103 1.805240 27.000000
2.786142 -0.882308 1.795390 28.000000
2.743719 -0.905848 1.772901 26.000000
2.742059 -0.941931 1.775848 28.000000
2.711391 -0.968273 1.760937 28.000000
2.680573 -0.994020 1.745950 24.000000
2.657680 -1.022239 1.736097 24.000000
2.610674 -1.040374 1.710362 10.000000
2.638832 -1.088497 1.734011 28.000000
2.606839 -1.112722 1.719110 26.000000
2.598715 -1.146113 1.719069 26.000000
2.578058 -1.174581 1.711769 28.000000
2.549328 -1.199011 1.699117 26.000000
2.543683 -1.234076 1.701865 26.000000
2.526254 -1.263378 1.696772 24.000000
2.466529 -1.270780 1.663209 14.000000
2.471563 -1.311044 1.673277 31.000000
2.453468 -1.339231 1.667730 29.000000
2.438965 -1.369230 1.664750 29.000000
2.427192 -1.401677 1.664721 33.000000
2.408469 -1.429129 1.658890 27.000000
2.388702 -1.456787 1.653564 31.000000
2.358625 -1.476605 1.639939 26.000000
2.316784 -1.489563 1.619146 12.000000
2.311008 -1.525357 1.623711 30.000000
2.294159 -1.553864 1.620478 29.000000
2.277113 -1.582273 1.617147 29.000000
2.259774 -1.610388 1.613719 31.000000
2.242141 -1.638209 1.610192 25.000000
2.227777 -1.668429 1.609070 26.000000
2.196075 -1.685253 1.595355 10.000000
2.173460 -1.710264 1.589646 9.000000
2.168572 -1.747828 1.595694 30.000000
2.143164 -1.768848 1.586719 26.000000
2.133195 -1.804317 1.590624 29.000000
2.100911 -1.818931 1.576439 28.000000
2.077374 -1.842466 1.570273 26.000000
2.056736 -1.868556 1.566476 29.000000
2.043555 -1.899609 1.566894 21.000000
2.025621 -1.928301 1.565333 10.000000
2.010650 -1.959729 1.566096 31.000000
1.989065 -1.985043 1.561975 23.000000
1.982483 -2.025593 1.569770 29.000000
1.939158 -2.028262 1.548412 28.000000
1.937889 -2.075032 1.560872 23.000000
1.921257 -2.105736 1.561127 28.000000
1.886664 -2.116730 1.546788 18.000000
1.857927 -2.133761 1.537381 10.000000
1.849179 -2.173797 1.544465 26.000000
1.837061 -2.210411 1.549002 24.000000
1.810470 -2.230008 1.541655 26.000000
1.792073 -2.259601 1.541295 28.000000
1.771729 -2.289834 1.541404 22.000000
1.749968 -2.315580 1.538540 26.000000
1.730559 -2.344651 1.537794 18.000000
1.719425 -2.388727 1.546924 20.000000
1.676326 -2.384868 1.525219 13.000000
1.629265 -2.377495 1.501717 9.000000
1.542664 -2.305698 1.438618 10.000000
1.446257 -2.217994 1.367228 10.000000
1.346574 -2.116119 1.288828 9.000000
1.271140 -2.050612 1.234254 10.000000
1.203445 -1.990396 1.184090 9.000000
0.896121 1.517282 0.913628 23.000000
0.902804 1.490481 0.908021 26.000000
0.924274 1.485710 0.915836 22.000000
0.927928 1.455121 0.907695 30.000000
0.953918 1.457360 0.920191 24.000000
0.974108 1.452431 0.928306 27.000000
0.981900 1.428955 0.924692 32.000000
1.013208 1.437437 0.941853 14.000000
1.012963 1.402929 0.930988 32.000000
1.017374 1.375769 0.924718 29.000000
1.038236 1.369180 0.932336 29.000000
1.047408 1.348940 0.930713 37.000000
1.061772 1.335466 0.933799 27.000000
1.087083 1.335466 0.946460 35.000000
1.101415 1.321494 0.949518 32.000000
1.129821 1.323974 0.964574 21.000000
1.135408 1.299650 0.960317 35.000000
1.152361 1.288378 0.965649 32.000000
1.166259 1.273574 0.968489 32.000000
1.177116 1.255470 0.968816 36.000000
1.187723 1.237262 0.969128 31.000000
1.213446 1.234458 0.981639 37.000000
1.223845 1.215849 0.981838 35.000000
1.249637 1.212252 0.994301 28.000000
1.265328 1.199756 0.999786 30.000000
1.281697 1.186444 1.004733 35.000000
1.297268 1.173422 1.010123 33.000000
1.307032 1.153915 1.009960 36.000000
1.322419 1.140442 1.015240 31.000000
1.348400 1.134613 1.027533 34.000000
1.363687 1.120544 1.032735 32.000000
1.369563 1.097675 1.029796 29.000000
1.394814 1.091154 1.042426 35.000000
1.409900 1.076332 1.047414 35.000000
1.424918 1.061237 1.052351 35.000000
1.450236 1.053508 1.064898 41.000000
1.468635 1.040275 1.072243 35.000000
1.479952 1.021862 1.074480 37.000000
1.494635 1.005652 1.079159 57.000000
1.509179 0.989224 1.083785 33.000000
1.519521 0.970595 1.086161 37.000000
1.555627 0.967336 1.106180 39.000000
1.573132 0.952566 1.113646 39.000000
1.594745 0.939259 1.123199 39.000000
1.612134 0.923751 1.130578 37.000000
1.640601 0.914160 1.145654 48.000000
1.657905 0.897880 1.152885 52.000000
1.660004 0.873340 1.149548 32.000000
1.688373 0.862350 1.164513 31.000000
1.701559 0.843260 1.168899 31.000000
1.726089 0.829468 1.181030 35.000000
1.750577 0.815158 1.193122 37.000000
1.759167 0.793613 1.195061 32.000000
1.779577 0.776752 1.204422 35.000000
1.799542 0.759811 1.214084 35.000000
1.807614 0.737631 1.215768 27.000000
1.835280 0.723086 1.230615 35.000000
1.854904 0.704899 1.240054 43.000000
1.866525 0.683434 1.244064 38.000000
1.893946 0.667358 1.258628 37.000000
1.928962 0.653727 1.278904 38.000000
1.960306 0.637657 1.295972 59.000000
1.983225 0.618620 1.308040 58.000000
1.989743 0.594196 1.309388 34.000000
2.012372 0.574413 1.321339 32.000000
2.059268 0.560666 1.349189 38.000000
2.081715 0.539554 1.360885 58.000000
2.095508 0.516099 1.367636 42.000000
2.117648 0.494050 1.379049 36.000000
2.147487 0.473571 1.396308 35.000000
2.164890 0.449753 1.405308 36.000000
2.177969 0.424823 1.411554 31.000000
2.211589 0.403312 1.431152 35.000000
2.236440 0.379841 1.445645 52.000000
2.253121 0.354305 1.454202 44.000000
2.290125 0.331565 1.476543 53.000000
2.326981 0.307924 1.498739 37.000000
2.355312 0.282376 1.515485 36.000000
2.383451 0.256213 1.531983 44.000000
2.381776 0.226642 1.530071 26.000000
2.438505 0.202041 1.565711 32.000000
2.470217 0.174150 1.584574 34.000000
2.493032 0.145137 1.598320 34.000000
2.548795 0.117250 1.634099 35.000000
2.575338 0.086847 1.650185 35.000000
2.597038 0.055829 1.664043 34.000000
2.635302 0.024358 1.688603 36.000000
2.690126 -0.007995 1.723670 36.000000
2.748865 -0.041849 1.761235 44.000000
2.773620 -0.076120 1.777015 34.000000
2.822897 -0.112113 1.809476 40.000000
2.863824 -0.148802 1.835716 35.000000
2.908288 -0.186790 1.865051 35.000000
2.972831 -0.227516 1.908281 33.000000
2.999714 -0.266532 1.926385 30.000000
3.026107 -0.306158 1.944363 35.000000
3.060148 -0.347453 1.968154 33.000000
3.110369 -0.391776 2.002474 37.000000
3.080893 -0.426341 1.985424 35.000000
3.034481 -0.457666 1.957411 35.000000
3.012395 -0.492160 1.946103 35.000000
3.002939 -0.528217 1.941981 35.000000
2.942986 -0.554904 1.906088 27.000000
2.953247 -0.594310 1.915628 36.000000
2.942474 -0.629489 1.911640 37.000000
2.902574 -0.658033 1.888685 35.000000
2.894936 -0.693748 1.887717 35.000000
2.875119 -0.725930 1.877756 36.000000
2.854620 -0.758025 1.868451 34.000000
2.825729 -0.787337 1.853498 35.000000
2.800809 -0.817332 1.841130 27.000000
2.767478 -0.844145 1.823346 31.000000
2.766359 -0.880633 1.826584 34.000000
2.740134 -0.909423 1.814476 32.000000
2.726348 -0.941446 1.809530 34.000000
2.703786 -0.970714 1.799696 35.000000
2.684979 -1.001065 1.792427 33.000000
2.669884 -1.032543 1.787716 29.000000
2.630984 -1.054249 1.766934 26.000000
2.638970 -1.094693 1.777695 33.000000
2.599733 -1.115318 1.756664 31.000000
2.571493 -1.140641 1.744094 31.000000
2.559270 -1.172056 1.741265 34.000000
2.538446 -1.200137 1.733688 35.000000
2.513474 -1.225960 1.723502 30.000000
2.503645 -1.258851 1.723515 30.000000
2.478438 -1.283894 1.712958 25.000000
2.464345 -1.314477 1.710160 34.000000
2.431252 -1.334595 1.694229 35.000000
2.424108 -1.368746 1.696358 33.000000
2.412979 -1.400638 1.695771 33.000000
2.378782 -1.419873 1.680117 35.000000
2.367202 -1.451179 1.679343 30.000000
2.350961 -1.480789 1.676372 29.000000
2.324421 -1.502530 1.664976 24.000000
2.300519 -1.526768 1.656775 26.000000
2.290709 -1.560194 1.658667 31.000000
2.266421 -1.583763 1.650191 29.000000
2.259505 -1.619474 1.654423 30.000000
2.245199 -1.650059 1.653420 32.000000
2.216892 -1.670174 1.642026 25.000000
2.205601 -1.702896 1.643366 11.000000
2.160194 -1.708752 1.619146 10.000000
2.150743 -1.744301 1.623417 26.000000
2.135353 -1.773705 1.621825 30.000000
2.105469 -1.792285 1.610742 27.000000
2.102628 -1.832467 1.618996 29.000000
2.075602 -1.853374 1.610247 31.000000
2.046484 -1.870117 1.598242 27.000000
2.044576 -1.913870 1.609283 26.000000
1.999494 -1.914896 1.584681 17.000000
1.993677 -1.955412 1.592979 25.000000
1.972092 -1.980628 1.588760 31.000000
1.956377 -2.011787 1.589371 28.000000
1.925236 -2.027018 1.577571 25.000000
1.920784 -2.070483 1.587766 28.000000
1.895212 -2.091574 1.580676 25.000000
1.875300 -2.118834 1.578373 24.000000
1.858078 -2.149078 1.578484 16.000000
1.845961 -2.185954 1.583308 26.000000
1.836343 -2.226196 1.590284 30.000000
1.804060 -2.239084 1.577939 26.000000
1.785363 -2.268803 1.577630 25.000000
1.766418 -2.298257 1.577188 29.000000
1.732224 -2.310969 1.565207 23.000000
1.710161 -2.336374 1.562168 21.000000
1.690384 -2.365228 1.561478 11.000000
1.668536 -2.394720 1.561159 10.000000
1.615977 -2.375689 1.529655 9.000000
1.539528 -2.318857 1.474832 10.000000
1.455635 -2.250030 1.413840 10.000000
1.346896 -2.133760 1.324892 10.000000
1.267024 -2.061080 1.264691 9.000000
1.197464 -1.997349 1.211323 9.000000
0.897574 1.494570 0.927891 31.000000
