x y z intensity
1.219624 0.066113 -0.513575 95.000000
1.215666 0.051965 -0.511717 98.000000
1.216150 0.038027 -0.511758 100.000000
1.216472 0.024089 -0.511838 100.000000
1.212025 0.010113 -0.509980 100.000000
1.207456 -0.003758 -0.508001 100.000000
1.207376 -0.017590 -0.507961 100.000000
1.207137 -0.031423 -0.507841 98.000000
1.211343 -0.045428 -0.509699 95.000000
1.210781 -0.059313 -0.509619 98.000000
1.210018 -0.073158 -0.509579 93.000000
1.204618 -0.086672 -0.507441 36.000000
1.203578 -0.100465 -0.507281 98.000000
1.197870 -0.113821 -0.505146 95.000000
1.205684 -0.128538 -0.508936 95.000000
1.199701 -0.141802 -0.506682 98.000000
1.216352 -0.157889 -0.514174 81.000000
1.200909 -0.169873 -0.508134 98.000000
1.194384 -0.182979 -0.506002 81.000000
1.210589 -0.199614 -0.513362 33.000000
1.199231 -0.211890 -0.509220 95.000000
1.201428 -0.226481 -0.510785 95.000000
1.189873 -0.238416 -0.506569 95.000000
1.191698 -0.253019 -0.508173 85.000000
1.233953 -0.276734 -0.526920 100.000000
1.630570 -0.444990 -0.701552 26.000000
1.741199 -0.496520 -0.750552 36.000000
1.779912 -0.529735 -0.769024 24.000000
1.840219 -0.570690 -0.796892 25.000000
1.886694 -0.608845 -0.818973 29.000000
1.919458 -0.643673 -0.835151 20.000000
1.908008 -0.664142 -0.832244 20.000000
1.918137 -0.692225 -0.838718 14.000000
1.953718 -0.730563 -0.856842 9.000000
1.976006 -0.764545 -0.868883 21.000000
1.954661 -0.782101 -0.862081 14.000000
1.937429 -0.801058 -0.857186 15.000000
1.886008 -0.805209 -0.837114 14.000000
1.771283 -0.780178 -0.788725 14.000000
1.581345 -0.718174 -0.706501 53.000000
1.670014 -0.781413 -0.748618 26.000000
1.719957 -0.828702 -0.773694 11.000000
1.806150 -0.896072 -0.815758 31.000000
1.833627 -0.935614 -0.831077 14.000000
1.860150 -0.976283 -0.846679 17.000000
1.878226 -1.012848 -0.858078 15.000000
1.895406 -1.050351 -0.869711 13.000000
1.895892 -1.079187 -0.873791 13.000000
1.879979 -1.098718 -0.870358 10.000000
1.879833 -1.127640 -0.874269 9.000000
1.914848 -1.178539 -0.894797 13.000000
1.890209 -1.193179 -0.887490 10.000000
1.873169 -1.212451 -0.883813 10.000000
1.871610 -1.241697 -0.887421 11.000000
1.861896 -1.265832 -0.887338 10.000000
1.871071 -1.303207 -0.896320 17.000000
1.860729 -1.327369 -0.896051 10.000000
1.838302 -1.343675 -0.890610 9.000000
1.849858 -1.384329 -0.901165 10.000000
1.838041 -1.408809 -0.901085 10.000000
1.822950 -1.429815 -0.898810 10.000000
1.817856 -1.459961 -0.902176 10.000000
1.813029 -1.489597 -0.905210 10.000000
1.810736 -1.522795 -0.910242 11.000000
1.815805 -1.561638 -0.918431 9.000000
1.773888 -1.561330 -0.903660 8.000000
1.805194 -1.625793 -0.926282 13.000000
1.784617 -1.643099 -0.921729 9.000000
1.776613 -1.673545 -0.924587 10.000000
1.768318 -1.704071 -0.927418 10.000000
1.746240 -1.721374 -0.923013 10.000000
1.756958 -1.771678 -0.936263 10.000000
1.751543 -1.804886 -0.940176 9.000000
1.731795 -1.825289 -0.937390 8.000000
1.730928 -1.866065 -0.945047 10.000000
1.719997 -1.896620 -0.947352 10.000000
1.714897 -1.934167 -0.953001 10.000000
1.696952 -1.957639 -0.951698 10.000000
1.696891 -2.002424 -0.960696 9.000000
1.690124 -2.040214 -0.966105 10.000000
1.668093 -2.059836 -0.962834 9.000000
1.666230 -2.105005 -0.971474 8.000000
1.660759 -2.146670 -0.978336 9.000000
1.639031 -2.170587 -0.976945 9.000000
1.643611 -2.227430 -0.990258 10.000000
1.627919 -2.258003 -0.991703 9.000000
1.608997 -2.284646 -0.991440 9.000000
1.605852 -2.334359 -1.001147 9.000000
1.586077 -2.360805 -1.000614 9.000000
1.582482 -2.415652 -1.012094 7.000000
1.569238 -2.453934 -1.016408 9.000000
1.565573 -2.508165 -1.027127 9.000000
1.546202 -2.538420 -1.027922 10.000000
1.534199 -2.585788 -1.035577 9.000000
1.525491 -2.636395 -1.044377 9.000000
1.506588 -2.670765 -1.046514 9.000000
1.496536 -2.726606 -1.057039 9.000000
0.858598 1.574904 -0.595355 11.000000
0.870693 1.556473 -0.594672 23.000000
0.900119 1.566183 -0.604789 17.000000
0.909470 1.543354 -0.602449 28.000000
0.930749 1.540735 -0.608072 24.000000
0.955571 1.541327 -0.615035 28.000000
0.966801 1.522116 -0.614207 31.000000
0.993283 1.526641 -0.623064 19.000000
1.004311 1.507139 -0.622165 24.000000
1.002651 1.467430 -0.612801 22.000000
1.034506 1.478956 -0.624912 24.000000
1.050302 1.466832 -0.627185 31.000000
1.065923 1.454533 -0.629400 26.000000
1.093694 1.456570 -0.637993 29.000000
1.109243 1.443789 -0.640231 29.000000
1.130502 1.438186 -0.645739 18.000000
1.140048 1.417638 -0.644531 26.000000
1.158236 1.407906 -0.648327 24.000000
1.173354 1.394383 -0.650452 29.000000
1.188353 1.380624 -0.652519 34.000000
1.206343 1.370220 -0.656277 28.000000
1.224232 1.359624 -0.659987 33.000000
1.248447 1.355635 -0.667111 34.000000
1.279213 1.358145 -0.677619 24.000000
1.284155 1.332972 -0.674482 30.000000
1.318359 1.338013 -0.686707 25.000000
1.346215 1.335735 -0.695485 32.000000
1.343922 1.303618 -0.688765 36.000000
1.371661 1.300760 -0.697576 28.000000
1.402438 1.301147 -0.708347 36.000000
1.423576 1.290947 -0.713634 34.000000
1.434146 1.271135 -0.713703 29.000000
1.444523 1.251218 -0.713701 30.000000
1.479095 1.252878 -0.726218 25.000000
1.500078 1.241411 -0.731377 31.000000
1.531855 1.238473 -0.741902 35.000000
1.555969 1.229636 -0.749130 31.000000
1.565789 1.208470 -0.748912 35.000000
1.593562 1.201784 -0.757883 31.000000
1.614314 1.188561 -0.763004 27.000000
1.649769 1.186333 -0.775468 32.000000
1.662380 1.167416 -0.777260 28.000000
1.679175 1.150408 -0.780510 31.000000
1.710880 1.144019 -0.791143 37.000000
1.730942 1.129401 -0.796421 30.000000
1.762783 1.121982 -0.807051 36.000000
1.782806 1.106529 -0.812233 35.000000
1.818614 1.100339 -0.824593 29.000000
1.850584 1.091161 -0.835183 34.000000
1.874521 1.076667 -0.842104 31.000000
1.898399 1.061752 -0.848974 33.000000
1.926302 1.048711 -0.857683 42.000000
1.941771 1.028539 -0.860873 30.000000
1.973331 1.017017 -0.871593 34.000000
2.025996 1.014930 -0.891129 45.000000
2.040953 0.993782 -0.894523 28.000000
2.072848 0.980042 -0.904891 17.000000
2.083304 0.956271 -0.906321 18.000000
2.076549 0.924784 -0.900310 16.000000
2.099273 0.906434 -0.907110 24.000000
2.096098 0.876881 -0.902847 17.000000
2.084045 0.844061 -0.894797 18.000000
2.084479 0.816670 -0.892129 20.000000
2.062904 0.781109 -0.880188 10.000000
2.075527 0.759148 -0.883276 16.000000
2.070602 0.730546 -0.878575 18.000000
2.074003 0.705378 -0.877798 18.000000
2.094723 0.685944 -0.884392 21.000000
2.097618 0.660559 -0.883470 20.000000
2.086873 0.631104 -0.876875 18.000000
2.080322 0.603275 -0.872062 22.000000
2.091275 0.580572 -0.874644 14.000000
2.075008 0.550773 -0.866147 11.000000
2.089790 0.529312 -0.870669 15.000000
2.086524 0.503086 -0.867419 15.000000
2.100787 0.481348 -0.872088 20.000000
2.096838 0.455328 -0.868902 18.000000
2.079016 0.426580 -0.860008 19.000000
2.106235 0.407287 -0.870033 21.000000
2.092310 0.379885 -0.863076 14.000000
2.087168 0.354381 -0.859804 19.000000
2.077208 0.328294 -0.854506 21.000000
2.066854 0.302589 -0.849410 23.000000
2.042480 0.275273 -0.838517 23.000000
1.257818 0.125844 -0.514999 65.000000
1.222253 0.108166 -0.499989 98.000000
1.204919 0.092753 -0.492521 31.000000
1.233514 0.080830 -0.504047 91.000000
1.220500 0.065984 -0.498384 95.000000
1.216519 0.051849 -0.496616 95.000000
1.226256 0.038212 -0.500393 91.000000
1.226579 0.024221 -0.500514 95.000000
1.231370 0.010269 -0.502443 98.000000
1.217523 -0.003772 -0.496777 96.000000
1.217442 -0.017657 -0.496697 100.000000
1.217202 -0.031583 -0.496576 105.000000
1.212174 -0.045295 -0.494648 103.000000
1.216238 -0.059353 -0.496416 100.000000
1.201651 -0.072443 -0.490713 95.000000
1.210055 -0.086792 -0.494288 91.000000
1.213670 -0.101009 -0.496014 100.000000
1.207816 -0.114417 -0.494088 98.000000
1.206537 -0.128210 -0.493809 98.000000
1.205098 -0.142002 -0.493649 98.000000
1.208052 -0.156349 -0.495332 98.000000
1.201739 -0.169507 -0.493169 98.000000
1.209020 -0.184578 -0.496611 95.000000
1.179495 -0.193886 -0.485088 95.000000
1.177330 -0.207350 -0.484774 98.000000
1.999575 -0.447153 -0.828210 26.000000
2.017284 -0.475128 -0.836693 24.000000
2.016397 -0.499434 -0.838086 21.000000
2.006371 -0.521236 -0.835397 9.000000
2.027565 -0.551389 -0.845711 18.000000
1.999102 -0.568271 -0.835625 19.000000
2.019433 -0.599089 -0.846054 19.000000
2.021719 -0.624968 -0.848877 18.000000
2.032434 -0.653754 -0.855411 19.000000
2.025275 -0.676916 -0.854358 23.000000
2.017905 -0.700009 -0.853305 18.000000
1.983825 -0.713739 -0.841274 9.000000
2.002182 -0.746054 -0.851199 19.000000
1.998304 -0.770678 -0.851995 14.000000
1.981090 -0.790167 -0.847248 16.000000
1.993892 -0.821714 -0.855344 19.000000
1.976274 -0.840942 -0.850459 14.000000
1.984069 -0.870977 -0.856542 18.000000
1.978779 -0.895577 -0.857027 18.000000
1.960584 -0.914234 -0.852008 9.000000
1.975532 -0.948957 -0.861780 22.000000
1.969427 -0.973514 -0.862097 18.000000
1.966923 -1.000422 -0.864448 17.000000
1.960274 -1.024929 -0.864605 21.000000
1.948895 -1.047543 -0.863228 14.000000
1.953612 -1.079022 -0.869035 25.000000
1.929537 -1.094562 -0.862067 13.000000
1.921509 -1.119133 -0.862277 9.000000
1.941228 -1.160326 -0.875111 15.000000
1.916571 -1.175360 -0.868006 10.000000
1.931347 -1.214740 -0.878821 16.000000
1.922063 -1.239355 -0.878824 16.000000
1.916320 -1.266561 -0.880459 11.000000
1.887039 -1.278007 -0.871439 13.000000
1.888092 -1.310704 -0.876855 11.000000
1.877712 -1.334957 -0.876607 8.000000
1.874607 -1.364575 -0.879822 10.000000
1.874313 -1.397705 -0.885086 10.000000
1.863002 -1.421829 -0.884639 10.000000
1.850865 -1.446421 -0.884413 10.000000
1.839048 -1.470409 -0.883873 10.000000
1.833570 -1.500721 -0.887060 12.000000
1.820484 -1.525038 -0.886724 10.000000
1.847021 -1.582199 -0.905098 9.000000
1.829519 -1.603740 -0.902881 11.000000
1.815271 -1.628094 -0.902319 10.000000
1.807628 -1.658715 -0.905131 10.000000
1.793574 -1.682275 -0.904063 10.000000
1.792042 -1.719315 -0.910187 10.000000
1.786562 -1.753298 -0.914548 13.000000
1.767368 -1.774037 -0.911946 10.000000
1.784004 -1.831484 -0.928027 9.000000
1.751028 -1.838535 -0.918485 10.000000
1.750239 -1.879541 -0.925857 10.000000
1.751920 -1.924142 -0.934858 13.000000
1.730994 -1.944394 -0.931905 10.000000
1.716083 -1.971496 -0.932311 10.000000
1.712978 -2.012841 -0.939309 13.000000
1.709323 -2.054354 -0.946240 10.000000
1.722794 -2.117976 -0.962997 10.000000
1.679360 -2.112008 -0.948126 9.000000
1.682645 -2.164920 -0.959675 9.000000
1.667897 -2.195614 -0.961244 10.000000
1.659825 -2.238428 -0.967969 9.000000
1.649651 -2.276736 -0.972722 10.000000
1.647080 -2.326577 -0.982120 10.000000
1.640976 -2.372760 -0.989798 9.000000
1.645734 -2.439653 -1.005853 9.000000
1.601406 -2.430965 -0.990685 9.000000
1.598467 -2.485298 -1.001279 9.000000
1.574516 -2.507782 -0.998974 10.000000
1.565887 -2.559103 -1.008090 9.000000
1.560526 -2.613905 -1.018309 10.000000
1.542254 -2.648328 -1.020415 9.000000
1.544861 -2.724857 -1.038602 9.000000
1.529536 -2.767717 -1.043674 9.000000
0.859850 1.569210 -0.576599 18.000000
0.870576 1.546104 -0.574161 30.000000
0.891724 1.544151 -0.579643 27.000000
0.909061 1.533165 -0.581760 29.000000
0.930189 1.530700 -0.587222 32.000000
0.951375 1.527948 -0.592650 32.000000
0.968608 1.516266 -0.594732 31.000000
0.984627 1.504989 -0.597045 30.000000
0.990028 1.477718 -0.592976 24.000000
1.014733 1.477370 -0.599738 35.000000
1.030421 1.465546 -0.601930 28.000000
1.045995 1.453607 -0.604122 31.000000
1.067068 1.449063 -0.609464 34.000000
1.082550 1.436597 -0.611667 29.000000
1.104510 1.430984 -0.616751 29.000000
1.131507 1.432952 -0.625389 30.000000
1.134937 1.405104 -0.620948 24.000000
1.149975 1.391873 -0.623047 36.000000
1.167947 1.382133 -0.626723 35.000000
1.195144 1.382809 -0.635276 35.000000
1.216218 1.376007 -0.640577 46.000000
1.241269 1.371785 -0.647252 35.000000
1.256044 1.357309 -0.649226 42.000000
1.270638 1.342715 -0.651200 34.000000
1.291730 1.334656 -0.656446 22.000000
1.306159 1.319626 -0.658310 46.000000
1.320407 1.304416 -0.660174 40.000000
1.347477 1.302597 -0.669001 51.000000
1.378733 1.303035 -0.679189 52.000000
1.382507 1.277344 -0.675903 34.000000
1.417370 1.280149 -0.687838 49.000000
1.445410 1.275995 -0.696367 36.000000
1.430886 1.234536 -0.684497 21.000000
1.472562 1.242525 -0.700058 35.000000
1.486137 1.225320 -0.701685 35.000000
1.528784 1.231498 -0.717034 37.000000
1.541796 1.214085 -0.718884 33.000000
1.570008 1.207480 -0.727373 35.000000
1.601576 1.203674 -0.737816 46.000000
1.626147 1.193234 -0.744508 33.000000
1.638811 1.174600 -0.746280 25.000000
1.663260 1.163436 -0.752940 54.000000
1.679551 1.147051 -0.756401 34.000000
1.700065 1.132578 -0.761217 45.000000
1.739662 1.130888 -0.775128 60.000000
1.751762 1.110947 -0.776683 35.000000
1.775602 1.098191 -0.783508 40.000000
1.831528 1.104356 -0.804366 35.000000
1.855554 1.090338 -0.811191 26.000000
1.871335 1.071324 -0.814431 53.000000
1.895195 1.056560 -0.821147 42.000000
1.918921 1.041372 -0.827811 36.000000
1.946785 1.027941 -0.836266 43.000000
1.978709 1.016119 -0.846451 37.000000
2.001997 0.999866 -0.853321 47.000000
2.050708 0.995122 -0.870546 40.000000
2.070029 0.975349 -0.875310 21.000000
2.110066 0.965319 -0.889255 26.000000
2.111847 0.937415 -0.887036 22.000000
2.117531 0.911400 -0.886526 22.000000
2.127556 0.886902 -0.887506 24.000000
2.106771 0.850258 -0.876044 23.000000
2.111567 0.824411 -0.875358 22.000000
2.120243 0.800458 -0.876692 22.000000
2.102563 0.766553 -0.866821 10.000000
2.124106 0.747023 -0.873123 23.000000
2.118750 0.718359 -0.868799 21.000000
2.126367 0.694189 -0.869824 24.000000
2.120429 0.665686 -0.865334 23.000000
2.123029 0.640104 -0.864391 21.000000
2.120979 0.613258 -0.861555 24.000000
2.132050 0.590199 -0.864098 21.000000
2.111345 0.558626 -0.853827 9.000000
2.112698 0.533441 -0.852863 21.000000
2.109287 0.507199 -0.849929 17.000000
2.119229 0.484131 -0.852395 20.000000
2.115262 0.457933 -0.849312 19.000000
2.115598 0.432805 -0.848052 19.000000
2.097283 0.404328 -0.839544 24.000000
2.129027 0.385419 -0.851086 22.000000
2.091786 0.354163 -0.835100 10.000000
2.113925 0.333194 -0.842776 21.000000
2.122038 0.309720 -0.844960 26.000000
2.083782 0.279948 -0.828878 25.000000
2.054363 0.252254 -0.816381 28.000000
1.236855 0.109186 -0.490399 58.000000
1.237955 0.095089 -0.490521 73.000000
1.243573 0.081255 -0.492440 81.000000
1.235104 0.066606 -0.488806 98.000000
1.240399 0.052719 -0.490725 98.000000
1.236281 0.038437 -0.488887 91.000000
1.245904 0.024536 -0.492686 98.000000
1.246067 0.010346 -0.492726 98.000000
1.250758 -0.003858 -0.494565 95.000000
1.259975 -0.018236 -0.498159 98.000000
1.236484 -0.031943 -0.488846 100.000000
1.236038 -0.046027 -0.488806 103.000000
1.230865 -0.059885 -0.486847 100.000000
1.230097 -0.073917 -0.486806 100.000000
1.247762 -0.089234 -0.494072 34.000000
1.232831 -0.102283 -0.488400 100.000000
1.254806 -0.118513 -0.497374 95.000000
1.225730 -0.129839 -0.486119 95.000000
1.228854 -0.144332 -0.487791 95.000000
1.222617 -0.157740 -0.485715 98.000000
1.234699 -0.173552 -0.490927 100.000000
2.026863 -0.427644 -0.812103 28.000000
2.044830 -0.455795 -0.820679 25.000000
2.039749 -0.479073 -0.819992 26.000000
2.052546 -0.506746 -0.826519 25.000000
2.074057 -0.537027 -0.836600 19.000000
2.041046 -0.553437 -0.824995 12.000000
2.043845 -0.579254 -0.827933 19.000000
2.050848 -0.606528 -0.832540 20.000000
2.048578 -0.631293 -0.833441 18.000000
2.032822 -0.651750 -0.828909 17.000000
2.043315 -0.680706 -0.835091 21.000000
2.035913 -0.703899 -0.834033 17.000000
2.041258 -0.731955 -0.838527 17.000000
1.998120 -0.742304 -0.823194 10.000000
2.020583 -0.776614 -0.834458 20.000000
2.012087 -0.799624 -0.833396 21.000000
2.007555 -0.824407 -0.834057 18.000000
2.011223 -0.853006 -0.838510 20.000000
2.006146 -0.877729 -0.839013 22.000000
1.996556 -0.900558 -0.837653 17.000000
1.990988 -0.925212 -0.838077 18.000000
1.972304 -0.944055 -0.833368 12.000000
1.995342 -0.983290 -0.846379 21.000000
1.984665 -1.005806 -0.844781 17.000000
1.969406 -1.026451 -0.841629 15.000000
1.982833 -1.062316 -0.850866 22.000000
1.966992 -1.082812 -0.847632 18.000000
1.955054 -1.105371 -0.846167 18.000000
1.955112 -1.134758 -0.849834 13.000000
1.942657 -1.157089 -0.848213 10.000000
1.953956 -1.193997 -0.857033 17.000000
1.948836 -1.221207 -0.858815 17.000000
1.939517 -1.245991 -0.858763 15.000000
1.929843 -1.270639 -0.858628 16.000000
1.931168 -1.303624 -0.864002 15.000000
1.917063 -1.325541 -0.862030 13.000000
1.906026 -1.350548 -0.862017 12.000000
1.887714 -1.369450 -0.858238 10.000000
1.917604 -1.424961 -0.877096 20.000000
1.894829 -1.441023 -0.871406 16.000000
1.882521 -1.465879 -0.871187 11.000000
1.881562 -1.498828 -0.875703 18.000000
1.864922 -1.520625 -0.873672 14.000000
1.851735 -1.545278 -0.873265 11.000000
1.853184 -1.581364 -0.879247 12.000000
1.846348 -1.612066 -0.882113 10.000000
1.828620 -1.633451 -0.879887 14.000000
1.831505 -1.673653 -0.887608 15.000000
1.816531 -1.698017 -0.886955 10.000000
1.818351 -1.738498 -0.894509 16.000000
1.806922 -1.765375 -0.894996 10.000000
1.800961 -1.799478 -0.899121 14.000000
1.794463 -1.833726 -0.903125 12.000000
1.781065 -1.861212 -0.903696 9.000000
1.780170 -1.902385 -0.910847 15.000000
1.772199 -1.936787 -0.914648 16.000000
1.769027 -1.979040 -0.921945 18.000000
1.763137 -2.017238 -0.927206 22.000000
1.729050 -2.023109 -0.917658 11.000000
1.737466 -2.079241 -0.930810 16.000000
1.729961 -2.117493 -0.935757 10.000000
1.701299 -2.129941 -0.929355 9.000000
1.698756 -2.175486 -0.937358 10.000000
1.702830 -2.233522 -0.950450 10.000000
1.687254 -2.264465 -0.951803 10.000000
1.679714 -2.306736 -0.957894 13.000000
1.666093 -2.341389 -0.960653 10.000000
1.649158 -2.372216 -0.961877 15.000000
1.646277 -2.427359 -0.972697 10.000000
1.620345 -2.446218 -0.968925 9.000000
1.612377 -2.492619 -0.976086 13.000000
1.614467 -2.560305 -0.991327 10.000000
1.597218 -2.594966 -0.993542 11.000000
1.579530 -2.629564 -0.995707 10.000000
1.564224 -2.673296 -1.001195 10.000000
1.561765 -2.736649 -1.013869 10.000000
1.535176 -2.763965 -1.012981 9.000000
0.857864 1.598544 -0.564526 8.000000
0.859762 1.558682 -0.556290 23.000000
0.880909 1.556969 -0.561562 26.000000
0.893684 1.537908 -0.560672 29.000000
0.917223 1.539835 -0.567477 28.000000
0.933402 1.529221 -0.569772 26.000000
0.953085 1.521841 -0.573300 34.000000
0.971763 1.514803 -0.577071 32.000000
0.991394 1.506955 -0.580621 28.000000
0.994008 1.475775 -0.575130 23.000000
1.017743 1.476050 -0.581929 26.000000
1.028824 1.455917 -0.580730 31.000000
1.055412 1.459418 -0.589065 30.000000
1.070911 1.447274 -0.591204 32.000000
1.089160 1.438626 -0.594852 34.000000
1.105338 1.425522 -0.596707 28.000000
1.135273 1.431296 -0.606673 33.000000
1.135605 1.399777 -0.600824 32.000000
1.150507 1.386673 -0.602795 34.000000
1.171484 1.380565 -0.607950 37.000000
1.190154 1.370036 -0.611295 32.000000
1.211115 1.363385 -0.616425 34.000000
1.241661 1.366868 -0.626395 50.000000
1.259581 1.355935 -0.629910 35.000000
1.283915 1.351670 -0.636667 56.000000
1.285281 1.323189 -0.632048 29.000000
1.306228 1.315021 -0.637144 42.000000
1.323832 1.303204 -0.640568 52.000000
1.337925 1.287852 -0.642307 37.000000
1.382795 1.301458 -0.658857 62.000000
1.386479 1.275794 -0.655644 52.000000
1.417908 1.275446 -0.665587 35.000000
1.435323 1.262102 -0.668964 54.000000
1.444909 1.242835 -0.669224 21.000000
1.465691 1.232075 -0.674147 33.000000
1.490064 1.224017 -0.680751 46.000000
1.503419 1.206667 -0.682311 32.000000
1.549513 1.215807 -0.699175 36.000000
1.573996 1.206354 -0.705735 36.000000
1.587230 1.188045 -0.707277 34.000000
1.630221 1.192227 -0.722484 54.000000
1.631821 1.164974 -0.718862 25.000000
1.648031 1.149139 -0.722243 32.000000
1.684006 1.145796 -0.733780 70.000000
1.704064 1.131773 -0.738762 37.000000
1.727980 1.119929 -0.745461 43.000000
1.756238 1.109856 -0.753550 51.000000
1.788109 1.102085 -0.763643 34.000000
1.812057 1.088882 -0.770279 37.000000
1.843994 1.079944 -0.780295 26.000000
1.867893 1.065820 -0.786838 37.000000
1.895768 1.053486 -0.795120 57.000000
1.915373 1.036169 -0.799907 37.000000
1.943168 1.022893 -0.808160 60.000000
1.970940 1.009093 -0.816364 50.000000
1.990285 0.990658 -0.821052 33.000000
2.017948 0.975897 -0.829148 37.000000
2.049522 0.962964 -0.839295 26.000000
2.081312 0.949030 -0.849026 29.000000
2.134221 0.944388 -0.867792 26.000000
2.140021 0.918224 -0.867414 20.000000
2.141379 0.889906 -0.864830 20.000000
2.146551 0.863761 -0.864289 24.000000
2.155823 0.839263 -0.865344 21.000000
2.160411 0.812966 -0.864646 21.000000
2.138189 0.777321 -0.853629 12.000000
2.150986 0.754398 -0.856278 20.000000
2.159160 0.729727 -0.857169 26.000000
2.153540 0.700861 -0.852923 21.000000
2.143066 0.670825 -0.846826 19.000000
2.154724 0.647709 -0.849471 24.000000
2.143647 0.618013 -0.843208 18.000000
2.150270 0.593557 -0.843935 21.000000
2.124954 0.560678 -0.832196 10.000000
2.135369 0.537651 -0.834829 16.000000
2.141190 0.513288 -0.835332 21.000000
2.132908 0.485810 -0.830654 19.000000
2.138121 0.461530 -0.831226 20.000000
2.138398 0.436245 -0.830020 20.000000
2.142958 0.412017 -0.830661 18.000000
2.138109 0.385986 -0.827671 16.000000
2.128333 0.359316 -0.822825 10.000000
2.132139 0.335136 -0.823248 20.000000
2.135664 0.310886 -0.823600 23.000000
2.129648 0.285394 -0.820456 21.000000
2.100143 0.257204 -0.808316 24.000000
2.037851 0.226078 -0.783603 32.000000
1.233898 0.094498 -0.473463 29.000000
1.262828 0.082289 -0.484265 95.000000
1.249625 0.067229 -0.479027 95.000000
1.254986 0.053196 -0.480773 77.000000
1.255519 0.038953 -0.480815 98.000000
1.255807 0.024710 -0.480938 88.000000
1.260681 0.010464 -0.482767 95.000000
1.260722 -0.003831 -0.482726 98.000000
1.279316 -0.018438 -0.489835 100.000000
1.288401 -0.033186 -0.493284 103.000000
1.273939 -0.047280 -0.487839 98.000000
1.277978 -0.062003 -0.489668 98.000000
1.277267 -0.076511 -0.489501 95.000000
1.276348 -0.091018 -0.489375 59.000000
1.270648 -0.105099 -0.487423 91.000000
1.269440 -0.119512 -0.487214 95.000000
1.272710 -0.134416 -0.488874 98.000000
1.317556 -0.154316 -0.506542 108.000000
1.914834 -0.335283 -0.739946 26.000000
1.989186 -0.371581 -0.769590 30.000000
2.063026 -0.409515 -0.799118 26.000000
2.072149 -0.435885 -0.803892 26.000000
2.103819 -0.467500 -0.817527 24.000000
2.098684 -0.491346 -0.816823 24.000000
2.093127 -0.515263 -0.816260 23.000000
2.087499 -0.538968 -0.815416 13.000000
2.063390 -0.557861 -0.807644 14.000000
2.075260 -0.586379 -0.813939 23.000000
2.068718 -0.609944 -0.813165 15.000000
2.079927 -0.638935 -0.819299 22.000000
2.055071 -0.656793 -0.811266 16.000000
2.065665 -0.685977 -0.817312 19.000000
2.062499 -0.711060 -0.818216 22.000000
2.067762 -0.739325 -0.822553 10.000000
2.046643 -0.757776 -0.816083 10.000000
2.033878 -0.779352 -0.813338 19.000000
2.020937 -0.800757 -0.810457 13.000000
2.042514 -0.836123 -0.821533 21.000000
2.037488 -0.861377 -0.822341 22.000000
2.028053 -0.884496 -0.821045 17.000000
2.039856 -0.917011 -0.828432 21.000000
2.025339 -0.938476 -0.825533 10.000000
2.027944 -0.967341 -0.829275 17.000000
2.012989 -0.988515 -0.826303 24.000000
2.010425 -1.015796 -0.828516 20.000000
1.999219 -1.038721 -0.827124 21.000000
2.008425 -1.072630 -0.834408 21.000000
1.996658 -1.095572 -0.832928 16.000000
2.005130 -1.129820 -0.839944 22.000000
1.972385 -1.140937 -0.829820 10.000000
1.959878 -1.163361 -0.828191 10.000000
1.983357 -1.207638 -0.841902 24.000000
1.962189 -1.225195 -0.836766 12.000000
1.964292 -1.258088 -0.842056 15.000000
1.962467 -1.288083 -0.845321 14.000000
1.956343 -1.315568 -0.846798 11.000000
1.953292 -1.346287 -0.850177 16.000000
1.938757 -1.368281 -0.848177 10.000000
1.919714 -1.387978 -0.844729 10.000000
1.923759 -1.423634 -0.850956 16.000000
1.911701 -1.448649 -0.850767 13.000000
1.929142 -1.496790 -0.863913 19.000000
1.909483 -1.515516 -0.859879 14.000000
1.885358 -1.531578 -0.854588 13.000000
1.890231 -1.571443 -0.862397 16.000000
1.880090 -1.599341 -0.863633 9.000000
1.880984 -1.635820 -0.869311 10.000000
1.880660 -1.673107 -0.875266 16.000000
1.851797 -1.685202 -0.867995 10.000000
1.850655 -1.722570 -0.873816 16.000000
1.828373 -1.740617 -0.869738 10.000000
1.822859 -1.774753 -0.873790 10.000000
1.830303 -1.822388 -0.884201 14.000000
1.817106 -1.850052 -0.884847 9.000000
1.823187 -1.898185 -0.895050 11.000000
1.809055 -1.925958 -0.895545 16.000000
1.791400 -1.950137 -0.894335 13.000000
1.789247 -1.991760 -0.901089 19.000000
1.764651 -2.008630 -0.896569 10.000000
1.778906 -2.072812 -0.913008 17.000000
1.765731 -2.104017 -0.914759 15.000000
1.743025 -2.124160 -0.911667 9.000000
1.744000 -2.173573 -0.921039 9.000000
1.717691 -2.189721 -0.916251 10.000000
1.724701 -2.251685 -0.930535 10.000000
1.717652 -2.294098 -0.936483 13.000000
1.695985 -2.317533 -0.934626 10.000000
1.687794 -2.360008 -0.940373 13.000000
1.680143 -2.407426 -0.947963 13.000000
1.673306 -2.454067 -0.955100 10.000000
1.649761 -2.477074 -0.952911 9.000000
1.650362 -2.540759 -0.966189 10.000000
1.636048 -2.579610 -0.969970 10.000000
1.622041 -2.623501 -0.975495 10.000000
1.604057 -2.658296 -0.977454 10.000000
1.588049 -2.697131 -0.980957 10.000000
1.581262 -2.757656 -0.992151 10.000000
1.575298 -2.817320 -1.002819 9.000000
1.579850 -2.903536 -1.022542 8.000000
0.848835 1.570919 -0.538362 8.000000
0.867717 1.565258 -0.542088 15.000000
0.880560 1.546329 -0.541232 21.000000
0.899205 1.540298 -0.544907 16.000000
0.925242 1.546347 -0.552994 26.000000
0.937557 1.526985 -0.552063 24.000000
0.953579 1.516228 -0.554295 24.000000
0.975750 1.512694 -0.559207 26.000000
1.007526 1.525373 -0.570269 13.000000
0.999601 1.478229 -0.559037 17.000000
1.016150 1.466188 -0.560920 21.000000
1.037190 1.462267 -0.565985 18.000000
1.049881 1.446476 -0.566540 26.000000
1.068917 1.437654 -0.569886 22.000000
1.095712 1.440539 -0.578036 24.000000
1.108096 1.424199 -0.578539 23.000000
1.132955 1.422066 -0.584868 14.000000
1.136088 1.394313 -0.580704 30.000000
1.147866 1.377624 -0.581124 23.000000
1.171844 1.375250 -0.587662 26.000000
1.196641 1.371965 -0.593996 32.000000
1.217635 1.365324 -0.598978 24.000000
1.232263 1.351283 -0.600858 30.000000
1.256429 1.347545 -0.607434 29.000000
1.287312 1.350218 -0.617121 21.000000
1.281949 1.315018 -0.609471 29.000000
1.302820 1.306916 -0.614401 26.000000
1.323658 1.298540 -0.619350 26.000000
1.347942 1.293113 -0.625845 35.000000
1.396517 1.309967 -0.643456 28.000000
1.407204 1.290613 -0.643585 31.000000
1.435269 1.287028 -0.651712 33.000000
1.438560 1.261021 -0.648572 21.000000
1.452245 1.244376 -0.650175 28.000000
1.469373 1.230647 -0.653391 26.000000
1.490106 1.219584 -0.658170 26.000000
1.503396 1.202319 -0.659723 32.000000
1.542140 1.205815 -0.672838 26.000000
1.566550 1.196546 -0.679241 31.000000
1.594810 1.189651 -0.687170 32.000000
1.603519 1.168817 -0.687268 19.000000
1.624033 1.155709 -0.691957 31.000000
1.648354 1.144924 -0.698238 26.000000
1.672201 1.134197 -0.704800 28.000000
1.708292 1.130429 -0.716005 37.000000
1.724309 1.113586 -0.719181 29.000000
1.752155 1.103998 -0.727335 32.000000
1.788393 1.098444 -0.738498 32.000000
1.820366 1.090187 -0.748306 23.000000
1.819893 1.062321 -0.744750 29.000000
1.864059 1.060227 -0.759467 32.000000
1.887810 1.045763 -0.765872 30.000000
1.915648 1.033113 -0.773901 33.000000
1.943468 1.019944 -0.781881 33.000000
1.967072 1.004111 -0.788203 32.000000
1.994819 0.989940 -0.796152 35.000000
2.026701 0.977356 -0.805735 23.000000
2.050063 0.960077 -0.811893 27.000000
2.085964 0.948571 -0.823432 31.000000
2.130730 0.939832 -0.838016 26.000000
2.153674 0.921212 -0.844387 21.000000
2.163704 0.896515 -0.845375 16.000000
2.160187 0.866643 -0.841415 12.000000
2.178167 0.845498 -0.845953 21.000000
2.147659 0.805837 -0.831676 10.000000
2.169552 0.786217 -0.837763 12.000000
2.164711 0.756841 -0.833538 16.000000
2.181583 0.735344 -0.838075 13.000000
2.180571 0.707546 -0.835474 20.000000
2.174567 0.678701 -0.831300 16.000000
2.159326 0.647241 -0.823608 13.000000
2.170724 0.624076 -0.826132 20.000000
2.159223 0.594430 -0.819989 10.000000
2.152007 0.566245 -0.815483 10.000000
2.167189 0.544085 -0.819578 18.000000
2.150030 0.514078 -0.811687 11.000000
2.169221 0.492834 -0.817581 17.000000
2.165398 0.466123 -0.814491 19.000000
2.179419 0.443507 -0.818665 16.000000
2.170297 0.416121 -0.813987 18.000000
2.146907 0.386554 -0.804186 10.000000
2.146467 0.361296 -0.802739 13.000000
2.150290 0.337012 -0.803164 16.000000
2.158331 0.313330 -0.805463 18.000000
2.157017 0.288230 -0.804014 18.000000
2.146025 0.262098 -0.799167 20.000000
2.116140 0.234149 -0.787309 21.000000
1.272676 0.082717 -0.472231 83.000000
1.273506 0.068315 -0.472356 95.000000
1.274170 0.053872 -0.472356 95.000000
1.279396 0.039615 -0.474134 98.000000
1.270354 0.024935 -0.470743 75.000000
1.284584 0.010661 -0.475996 87.000000
1.294003 -0.003917 -0.479471 100.000000
1.293918 -0.018572 -0.479387 98.000000
1.293666 -0.033228 -0.479260 98.000000
1.297930 -0.048057 -0.480954 98.000000
1.301980 -0.062950 -0.482691 98.000000
1.291855 -0.077153 -0.479050 98.000000
1.281616 -0.091102 -0.475453 82.000000
1.303896 -0.107537 -0.483959 98.000000
1.767914 -0.226715 -0.658054 71.000000
1.876797 -0.262363 -0.699368 62.000000
1.948114 -0.294800 -0.726553 28.000000
2.005043 -0.326653 -0.748579 10.000000
2.079849 -0.363098 -0.777695 23.000000
2.075867 -0.386650 -0.777077 17.000000
2.122108 -0.420159 -0.795580 21.000000
2.126723 -0.446002 -0.798254 20.000000
2.112542 -0.468203 -0.794384 17.000000
2.116479 -0.494184 -0.797124 20.000000
2.120158 -0.520301 -0.799786 21.000000
2.064323 -0.531477 -0.780243 9.000000
2.094706 -0.564670 -0.793287 15.000000
2.074871 -0.584606 -0.787365 10.000000
2.095466 -0.616017 -0.796877 18.000000
2.066266 -0.632837 -0.787396 10.000000
2.081701 -0.663272 -0.794962 13.000000
2.096626 -0.694357 -0.802721 18.000000
2.093541 -0.719480 -0.803351 11.000000
2.058996 -0.733800 -0.792194 9.000000
2.072960 -0.765285 -0.799780 14.000000
2.055784 -0.785380 -0.795306 10.000000
2.064640 -0.815571 -0.801023 17.000000
2.068775 -0.844238 -0.804955 12.000000
2.072359 -0.873421 -0.809090 15.000000
2.067193 -0.898637 -0.809467 19.000000
2.057180 -0.922245 -0.808371 10.000000
2.042893 -0.943440 -0.805297 9.000000
2.057975 -0.978841 -0.814224 16.000000
2.051348 -1.004398 -0.814648 13.000000
2.040321 -1.027709 -0.813390 18.000000
2.024741 -1.048780 -0.810384 16.000000
2.025699 -1.078465 -0.813995 10.000000
2.038695 -1.115072 -0.822519 18.000000
2.014177 -1.131241 -0.816019 10.000000
2.001765 -1.154120 -0.814449 9.000000
2.005443 -1.186381 -0.819514 12.000000
2.000620 -1.213965 -0.821167 10.000000
1.999015 -1.244530 -0.824687 11.000000
1.993496 -1.272147 -0.826234 10.000000
1.975784 -1.292114 -0.822754 9.000000
1.996669 -1.338517 -0.835932 12.000000
1.970540 -1.352942 -0.829075 9.000000
1.959349 -1.378360 -0.829012 9.000000
1.944031 -1.400949 -0.827310 10.000000
1.936632 -1.428300 -0.828399 9.000000
1.943430 -1.467690 -0.836356 10.000000
1.945953 -1.504474 -0.842572 10.000000
1.933637 -1.529150 -0.841887 10.000000
1.924141 -1.557285 -0.843124 10.000000
1.910630 -1.582410 -0.842657 10.000000
1.932942 -1.637997 -0.858224 9.000000
1.900665 -1.647707 -0.849619 9.000000
1.896696 -1.682079 -0.853734 9.000000
1.881758 -1.706897 -0.853040 10.000000
1.863110 -1.728407 -0.850749 10.000000
1.871743 -1.775869 -0.861040 10.000000
1.859213 -1.803810 -0.861706 10.000000
1.846289 -1.831740 -0.862354 9.000000
1.869714 -1.896765 -0.880243 9.000000
1.829308 -1.897481 -0.868204 9.000000
1.818506 -1.928683 -0.870172 10.000000
1.813754 -1.966840 -0.875220 10.000000
1.805271 -2.001579 -0.878670 10.000000
1.811953 -2.054180 -0.889717 10.000000
1.794873 -2.082832 -0.890160 10.000000
1.784737 -2.117760 -0.893301 10.000000
1.789250 -2.170980 -0.904049 10.000000
1.771960 -2.198686 -0.904032 9.000000
1.767700 -2.245880 -0.911774 9.000000
1.749526 -2.273391 -0.911598 9.000000
1.748202 -2.323708 -0.920361 9.000000
1.738892 -2.367430 -0.926312 10.000000
1.721953 -2.398795 -0.927423 10.000000
1.707318 -2.433879 -0.929899 9.000000
1.704209 -2.489580 -0.940054 9.000000
1.680344 -2.512837 -0.937871 9.000000
1.677198 -2.567765 -0.947483 9.000000
1.666172 -2.615964 -0.954348 10.000000
1.656216 -2.663198 -0.960837 9.000000
1.648497 -2.719624 -0.970367 10.000000
1.627088 -2.750648 -0.970667 9.000000
1.607505 -2.785679 -0.972480 9.000000
1.594891 -2.838244 -0.980218 10.000000
1.597018 -2.915211 -0.996164 8.000000
0.874970 1.611154 -0.535322 6.000000
0.877922 1.575923 -0.529094 10.000000
0.895593 1.565251 -0.531160 16.000000
0.909576 1.550903 -0.531921 26.000000
0.931800 1.548130 -0.536714 16.000000
0.943050 1.529331 -0.536041 28.000000
0.957599 1.513896 -0.536552 22.000000
0.986536 1.523090 -0.545865 20.000000
1.000890 1.507247 -0.546328 24.000000
1.011372 1.487913 -0.545503 10.000000
1.018897 1.464544 -0.543199 21.000000
1.038065 1.456258 -0.546482 25.000000
1.061866 1.455974 -0.552879 20.000000
1.082998 1.451496 -0.557836 30.000000
1.093447 1.430950 -0.556618 22.000000
1.117398 1.429755 -0.563019 24.000000
1.138551 1.424456 -0.567964 29.000000
1.178641 1.440422 -0.581584 10.000000
1.163379 1.390384 -0.568585 29.000000
1.187466 1.387919 -0.575003 28.000000
1.202252 1.374361 -0.576873 26.000000
1.214501 1.356492 -0.576940 33.000000
1.235449 1.349648 -0.581777 30.000000
1.256373 1.342424 -0.586633 31.000000
1.277328 1.334934 -0.591449 29.000000
1.294985 1.323654 -0.594754 12.000000
1.309230 1.308815 -0.596475 35.000000
1.330758 1.299913 -0.601034 33.000000
1.348158 1.287925 -0.604305 30.000000
1.382882 1.291909 -0.615195 50.000000
1.389831 1.269585 -0.613795 29.000000
1.407092 1.256799 -0.616920 32.000000
1.435036 1.253125 -0.624788 37.000000
1.463070 1.248939 -0.632565 18.000000
1.476604 1.232069 -0.634172 31.000000
1.485780 1.212567 -0.634332 32.000000
1.510103 1.204307 -0.640595 33.000000
1.526949 1.189772 -0.643601 57.000000
1.539899 1.172216 -0.645033 27.000000
1.586911 1.179875 -0.660725 33.000000
1.626230 1.181566 -0.673499 35.000000
1.619840 1.149028 -0.666899 17.000000
1.655746 1.146545 -0.677811 36.000000
1.671863 1.130457 -0.680966 37.000000
1.700027 1.121585 -0.688672 30.000000
1.727894 1.112615 -0.696601 43.000000
1.752108 1.100168 -0.702683 32.000000
1.784025 1.092725 -0.712140 35.000000
1.812283 1.081790 -0.719809 39.000000
1.832031 1.065996 -0.724404 22.000000
1.843447 1.045146 -0.725771 42.000000
1.891917 1.044804 -0.741746 36.000000
1.919802 1.032213 -0.749575 35.000000
1.943481 1.016912 -0.755657 56.000000
1.958597 0.996895 -0.758563 35.000000
1.982087 0.980832 -0.764670 33.000000
2.035234 0.978742 -0.782176 52.000000
2.037250 0.951477 -0.779993 19.000000
2.090580 0.947736 -0.797492 35.000000
2.109236 0.927957 -0.802114 42.000000
2.154106 0.918647 -0.816248 33.000000
2.181320 0.901489 -0.824051 28.000000
2.199850 0.880047 -0.828266 23.000000
2.204871 0.853449 -0.827763 22.000000
2.209549 0.826797 -0.827103 24.000000
2.209525 0.798566 -0.824858 10.000000
2.204674 0.768755 -0.820795 18.000000
2.221924 0.746759 -0.824946 24.000000
2.202892 0.713020 -0.816036 16.000000
2.192525 0.682317 -0.810131 20.000000
2.208767 0.660272 -0.814353 25.000000
2.197656 0.630080 -0.808506 21.000000
2.195300 0.602718 -0.805983 19.000000
2.165245 0.568237 -0.793285 9.000000
2.212474 0.553968 -0.808981 22.000000
2.213799 0.527765 -0.807825 23.000000
2.200947 0.498617 -0.801866 21.000000
2.206210 0.473767 -0.802451 22.000000
2.211253 0.448770 -0.803035 24.000000
2.206751 0.421931 -0.800119 23.000000
2.206555 0.396207 -0.799095 20.000000
2.168968 0.364202 -0.784272 9.000000
2.196079 0.343326 -0.793101 23.000000
2.199680 0.318479 -0.793461 25.000000
2.207588 0.294254 -0.795647 25.000000
2.210620 0.269281 -0.796008 28.000000
2.204075 0.243276 -0.792930 26.000000
2.197221 0.217411 -0.789777 25.000000
2.194821 0.192167 -0.788236 24.000000
1.385783 0.089847 -0.497083 54.000000
1.264426 0.067685 -0.453437 95.000000
1.265124 0.053360 -0.453437 100.000000
1.265617 0.039076 -0.453478 98.000000
1.265945 0.024792 -0.453560 98.000000
1.270857 0.010547 -0.455287 98.000000
1.266191 -0.003817 -0.453601 95.000000
1.275523 -0.018236 -0.456891 100.000000
1.251746 -0.032024 -0.448339 100.000000
1.256003 -0.046363 -0.449984 95.000000
1.274241 -0.061448 -0.456684 103.000000
2.120819 -0.174424 -0.761012 9.000000
2.142257 -0.200551 -0.769291 22.000000
2.153934 -0.226224 -0.774060 17.000000
2.160761 -0.251669 -0.777073 19.000000
2.162612 -0.276588 -0.778331 21.000000
2.154839 -0.300311 -0.776157 19.000000
2.160769 -0.326108 -0.779163 22.000000
2.166456 -0.351974 -0.782023 19.000000
2.111359 -0.367619 -0.763216 9.000000
2.167542 -0.402545 -0.784380 25.000000
2.163043 -0.427039 -0.783880 22.000000
2.162870 -0.452426 -0.784982 23.000000
2.157861 -0.476829 -0.784338 24.000000
2.148047 -0.500092 -0.781952 17.000000
2.160717 -0.528854 -0.788059 22.000000
2.150317 -0.552097 -0.785743 16.000000
2.085027 -0.560480 -0.763357 10.000000
2.128734 -0.598058 -0.780903 24.000000
2.095001 -0.614074 -0.770065 17.000000
2.115352 -0.645934 -0.779114 21.000000
2.117114 -0.672837 -0.781718 21.000000
2.114263 -0.698032 -0.782369 19.000000
2.119946 -0.726604 -0.786472 17.000000
2.116346 -0.752103 -0.787184 13.000000
2.090352 -0.769550 -0.779561 10.000000
2.108390 -0.803182 -0.788449 19.000000
2.081995 -0.820040 -0.780766 18.000000
2.077255 -0.845543 -0.781471 22.000000
2.107234 -0.885344 -0.795096 24.000000
2.093079 -0.907467 -0.792422 17.000000
2.078890 -0.929050 -0.789384 14.000000
2.085760 -0.960565 -0.794822 16.000000
2.053806 -0.974095 -0.785471 10.000000
2.068576 -1.009877 -0.794080 24.000000
2.074328 -1.041772 -0.799254 18.000000
2.067067 -1.067466 -0.799530 19.000000
2.059533 -1.093107 -0.799801 18.000000
2.047572 -1.116351 -0.798296 13.000000
2.047771 -1.146455 -0.801641 16.000000
2.035283 -1.169539 -0.800127 11.000000
2.022568 -1.192471 -0.798538 9.000000
2.025452 -1.225510 -0.803604 18.000000
2.012100 -1.248322 -0.801849 13.000000
2.042175 -1.299410 -0.818009 13.000000
2.020202 -1.317159 -0.813021 14.000000
2.005523 -1.340303 -0.811467 10.000000
2.010714 -1.376136 -0.817478 13.000000
1.972128 -1.382861 -0.806230 10.000000
1.983743 -1.424784 -0.815611 9.000000
1.991432 -1.463802 -0.823046 18.000000
1.982877 -1.492325 -0.824370 10.000000
1.985156 -1.529473 -0.830317 10.000000
1.968318 -1.552192 -0.828384 11.000000
1.936456 -1.562741 -0.820109 10.000000
1.941888 -1.602309 -0.827155 10.000000
1.924258 -1.624467 -0.825052 9.000000
1.928049 -1.665022 -0.832266 9.000000
1.931189 -1.705907 -0.839349 17.000000
1.912581 -1.727823 -0.837116 10.000000
1.918183 -1.772170 -0.845582 11.000000
1.898832 -1.794034 -0.843236 10.000000
1.886159 -1.822178 -0.843870 10.000000
1.892647 -1.871067 -0.853905 13.000000
1.875610 -1.895947 -0.852869 10.000000
1.848477 -1.910377 -0.847268 9.000000
1.867094 -1.972856 -0.862793 19.000000
1.845785 -1.993904 -0.860097 10.000000
1.840305 -2.032539 -0.864834 17.000000
1.845763 -2.086274 -0.875875 14.000000
1.832673 -2.117951 -0.877508 10.000000
1.825339 -2.156858 -0.882002 19.000000
1.820480 -2.199522 -0.887839 10.000000
1.807672 -2.235730 -0.891022 10.000000
1.795641 -2.271113 -0.893798 15.000000
1.786030 -2.310176 -0.897910 10.000000
1.788824 -2.369401 -0.909668 18.000000
1.763524 -2.389489 -0.906351 10.000000
1.763319 -2.444211 -0.916026 11.000000
1.741337 -2.472800 -0.915848 15.000000
1.736719 -2.523926 -0.923828 10.000000
1.720648 -2.559354 -0.926064 9.000000
1.710246 -2.607735 -0.932753 18.000000
1.703409 -2.659188 -0.940495 17.000000
1.681061 -2.691496 -0.941241 23.000000
1.662663 -2.726763 -0.943066 18.000000
1.656579 -2.787716 -0.953616 23.000000
1.624775 -2.802132 -0.948189 25.000000
1.602596 -2.838111 -0.950181 17.000000
1.616553 -2.936167 -0.972616 9.000000
0.866735 1.588029 -0.511022 8.000000
0.871682 1.557174 -0.506377 16.000000
0.881873 1.534138 -0.504192 24.000000
0.906328 1.535945 -0.510227 24.000000
0.922348 1.525699 -0.512321 25.000000
0.948486 1.531563 -0.519905 26.000000
0.957814 1.508015 -0.517619 26.000000
0.981560 1.509190 -0.523853 26.000000
1.003707 1.505446 -0.528488 27.000000
0.997892 1.462352 -0.519244 22.000000
1.014221 1.450471 -0.520989 24.000000
1.043429 1.458426 -0.530046 31.000000
1.059693 1.446043 -0.531815 26.000000
1.083553 1.445504 -0.537980 25.000000
1.107599 1.444598 -0.544232 27.000000
1.117804 1.423902 -0.543040 28.000000
1.144904 1.426147 -0.550710 28.000000
1.141781 1.390952 -0.543954 26.000000
1.157329 1.377412 -0.545560 29.000000
1.181310 1.375159 -0.551706 33.000000
1.199097 1.365277 -0.555017 29.000000
1.223232 1.362322 -0.561152 33.000000
1.244894 1.354867 -0.565668 34.000000
1.262675 1.344191 -0.568905 31.000000
1.283663 1.336651 -0.573569 33.000000
1.287955 1.311806 -0.570838 28.000000
1.309408 1.303326 -0.575280 31.000000
1.333662 1.298373 -0.581406 35.000000
1.354498 1.289719 -0.586002 37.000000
1.375357 1.280728 -0.590675 37.000000
1.392710 1.268188 -0.593742 37.000000
1.413513 1.258616 -0.598323 36.000000
1.427082 1.242442 -0.599898 35.000000
1.451416 1.235352 -0.605957 28.000000
1.468445 1.221736 -0.609002 32.000000
1.496503 1.216928 -0.616560 39.000000
1.505938 1.196786 -0.616517 35.000000
1.522705 1.182445 -0.619464 35.000000
1.565891 1.187967 -0.633087 58.000000
1.578369 1.170448 -0.634725 35.000000
1.606509 1.163459 -0.642273 45.000000
1.642533 1.161481 -0.652869 34.000000
1.647358 1.137168 -0.651067 37.000000
1.679078 1.131952 -0.660360 61.000000
1.699369 1.117870 -0.664701 45.000000
1.731643 1.111175 -0.673721 37.000000
1.775614 1.111786 -0.687649 66.000000
1.783740 1.088922 -0.687299 41.000000
1.795355 1.068781 -0.688708 34.000000
1.831407 1.062734 -0.699461 34.000000
1.847176 1.044041 -0.702121 58.000000
1.854205 1.020813 -0.701843 44.000000
1.906981 1.022201 -0.718832 50.000000
1.938935 1.011603 -0.727980 52.000000
1.966756 0.998172 -0.735503 54.000000
1.994481 0.984216 -0.743046 57.000000
2.013623 0.965702 -0.747365 35.000000
2.058422 0.958789 -0.761155 35.000000
2.073120 0.937353 -0.763843 44.000000
2.100588 0.921384 -0.771242 35.000000
2.140858 0.910735 -0.783595 43.000000
2.163888 0.891727 -0.789363 41.000000
2.208582 0.881426 -0.803295 28.000000
2.244669 0.866459 -0.813826 26.000000
2.236146 0.834489 -0.808495 21.000000
2.249521 0.810793 -0.811024 22.000000
2.244737 0.780698 -0.807202 26.000000
2.244110 0.752335 -0.804825 26.000000
2.243188 0.723945 -0.802441 24.000000
2.228189 0.691701 -0.795363 26.000000
2.231102 0.665074 -0.794425 26.000000
2.233609 0.638699 -0.793634 23.000000
2.222175 0.608453 -0.787986 20.000000
2.251522 0.589325 -0.796752 16.000000
2.234808 0.558145 -0.789324 24.000000
2.240827 0.532879 -0.789844 25.000000
2.241788 0.506646 -0.788964 28.000000
2.233330 0.478239 -0.784536 25.000000
2.243049 0.454045 -0.786751 27.000000
2.247849 0.428714 -0.787194 25.000000
2.224360 0.398382 -0.778092 18.000000
2.242577 0.375634 -0.783269 19.000000
2.237200 0.348857 -0.780451 24.000000
2.231498 0.322289 -0.777556 26.000000
2.230233 0.296483 -0.776289 25.000000
2.228592 0.270782 -0.775021 25.000000
2.221951 0.244670 -0.772046 28.000000
2.219774 0.219089 -0.770702 30.000000
2.212591 0.193275 -0.767723 24.000000
1.354202 0.072302 -0.469064 95.000000
1.288810 0.054278 -0.446308 98.000000
1.294075 0.039886 -0.447984 98.000000
1.280278 0.025018 -0.443038 95.000000
1.285169 0.010625 -0.444714 98.000000
1.285210 -0.003818 -0.444714 98.000000
1.299301 -0.018505 -0.449577 98.000000
1.369862 -0.034958 -0.474055 105.000000
2.055326 -0.145298 -0.711986 17.000000
2.175988 -0.178495 -0.754373 16.000000
2.188131 -0.204275 -0.758917 18.000000
2.185790 -0.228967 -0.758633 20.000000
2.192554 -0.254607 -0.761540 24.000000
2.185015 -0.278664 -0.759483 24.000000
2.191251 -0.304640 -0.762457 24.000000
2.183148 -0.328573 -0.760400 22.000000
2.156108 -0.349376 -0.751765 10.000000
2.180110 -0.378550 -0.761171 21.000000
2.180547 -0.403906 -0.762154 22.000000
2.180678 -0.429366 -0.763277 21.000000
2.185204 -0.455824 -0.765948 24.000000
2.189328 -0.482563 -0.768688 26.000000
2.188583 -0.508224 -0.769585 32.000000
2.182930 -0.532867 -0.769005 20.000000
2.176987 -0.557510 -0.768353 10.000000
2.143405 -0.574657 -0.757931 19.000000
2.141664 -0.600050 -0.758758 24.000000
2.130523 -0.622747 -0.756285 20.000000
2.146221 -0.653761 -0.763625 20.000000
2.152672 -0.682063 -0.767512 21.000000
2.145103 -0.706373 -0.766711 21.000000
2.146276 -0.733673 -0.769049 19.000000
2.106916 -0.746719 -0.756874 10.000000
2.134277 -0.783545 -0.768677 16.000000
2.130136 -0.809177 -0.769251 18.000000
2.121109 -0.833398 -0.768370 17.000000
2.125180 -0.862524 -0.771981 23.000000
2.120025 -0.888432 -0.772614 19.000000
2.123384 -0.917830 -0.776127 20.000000
2.108926 -0.939877 -0.773422 21.000000
2.094214 -0.961751 -0.770721 10.000000
2.105046 -0.995621 -0.777452 18.000000
2.089842 -1.017294 -0.774672 19.000000
2.095671 -1.049418 -0.779714 22.000000
2.092576 -1.077432 -0.781509 24.000000
2.076574 -1.098750 -0.778574 15.000000
2.089589 -1.135766 -0.786558 21.000000
2.073059 -1.156921 -0.783463 20.000000
2.056045 -1.178288 -0.780677 10.000000
2.047348 -1.203766 -0.780640 11.000000
2.054645 -1.238998 -0.786751 14.000000
2.044893 -1.265000 -0.786919 15.000000
2.063341 -1.308215 -0.797556 20.000000
2.044767 -1.329232 -0.794518 13.000000
2.045880 -1.363105 -0.799135 16.000000
2.042993 -1.393945 -0.801868 15.000000
2.019802 -1.411822 -0.797124 10.000000
1.996413 -1.429283 -0.792314 10.000000
2.003697 -1.468921 -0.799774 17.000000
2.022282 -1.516853 -0.811457 17.000000
2.001814 -1.536964 -0.808069 15.000000
1.996147 -1.568599 -0.810691 16.000000
1.982618 -1.594275 -0.810256 14.000000
1.968780 -1.619792 -0.809733 13.000000
1.951065 -1.642160 -0.807692 10.000000
1.958398 -1.686059 -0.816110 10.000000
1.950693 -1.717678 -0.818465 16.000000
1.939072 -1.746183 -0.819215 12.000000
1.941103 -1.787529 -0.825922 19.000000
1.935510 -1.822557 -0.829517 13.000000
1.922671 -1.851022 -0.830107 17.000000
1.916155 -1.886174 -0.833641 17.000000
1.911678 -1.925546 -0.838878 10.000000
1.907523 -1.964179 -0.843640 11.000000
1.892860 -1.992619 -0.843952 17.000000
1.884383 -2.027949 -0.847173 22.000000
1.887221 -2.078272 -0.856370 22.000000
1.868095 -2.103076 -0.855048 20.000000
1.870594 -2.152970 -0.863771 23.000000
1.850594 -2.177625 -0.862305 19.000000
1.856677 -2.236053 -0.874156 16.000000
1.823723 -2.245738 -0.866794 10.000000
1.817639 -2.288617 -0.872240 17.000000
1.818294 -2.344013 -0.882275 20.000000
1.799153 -2.371959 -0.881904 19.000000
1.793943 -2.419107 -0.888587 21.000000
1.786519 -2.467291 -0.895488 23.000000
1.771349 -2.502919 -0.897716 24.000000
1.762365 -2.551333 -0.904396 27.000000
1.746101 -2.586967 -0.906425 20.000000
1.727707 -2.623445 -0.908710 32.000000
1.689468 -2.626640 -0.899582 30.000000
1.685550 -2.687192 -0.910098 32.000000
1.659762 -2.710124 -0.907644 30.000000
1.638723 -2.740966 -0.908015 32.000000
1.605501 -2.756059 -0.903208 26.000000
1.595918 -2.812749 -0.911880 27.000000
1.596584 -2.885349 -0.925549 10.000000
0.865226 1.577407 -0.491122 8.000000
0.875713 1.554445 -0.489035 16.000000
0.891972 1.544508 -0.491067 26.000000
0.909192 1.533894 -0.492931 22.000000
0.922669 1.519501 -0.493625 21.000000
0.944653 1.516698 -0.498112 24.000000
0.963149 1.510115 -0.501498 24.000000
0.987854 1.510735 -0.507317 29.000000
1.006381 1.503575 -0.510620 21.000000
1.001365 1.459905 -0.501497 18.000000
1.019457 1.452555 -0.504774 29.000000
1.040324 1.448822 -0.509434 21.000000
1.056458 1.436538 -0.511133 29.000000
1.074518 1.428433 -0.514327 24.000000
1.102079 1.430941 -0.521578 29.000000
1.117225 1.418491 -0.523414 32.000000
1.142043 1.416508 -0.529210 22.000000
1.135651 1.377687 -0.521195 21.000000
1.162665 1.379535 -0.528635 34.000000
1.184249 1.373088 -0.533004 29.000000
1.202013 1.363304 -0.536149 34.000000
1.219739 1.353217 -0.539304 32.000000
1.244563 1.349465 -0.545081 34.000000
1.265514 1.342295 -0.549631 36.000000
1.276582 1.324512 -0.549844 26.000000
1.290703 1.310039 -0.551543 21.000000
1.304766 1.295391 -0.553125 36.000000
1.332980 1.293373 -0.560308 36.000000
1.353776 1.284805 -0.564803 43.000000
1.385116 1.285667 -0.573611 49.000000
1.388293 1.260231 -0.570809 46.000000
1.416176 1.257138 -0.578205 55.000000
1.429772 1.241005 -0.579716 33.000000
1.450414 1.230875 -0.584101 26.000000
