x y z intensity
1.369711 -2.100003 -0.197943 21.000000
1.349517 -2.119021 -0.197490 19.000000
1.339604 -2.154722 -0.198673 16.000000
1.318735 -2.173508 -0.198285 18.000000
1.317932 -2.226356 -0.200913 7.000000
1.014572 1.735146 -0.141003 6.000000
1.015439 1.694009 -0.139098 15.000000
1.035328 1.687747 -0.140055 18.000000
1.058931 1.684803 -0.141248 25.000000
1.071796 1.664788 -0.141085 20.000000
1.103513 1.673794 -0.143352 25.000000
1.107718 1.640981 -0.142115 22.000000
1.131137 1.637010 -0.143318 20.000000
1.154613 1.632734 -0.144525 27.000000
1.157618 1.599867 -0.143207 13.000000
1.177927 1.591186 -0.144114 24.000000
1.189111 1.570272 -0.143870 28.000000
1.215268 1.569080 -0.145388 24.000000
1.226019 1.547902 -0.145140 27.000000
1.245895 1.538302 -0.145992 27.000000
1.256194 1.516991 -0.145738 21.000000
1.285535 1.518411 -0.147640 28.000000
1.298711 1.500516 -0.147756 10.000000
1.308318 1.478776 -0.147437 33.000000
1.320986 1.460697 -0.147546 29.000000
1.336838 1.446172 -0.147968 26.000000
1.369629 1.449646 -0.150269 33.000000
1.385315 1.434570 -0.150696 31.000000
1.393875 1.412276 -0.150367 30.000000
1.419800 1.407502 -0.151929 34.000000
1.442193 1.398779 -0.153056 14.000000
1.460444 1.386901 -0.153929 35.000000
1.482852 1.377659 -0.155125 37.000000
1.486714 1.351245 -0.154347 30.000000
1.519977 1.351512 -0.156636 50.000000
1.530908 1.331494 -0.156687 37.000000
1.556706 1.324355 -0.158217 35.000000
1.578759 1.313589 -0.159366 55.000000
1.596896 1.299385 -0.160131 17.000000
1.599248 1.272491 -0.159343 36.000000
1.632745 1.270216 -0.161603 37.000000
1.646487 1.252295 -0.161983 31.000000
1.684103 1.252028 -0.164646 49.000000
1.693625 1.230597 -0.164639 35.000000
1.711019 1.214898 -0.165352 36.000000
1.727962 1.199367 -0.166132 40.000000
1.736843 1.177574 -0.166123 21.000000
1.762030 1.166750 -0.167631 35.000000
1.783017 1.152818 -0.168746 39.000000
1.808142 1.141233 -0.170197 33.000000
1.829001 1.126627 -0.171319 53.000000
1.858255 1.116838 -0.173241 53.000000
1.857370 1.088899 -0.172375 38.000000
1.873497 1.071070 -0.173039 60.000000
1.902273 1.060560 -0.174971 26.000000
1.900538 1.032617 -0.174101 36.000000
1.946969 1.030475 -0.177580 60.000000
1.962460 1.011445 -0.178252 32.000000
1.991161 0.998888 -0.180134 62.000000
2.019852 0.985874 -0.182021 48.000000
2.034952 0.965921 -0.182701 36.000000
2.076902 0.958538 -0.185810 45.000000
2.055367 0.921573 -0.183253 19.000000
2.101852 0.915002 -0.186707 35.000000
2.134632 0.901746 -0.189020 52.000000
2.162727 0.886030 -0.190860 35.000000
2.181437 0.866308 -0.191962 41.000000
2.204661 0.847813 -0.193401 49.000000
2.232456 0.830680 -0.195252 36.000000
2.245970 0.808006 -0.195880 35.000000
2.287543 0.795119 -0.199039 21.000000
2.324418 0.779711 -0.201722 41.000000
2.346975 0.758936 -0.203103 69.000000
2.374011 0.739409 -0.204973 61.000000
2.396250 0.717810 -0.206435 42.000000
2.427853 0.698579 -0.208645 52.000000
2.440084 0.673525 -0.209290 35.000000
2.480937 0.655773 -0.212331 42.000000
2.507254 0.633783 -0.214217 21.000000
2.562424 0.618065 -0.218426 52.000000
2.593244 0.595796 -0.220735 43.000000
2.614204 0.570710 -0.222057 36.000000
2.639703 0.546316 -0.223876 36.000000
2.679711 0.524286 -0.226940 52.000000
2.714630 0.500524 -0.229594 34.000000
2.754323 0.476973 -0.232580 59.000000
2.788800 0.451707 -0.235241 31.000000
2.813266 0.424312 -0.236987 52.000000
2.862121 0.399936 -0.240811 87.000000
2.881107 0.370691 -0.242146 63.000000
2.929558 0.344526 -0.245974 29.000000
2.942990 0.313695 -0.246896 9.000000
2.990893 0.285877 -0.250729 10.000000
3.058381 0.258860 -0.256228 40.000000
3.125612 0.230251 -0.261635 33.000000
3.172671 0.199083 -0.265476 59.000000
3.214426 0.166586 -0.268805 91.000000
3.255929 0.133223 -0.272134 88.000000
3.296969 0.098892 -0.275463 95.000000
3.307842 0.063223 -0.276295 95.000000
3.298383 0.027173 -0.275463 88.000000
3.288519 -0.008762 -0.274631 87.000000
3.223449 -0.043636 -0.269123 34.000000
3.192872 -0.078051 -0.266627 10.000000
3.166996 -0.111894 -0.264450 8.000000
3.200381 -0.147956 -0.267263 8.000000
3.173742 -0.181365 -0.265184 9.000000
3.191485 -0.217278 -0.266749 8.000000
3.134299 -0.247640 -0.262082 6.000000
3.166149 -0.284849 -0.264892 9.000000
3.167796 -0.319812 -0.265112 9.000000
3.164189 -0.354328 -0.265015 10.000000
3.189864 -0.392299 -0.267307 32.000000
3.145926 -0.421647 -0.263894 10.000000
3.146095 -0.456577 -0.264113 9.000000
3.170474 -0.495460 -0.266401 8.000000
3.130472 -0.524094 -0.263311 7.000000
3.139355 -0.560742 -0.264355 10.000000
3.167374 -0.601330 -0.267049 21.000000
3.160661 -0.635785 -0.266852 34.000000
3.168175 -0.673149 -0.267792 65.000000
3.160736 -0.707565 -0.267593 71.000000
3.152802 -0.741882 -0.267296 71.000000
3.139731 -0.775005 -0.266687 43.000000
3.121566 -0.806479 -0.265569 37.000000
3.107771 -0.839142 -0.264862 95.000000
3.064930 -0.863297 -0.261700 76.000000
3.045812 -0.893837 -0.260589 81.000000
3.026463 -0.924071 -0.259480 82.000000
2.983038 -0.946178 -0.256237 29.000000
3.053061 -1.005155 -0.262878 23.000000
3.037224 -1.036713 -0.262175 15.000000
3.054115 -1.079399 -0.264221 10.000000
3.037533 -1.110913 -0.263419 22.000000
3.011269 -1.138603 -0.261905 17.000000
3.012676 -1.176768 -0.262725 20.000000
2.999803 -1.209250 -0.262230 18.000000
2.991035 -1.243744 -0.262337 14.000000
2.995671 -1.284130 -0.263552 18.000000
2.995277 -1.322802 -0.264360 12.000000
2.971567 -1.351257 -0.263055 9.000000
3.002119 -1.404256 -0.266564 24.000000
2.977612 -1.432608 -0.265358 17.000000
2.993204 -1.480449 -0.267751 26.000000
2.976846 -1.512959 -0.267239 23.000000
2.964703 -1.547674 -0.267126 23.000000
2.956390 -1.584635 -0.267512 29.000000
2.965237 -1.631295 -0.269379 21.000000
2.934601 -1.655651 -0.267570 16.000000
2.933600 -1.697613 -0.268634 41.000000
2.927783 -1.737098 -0.269298 44.000000
2.917229 -1.774168 -0.269564 95.000000
2.876532 -1.792761 -0.266974 73.000000
2.856817 -1.824097 -0.266455 66.000000
2.836792 -1.855224 -0.265833 78.000000
2.820493 -1.888919 -0.265704 40.000000
2.791488 -1.914039 -0.264302 26.000000
2.762812 -1.938049 -0.262904 95.000000
2.733433 -1.962296 -0.261509 62.000000
2.715821 -1.995013 -0.261277 92.000000
2.693953 -2.024617 -0.260659 84.000000
2.695386 -2.072245 -0.262244 64.000000
2.653002 -2.086184 -0.259701 85.000000
2.637839 -2.121357 -0.259847 37.000000
2.579974 -2.121557 -0.255687 26.000000
2.568010 -2.159297 -0.256216 65.000000
2.540508 -2.184082 -0.255117 58.000000
2.542831 -2.234807 -0.257049 83.000000
2.514567 -2.259138 -0.255947 62.000000
2.478722 -2.276333 -0.254196 36.000000
2.450161 -2.299906 -0.252997 67.000000
2.422188 -2.322269 -0.251800 29.000000
2.410965 -2.362517 -0.252573 29.000000
2.399232 -2.402869 -0.253338 34.000000
2.317190 -2.371782 -0.246574 20.000000
2.174069 -2.274396 -0.233294 14.000000
2.026610 -2.166880 -0.219257 13.000000
1.918758 -2.096970 -0.209349 14.000000
1.809321 -2.021157 -0.199136 21.000000
1.698536 -1.939460 -0.188700 13.000000
1.612505 -1.882102 -0.180793 10.000000
1.588750 -1.895798 -0.179749 30.000000
1.568088 -1.912979 -0.179143 31.000000
1.528484 -1.906586 -0.176378 33.000000
1.507698 -1.923184 -0.175780 33.000000
1.492831 -1.947400 -0.175822 30.000000
1.474577 -1.967532 -0.175577 31.000000
1.453137 -1.983479 -0.174900 25.000000
1.446066 -2.019478 -0.175990 19.000000
1.426889 -2.039142 -0.175658 31.000000
1.404732 -2.054598 -0.175049 27.000000
1.393427 -2.086342 -0.175761 32.000000
1.365182 -2.093029 -0.174375 26.000000
1.350439 -2.120405 -0.174727 28.000000
1.330002 -2.139253 -0.174303 28.000000
1.315811 -2.165604 -0.174563 24.000000
1.325237 -2.235651 -0.178315 9.000000
1.022744 1.749116 -0.123839 8.000000
1.016043 1.695037 -0.121273 17.000000
1.036964 1.688171 -0.122063 29.000000
1.057916 1.681006 -0.122796 24.000000
1.073371 1.665151 -0.122912 27.000000
1.088674 1.649235 -0.123085 28.000000
1.103705 1.633136 -0.123196 24.000000
1.132720 1.637437 -0.124870 30.000000
1.147554 1.620944 -0.124982 24.000000
1.150408 1.588167 -0.123832 24.000000
1.167558 1.575574 -0.124252 31.000000
1.193692 1.574670 -0.125623 26.000000
1.207674 1.557615 -0.125728 32.000000
1.224490 1.544415 -0.126150 30.000000
1.241186 1.530975 -0.126572 31.000000
1.273682 1.536621 -0.128540 32.000000
1.287058 1.518837 -0.128645 30.000000
1.287161 1.485857 -0.127393 32.000000
1.303213 1.471728 -0.127814 35.000000
1.319145 1.457420 -0.128175 35.000000
1.348509 1.457641 -0.129841 35.000000
1.364299 1.442823 -0.130205 34.000000
1.379907 1.427823 -0.130569 35.000000
1.402405 1.419800 -0.131592 36.000000
1.421330 1.407930 -0.132288 35.000000
1.440148 1.395799 -0.132986 34.000000
1.451128 1.377091 -0.133083 42.000000
1.462402 1.357727 -0.133057 37.000000
1.491945 1.355092 -0.134757 70.000000
1.510345 1.342007 -0.135400 64.000000
1.532398 1.331929 -0.136441 66.000000
1.554469 1.321561 -0.137423 52.000000
1.568823 1.304524 -0.137735 35.000000
1.579120 1.284089 -0.137710 35.000000
1.600812 1.272992 -0.138698 37.000000
1.630390 1.267660 -0.140367 37.000000
1.652041 1.255757 -0.141362 49.000000
1.669629 1.240641 -0.142020 35.000000
1.687154 1.225183 -0.142680 36.000000
1.704489 1.209574 -0.143277 45.000000
1.717532 1.190905 -0.143597 34.000000
1.730446 1.172044 -0.143852 33.000000
1.755586 1.161376 -0.145204 42.000000
1.793020 1.158753 -0.147595 65.000000
1.809778 1.141757 -0.148202 48.000000
1.817837 1.119307 -0.148118 38.000000
1.842812 1.107094 -0.149419 53.000000
1.863322 1.091948 -0.150377 54.000000
1.875148 1.071532 -0.150641 34.000000
1.891068 1.053478 -0.151254 33.000000
1.902392 1.032816 -0.151452 69.000000
1.922336 1.016619 -0.152416 46.000000
1.964352 1.011648 -0.155134 68.000000
1.984153 0.994623 -0.156038 42.000000
2.008125 0.979795 -0.157363 57.000000
2.054700 0.974956 -0.160452 53.000000
2.060677 0.950462 -0.160308 33.000000
2.079986 0.932047 -0.161222 35.000000
2.094601 0.911304 -0.161784 46.000000
2.122764 0.896211 -0.163409 44.000000
2.155428 0.882466 -0.165391 56.000000
2.174034 0.862915 -0.166314 35.000000
2.201959 0.846313 -0.167949 37.000000
2.234352 0.830971 -0.169943 56.000000
2.257330 0.811673 -0.171157 31.000000
2.284908 0.793631 -0.172802 44.000000
2.288542 0.767328 -0.172667 49.000000
2.344269 0.757704 -0.176386 41.000000
2.366620 0.736597 -0.177608 50.000000
2.393617 0.716533 -0.179191 57.000000
2.420357 0.696132 -0.180853 41.000000
2.446984 0.675084 -0.182440 53.000000
2.492780 0.658557 -0.185466 31.000000
2.519062 0.636384 -0.187059 37.000000
2.545212 0.613632 -0.188656 52.000000
2.576002 0.591576 -0.190614 40.000000
2.606672 0.568829 -0.192494 52.000000
2.622480 0.542523 -0.193378 36.000000
2.652687 0.518711 -0.195261 37.000000
2.716997 0.500693 -0.199753 53.000000
2.717324 0.470340 -0.199477 26.000000
2.766608 0.447895 -0.202809 77.000000
2.815706 0.424486 -0.206144 70.000000
2.839905 0.396576 -0.207676 56.000000
2.873705 0.369508 -0.209932 72.000000
2.892375 0.339960 -0.211105 16.000000
2.945528 0.313786 -0.214810 9.000000
2.963593 0.283214 -0.215895 8.000000
2.991353 0.253069 -0.217795 7.000000
3.103337 0.228516 -0.225754 30.000000
3.160466 0.198147 -0.229734 66.000000
3.202245 0.165911 -0.232726 55.000000
3.273571 0.133834 -0.237794 31.000000
3.324721 0.099741 -0.241413 94.000000
3.345581 0.063889 -0.242861 95.000000
3.350976 0.027583 -0.243223 95.000000
3.271392 -0.008708 -0.237332 35.000000
3.281064 -0.044378 -0.238055 53.000000
3.265405 -0.079756 -0.236970 34.000000
3.234404 -0.114181 -0.234700 10.000000
3.247962 -0.150027 -0.235685 8.000000
3.241192 -0.185061 -0.235324 8.000000
3.243983 -0.220663 -0.235586 8.000000
3.231453 -0.255196 -0.234764 9.000000
3.243378 -0.291646 -0.235748 20.000000
3.249914 -0.327920 -0.236370 41.000000
3.231348 -0.361537 -0.235088 34.000000
3.222219 -0.396048 -0.234629 35.000000
3.247406 -0.435086 -0.236591 29.000000
3.207947 -0.465263 -0.233971 10.000000
3.217472 -0.502484 -0.234851 19.000000
3.241404 -0.542396 -0.236909 32.000000
3.205814 -0.572332 -0.234552 39.000000
3.214136 -0.609895 -0.235430 87.000000
3.207329 -0.644829 -0.235229 69.000000
3.200122 -0.679563 -0.235029 80.000000
3.197481 -0.715486 -0.235187 95.000000
3.179852 -0.747789 -0.234171 95.000000
3.166715 -0.781176 -0.233614 95.000000
3.104916 -0.801690 -0.229391 52.000000
3.091271 -0.834142 -0.228838 79.000000
3.057961 -0.860984 -0.226861 77.000000
3.034176 -0.889821 -0.225406 70.000000
3.005228 -0.916891 -0.223791 71.000000
2.985626 -0.946561 -0.222794 57.000000
3.022556 -0.994539 -0.226049 21.000000
3.101341 -1.057740 -0.232480 17.000000
3.084910 -1.089763 -0.231826 17.000000
3.077582 -1.124908 -0.231879 18.000000
3.074582 -1.161918 -0.232182 21.000000
3.075649 -1.200744 -0.232936 16.000000
3.071871 -1.237502 -0.233235 19.000000
3.067405 -1.274664 -0.233633 21.000000
3.048796 -1.306033 -0.232876 16.000000
3.052741 -1.347269 -0.233970 18.000000
3.056103 -1.388699 -0.234958 18.000000
3.031766 -1.417643 -0.233851 22.000000
3.029688 -1.456994 -0.234485 27.000000
3.013850 -1.489493 -0.234073 27.000000
3.033077 -1.540369 -0.236436 36.000000
3.033804 -1.582481 -0.237404 53.000000
3.016428 -1.615454 -0.236985 44.000000
2.989891 -1.643516 -0.235772 81.000000
2.980524 -1.680876 -0.236043 77.000000
2.949148 -1.705832 -0.234594 92.000000
2.926098 -1.735387 -0.233730 95.000000
2.894267 -1.759457 -0.232287 78.000000
2.862190 -1.782938 -0.230745 71.000000
2.846797 -1.816772 -0.230570 81.000000
2.827272 -1.847143 -0.230054 65.000000
2.806922 -1.877927 -0.229537 81.000000
2.765683 -1.894307 -0.227329 51.000000
2.740886 -1.921589 -0.226479 72.000000
2.723745 -1.954292 -0.226304 95.000000
2.702314 -1.983926 -0.225688 91.000000
2.684463 -2.016351 -0.225511 95.000000
2.658428 -2.042578 -0.224663 81.000000
2.639894 -2.074577 -0.224381 73.000000
2.597653 -2.087704 -0.222205 72.000000
2.563156 -2.106435 -0.220598 37.000000
2.547660 -2.140759 -0.220651 70.000000
2.531718 -2.175046 -0.220700 73.000000
2.515329 -2.209090 -0.220745 54.000000
2.498590 -2.243094 -0.220787 62.000000
2.496001 -2.290547 -0.222134 36.000000
2.470824 -2.317693 -0.221512 32.000000
2.457181 -2.353949 -0.221762 29.000000
2.449198 -2.398147 -0.222759 32.000000
2.433572 -2.435257 -0.222995 37.000000
2.347634 -2.401033 -0.216885 29.000000
2.197172 -2.296703 -0.204603 20.000000
2.045929 -2.185730 -0.192169 17.000000
1.917562 -2.093812 -0.181633 17.000000
1.808149 -2.017939 -0.172753 16.000000
1.700587 -1.939933 -0.163929 12.000000
1.630642 -1.901573 -0.158637 15.000000
1.587435 -1.892429 -0.155896 31.000000
1.560485 -1.901859 -0.154740 32.000000
1.539797 -1.918785 -0.154213 32.000000
1.503480 -1.915781 -0.152053 42.000000
1.485594 -1.935973 -0.151842 33.000000
1.470543 -1.959999 -0.151939 32.000000
1.449190 -1.975882 -0.151340 29.000000
1.439319 -2.007765 -0.151968 23.000000
1.426081 -2.035511 -0.152357 33.000000
1.401073 -2.046818 -0.151445 31.000000
1.381552 -2.066059 -0.151142 32.000000
1.361788 -2.085131 -0.150836 34.000000
1.341782 -2.104034 -0.150604 30.000000
1.321531 -2.122767 -0.150294 34.000000
1.311326 -2.158391 -0.151176 30.000000
1.310760 -2.211162 -0.153158 9.000000
1.011678 1.727819 -0.104325 7.000000
1.014984 1.691058 -0.103126 15.000000
1.041155 1.692666 -0.104273 26.000000
1.054111 1.672800 -0.104112 27.000000
1.069470 1.657064 -0.104271 24.000000
1.090184 1.649476 -0.104897 27.000000
1.105212 1.633377 -0.104994 26.000000
1.125714 1.625367 -0.105623 29.000000
1.146124 1.617174 -0.106253 26.000000
1.154778 1.592449 -0.105811 23.000000
1.163108 1.567794 -0.105363 29.000000
1.192124 1.570995 -0.106802 29.000000
1.209061 1.557916 -0.107104 30.000000
1.222833 1.540806 -0.107193 30.000000
1.242572 1.531276 -0.107827 29.000000
1.268710 1.529181 -0.108950 32.000000
1.281999 1.511467 -0.109039 27.000000
1.282003 1.478613 -0.107965 27.000000
1.298033 1.464557 -0.108324 34.000000
1.323879 1.461420 -0.109454 35.000000
1.349238 1.458491 -0.110650 35.000000
1.365028 1.443673 -0.110954 35.000000
1.384165 1.432323 -0.111537 51.000000
1.399690 1.417103 -0.111841 37.000000
1.415033 1.401760 -0.112146 34.000000
1.426669 1.382761 -0.112168 29.000000
1.445291 1.370528 -0.112755 49.000000
1.463806 1.358032 -0.113342 39.000000
1.478516 1.341980 -0.113586 42.000000
1.507972 1.339002 -0.115031 53.000000
1.530058 1.329028 -0.115848 37.000000
1.544430 1.312239 -0.116158 77.000000
1.566357 1.301646 -0.116979 46.000000
1.572742 1.278167 -0.116715 27.000000
1.598280 1.270199 -0.117827 58.000000
1.627839 1.264913 -0.119232 36.000000
1.645488 1.250099 -0.119773 36.000000
1.671029 1.240959 -0.120895 55.000000
1.684518 1.222634 -0.121150 38.000000
1.701761 1.207069 -0.121696 53.000000
1.714836 1.188445 -0.121951 42.000000
1.723586 1.166831 -0.121913 28.000000
1.744512 1.153439 -0.122690 55.000000
1.777946 1.147923 -0.124413 43.000000
1.798813 1.133772 -0.125195 64.000000
1.819535 1.119307 -0.126044 63.000000
1.835635 1.102350 -0.126600 67.000000
1.851855 1.084776 -0.127092 54.000000
1.867934 1.066978 -0.127585 42.000000
1.870722 1.041734 -0.127255 31.000000
1.895076 1.028386 -0.128342 57.000000
1.914975 1.012353 -0.129135 78.000000
1.934777 0.996062 -0.129930 72.000000
1.958874 0.981614 -0.131025 77.000000
2.009766 0.979932 -0.133916 61.000000
2.051860 0.972957 -0.136147 62.000000
2.071409 0.954780 -0.136955 46.000000
2.067994 0.926067 -0.136264 28.000000
2.086985 0.907742 -0.137073 51.000000
2.119717 0.894693 -0.138716 49.000000
2.152377 0.881003 -0.140434 46.000000
2.180391 0.864899 -0.141783 71.000000
2.208277 0.848319 -0.143134 37.000000
2.231425 0.829451 -0.144259 52.000000
2.268484 0.815269 -0.146221 35.000000
2.258322 0.784032 -0.145156 32.000000
2.280851 0.764378 -0.146212 52.000000
2.327007 0.751793 -0.148788 71.000000
2.363599 0.735342 -0.150762 58.000000
2.395375 0.716763 -0.152434 78.000000
2.412613 0.693452 -0.153196 61.000000
2.448848 0.675317 -0.155179 54.000000
2.465643 0.651226 -0.155867 37.000000
2.516131 0.635321 -0.158771 30.000000
2.532579 0.610285 -0.159461 43.000000
2.568215 0.589504 -0.161455 56.000000
2.589127 0.564738 -0.162453 37.000000
2.629252 0.543697 -0.164759 56.000000
2.659487 0.519834 -0.166373 37.000000
2.689578 0.495438 -0.167989 62.000000
2.724267 0.471275 -0.169913 34.000000
2.758813 0.446472 -0.171838 39.000000
2.812775 0.423917 -0.174994 80.000000
2.827095 0.394681 -0.175695 62.000000
2.860983 0.367776 -0.177538 52.000000
2.859820 0.336061 -0.177319 10.000000
2.927853 0.311763 -0.181404 9.000000
2.960811 0.282831 -0.183249 8.000000
2.998530 0.253581 -0.185493 7.000000
3.120553 0.229710 -0.192876 9.000000
3.127830 0.196058 -0.193184 24.000000
3.179681 0.164621 -0.196260 35.000000
3.261019 0.133323 -0.201182 10.000000
3.292245 0.098694 -0.203027 21.000000
3.352925 0.064087 -0.206719 88.000000
3.383379 0.027829 -0.208564 92.000000
3.398453 -0.008936 -0.209487 43.000000
3.353335 -0.045322 -0.206616 41.000000
3.337650 -0.081461 -0.205694 34.000000
3.321565 -0.117172 -0.204670 33.000000
3.305187 -0.152659 -0.203748 10.000000
3.313331 -0.189142 -0.204261 25.000000
3.325934 -0.226180 -0.205081 30.000000
3.278509 -0.258729 -0.202317 14.000000
3.310387 -0.297554 -0.204365 36.000000
3.316862 -0.334428 -0.204877 42.000000
3.322908 -0.371620 -0.205388 41.000000
3.313763 -0.407100 -0.204877 52.000000
3.304223 -0.442473 -0.204469 37.000000
3.309106 -0.479784 -0.204979 54.000000
3.313550 -0.517207 -0.205386 50.000000
3.258483 -0.544966 -0.202228 26.000000
3.262249 -0.582074 -0.202637 95.000000
3.275377 -0.621255 -0.203755 95.000000
3.224410 -0.647979 -0.200809 75.000000
3.207406 -0.680799 -0.199999 89.000000
3.175436 -0.710140 -0.198278 48.000000
3.157860 -0.742279 -0.197472 27.000000
3.101172 -0.764551 -0.194238 20.000000
3.073346 -0.793253 -0.192830 29.000000
3.054975 -0.824037 -0.192030 66.000000
3.036273 -0.854322 -0.191135 69.000000
2.983719 -0.874573 -0.188223 59.000000
2.983570 -0.909901 -0.188637 74.000000
2.964041 -0.939215 -0.187748 61.000000
2.967902 -0.976119 -0.188461 24.000000
3.136715 -1.069213 -0.199597 17.000000
3.110843 -1.098271 -0.198393 9.000000
3.126868 -1.142335 -0.199990 22.000000
3.128255 -1.181517 -0.200583 18.000000
3.129220 -1.220901 -0.201173 20.000000
3.120397 -1.256757 -0.201163 20.000000
3.125053 -1.298252 -0.202047 23.000000
3.115364 -1.334150 -0.202034 23.000000
3.109993 -1.371539 -0.202317 24.000000
3.103911 -1.409438 -0.202495 19.000000
3.102052 -1.449439 -0.203070 36.000000
3.104136 -1.491792 -0.203938 84.000000
3.078762 -1.521062 -0.202927 91.000000
3.057620 -1.552186 -0.202318 95.000000
3.044958 -1.587725 -0.202192 98.000000
3.018731 -1.616082 -0.201291 98.000000
2.996561 -1.646442 -0.200579 95.000000
2.974131 -1.676497 -0.199973 61.000000
2.942798 -1.701357 -0.198680 98.000000
2.911212 -1.725726 -0.197391 95.000000
2.884058 -1.751580 -0.196293 94.000000
2.860634 -1.780300 -0.195591 95.000000
2.832647 -1.805935 -0.194601 93.000000
2.816904 -1.839472 -0.194478 95.000000
2.800896 -1.872894 -0.194355 68.000000
2.747345 -1.880823 -0.191644 35.000000
2.743036 -1.922101 -0.192282 98.000000
2.717888 -1.948987 -0.191586 95.000000
2.684447 -1.969775 -0.190220 89.000000
2.658777 -1.995886 -0.189528 89.000000
2.636927 -2.024849 -0.189020 74.000000
2.626450 -2.062757 -0.189463 74.000000
2.599895 -2.088213 -0.188670 46.000000
2.553815 -2.097438 -0.186470 27.000000
2.580482 -2.166950 -0.189617 37.000000
2.575629 -2.211224 -0.190503 36.000000
2.555205 -2.242532 -0.190264 32.000000
2.538009 -2.276945 -0.190301 33.000000
2.527715 -2.318059 -0.190892 32.000000
2.513273 -2.355766 -0.191093 32.000000
2.501899 -2.396850 -0.191672 28.000000
2.482771 -2.430945 -0.191693 24.000000
2.452585 -2.454388 -0.190781 24.000000
2.352459 -2.406041 -0.184503 17.000000
2.181179 -2.280025 -0.172427 10.000000
2.043616 -2.183367 -0.162875 10.000000
1.919559 -2.094159 -0.154197 11.000000
1.806722 -2.014554 -0.146384 10.000000
1.712280 -1.951587 -0.139966 10.000000
1.625900 -1.894302 -0.134125 10.000000
1.579616 -1.881260 -0.131528 26.000000
1.559121 -1.898302 -0.131078 31.000000
1.529020 -1.903515 -0.129831 31.000000
1.502183 -1.912153 -0.128854 35.000000
1.484343 -1.932312 -0.128597 33.000000
1.466343 -1.952314 -0.128413 32.000000
1.442123 -1.964108 -0.127704 30.000000
1.420752 -1.979596 -0.127183 24.000000
1.419303 -2.023551 -0.128554 30.000000
1.397324 -2.038808 -0.128025 32.000000
1.380673 -2.062213 -0.128087 32.000000
1.355493 -2.072898 -0.127300 31.000000
1.332940 -2.087505 -0.126770 27.000000
1.323442 -2.123073 -0.127513 29.000000
1.297760 -2.133026 -0.126801 28.000000
1.259197 -2.121300 -0.124751 9.000000
1.032298 1.763101 -0.087996 6.000000
1.010265 1.683215 -0.084853 10.000000
1.031112 1.676376 -0.085370 16.000000
1.051871 1.669299 -0.085888 21.000000
1.064535 1.649393 -0.085753 15.000000
1.090607 1.650262 -0.086710 24.000000
1.102834 1.630023 -0.086572 23.000000
1.117666 1.613833 -0.086652 18.000000
1.143721 1.613826 -0.087616 24.000000
1.149454 1.585143 -0.087030 9.000000
1.172513 1.580605 -0.087775 18.000000
1.186568 1.563761 -0.087792 20.000000
1.206541 1.554754 -0.088316 16.000000
1.217164 1.533702 -0.088166 24.000000
1.240027 1.528121 -0.088857 22.000000
1.256500 1.514594 -0.089157 21.000000
1.282605 1.512254 -0.090079 26.000000
1.298961 1.498200 -0.090381 10.000000
1.308570 1.476488 -0.090167 30.000000
1.317836 1.454740 -0.089951 27.000000
1.340333 1.447678 -0.090710 28.000000
1.356004 1.432972 -0.090951 32.000000
1.378499 1.425265 -0.091654 26.000000
1.386924 1.403077 -0.091433 27.000000
1.405662 1.391402 -0.091906 28.000000
1.438646 1.393367 -0.093311 10.000000
1.442884 1.367275 -0.092856 32.000000
1.468689 1.361672 -0.093801 32.000000
1.476037 1.338808 -0.093516 25.000000
1.501734 1.332557 -0.094464 36.000000
1.523692 1.322666 -0.095181 29.000000
1.545670 1.312425 -0.095838 33.000000
1.571382 1.305023 -0.096795 35.000000
1.566166 1.272055 -0.095859 12.000000
1.591707 1.264236 -0.096757 31.000000
1.621147 1.259039 -0.097896 29.000000
1.634756 1.241291 -0.098147 27.000000
1.664217 1.235261 -0.099292 34.000000
1.673599 1.214091 -0.099242 27.000000
1.698962 1.204436 -0.100152 30.000000
1.707837 1.183013 -0.100103 33.000000
1.712387 1.158689 -0.099811 14.000000
1.737394 1.148188 -0.100725 35.000000
1.770782 1.142766 -0.102126 36.000000
1.787307 1.126046 -0.102561 30.000000
1.816262 1.117344 -0.103727 53.000000
1.832597 1.100041 -0.104166 32.000000
1.844483 1.079992 -0.104362 33.000000
1.864781 1.064830 -0.104980 34.000000
1.884990 1.049282 -0.105666 18.000000
1.887549 1.023953 -0.105374 35.000000
1.920648 1.015018 -0.106732 44.000000
1.949295 1.003184 -0.107848 32.000000
1.986869 0.995302 -0.109525 65.000000
2.002086 0.975829 -0.109908 36.000000
2.039642 0.966818 -0.111524 34.000000
2.072734 0.955059 -0.112967 36.000000
2.060195 0.922263 -0.111869 18.000000
2.092956 0.909802 -0.113246 35.000000
2.121123 0.894763 -0.114378 42.000000
2.139934 0.875402 -0.115015 29.000000
2.167899 0.859521 -0.116151 35.000000
2.191005 0.841447 -0.117041 30.000000
2.214084 0.822857 -0.117932 30.000000
2.246387 0.807194 -0.119252 33.000000
2.231406 0.774500 -0.118149 10.000000
2.277587 0.762939 -0.120294 34.000000
2.338006 0.755012 -0.123120 43.000000
2.350807 0.731120 -0.123521 32.000000
2.387336 0.714130 -0.125100 57.000000
2.399673 0.689545 -0.125504 30.000000
2.426254 0.668837 -0.126584 33.000000
2.452718 0.647557 -0.127744 35.000000
2.474143 0.624559 -0.128577 10.000000
2.529318 0.609275 -0.131172 35.000000
2.569827 0.589585 -0.133015 49.000000
2.585788 0.563837 -0.133600 30.000000
2.606443 0.538807 -0.134437 32.000000
2.666045 0.520957 -0.137295 31.000000
2.696078 0.496509 -0.138641 33.000000
2.716117 0.469742 -0.139482 35.000000
2.740804 0.443368 -0.140578 16.000000
2.779950 0.418797 -0.142348 33.000000
2.823895 0.394079 -0.144458 40.000000
2.852842 0.366592 -0.145723 32.000000
2.831824 0.332653 -0.144545 9.000000
2.904826 0.309299 -0.148089 8.000000
2.967601 0.283396 -0.151218 7.000000
3.010322 0.254422 -0.153244 8.000000
3.107527 0.228706 -0.158057 7.000000
3.149681 0.197404 -0.160083 8.000000
3.166667 0.163943 -0.160843 13.000000
3.233079 0.132198 -0.164235 9.000000
3.264312 0.097896 -0.165656 9.000000
3.305050 0.063133 -0.167682 9.000000
3.405421 0.028098 -0.172748 33.000000
3.455460 -0.009081 -0.175281 79.000000
3.375255 -0.045592 -0.171228 30.000000
3.374636 -0.082313 -0.171125 28.000000
3.348550 -0.118052 -0.169859 9.000000
3.342128 -0.154271 -0.169504 8.000000
3.350156 -0.191133 -0.170010 13.000000
3.357864 -0.228211 -0.170413 24.000000
3.355190 -0.264721 -0.170310 19.000000
3.347132 -0.300681 -0.169955 36.000000
3.333806 -0.336032 -0.169347 26.000000
3.359691 -0.375606 -0.170758 35.000000
3.350499 -0.411463 -0.170403 34.000000
3.345857 -0.447772 -0.170300 36.000000
3.360571 -0.487048 -0.171204 84.000000
3.335336 -0.520389 -0.170093 62.000000
3.290055 -0.550007 -0.167979 35.000000
3.269191 -0.583153 -0.167021 55.000000
3.208727 -0.608335 -0.164159 27.000000
3.192150 -0.641196 -0.163557 19.000000
3.155677 -0.669598 -0.161855 10.000000
3.123819 -0.698257 -0.160406 9.000000
3.101508 -0.728770 -0.159558 9.000000
3.078882 -0.758771 -0.158614 9.000000
3.060781 -0.789705 -0.157922 26.000000
3.042445 -0.820331 -0.157326 45.000000
3.009358 -0.846403 -0.155793 34.000000
2.990412 -0.876167 -0.155105 40.000000
2.966370 -0.904267 -0.154170 41.000000
2.927856 -0.927342 -0.152493 36.000000
2.955581 -0.971536 -0.154286 20.000000
3.072464 -1.047066 -0.160774 10.000000
3.164561 -1.116958 -0.166011 9.000000
3.171019 -1.158162 -0.166793 10.000000
3.162901 -1.194274 -0.166729 10.000000
3.159190 -1.231889 -0.167015 14.000000
3.168781 -1.275403 -0.167932 18.000000
3.173244 -1.317400 -0.168704 24.000000
3.177122 -1.359693 -0.169368 36.000000
3.162128 -1.394116 -0.169156 32.000000
3.124080 -1.418112 -0.167620 29.000000
3.117616 -1.456198 -0.167792 83.000000
3.088026 -1.483458 -0.166748 50.000000
3.062845 -1.512636 -0.166053 75.000000
3.037239 -1.541306 -0.165255 72.000000
3.015952 -1.571986 -0.164701 64.000000
3.007509 -1.609327 -0.164872 95.000000
2.967905 -1.630031 -0.163355 41.000000
2.945657 -1.659753 -0.162804 31.000000
2.927372 -1.691777 -0.162391 86.000000
2.882998 -1.708318 -0.160644 35.000000
2.859993 -1.736954 -0.160098 57.000000
2.832803 -1.762143 -0.159213 40.000000
2.809326 -1.790242 -0.158669 36.000000
2.793764 -1.823505 -0.158499 48.000000
2.765481 -1.848227 -0.157720 31.000000
2.724547 -1.864206 -0.156132 19.000000
2.724628 -1.908083 -0.157008 79.000000
2.691414 -1.929029 -0.155896 35.000000
2.674298 -1.961219 -0.155726 36.000000
2.632742 -1.975210 -0.154252 28.000000
2.646783 -2.031235 -0.155951 26.000000
2.655891 -2.084650 -0.157406 31.000000
2.621410 -2.104049 -0.156297 21.000000
2.594443 -2.129429 -0.155654 9.000000
2.609324 -2.189734 -0.157554 27.000000
2.600448 -2.231049 -0.158060 19.000000
2.579709 -2.262605 -0.157766 26.000000
2.573565 -2.307265 -0.158492 19.000000
2.548223 -2.335141 -0.158069 11.000000
2.519025 -2.359391 -0.157419 10.000000
2.514841 -2.407424 -0.158254 9.000000
2.524168 -2.469581 -0.160093 9.000000
2.454813 -2.454601 -0.156846 9.000000
2.365099 -2.416957 -0.152370 9.000000
2.214294 -2.312690 -0.143779 9.000000
2.059195 -2.198131 -0.134795 9.000000
1.947428 -2.124659 -0.128543 9.000000
1.834229 -2.045296 -0.122192 9.000000
1.726251 -1.967479 -0.116016 9.000000
1.629916 -1.899008 -0.110542 8.000000
1.596352 -1.901289 -0.109280 18.000000
1.556626 -1.895343 -0.107586 22.000000
1.523435 -1.896548 -0.106338 24.000000
1.493594 -1.901186 -0.105240 28.000000
1.478927 -1.925282 -0.105304 24.000000
1.454941 -1.937232 -0.104717 29.000000
1.433849 -1.952921 -0.104347 21.000000
1.424260 -1.984548 -0.104760 14.000000
1.411302 -2.012188 -0.105027 26.000000
1.395028 -2.035594 -0.105078 21.000000
1.375646 -2.054821 -0.104837 29.000000
1.353289 -2.069625 -0.104459 26.000000
1.336158 -2.092623 -0.104426 23.000000
1.316049 -2.111196 -0.104181 25.000000
1.298294 -2.133942 -0.104218 18.000000
1.303075 -2.195157 -0.106042 9.000000
1.010986 1.724304 -0.068054 8.000000
1.016732 1.691781 -0.067445 19.000000
1.035055 1.680630 -0.067625 25.000000
1.047864 1.660847 -0.067523 24.000000
1.063142 1.645196 -0.067590 29.000000
1.080907 1.633533 -0.067830 26.000000
1.101355 1.625886 -0.068242 28.000000
1.127466 1.626152 -0.069005 31.000000
1.144990 1.613826 -0.069186 25.000000
1.144839 1.577055 -0.068376 26.000000
1.158880 1.560547 -0.068438 27.000000
1.178760 1.551823 -0.068793 24.000000
1.201612 1.546862 -0.069385 33.000000
1.218361 1.533702 -0.069564 30.000000
1.234929 1.520364 -0.069803 33.000000
1.257703 1.514594 -0.070340 33.000000
1.283756 1.512254 -0.071118 25.000000
1.287013 1.483105 -0.070581 31.000000
1.296452 1.461537 -0.070461 31.000000
1.315619 1.451099 -0.070820 32.000000
1.338083 1.444013 -0.071362 37.000000
1.357149 1.433032 -0.071724 36.000000
1.372639 1.418145 -0.071905 36.000000
1.388009 1.403137 -0.072146 34.000000
1.403197 1.387888 -0.072327 30.000000
1.421796 1.376054 -0.072691 30.000000
1.440288 1.363900 -0.073056 30.000000
1.458734 1.351485 -0.073423 32.000000
1.480774 1.342224 -0.073914 47.000000
1.487885 1.319359 -0.073726 33.000000
1.517253 1.316180 -0.074651 42.000000
1.542913 1.309254 -0.075394 52.000000
1.557065 1.292383 -0.075579 36.000000
1.551697 1.259583 -0.074768 32.000000
1.584874 1.258085 -0.075888 30.000000
1.609999 1.250409 -0.076637 31.000000
1.635446 1.241855 -0.077326 53.000000
1.652941 1.226897 -0.077703 31.000000
1.666206 1.208791 -0.077828 38.000000
1.687434 1.196277 -0.078396 36.000000
1.700384 1.177830 -0.078522 29.000000
1.725495 1.167659 -0.079218 45.000000
1.746494 1.154270 -0.079790 32.000000
1.763159 1.137863 -0.080109 35.000000
1.783918 1.123899 -0.080619 53.000000
1.796024 1.104389 -0.080748 33.000000
1.829358 1.097667 -0.081835 48.000000
1.845528 1.080188 -0.082157 55.000000
1.852814 1.057531 -0.082095 30.000000
1.872947 1.042192 -0.082611 41.000000
1.892925 1.026466 -0.083127 45.000000
1.908391 1.008149 -0.083452 36.000000
1.932596 0.994242 -0.084164 79.000000
1.965619 0.984320 -0.085266 38.000000
1.985210 0.967280 -0.085721 34.000000
2.009141 0.952048 -0.086439 47.000000
2.042015 0.940636 -0.087547 32.000000
2.042988 0.914307 -0.087227 30.000000
2.084907 0.906029 -0.088728 35.000000
2.122179 0.894974 -0.089969 34.000000
2.141064 0.875614 -0.090500 37.000000
2.159679 0.856052 -0.090962 34.000000
2.187560 0.839729 -0.091888 35.000000
2.177772 0.808939 -0.091175 52.000000
2.191130 0.786930 -0.091442 30.000000
2.260808 0.784544 -0.094139 33.000000
2.273950 0.761572 -0.094409 35.000000
2.296343 0.741422 -0.095073 35.000000
2.332853 0.725412 -0.096329 49.000000
2.354973 0.704337 -0.097070 38.000000
2.372083 0.681496 -0.097540 35.000000
2.408218 0.663605 -0.098801 45.000000
2.424975 0.639986 -0.099196 26.000000
2.489923 0.628304 -0.101646 34.000000
2.525732 0.608264 -0.102911 36.000000
2.541898 0.583044 -0.103387 35.000000
2.572438 0.560806 -0.104458 49.000000
2.607744 0.538888 -0.105728 36.000000
2.642857 0.516333 -0.106918 35.000000
2.672852 0.492070 -0.107993 36.000000
2.692850 0.465571 -0.108589 20.000000
2.742077 0.443538 -0.110460 41.000000
2.761564 0.415906 -0.111142 42.000000
2.785706 0.388643 -0.111937 37.000000
2.849293 0.366043 -0.114323 38.000000
2.823294 0.331575 -0.113217 9.000000
2.911222 0.309918 -0.116599 8.000000
2.919325 0.278739 -0.116798 9.000000
2.957039 0.249887 -0.118191 5.000000
3.039296 0.223668 -0.121375 8.000000
3.086405 0.193438 -0.123260 8.000000
3.118324 0.161362 -0.124454 20.000000
3.194726 0.130566 -0.127344 36.000000
3.195996 0.095801 -0.127344 10.000000
3.266807 0.062470 -0.130129 8.000000
3.307172 0.027274 -0.131721 9.000000
3.387207 -0.008897 -0.134905 26.000000
3.471925 -0.046873 -0.138181 98.000000
3.486166 -0.084992 -0.138778 95.000000
3.504966 -0.123506 -0.139573 59.000000
3.503466 -0.161639 -0.139466 37.000000
3.501538 -0.199666 -0.139466 77.000000
3.469167 -0.235660 -0.138168 95.000000
3.446484 -0.271791 -0.137268 58.000000
3.448398 -0.309617 -0.137466 85.000000
3.439832 -0.346655 -0.137162 98.000000
3.435820 -0.383928 -0.137057 98.000000
3.401737 -0.417654 -0.135764 98.000000
3.377219 -0.451850 -0.134868 95.000000
3.347398 -0.484900 -0.133776 86.000000
3.312305 -0.516642 -0.132590 80.000000
3.232554 -0.540227 -0.129426 21.000000
3.201955 -0.570877 -0.128340 9.000000
3.171054 -0.600992 -0.127256 9.000000
3.144660 -0.631459 -0.126370 9.000000
3.127929 -0.663477 -0.125879 9.000000
3.096129 -0.691818 -0.124702 10.000000
3.059292 -0.718586 -0.123427 10.000000
3.051326 -0.751698 -0.123331 18.000000
3.013949 -0.777324 -0.121965 15.000000
2.966801 -0.799530 -0.120305 9.000000
2.977124 -0.837127 -0.120898 19.000000
2.958279 -0.866621 -0.120414 37.000000
2.920094 -0.889892 -0.119056 68.000000
2.910212 -0.921590 -0.118870 62.000000
2.928528 -0.962462 -0.119943 24.000000
3.040946 -1.036084 -0.124801 18.000000
3.232163 -1.140228 -0.132938 25.000000
3.266536 -1.192427 -0.134663 29.000000
3.272171 -1.234848 -0.135223 37.000000
3.258499 -1.270203 -0.135010 41.000000
3.239978 -1.303692 -0.134604 82.000000
3.211736 -1.333037 -0.133813 88.000000
3.187893 -1.363835 -0.133217 62.000000
3.172962 -1.398463 -0.133005 83.000000
3.139407 -1.424515 -0.132028 60.000000
3.119193 -1.456408 -0.131627 87.000000
3.085197 -1.481609 -0.130653 98.000000
3.046490 -1.503998 -0.129388 71.000000
3.025537 -1.534733 -0.128991 85.000000
3.017511 -1.572194 -0.129163 98.000000
2.987044 -1.597753 -0.128284 79.000000
2.982700 -1.637451 -0.128643 95.000000
2.925439 -1.647700 -0.126636 62.000000
2.924698 -1.689484 -0.127183 78.000000
2.863141 -1.695690 -0.124997 94.000000
2.844544 -1.726787 -0.124794 39.000000
2.825541 -1.757681 -0.124489 54.000000
2.785164 -1.774945 -0.123252 61.000000
2.782435 -1.816127 -0.123795 48.000000
2.779163 -1.857369 -0.124233 37.000000
2.738129 -1.873478 -0.123000 34.000000
2.725746 -1.908896 -0.123066 32.000000
2.700751 -1.935660 -0.122577 33.000000
2.687500 -1.970895 -0.122640 32.000000
2.681809 -2.012099 -0.123069 32.000000
2.683579 -2.059429 -0.123859 32.000000
2.669439 -2.094005 -0.123914 28.000000
2.646438 -2.122911 -0.123603 26.000000
2.630957 -2.158052 -0.123552 16.000000
2.595779 -2.176891 -0.122697 12.000000
2.613608 -2.240806 -0.124372 10.000000
2.596627 -2.275779 -0.124417 9.000000
2.605133 -2.333939 -0.125610 9.000000
2.601716 -2.382491 -0.126364 9.000000
2.586591 -2.420851 -0.126468 8.000000
2.628691 -2.514497 -0.129524 8.000000
2.586850 -2.528962 -0.128370 9.000000
2.545093 -2.542896 -0.127332 9.000000
2.384440 -2.434807 -0.120195 9.000000
2.233341 -2.330730 -0.113456 9.000000
2.098539 -2.238229 -0.107555 9.000000
1.945723 -2.120976 -0.100547 10.000000
1.849174 -2.060171 -0.096368 9.000000
1.767338 -2.012535 -0.092910 9.000000
1.637958 -1.906512 -0.086883 9.000000
1.585008 -1.885987 -0.084855 13.000000
1.551778 -1.887622 -0.083868 21.000000
1.528127 -1.900442 -0.083398 27.000000
1.495071 -1.901186 -0.082419 28.000000
1.471272 -1.913324 -0.081954 29.000000
1.450489 -1.929170 -0.081660 24.000000
1.441323 -1.960900 -0.082039 23.000000
1.405416 -1.956066 -0.080902 19.000000
1.407135 -2.003934 -0.081946 24.000000
1.371241 -1.998508 -0.080740 24.000000
1.368961 -2.042293 -0.081605 22.000000
1.357688 -2.073730 -0.081965 20.000000
1.332518 -2.084127 -0.081422 26.000000
1.317797 -2.111120 -0.081612 22.000000
1.302572 -2.138133 -0.081721 21.000000
1.274226 -2.143608 -0.081091 8.000000
1.021343 1.741979 -0.050488 8.000000
1.004100 1.670842 -0.048917 26.000000
1.027433 1.668345 -0.049347 25.000000
1.045497 1.657099 -0.049526 34.000000
1.066094 1.649873 -0.049773 29.000000
1.081146 1.634011 -0.049825 31.000000
1.095988 1.618089 -0.049877 37.000000
1.122013 1.618420 -0.050380 32.000000
1.136615 1.602079 -0.050432 34.000000
1.139205 1.569441 -0.049909 31.000000
1.150237 1.548983 -0.049828 31.000000
1.185104 1.560260 -0.050782 35.000000
1.192773 1.535439 -0.050513 31.000000
1.212442 1.526353 -0.050761 32.000000
1.241530 1.528602 -0.051462 36.000000
1.258063 1.515075 -0.051583 37.000000
1.267947 1.493686 -0.051500 35.000000
1.280821 1.476035 -0.051488 33.000000
1.293494 1.458275 -0.051476 32.000000
1.326049 1.462626 -0.052316 57.000000
1.338443 1.444494 -0.052304 37.000000
1.350638 1.426196 -0.052291 66.000000
1.373061 1.418627 -0.052678 41.000000
1.388431 1.403559 -0.052798 52.000000
1.414280 1.398915 -0.053382 56.000000
1.415036 1.369525 -0.052965 25.000000
1.448031 1.371197 -0.053759 46.000000
1.459220 1.351971 -0.053746 75.000000
1.473856 1.335999 -0.053867 45.000000
1.495789 1.326477 -0.054260 71.000000
1.517682 1.316609 -0.054654 62.000000
1.531975 1.299986 -0.054716 46.000000
1.549867 1.286432 -0.054975 48.000000
1.563826 1.269460 -0.055098 22.000000
1.573625 1.249196 -0.055084 42.000000
1.591129 1.235024 -0.055344 65.000000
1.636324 1.241792 -0.056505 41.000000
1.653759 1.226897 -0.056768 44.000000
1.671070 1.211725 -0.057032 50.000000
1.680099 1.190497 -0.056957 37.000000
1.697096 1.174986 -0.057221 45.000000
1.701546 1.150858 -0.057069 21.000000
1.738985 1.148761 -0.057966 36.000000
1.751392 1.129736 -0.058093 50.000000
1.776233 1.118573 -0.058575 53.000000
1.792603 1.101836 -0.058843 52.000000
1.813060 1.087384 -0.059187 50.000000
1.824743 1.067569 -0.059252 37.000000
1.853661 1.057596 -0.059943 42.000000
1.873733 1.042192 -0.060289 21.000000
1.889386 1.024150 -0.060495 47.000000
1.904828 1.005881 -0.060767 50.000000
1.924503 0.989737 -0.061115 35.000000
1.966425 0.984387 -0.062170 65.000000
1.977033 0.962970 -0.062238 37.000000
2.009955 0.952116 -0.063013 36.000000
2.020141 0.930252 -0.063148 43.000000
2.048371 0.916484 -0.063785 19.000000
2.071989 0.900124 -0.064280 34.000000
2.099996 0.885337 -0.064918 35.000000
2.123407 0.868189 -0.065415 33.000000
2.165176 0.857964 -0.066484 42.000000
2.183752 0.838010 -0.066841 46.000000
2.202049 0.817781 -0.067126 33.000000
2.215503 0.795517 -0.067341 33.000000
2.219189 0.769946 -0.067270 22.000000
2.265351 0.758545 -0.068488 35.000000
2.297227 0.741569 -0.069278 59.000000
2.309886 0.718142 -0.069495 33.000000
2.341508 0.700192 -0.070213 37.000000
2.377791 0.682951 -0.071150 51.000000
2.418771 0.666412 -0.072233 38.000000
2.440391 0.643964 -0.072665 40.000000
2.481172 0.626016 -0.073750 22.000000
2.487813 0.599063 -0.073750 33.000000
2.542854 0.583204 -0.075270 35.000000
2.553950 0.556629 -0.075414 32.000000
2.594037 0.535936 -0.076505 33.000000
2.634033 0.514499 -0.077515 35.000000
2.654269 0.488535 -0.078030 33.000000
2.688927 0.464886 -0.078897 37.000000
2.733312 0.442027 -0.080053 30.000000
2.728077 0.410867 -0.079849 28.000000
2.781873 0.388039 -0.081295 49.000000
2.820603 0.362310 -0.082308 27.000000
2.819372 0.331079 -0.082163 9.000000
2.862597 0.304629 -0.083320 8.000000
2.915514 0.278264 -0.084767 8.000000
2.948167 0.249136 -0.085635 8.000000
3.005523 0.221101 -0.087226 7.000000
3.062692 0.191875 -0.088817 8.000000
3.144424 0.162749 -0.091132 29.000000
3.190905 0.130362 -0.092433 38.000000
3.207159 0.096198 -0.092867 32.000000
3.248016 0.062088 -0.094025 14.000000
3.298489 0.027191 -0.095471 8.000000
3.403545 -0.008936 -0.098405 12.000000
3.458205 -0.046671 -0.099995 83.000000
3.537407 -0.086210 -0.102307 98.000000
3.571290 -0.125793 -0.103209 98.000000
3.569654 -0.164632 -0.103209 98.000000
3.567690 -0.203363 -0.103209 98.000000
3.550331 -0.241078 -0.102667 95.000000
3.512629 -0.276897 -0.101658 53.000000
3.454645 -0.310169 -0.099966 93.000000
3.431154 -0.345653 -0.099284 95.000000
3.397456 -0.379594 -0.098421 83.000000
3.378191 -0.414610 -0.097885 87.000000
3.358653 -0.449303 -0.097351 83.000000
3.318960 -0.480704 -0.096346 87.000000
3.303657 -0.515204 -0.095956 49.000000
3.214037 -0.537032 -0.093419 10.000000
3.178545 -0.566591 -0.092460 9.000000
3.147684 -0.596340 -0.091647 10.000000
3.106731 -0.623591 -0.090549 16.000000
3.114434 -0.660366 -0.090881 29.000000
3.121680 -0.697461 -0.091211 45.000000
3.070175 -0.720967 -0.089832 60.000000
3.067036 -0.755476 -0.089878 53.000000
3.000571 -0.773676 -0.088077 8.000000
2.953356 -0.795817 -0.086847 9.000000
2.934955 -0.825142 -0.086470 10.000000
2.935426 -0.859691 -0.086660 62.000000
2.916339 -0.888622 -0.086191 60.000000
2.892271 -0.915650 -0.085674 59.000000
2.915413 -0.957876 -0.086569 28.000000
3.023101 -1.029736 -0.089996 18.000000
3.242846 -1.143657 -0.096687 29.000000
3.305371 -1.206240 -0.098828 89.000000
3.263994 -1.231426 -0.097773 78.000000
3.245810 -1.264972 -0.097526 84.000000
3.208799 -1.290742 -0.096616 90.000000
3.171463 -1.315904 -0.095813 74.000000
3.156996 -1.350288 -0.095603 95.000000
3.137642 -1.382447 -0.095359 57.000000
3.127016 -1.418426 -0.095289 29.000000
3.102338 -1.448058 -0.094802 95.000000
3.054910 -1.466572 -0.093730 81.000000
3.020844 -1.490727 -0.092971 86.000000
2.995576 -1.519014 -0.092490 95.000000
2.983398 -1.553725 -0.092422 98.000000
2.961943 -1.583716 -0.092183 98.000000
2.940130 -1.613406 -0.091841 89.000000
2.904996 -1.635441 -0.091090 32.000000
2.882755 -1.664492 -0.090750 95.000000
2.851559 -1.688052 -0.090139 62.000000
2.824500 -1.713823 -0.089665 63.000000
2.797150 -1.739206 -0.089193 39.000000
2.807553 -1.788269 -0.089937 38.000000
2.804684 -1.829680 -0.090273 51.000000
2.797115 -1.868475 -0.090471 31.000000
2.768326 -1.893126 -0.089998 22.000000
2.772109 -1.940425 -0.090596 36.000000
2.750829 -1.970486 -0.090389 32.000000
2.745364 -2.012159 -0.090715 33.000000
2.707236 -2.029988 -0.089873 26.000000
2.692958 -2.065409 -0.089931 22.000000
2.689931 -2.110051 -0.090385 17.000000
2.697951 -2.164295 -0.091230 10.000000
2.670329 -2.190374 -0.090782 8.000000
2.669373 -2.238640 -0.091358 9.000000
2.663778 -2.283835 -0.091692 9.000000
2.649989 -2.322640 -0.091869 9.000000
2.661830 -2.384715 -0.092953 9.000000
2.639332 -2.416893 -0.092756 9.000000
2.653035 -2.483088 -0.093959 9.000000
2.640305 -2.525640 -0.094141 8.000000
2.637661 -2.578766 -0.094705 9.000000
2.581221 -2.578993 -0.093456 9.000000
2.416644 -2.467676 -0.088146 9.000000
2.244406 -2.342247 -0.082492 10.000000
2.078589 -2.217007 -0.077095 9.000000
1.966523 -2.143692 -0.073531 10.000000
1.849682 -2.060762 -0.069740 10.000000
1.751337 -1.994329 -0.066602 9.000000
1.654628 -1.926084 -0.063484 9.000000
1.575812 -1.875034 -0.061011 10.000000
1.552151 -1.888145 -0.060737 21.000000
1.506575 -1.873695 -0.059523 28.000000
1.486171 -1.889915 -0.059303 29.000000
1.450385 -1.886103 -0.058469 30.000000
1.429830 -1.901719 -0.058251 29.000000
1.412091 -1.921145 -0.058082 27.000000
1.411617 -1.964773 -0.058713 21.000000
1.396019 -1.988094 -0.058733 29.000000
1.371537 -1.999026 -0.058390 26.000000
1.352637 -2.017905 -0.058288 25.000000
1.341638 -2.049168 -0.058543 26.000000
1.311280 -2.050964 -0.057962 30.000000
1.312808 -2.103247 -0.058730 24.000000
1.302878 -2.138668 -0.059093 22.000000
1.236218 -2.079687 -0.056866 9.000000
1.003767 1.712159 -0.031743 8.000000
1.006854 1.675424 -0.031382 26.000000
1.024991 1.664387 -0.031442 28.000000
1.042949 1.653230 -0.031561 29.000000
1.063561 1.645974 -0.031702 29.000000
1.078567 1.630201 -0.031740 32.000000
1.093364 1.614249 -0.031718 32.000000
1.116556 1.610504 -0.032001 30.000000
1.133903 1.598302 -0.032061 31.000000
1.139442 1.569738 -0.031852 26.000000
1.153394 1.553291 -0.031829 30.000000
1.179236 1.552657 -0.032135 37.000000
1.189884 1.531847 -0.032089 31.000000
1.212680 1.526651 -0.032314 32.000000
1.235467 1.521201 -0.032599 34.000000
1.251916 1.507683 -0.032659 34.000000
1.268186 1.493986 -0.032719 30.000000
1.277783 1.472617 -0.032671 29.000000
1.293732 1.458632 -0.032730 35.000000
1.319575 1.455580 -0.033042 38.000000
1.335286 1.441128 -0.033102 39.000000
1.350878 1.426556 -0.033222 37.000000
1.355919 1.400967 -0.033028 35.000000
1.388672 1.403921 -0.033511 40.000000
1.414523 1.399219 -0.033827 37.000000
1.429705 1.383733 -0.033887 34.000000
1.448274 1.371562 -0.034033 60.000000
1.459463 1.352275 -0.034070 47.000000
1.466752 1.329587 -0.033959 42.000000
1.499834 1.330099 -0.034449 83.000000
1.510437 1.310425 -0.034424 53.000000
1.532282 1.300354 -0.034657 50.000000
1.550236 1.286739 -0.034805 52.000000
1.544728 1.254013 -0.034434 29.000000
1.566162 1.243286 -0.034668 33.000000
1.587488 1.232266 -0.034903 36.000000
1.600860 1.214907 -0.034964 47.000000
1.630046 1.209277 -0.035374 55.000000
1.663353 1.206108 -0.035809 37.000000
1.680477 1.190812 -0.035959 45.000000
1.697474 1.175301 -0.036110 35.000000
1.710204 1.156710 -0.036173 30.000000
1.735195 1.146323 -0.036499 37.000000
1.751774 1.130054 -0.036650 66.000000
1.768221 1.113565 -0.036738 68.000000
1.784471 1.096857 -0.036890 51.000000
1.813447 1.087642 -0.037307 81.000000
1.833824 1.072941 -0.037548 53.000000
1.854051 1.057857 -0.037725 53.000000
1.878560 1.044949 -0.038055 31.000000
1.881055 1.019648 -0.037944 55.000000
1.896382 1.001476 -0.038032 52.000000
1.929411 0.992288 -0.038542 63.000000
1.949014 0.975704 -0.038786 42.000000
1.986491 0.967617 -0.039320 59.000000
1.996877 0.945967 -0.039387 45.000000
2.020616 0.930524 -0.039655 52.000000
2.044287 0.914648 -0.039990 31.000000
2.058716 0.894424 -0.040148 36.000000
2.100553 0.885615 -0.040774 48.000000
2.110016 0.862723 -0.040844 37.000000
2.137860 0.847198 -0.041202 37.000000
2.179585 0.836504 -0.041829 37.000000
2.197865 0.816256 -0.042079 36.000000
2.216006 0.795732 -0.042259 33.000000
2.234004 0.774933 -0.042511 31.000000
2.261194 0.757031 -0.042870 46.000000
2.293060 0.740107 -0.043319 43.000000
2.310550 0.718142 -0.043573 50.000000
2.337316 0.698760 -0.043933 42.000000
2.368786 0.680267 -0.044383 45.000000
2.380827 0.655868 -0.044549 36.000000
2.416840 0.637665 -0.045090 32.000000
2.462408 0.621202 -0.045811 31.000000
2.493298 0.600311 -0.046262 37.000000
2.519129 0.577696 -0.046702 37.000000
2.559473 0.557773 -0.047334 33.000000
2.580077 0.532983 -0.047605 35.000000
2.624958 0.512665 -0.048328 36.000000
2.659845 0.489522 -0.048870 37.000000
2.660037 0.459778 -0.048779 28.000000
2.729053 0.441229 -0.049954 35.000000
2.684261 0.404168 -0.049133 9.000000
2.752851 0.383981 -0.050309 13.000000
2.796506 0.359127 -0.051033 19.000000
2.815187 0.330583 -0.051305 9.000000
2.833475 0.301543 -0.051576 8.000000
2.886371 0.275504 -0.052393 8.000000
2.929054 0.247452 -0.053115 7.000000
3.031279 0.223027 -0.054922 8.000000
3.068431 0.192281 -0.055554 9.000000
3.125224 0.161715 -0.056548 32.000000
3.161813 0.129235 -0.057180 35.000000
