x y z intensity
2.147380 -2.039407 0.981760 32.000000
2.121695 -2.060664 0.977430 28.000000
2.102534 -2.088157 0.976238 33.000000
2.069779 -2.101996 0.968702 26.000000
2.050239 -2.129014 0.967319 10.000000
2.043375 -2.169663 0.972129 35.000000
2.013493 -2.185917 0.965977 27.000000
1.993025 -2.212339 0.964466 32.000000
1.962759 -2.227837 0.958337 31.000000
1.946842 -2.261892 0.960170 25.000000
1.919379 -2.280349 0.955391 31.000000
1.891899 -2.298355 0.950623 23.000000
1.870186 -2.323524 0.948896 10.000000
1.858550 -2.364421 0.953490 29.000000
1.882617 -2.449775 0.975718 72.000000
1.856415 -2.471034 0.972257 42.000000
1.873680 -2.554540 0.993021 71.000000
1.768467 -2.467198 0.947653 77.000000
1.618901 -2.311209 0.877266 31.000000
1.533546 -2.243581 0.841744 30.000000
1.483138 -2.221210 0.823709 10.000000
1.203639 -1.845660 0.676700 10.000000
1.151960 -1.811525 0.656687 11.000000
1.117639 -1.800161 0.645343 26.000000
1.092406 -1.805290 0.640007 27.000000
1.073296 -1.817604 0.637383 28.000000
1.046880 -1.817336 0.630440 32.000000
1.031049 -1.838190 0.630902 21.000000
1.034569 -1.891914 0.642494 9.000000
0.967240 1.808665 0.627763 9.000000
0.983124 1.788310 0.627313 17.000000
1.002019 1.776843 0.629984 29.000000
1.017235 1.756264 0.629433 26.000000
1.033280 1.740356 0.630604 29.000000
1.049109 1.724311 0.631699 29.000000
1.065947 1.707485 0.632523 27.000000
1.084041 1.695122 0.635099 30.000000
1.103101 1.681921 0.637353 26.000000
1.120873 1.669172 0.639864 27.000000
1.135883 1.652240 0.640853 34.000000
1.151706 1.634601 0.641510 27.000000
1.163506 1.613550 0.640815 34.000000
1.180664 1.600092 0.643239 29.000000
1.203424 1.594034 0.648688 33.000000
1.218396 1.575725 0.649189 37.000000
1.232263 1.557869 0.649936 24.000000
1.242934 1.536260 0.649111 32.000000
1.265366 1.529167 0.654464 42.000000
1.278691 1.510874 0.655126 35.000000
1.292573 1.491890 0.655459 54.000000
1.311715 1.480523 0.659198 36.000000
1.337173 1.475857 0.666055 35.000000
1.353067 1.460348 0.668170 64.000000
1.368768 1.444647 0.670221 35.000000
1.381045 1.425352 0.670671 34.000000
1.403119 1.416096 0.675864 69.000000
1.415039 1.396454 0.676245 50.000000
1.419948 1.370190 0.673324 69.000000
1.431333 1.350400 0.673613 62.000000
1.466852 1.353006 0.685196 63.000000
1.471065 1.326445 0.682179 85.000000
1.503176 1.325000 0.692131 35.000000
1.506288 1.298730 0.689290 33.000000
1.516873 1.278149 0.689383 46.000000
1.530780 1.260461 0.691049 41.000000
1.559269 1.254480 0.699313 80.000000
1.587367 1.248486 0.707804 48.000000
1.589794 1.221317 0.704464 52.000000
1.610763 1.208430 0.709343 74.000000
1.623533 1.190122 0.711167 33.000000
1.640462 1.173904 0.714269 32.000000
1.660660 1.160625 0.719379 68.000000
1.681238 1.146511 0.724175 37.000000
1.697353 1.129939 0.727503 71.000000
1.709443 1.110514 0.729089 50.000000
1.713714 1.085523 0.727036 37.000000
1.737364 1.073278 0.733620 66.000000
1.773065 1.067908 0.745239 42.000000
1.788602 1.049945 0.748413 37.000000
1.804056 1.031756 0.751527 59.000000
1.819223 1.013338 0.754647 47.000000
1.846699 1.001344 0.762825 64.000000
1.870010 0.986710 0.769249 59.000000
1.893260 0.971583 0.775621 41.000000
1.920577 0.958197 0.783725 74.000000
1.922516 0.931925 0.781476 33.000000
1.936692 0.912125 0.784585 35.000000
1.955110 0.893693 0.789074 52.000000
1.981772 0.879010 0.797305 36.000000
2.004078 0.862013 0.803689 52.000000
2.004854 0.835203 0.801221 45.000000
2.044202 0.824594 0.814482 35.000000
2.070568 0.808033 0.822499 60.000000
2.074860 0.782728 0.821846 29.000000
2.096300 0.764014 0.828293 46.000000
2.117771 0.744637 0.834464 65.000000
2.130249 0.721875 0.837012 61.000000
2.151228 0.701992 0.843349 49.000000
2.172153 0.681732 0.849625 58.000000
2.215221 0.667777 0.864515 47.000000
2.213384 0.639849 0.861916 49.000000
2.247292 0.622120 0.873263 35.000000
2.267557 0.600029 0.879212 35.000000
2.296519 0.579998 0.888913 48.000000
2.334629 0.561329 0.901836 36.000000
2.354266 0.537841 0.907897 36.000000
2.382802 0.516023 0.917410 68.000000
2.397456 0.490712 0.921570 55.000000
2.425532 0.467930 0.931106 52.000000
2.425844 0.439462 0.930066 29.000000
2.476545 0.419695 0.948370 34.000000
2.508690 0.395799 0.959463 71.000000
2.522172 0.368567 0.963413 47.000000
2.553806 0.343618 0.974608 62.000000
2.575902 0.316896 0.982191 71.000000
2.616383 0.291654 0.996693 37.000000
2.633348 0.263326 1.002349 41.000000
2.645339 0.234182 1.006324 28.000000
2.708278 0.208779 1.029622 38.000000
2.743061 0.180071 1.042297 39.000000
2.772864 0.150367 1.053295 58.000000
2.802429 0.120026 1.063843 37.000000
2.831563 0.089047 1.074666 67.000000
2.846324 0.057150 1.080265 54.000000
2.884091 0.025137 1.094550 45.000000
2.902883 -0.007770 1.101646 34.000000
2.930739 -0.041139 1.112194 34.000000
2.972224 -0.075502 1.127964 35.000000
3.036560 -0.111679 1.152695 36.000000
3.049080 -0.146869 1.158114 33.000000
3.108054 -0.185158 1.180764 34.000000
3.157116 -0.224165 1.200059 33.000000
3.145214 -0.259243 1.196205 25.000000
3.207399 -0.301101 1.220595 34.000000
3.254974 -0.342972 1.239761 33.000000
3.297466 -0.385464 1.257039 34.000000
3.362705 -0.431774 1.282932 36.000000
3.394890 -0.475126 1.296418 34.000000
3.440274 -0.521536 1.315305 33.000000
3.452949 -0.563602 1.321692 32.000000
3.386657 -0.592387 1.297936 22.000000
3.361645 -0.627422 1.289980 32.000000
3.345551 -0.663637 1.285450 32.000000
3.310624 -0.695905 1.273987 31.000000
3.293765 -0.731495 1.269583 35.000000
3.253725 -0.761436 1.256168 29.000000
3.245118 -0.798587 1.255405 34.000000
3.231760 -0.834241 1.252450 32.000000
3.168170 -0.856355 1.230301 22.000000
3.154144 -0.891129 1.227478 30.000000
3.117366 -0.919071 1.215792 29.000000
3.102723 -0.953065 1.212771 29.000000
3.069944 -0.981147 1.202656 32.000000
3.036899 -1.008617 1.192457 27.000000
3.012353 -1.038635 1.185974 31.000000
3.009662 -1.076240 1.188213 30.000000
2.958341 -1.095515 1.170787 24.000000
2.954979 -1.132553 1.172825 32.000000
2.929438 -1.160947 1.166074 34.000000
2.899362 -1.187164 1.157502 33.000000
2.864306 -1.211359 1.147624 32.000000
2.838153 -1.238205 1.140720 30.000000
2.820378 -1.268406 1.137181 31.000000
2.814717 -1.304733 1.139120 34.000000
2.758227 -1.316284 1.119900 26.000000
2.747839 -1.349943 1.120028 34.000000
2.728625 -1.379362 1.116522 35.000000
2.688418 -1.397552 1.104460 30.000000
2.685399 -1.434902 1.107817 39.000000
2.657220 -1.458769 1.100819 34.000000
2.624798 -1.479848 1.091938 29.000000
2.608464 -1.509875 1.089982 34.000000
2.575760 -1.529904 1.081139 26.000000
2.555024 -1.556810 1.077209 33.000000
2.534051 -1.583334 1.073384 35.000000
2.504335 -1.605073 1.066481 31.000000
2.490815 -1.636106 1.065850 36.000000
2.469136 -1.661681 1.061755 35.000000
2.438987 -1.682299 1.054700 30.000000
2.451540 -1.731591 1.065587 33.000000
2.394016 -1.732344 1.046754 24.000000
2.375455 -1.759324 1.044075 23.000000
2.363357 -1.792481 1.045198 28.000000
2.339668 -1.816941 1.041237 32.000000
2.324006 -1.846133 1.040111 37.000000
2.299901 -1.869933 1.035966 37.000000
2.264685 -1.884397 1.026892 31.000000
2.243833 -1.910581 1.024416 31.000000
2.212862 -1.926317 1.016554 26.000000
2.202319 -1.961140 1.018799 35.000000
2.184200 -1.989746 1.017761 38.000000
2.158901 -2.011604 1.013372 32.000000
2.140236 -2.039623 1.012230 37.000000
2.114531 -2.060925 1.007754 35.000000
2.102023 -2.095230 1.009729 33.000000
2.069209 -2.109199 1.001946 33.000000
2.036424 -2.122653 0.994191 23.000000
2.032851 -2.166698 1.000736 35.000000
2.015630 -2.196931 1.000760 52.000000
1.979160 -2.205849 0.991344 32.000000
1.955318 -2.228451 0.988102 36.000000
1.933039 -2.255228 0.986913 35.000000
1.920877 -2.291844 0.989854 35.000000
1.884132 -2.299071 0.980322 35.000000
1.856422 -2.316856 0.975323 18.000000
1.857906 -2.371696 0.985981 36.000000
1.857004 -2.427733 0.996838 89.000000
1.822461 -2.437500 0.988672 36.000000
1.830069 -2.504294 1.003528 30.000000
1.717472 -2.405124 0.952309 26.000000
1.608621 -2.308413 0.903237 32.000000
1.487430 -2.184991 0.845000 32.000000
1.303293 -1.959839 0.749261 9.000000
1.218819 -1.879469 0.710350 12.000000
1.137594 -1.796631 0.671423 21.000000
1.112303 -1.802124 0.665973 29.000000
1.078425 -1.790269 0.654300 30.000000
1.064282 -1.810730 0.654602 30.000000
1.041366 -1.819409 0.650636 32.000000
1.024402 -1.835504 0.649365 30.000000
1.008083 -1.856257 0.649821 9.000000
0.972956 1.781977 0.643849 22.000000
0.995504 1.774041 0.647902 22.000000
1.016644 1.766506 0.652162 29.000000
1.021967 1.729378 0.645466 26.000000
1.042719 1.721536 0.649642 24.000000
1.058413 1.705360 0.650746 30.000000
1.075048 1.688343 0.651581 24.000000
1.103355 1.691738 0.660366 25.000000
1.105488 1.655196 0.653601 25.000000
1.126840 1.645560 0.657404 27.000000
1.144336 1.632422 0.659903 32.000000
1.158874 1.615301 0.660825 29.000000
1.178943 1.605569 0.664838 29.000000
1.196054 1.591855 0.667273 36.000000
1.211108 1.573552 0.667794 30.000000
1.230853 1.563208 0.671759 30.000000
1.238669 1.537789 0.669251 29.000000
1.264178 1.534305 0.676373 34.000000
1.274487 1.512393 0.675449 46.000000
1.290751 1.497531 0.677681 33.000000
1.309950 1.486026 0.681540 36.000000
1.333098 1.477187 0.686656 55.000000
1.342621 1.454698 0.685568 32.000000
1.361526 1.442532 0.689319 36.000000
1.370542 1.419845 0.688141 28.000000
1.389229 1.407194 0.691833 36.000000
1.397742 1.384380 0.690504 64.000000
1.418895 1.375163 0.696117 72.000000
1.423589 1.348813 0.693037 51.000000
1.445167 1.338587 0.698282 76.000000
1.449232 1.312199 0.695107 41.000000
1.477650 1.307713 0.703661 74.000000
1.506215 1.302770 0.712186 23.000000
1.505462 1.273508 0.707497 35.000000
1.530278 1.264854 0.714237 60.000000
1.547846 1.249843 0.717672 35.000000
1.568394 1.238049 0.723011 55.000000
1.578290 1.216826 0.722927 43.000000
1.594917 1.201603 0.726513 35.000000
1.611930 1.185645 0.729717 69.000000
1.651235 1.186363 0.743558 26.000000
1.641255 1.150833 0.734753 37.000000
1.672932 1.145259 0.745071 78.000000
1.689490 1.128221 0.748183 43.000000
1.705511 1.111357 0.751566 58.000000
1.721388 1.094270 0.754891 63.000000
1.729152 1.072020 0.754745 43.000000
1.764740 1.066632 0.766657 71.000000
1.780257 1.048600 0.769879 28.000000
1.791562 1.028076 0.771360 46.000000
1.810908 1.011986 0.776277 88.000000
1.834197 0.997743 0.782896 59.000000
1.849154 0.978767 0.785947 58.000000
1.880597 0.968059 0.795980 67.000000
1.903355 0.952962 0.802790 39.000000
1.917975 0.932930 0.805737 62.000000
1.928133 0.910734 0.806851 26.000000
1.946304 0.892574 0.811787 35.000000
1.972890 0.877952 0.820216 62.000000
1.986557 0.857175 0.823193 40.000000
2.021818 0.844953 0.834862 62.000000
2.035237 0.823518 0.837790 44.000000
2.057105 0.805246 0.844220 35.000000
2.069989 0.783515 0.847307 34.000000
2.069681 0.756514 0.844740 32.000000
2.104233 0.741988 0.856426 62.000000
2.120947 0.720996 0.861108 72.000000
2.146302 0.702559 0.869392 54.000000
2.153835 0.678040 0.870352 51.000000
2.183398 0.660123 0.880313 74.000000
2.226247 0.645518 0.895549 53.000000
2.237641 0.621208 0.898187 42.000000
2.266862 0.601580 0.907896 35.000000
2.282271 0.578004 0.912431 37.000000
2.306484 0.556330 0.920512 62.000000
2.321472 0.532006 0.924909 52.000000
2.368073 0.514319 0.941913 65.000000
2.382756 0.489136 0.946173 57.000000
2.410726 0.466400 0.955959 49.000000
2.424718 0.440564 0.960314 35.000000
2.470731 0.419902 0.977227 36.000000
2.493567 0.394574 0.984988 55.000000
2.506919 0.367393 0.989038 54.000000
2.543045 0.343114 1.002353 69.000000
2.560525 0.315818 1.008318 48.000000
2.582334 0.288638 1.015939 52.000000
2.631559 0.263910 1.034752 63.000000
2.657347 0.235894 1.044298 35.000000
2.687646 0.207795 1.055498 35.000000
2.736222 0.180108 1.073997 36.000000
2.756614 0.149933 1.081291 40.000000
2.785968 0.119643 1.092506 61.000000
2.819727 0.088954 1.105366 62.000000
2.834430 0.057057 1.111116 50.000000
2.881350 0.025124 1.129550 73.000000
2.900064 -0.007795 1.136850 36.000000
2.918493 -0.041044 1.144053 36.000000
2.969110 -0.075642 1.163832 46.000000
3.019212 -0.111408 1.183898 35.000000
3.041076 -0.146895 1.192720 40.000000
3.095046 -0.184955 1.214604 34.000000
3.148433 -0.224186 1.236282 35.000000
3.122648 -0.258167 1.226857 19.000000
3.193837 -0.300786 1.255604 33.000000
3.236778 -0.341949 1.273188 35.000000
3.269832 -0.383188 1.287328 34.000000
3.339308 -0.430031 1.315909 34.000000
3.376073 -0.473807 1.331508 41.000000
3.430460 -0.521441 1.354700 33.000000
3.452129 -0.565175 1.364923 30.000000
3.399830 -0.596432 1.345957 24.000000
3.342900 -0.625673 1.325085 31.000000
3.326743 -0.661949 1.320455 34.000000
3.296503 -0.695133 1.310504 34.000000
3.266037 -0.727575 1.300564 32.000000
3.262467 -0.765890 1.301388 42.000000
3.208653 -0.791913 1.282098 28.000000
3.209025 -0.830708 1.284521 29.000000
3.168193 -0.858838 1.270908 20.000000
3.127120 -0.886140 1.257208 31.000000
3.121808 -0.923197 1.257733 33.000000
3.080378 -0.949155 1.243855 33.000000
3.052064 -0.978568 1.235292 29.000000
3.036944 -1.011791 1.232028 35.000000
3.008205 -1.040233 1.223283 33.000000
2.996550 -1.074679 1.222035 26.000000
2.936444 -1.091030 1.200993 21.000000
2.933387 -1.127657 1.202725 30.000000
2.903600 -1.154233 1.194045 33.000000
2.877877 -1.182085 1.187065 35.000000
2.855962 -1.211666 1.182284 32.000000
2.834026 -1.240442 1.176905 34.000000
2.811969 -1.268820 1.171536 33.000000
2.781213 -1.292961 1.162534 26.000000
2.766699 -1.324993 1.160933 26.000000
2.735204 -1.348550 1.152262 33.000000
2.712234 -1.375259 1.146545 34.000000
2.688662 -1.402075 1.141238 38.000000
2.660763 -1.426291 1.134183 33.000000
2.653217 -1.461417 1.135725 36.000000
2.616648 -1.480295 1.124989 35.000000
2.604436 -1.512624 1.124681 28.000000
2.563707 -1.528057 1.112048 26.000000
2.550890 -1.559856 1.111652 35.000000
2.513996 -1.576512 1.100718 31.000000
2.500747 -1.607734 1.100135 36.000000
2.471487 -1.628530 1.092619 31.000000
2.449306 -1.654596 1.088869 33.000000
2.439048 -1.687815 1.089818 35.000000
2.420050 -1.716263 1.087696 26.000000
2.386335 -1.732615 1.078225 29.000000
2.351902 -1.749192 1.069167 20.000000
2.340622 -1.781544 1.069920 23.000000
2.331876 -1.817339 1.072648 35.000000
2.297688 -1.832008 1.062965 32.000000
2.288306 -1.867537 1.065672 37.000000
2.260290 -1.888049 1.059699 36.000000
2.222338 -1.898174 1.048298 26.000000
2.197851 -1.920850 1.043961 26.000000
2.187097 -1.955716 1.046350 32.000000
2.165613 -1.981002 1.043593 32.000000
2.150631 -2.012444 1.044178 36.000000
2.128506 -2.037334 1.041317 33.000000
2.103772 -2.057783 1.036318 37.000000
2.084637 -2.085304 1.035023 34.000000
2.058545 -2.105962 1.030415 25.000000
2.035503 -2.129670 1.027368 28.000000
2.018720 -2.159994 1.027509 32.000000
1.992035 -2.179718 1.022720 32.000000
1.973439 -2.210611 1.023219 49.000000
1.940098 -2.222600 1.014990 30.000000
1.922245 -2.252075 1.014996 35.000000
1.906983 -2.285039 1.016501 33.000000
1.888205 -2.314257 1.016267 28.000000
1.845551 -2.313709 1.003170 22.000000
1.838138 -2.357296 1.009334 30.000000
1.831368 -2.405642 1.017319 49.000000
1.805473 -2.426670 1.013717 33.000000
1.776691 -2.443473 1.008434 19.000000
1.695583 -2.386431 0.973195 20.000000
1.602310 -2.308435 0.930239 24.000000
1.501567 -2.217583 0.883229 14.000000
1.315360 -1.989126 0.783149 9.000000
1.224609 -1.896347 0.738129 10.000000
1.139763 -1.810478 0.696808 23.000000
1.103039 -1.795159 0.683265 28.000000
1.076636 -1.795557 0.675885 27.000000
1.056293 -1.808582 0.673334 32.000000
1.029953 -1.808253 0.666009 33.000000
1.020898 -1.841622 0.671066 24.000000
0.975465 1.795756 0.667807 10.000000
0.992180 1.780059 0.669069 19.000000
1.000543 1.747085 0.663794 21.000000
1.026322 1.747588 0.671292 17.000000
1.039932 1.727406 0.670872 24.000000
1.056894 1.710531 0.671752 24.000000
1.072474 1.694104 0.672878 19.000000
1.087969 1.677543 0.673928 26.000000
1.105805 1.664729 0.676568 10.000000
1.129938 1.658967 0.682103 23.000000
1.131360 1.622416 0.675002 26.000000
1.156889 1.620698 0.682352 19.000000
1.171445 1.603326 0.683231 32.000000
1.183917 1.581404 0.682209 22.000000
1.209437 1.578814 0.689547 25.000000
1.223419 1.560901 0.690344 29.000000
1.240146 1.546609 0.692715 10.000000
1.247768 1.521119 0.690122 35.000000
1.267152 1.510096 0.694137 29.000000
1.286487 1.498812 0.698035 28.000000
1.299489 1.480183 0.698665 35.000000
1.318645 1.468508 0.702574 27.000000
1.334501 1.453035 0.704748 27.000000
1.353451 1.440802 0.708609 33.000000
1.372284 1.428301 0.712416 19.000000
1.377877 1.402114 0.709444 37.000000
1.393121 1.385977 0.711485 30.000000
1.414911 1.376138 0.716876 32.000000
1.433312 1.362777 0.720574 44.000000
1.450947 1.349658 0.724540 30.000000
1.448327 1.316805 0.717864 34.000000
1.480310 1.315337 0.728339 36.000000
1.494669 1.297951 0.730206 22.000000
1.508320 1.280887 0.732331 37.000000
1.522358 1.263115 0.734070 31.000000
1.539907 1.248100 0.737552 33.000000
1.564089 1.239206 0.744733 37.000000
1.574036 1.217880 0.744671 30.000000
1.594474 1.205433 0.750065 35.000000
1.596470 1.178331 0.746348 33.000000
1.643175 1.184579 0.764040 26.000000
1.636674 1.152157 0.757046 35.000000
1.649474 1.132891 0.758483 36.000000
1.677151 1.124231 0.767285 35.000000
1.700944 1.112524 0.774273 35.000000
1.728643 1.102926 0.783067 34.000000
1.736535 1.080430 0.782821 34.000000
1.756213 1.065222 0.788007 42.000000
1.759659 1.040130 0.785895 26.000000
1.787127 1.028991 0.794489 35.000000
1.806392 1.012848 0.799506 35.000000
1.813274 0.989612 0.799125 32.000000
1.848795 0.981708 0.811250 36.000000
1.867422 0.964816 0.816446 35.000000
1.890443 0.949413 0.823124 35.000000
1.896371 0.925686 0.822763 33.000000
1.902254 0.901641 0.822050 22.000000
1.937289 0.891456 0.834360 35.000000
1.959545 0.874856 0.841162 35.000000
1.973172 0.854195 0.844255 31.000000
1.990918 0.835024 0.849114 32.000000
2.012840 0.817336 0.855744 32.000000
2.043321 0.802607 0.865986 33.000000
2.056312 0.780707 0.868904 32.000000
2.073341 0.760380 0.873810 16.000000
2.094678 0.741113 0.880277 47.000000
2.115751 0.721617 0.886902 34.000000
2.123458 0.697324 0.888003 34.000000
2.175171 0.686947 0.907439 35.000000
2.186959 0.663272 0.910263 29.000000
2.203010 0.640717 0.914792 30.000000
2.223289 0.619127 0.921182 33.000000
2.193919 0.584090 0.907324 10.000000
2.258602 0.573881 0.932365 34.000000
2.314434 0.559841 0.953343 32.000000
2.329272 0.535463 0.958081 29.000000
2.357678 0.513684 0.968097 35.000000
2.363153 0.486627 0.968652 29.000000
2.386528 0.463105 0.976903 30.000000
2.418707 0.440750 0.988736 29.000000
2.418825 0.412232 0.987435 10.000000
2.468991 0.391815 1.006595 32.000000
2.491374 0.366220 1.014811 32.000000
2.508971 0.339584 1.020917 29.000000
2.544681 0.314826 1.034512 34.000000
2.589440 0.290364 1.051692 30.000000
2.601667 0.261707 1.055951 28.000000
2.632127 0.234311 1.067358 31.000000
2.662207 0.206367 1.078945 16.000000
2.715108 0.179317 1.099998 31.000000
2.740132 0.149500 1.109458 30.000000
2.769272 0.119352 1.120885 29.000000
2.788990 0.088184 1.128474 31.000000
2.836066 0.057244 1.147500 33.000000
2.850343 0.024962 1.153313 26.000000
2.882881 -0.007783 1.166440 32.000000
2.901229 -0.040978 1.173846 31.000000
2.933092 -0.074952 1.186778 31.000000
2.992245 -0.110696 1.211053 34.000000
3.018644 -0.146246 1.222102 27.000000
3.081632 -0.184752 1.248242 34.000000
3.097993 -0.221234 1.255228 27.000000
3.136914 -0.260054 1.271778 19.000000
3.170729 -0.299493 1.286657 30.000000
3.195037 -0.338590 1.297366 26.000000
3.241777 -0.381133 1.317529 28.000000
3.315548 -0.428292 1.348795 31.000000
3.352034 -0.471956 1.364851 30.000000
3.378891 -0.515167 1.377152 31.000000
3.409657 -0.559864 1.391418 26.000000
3.380450 -0.594836 1.381290 21.000000
3.350992 -0.629173 1.371059 29.000000
3.321290 -0.662877 1.360730 24.000000
3.282051 -0.694250 1.346910 29.000000
3.247046 -0.725687 1.334857 27.000000
3.225616 -0.759475 1.327855 28.000000
3.216900 -0.796517 1.327093 28.000000
3.190212 -0.828564 1.318466 25.000000
3.136307 -0.852783 1.298508 13.000000
3.117760 -0.886239 1.293733 29.000000
3.085593 -0.915315 1.283302 23.000000
3.053252 -0.943774 1.272783 27.000000
3.034013 -0.975888 1.267722 29.000000
3.001197 -1.003170 1.257028 26.000000
2.994573 -1.038984 1.257313 29.000000
2.961049 -1.065560 1.246855 25.000000
2.936409 -1.094365 1.239582 9.000000
2.915493 -1.124751 1.234468 30.000000
2.881486 -1.149561 1.223756 24.000000
2.851559 -1.175546 1.214900 26.000000
2.834228 -1.206400 1.211350 29.000000
2.820995 -1.238826 1.209633 26.000000
2.790496 -1.263369 1.200416 27.000000
2.759761 -1.287423 1.191223 25.000000
2.711709 -1.303218 1.175074 9.000000
2.710141 -1.340266 1.178452 29.000000
2.686784 -1.367332 1.173142 29.000000
2.676204 -1.399999 1.172681 29.000000
2.640052 -1.419906 1.161866 29.000000
2.624354 -1.450321 1.159904 28.000000
2.616376 -1.485146 1.161445 32.000000
2.579883 -1.503515 1.150391 26.000000
2.531240 -1.514038 1.133889 10.000000
2.542506 -1.560254 1.144303 32.000000
2.493729 -1.569509 1.127666 24.000000
2.484440 -1.603170 1.128922 29.000000
2.466861 -1.631663 1.126507 30.000000
2.433613 -1.649378 1.116989 25.000000
2.422768 -1.683219 1.118423 28.000000
2.408285 -1.713563 1.117592 21.000000
2.367081 -1.724518 1.104402 10.000000
2.373943 -1.771813 1.114434 19.000000
2.336314 -1.784648 1.102852 10.000000
2.312694 -1.808978 1.098704 27.000000
2.293272 -1.835288 1.095834 31.000000
2.258299 -1.850102 1.086371 23.000000
2.241357 -1.879446 1.085544 29.000000
2.199909 -1.886458 1.072089 23.000000
2.172017 -1.905919 1.065987 10.000000
2.182293 -1.959419 1.078796 31.000000
2.146816 -1.972084 1.069144 25.000000
2.136240 -2.005891 1.070976 28.000000
2.100693 -2.017630 1.061273 28.000000
2.105279 -2.068387 1.071996 29.000000
2.115731 -2.126147 1.085951 95.000000
2.072689 -2.130454 1.072653 27.000000
2.017020 -2.120377 1.052548 10.000000
2.006589 -2.157511 1.056165 32.000000
1.973588 -2.170271 1.047871 26.000000
1.959307 -2.203647 1.049574 29.000000
1.935331 -2.226285 1.046326 28.000000
1.926429 -2.266693 1.051217 26.000000
1.886807 -2.270797 1.039449 29.000000
1.865137 -2.296238 1.037665 17.000000
1.840358 -2.317765 1.034125 13.000000
1.829768 -2.357656 1.038804 29.000000
1.812971 -2.389970 1.040053 28.000000
1.782931 -2.407973 1.035126 30.000000
1.748691 -2.417087 1.026569 10.000000
1.706314 -2.414131 1.013088 10.000000
1.588962 -2.301379 0.954369 10.000000
1.478191 -2.194938 0.899624 9.000000
1.306321 -1.986445 0.804827 8.000000
1.215912 -1.893810 0.758568 9.000000
1.142897 -1.823523 0.722191 10.000000
1.099938 -1.800887 0.705362 24.000000
1.071008 -1.797282 0.696195 25.000000
1.047059 -1.801457 0.690225 29.000000
1.031239 -1.822516 0.690745 29.000000
1.007203 -1.826108 0.684732 18.000000
0.956081 1.772541 0.677811 22.000000
0.978612 1.764621 0.682071 26.000000
0.995056 1.748806 0.683323 22.000000
1.008898 1.728829 0.682883 31.000000
1.028455 1.716243 0.685465 24.000000
1.039233 1.692023 0.683359 26.000000
1.059695 1.683717 0.687684 25.000000
1.082801 1.679065 0.693662 18.000000
1.091359 1.649889 0.689532 28.000000
1.103711 1.629224 0.688849 28.000000
1.129147 1.627807 0.696432 29.000000
1.141119 1.606789 0.695667 33.000000
1.158276 1.593332 0.698219 29.000000
1.175370 1.579682 0.700770 33.000000
1.193292 1.565204 0.703002 32.000000
1.210067 1.551108 0.705426 23.000000
1.226714 1.536885 0.707850 35.000000
1.240259 1.518764 0.708574 31.000000
1.262703 1.511344 0.714338 34.000000
1.275954 1.492875 0.714993 37.000000
1.292027 1.477823 0.717289 34.000000
1.304907 1.459080 0.717864 34.000000
1.333355 1.457530 0.726998 43.000000
1.336339 1.428156 0.722255 27.000000
1.358285 1.419150 0.727892 52.000000
1.359882 1.390278 0.723350 64.000000
1.381643 1.380816 0.728936 52.000000
1.406772 1.374344 0.736230 59.000000
1.414998 1.351216 0.734766 36.000000
1.440057 1.344083 0.741966 66.000000
1.450671 1.324420 0.742511 75.000000
1.454690 1.297907 0.739053 32.000000
1.486556 1.296084 0.749781 35.000000
1.500207 1.279020 0.751971 35.000000
1.521421 1.267225 0.757281 41.000000
1.542118 1.255587 0.762934 42.000000
1.559616 1.240226 0.766484 36.000000
1.576460 1.225106 0.770238 50.000000
1.589979 1.206428 0.771936 41.000000
1.599165 1.185235 0.772022 33.000000
1.627364 1.177200 0.780832 37.000000
1.639925 1.158391 0.782608 36.000000
1.648521 1.136676 0.782564 37.000000
1.683898 1.133177 0.795280 59.000000
1.688359 1.108509 0.793287 37.000000
1.708115 1.093925 0.798606 71.000000
1.716012 1.071570 0.798367 72.000000
1.735504 1.056426 0.803638 35.000000
1.742975 1.033850 0.803263 36.000000
1.762266 1.018208 0.808418 35.000000
1.785506 1.004457 0.815368 52.000000
1.808628 0.990355 0.822338 63.000000
1.843712 0.982727 0.835098 53.000000
1.862665 0.965438 0.840051 46.000000
1.885373 0.950323 0.847224 75.000000
1.879121 0.920085 0.840945 36.000000
1.918210 0.912352 0.855395 30.000000
1.949042 0.899987 0.866147 46.000000
1.958721 0.877451 0.867489 35.000000
1.976619 0.858536 0.872514 36.000000
1.990113 0.837415 0.875599 36.000000
2.007724 0.817872 0.880499 40.000000
2.029506 0.799757 0.887293 45.000000
2.037986 0.776472 0.888587 34.000000
2.072464 0.762417 0.900926 34.000000
2.089266 0.741640 0.905872 46.000000
2.097160 0.717667 0.907042 36.000000
2.122411 0.699265 0.915648 62.000000
2.143084 0.678988 0.922299 57.000000
2.146001 0.652873 0.921364 43.000000
2.179592 0.635926 0.933586 42.000000
2.213051 0.618368 0.946056 32.000000
2.228657 0.595121 0.950549 34.000000
2.257372 0.575244 0.960996 37.000000
2.285902 0.554699 0.971384 44.000000
2.314317 0.533560 0.981710 52.000000
2.324400 0.508038 0.984563 35.000000
2.343472 0.484044 0.990852 37.000000
2.371200 0.461583 1.001214 50.000000
2.389698 0.436782 1.007599 29.000000
2.426136 0.414780 1.021578 42.000000
2.453246 0.390595 1.031900 42.000000
2.489407 0.367070 1.045742 54.000000
2.511531 0.340947 1.054004 54.000000
2.528793 0.313835 1.060184 55.000000
2.550341 0.286840 1.068546 53.000000
2.571680 0.259424 1.076404 59.000000
2.583523 0.230679 1.080677 28.000000
2.645741 0.205746 1.105938 35.000000
2.679903 0.177523 1.119934 45.000000
2.700199 0.147716 1.127631 37.000000
2.747733 0.118771 1.147147 35.000000
2.771885 0.087945 1.156863 43.000000
2.800299 0.056684 1.168690 41.000000
2.832967 0.024828 1.182355 42.000000
2.860745 -0.007758 1.193909 46.000000
2.869784 -0.040621 1.197665 37.000000
2.915343 -0.074738 1.216631 45.000000
2.969715 -0.110255 1.239731 42.000000
3.005213 -0.146047 1.254933 53.000000
3.049386 -0.183339 1.274079 40.000000
3.088693 -0.221257 1.290889 36.000000
3.099931 -0.257831 1.296454 29.000000
3.138302 -0.297333 1.313245 42.000000
3.203604 -0.340607 1.341874 36.000000
3.218107 -0.379514 1.348813 35.000000
3.300806 -0.427632 1.384770 47.000000
3.337108 -0.471288 1.401387 35.000000
3.372725 -0.515888 1.418213 36.000000
3.417091 -0.562820 1.438179 35.000000
3.351677 -0.591525 1.412576 27.000000
3.326887 -0.626566 1.404014 32.000000
3.306253 -0.661986 1.397266 33.000000
3.276196 -0.695175 1.386921 32.000000
3.259546 -0.730656 1.381881 35.000000
3.228896 -0.762744 1.371229 33.000000
3.193440 -0.793091 1.358684 34.000000
3.175694 -0.827373 1.353676 32.000000
3.112861 -0.849388 1.329838 25.000000
3.103595 -0.884961 1.328347 30.000000
3.093690 -0.920641 1.327176 33.000000
3.048019 -0.945254 1.310806 30.000000
3.019987 -0.974527 1.301847 32.000000
2.991659 -1.003290 1.292799 29.000000
2.967517 -1.033067 1.285454 31.000000
2.969181 -1.071765 1.289573 29.000000
2.926861 -1.094650 1.274998 27.000000
2.906276 -1.124679 1.269372 31.000000
2.885251 -1.154817 1.264063 32.000000
2.859508 -1.182679 1.256781 32.000000
2.837939 -1.211962 1.251291 33.000000
2.811801 -1.238977 1.243934 32.000000
2.772922 -1.259845 1.230772 29.000000
2.754888 -1.289658 1.226997 28.000000
2.719884 -1.311119 1.215658 27.000000
2.696871 -1.338582 1.210240 31.000000
2.678181 -1.367270 1.206200 33.000000
2.654735 -1.394101 1.200703 32.000000
2.639654 -1.424362 1.198436 34.000000
2.623784 -1.454919 1.196464 37.000000
2.587435 -1.473783 1.185150 31.000000
2.567187 -1.501367 1.181250 30.000000
2.542615 -1.526270 1.175417 26.000000
2.521815 -1.553232 1.171339 31.000000
2.496844 -1.577326 1.165336 34.000000
2.463977 -1.596083 1.155684 29.000000
2.454208 -1.629538 1.156836 32.000000
2.432587 -1.655220 1.152501 32.000000
2.410733 -1.680523 1.148174 30.000000
2.388647 -1.705449 1.143759 27.000000
2.361899 -1.728016 1.137828 25.000000
2.354407 -1.763422 1.140568 21.000000
2.323473 -1.782636 1.132750 21.000000
2.296970 -1.803418 1.126276 27.000000
2.284089 -1.836202 1.127383 28.000000
2.257138 -1.856336 1.120736 32.000000
2.229360 -1.876685 1.114585 28.000000
2.209270 -1.902107 1.111443 25.000000
2.170599 -1.912462 1.099892 22.000000
2.152820 -1.941000 1.098831 25.000000
2.139169 -1.971748 1.099149 30.000000
2.120744 -2.000015 1.097969 29.000000
2.112164 -2.037731 1.102053 30.000000
2.113011 -2.085440 1.111261 91.000000
2.146127 -2.166689 1.137879 113.000000
2.077715 -2.143713 1.109812 34.000000
2.002691 -2.113462 1.078715 21.000000
1.989038 -2.147095 1.080688 24.000000
1.959315 -2.163276 1.073998 28.000000
1.935683 -2.186054 1.070676 26.000000
1.918008 -2.215649 1.070691 27.000000
1.893918 -2.237930 1.067263 25.000000
1.872540 -2.263641 1.065445 26.000000
1.859761 -2.300012 1.068713 21.000000
1.820317 -2.303056 1.056599 12.000000
1.812634 -2.346638 1.063106 21.000000
1.794318 -2.379835 1.064884 25.000000
1.754655 -2.381735 1.052736 24.000000
1.748246 -2.428825 1.060594 14.000000
1.686829 -2.399032 1.035180 10.000000
1.620957 -2.360257 1.006418 21.000000
1.535121 -2.288913 0.964630 22.000000
1.493508 -2.283918 0.951456 13.000000
1.232629 -1.930942 0.795333 9.000000
1.149509 -1.845026 0.751389 10.000000
1.093012 -1.797763 0.723967 16.000000
1.077326 -1.819211 0.724561 20.000000
1.060186 -1.835859 0.723242 24.000000
1.033598 -1.835856 0.715479 21.000000
1.010273 -1.844467 0.711161 18.000000
0.975108 1.770359 0.703167 26.000000
0.982435 1.738059 0.697793 30.000000
1.006924 1.733826 0.703751 31.000000
1.018168 1.709674 0.701616 28.000000
1.033871 1.693482 0.702780 35.000000
1.051922 1.681212 0.705607 30.000000
1.071001 1.668043 0.708112 31.000000
1.083623 1.647460 0.707497 33.000000
1.096012 1.626743 0.706793 32.000000
1.116117 1.617569 0.711103 43.000000
1.136113 1.608140 0.715489 35.000000
1.147870 1.587038 0.714683 34.000000
1.164922 1.573358 0.717228 35.000000
1.184682 1.563290 0.721499 35.000000
1.204395 1.552901 0.725719 35.000000
1.222041 1.538004 0.727956 33.000000
1.232751 1.516219 0.726899 36.000000
1.246108 1.498047 0.727568 82.000000
1.267471 1.490962 0.733745 36.000000
1.274395 1.465317 0.730822 50.000000
1.299617 1.460666 0.738401 62.000000
1.318645 1.448688 0.742469 37.000000
1.321635 1.419407 0.737598 52.000000
1.359639 1.427379 0.752293 31.000000
1.355669 1.391152 0.743755 54.000000
1.377430 1.381640 0.749435 64.000000
1.398440 1.372357 0.755457 53.000000
1.410136 1.352531 0.755704 68.000000
1.424904 1.335780 0.757686 71.000000
1.438970 1.319349 0.759987 62.000000
1.446545 1.295999 0.758269 75.000000
1.481817 1.297154 0.771115 26.000000
1.488429 1.273998 0.769653 40.000000
1.506002 1.259252 0.773285 52.000000
1.522996 1.244744 0.777182 36.000000
1.547643 1.235306 0.784449 48.000000
1.564437 1.220223 0.788311 39.000000
1.577468 1.202045 0.790331 35.000000
1.594551 1.186052 0.793814 54.000000
1.610976 1.170232 0.797567 24.000000
1.623544 1.151445 0.799400 37.000000
1.647356 1.140447 0.806770 66.000000
1.671208 1.129051 0.814165 36.000000
1.687225 1.112087 0.817766 52.000000
1.710958 1.099844 0.825068 52.000000
1.718958 1.077423 0.824792 42.000000
1.730653 1.057306 0.826396 52.000000
1.730150 1.029952 0.822263 24.000000
1.761383 1.021246 0.833191 46.000000
1.768499 0.998361 0.832704 59.000000
1.811504 0.995819 0.849584 47.000000
1.822417 0.974539 0.850948 46.000000
1.849116 0.962064 0.860145 68.000000
1.872085 0.946572 0.867114 35.000000
1.894636 0.931071 0.874378 45.000000
1.921209 0.917062 0.883508 25.000000
1.926868 0.892892 0.882996 33.000000
1.932274 0.868609 0.882407 36.000000
1.962810 0.855415 0.893293 33.000000
1.984764 0.837929 0.900280 36.000000
1.972467 0.806117 0.891769 37.000000
2.006724 0.793663 0.904779 33.000000
2.028284 0.775178 0.911585 33.000000
2.040801 0.753417 0.914745 24.000000
2.074839 0.739144 0.927613 35.000000
2.100218 0.721132 0.936478 56.000000
2.112314 0.698233 0.939527 49.000000
2.128536 0.676629 0.944379 37.000000
2.149074 0.655944 0.951115 60.000000
2.164984 0.633659 0.955835 33.000000
2.189366 0.613656 0.964693 36.000000
2.209184 0.591977 0.971537 24.000000
2.242224 0.573335 0.984187 33.000000
2.266244 0.551824 0.992865 35.000000
2.294531 0.530781 1.003359 36.000000
2.313555 0.507330 1.010181 33.000000
2.359503 0.488931 1.028395 50.000000
2.364700 0.461746 1.029194 33.000000
2.378622 0.436139 1.033765 31.000000
2.405770 0.412656 1.044483 34.000000
2.432839 0.388489 1.054726 41.000000
2.468671 0.365226 1.069164 37.000000
2.495250 0.339908 1.079594 41.000000
2.526205 0.314550 1.091837 41.000000
2.365130 0.266841 1.021204 95.000000
2.555231 0.258619 1.102544 36.000000
2.576178 0.230832 1.110863 32.000000
2.642617 0.206109 1.138751 31.000000
2.653809 0.176343 1.143140 34.000000
2.683184 0.147285 1.155075 35.000000
2.739681 0.118788 1.179042 35.000000
2.763729 0.087908 1.189009 37.000000
2.787424 0.056591 1.199162 37.000000
2.815351 0.024787 1.211109 36.000000
2.829224 -0.007708 1.217130 32.000000
2.870369 -0.040817 1.234722 36.000000
2.920305 -0.075114 1.256259 40.000000
2.946778 -0.109717 1.268013 37.000000
2.977521 -0.145276 1.281640 37.000000
3.017005 -0.182030 1.299413 35.000000
3.056134 -0.219633 1.316678 32.000000
3.076377 -0.256758 1.326240 26.000000
3.128285 -0.297350 1.349506 32.000000
3.179769 -0.339100 1.372544 35.000000
3.216907 -0.380598 1.389970 36.000000
3.262620 -0.424120 1.411111 33.000000
3.330613 -0.472020 1.441974 36.000000
3.366249 -0.516606 1.458799 35.000000
3.392000 -0.560635 1.472009 32.000000
3.354264 -0.593944 1.457103 28.000000
3.311340 -0.625672 1.440477 30.000000
3.290881 -0.660983 1.433578 32.000000
3.265316 -0.695137 1.424948 33.000000
3.230749 -0.726636 1.411963 30.000000
3.231571 -0.766001 1.414894 36.000000
3.196194 -0.796454 1.402043 31.000000
3.182893 -0.832108 1.398885 29.000000
3.138219 -0.858938 1.381830 23.000000
3.097855 -0.886108 1.366760 25.000000
3.061453 -0.913988 1.353880 29.000000
3.033595 -0.943886 1.344813 32.000000
3.001160 -0.971748 1.333710 29.000000
2.977298 -1.001937 1.326412 30.000000
2.961918 -1.034655 1.322908 31.000000
2.933260 -1.062461 1.313485 26.000000
2.900010 -1.088042 1.302041 21.000000
2.870618 -1.114998 1.292864 28.000000
2.854210 -1.146101 1.288995 30.000000
2.841488 -1.179178 1.287468 34.000000
2.811498 -1.204783 1.278027 29.000000
2.768601 -1.224194 1.262732 32.000000
2.771887 -1.263785 1.268619 33.000000
2.749632 -1.291783 1.262766 26.000000
2.668959 -1.291230 1.230102 23.000000
2.692070 -1.340522 1.245260 32.000000
2.660523 -1.363482 1.235832 30.000000
2.658081 -1.400452 1.239281 37.000000
2.617921 -1.418184 1.225974 31.000000
2.594606 -1.443658 1.219816 32.000000
2.582557 -1.476125 1.219655 36.000000
2.558190 -1.501463 1.213710 27.000000
2.509843 -1.512087 1.196437 20.000000
2.504949 -1.548561 1.199875 30.000000
2.480045 -1.572617 1.193780 31.000000
2.462729 -1.601349 1.191362 35.000000
2.433552 -1.622175 1.183221 31.000000
2.423396 -1.655617 1.184460 33.000000
2.405334 -1.683628 1.181852 35.000000
2.383212 -1.708645 1.177382 26.000000
2.338505 -1.716900 1.161575 21.000000
2.330277 -1.752930 1.164851 23.000000
2.296582 -1.768330 1.154575 18.000000
2.302992 -1.814934 1.164542 31.000000
2.268206 -1.830408 1.154673 30.000000
2.252084 -1.859296 1.153448 35.000000
2.234843 -1.888843 1.152597 35.000000
2.200603 -1.902294 1.142120 29.000000
2.158415 -1.909629 1.128417 22.000000
2.147521 -1.944414 1.131038 33.000000
2.130345 -1.972067 1.129530 30.000000
2.118634 -2.006685 1.131912 34.000000
2.086331 -2.021879 1.123541 30.000000
2.078296 -2.058683 1.127215 43.000000
2.065457 -2.093046 1.129436 68.000000
2.022934 -2.097107 1.115442 27.000000
1.996688 -2.117417 1.110422 23.000000
1.976565 -2.144238 1.108872 31.000000
1.940527 -2.153482 1.098453 30.000000
1.935522 -2.197342 1.105644 34.000000
1.908398 -2.216434 1.100445 32.000000
1.888526 -2.241473 1.098194 32.000000
1.864169 -2.263538 1.094659 32.000000
1.836586 -2.281666 1.089287 24.000000
1.813257 -2.307668 1.087782 17.000000
1.793943 -2.336314 1.087520 25.000000
1.779911 -2.372314 1.090686 27.000000
1.740380 -2.374211 1.078230 32.000000
1.736522 -2.425046 1.088112 22.000000
1.678039 -2.399181 1.063652 10.000000
1.593838 -2.333350 1.022239 19.000000
1.521728 -2.281525 0.987976 24.000000
1.461223 -2.244102 0.960604 10.000000
1.233767 -1.943957 0.822636 10.000000
1.160859 -1.874328 0.784237 16.000000
1.087098 -1.799149 0.744445 21.000000
1.067838 -1.811875 0.741450 23.000000
1.056473 -1.841446 0.745354 26.000000
1.025178 -1.833276 0.734084 29.000000
0.962361 1.759421 0.717562 31.000000
0.977899 1.738933 0.716910 26.000000
0.996532 1.727158 0.719822 29.000000
1.012577 1.711079 0.721029 33.000000
1.016221 1.674783 0.713665 27.000000
1.051460 1.690539 0.728556 34.000000
1.058049 1.657497 0.722522 26.000000
1.083526 1.656551 0.730464 21.000000
1.093469 1.631924 0.728020 34.000000
1.110923 1.618817 0.730769 30.000000
1.122991 1.597855 0.729954 33.000000
1.140171 1.584430 0.732626 35.000000
1.157223 1.570749 0.735235 30.000000
1.174149 1.556942 0.737844 42.000000
1.193803 1.546579 0.742164 30.000000
1.213410 1.535958 0.746497 27.000000
1.215291 1.503353 0.740053 44.000000
1.243489 1.503208 0.749691 34.000000
1.250712 1.477665 0.746716 50.000000
1.275954 1.473294 0.754474 35.000000
1.291899 1.458050 0.756834 34.000000
1.295266 1.428810 0.751929 57.000000
1.325870 1.430978 0.763568 32.000000
1.344672 1.418564 0.767697 23.000000
1.340750 1.382443 0.758878 61.000000
1.365736 1.376299 0.766540 42.000000
1.383426 1.363781 0.770802 67.000000
1.408387 1.356931 0.778454 70.000000
1.419910 1.336853 0.778656 42.000000
1.427180 1.314159 0.777308 93.000000
1.441595 1.297065 0.779221 35.000000
1.472716 1.295605 0.790866 26.000000
1.487045 1.277985 0.792738 42.000000
1.500599 1.260687 0.794932 32.000000
1.510960 1.239805 0.794856 40.000000
1.534996 1.230850 0.802582 46.000000
1.545035 1.209580 0.802375 34.000000
1.572673 1.202836 0.811970 71.000000
1.585538 1.184419 0.813929 35.000000
1.598273 1.165872 0.815888 31.000000
1.618339 1.152489 0.821538 36.000000
1.638325 1.138799 0.827205 41.000000
1.658294 1.124800 0.832822 57.000000
1.674328 1.107877 0.836467 36.000000
1.694095 1.093167 0.842046 43.000000
1.705964 1.073296 0.843714 68.000000
1.713703 1.050815 0.843313 33.000000
1.737016 1.037748 0.850656 30.000000
1.743953 1.015334 0.850590 37.000000
1.763129 0.999359 0.855884 38.000000
1.774072 0.978546 0.857227 51.000000
1.816855 0.975420 0.874521 50.000000
1.835472 0.958626 0.880005 45.000000
1.862386 0.945256 0.889143 65.000000
1.876625 0.925677 0.892560 32.000000
1.898992 0.909766 0.899912 26.000000
1.925446 0.895435 0.909182 34.000000
1.930916 0.871058 0.908550 32.000000
1.952969 0.854070 0.915737 35.000000
1.970702 0.834855 0.920893 45.000000
1.979448 0.812101 0.922386 36.000000
2.001136 0.793999 0.929398 52.000000
2.009509 0.770884 0.930758 26.000000
2.039250 0.755524 0.941910 29.000000
2.060236 0.736506 0.949109 45.000000
2.081177 0.717041 0.956177 36.000000
2.110626 0.700089 0.967247 78.000000
2.118175 0.675593 0.968209 52.000000
2.134192 0.653633 0.973093 35.000000
2.154292 0.632837 0.980209 52.000000
2.165357 0.609105 0.983259 29.000000
2.198567 0.590991 0.995957 27.000000
2.231479 0.572337 1.008824 46.000000
2.255181 0.550973 1.018007 34.000000
2.274518 0.527930 1.024731 33.000000
2.311338 0.508591 1.039743 45.000000
2.325823 0.483553 1.044320 35.000000
2.357838 0.461906 1.057114 36.000000
2.367064 0.435578 1.060090 31.000000
2.385246 0.410456 1.066702 30.000000
2.416790 0.387193 1.079208 48.000000
2.461514 0.365317 1.098027 37.000000
2.478928 0.338703 1.104667 36.000000
2.504956 0.312909 1.115523 48.000000
2.512869 0.284449 1.117796 57.000000
2.538485 0.257731 1.128414 37.000000
2.541124 0.228441 1.128840 25.000000
2.620998 0.205132 1.163494 29.000000
2.641352 0.175990 1.171765 35.000000
2.674984 0.147269 1.186289 53.000000
2.694684 0.117215 1.194566 34.000000
2.746116 0.087670 1.216930 41.000000
2.774179 0.056499 1.229449 38.000000
2.792927 0.024613 1.237644 34.000000
2.824924 -0.007733 1.251918 35.000000
2.843019 -0.040526 1.259831 34.000000
2.883578 -0.074427 1.277867 53.000000
2.946572 -0.110131 1.306121 55.000000
2.954327 -0.144631 1.309974 34.000000
2.993621 -0.181177 1.327795 52.000000
3.055260 -0.220314 1.356030 36.000000
3.052602 -0.255585 1.355724 23.000000
3.099705 -0.295631 1.377566 35.000000
3.164582 -0.338676 1.407378 33.000000
3.187900 -0.378550 1.419082 34.000000
3.242680 -0.422873 1.444488 36.000000
3.305807 -0.469951 1.474124 34.000000
3.341151 -0.514310 1.491396 37.000000
3.389446 -0.561967 1.515041 32.000000
3.328973 -0.591552 1.490156 21.000000
3.291074 -0.623925 1.474700 31.000000
3.270578 -0.659188 1.467767 33.000000
3.236158 -0.691272 1.454914 30.000000
3.224080 -0.727552 1.451690 34.000000
3.202565 -0.761721 1.444670 33.000000
3.167571 -0.791811 1.431092 35.000000
3.149898 -0.826151 1.425884 32.000000
3.083039 -0.846938 1.398961 16.000000
3.073773 -0.882512 1.397470 29.000000
3.033352 -0.908667 1.381873 29.000000
3.001354 -0.936948 1.370723 28.000000
3.003862 -0.976055 1.375351 35.000000
2.966969 -1.001947 1.361915 30.000000
2.942938 -1.031787 1.354376 30.000000
2.935836 -1.067284 1.354705 31.000000
2.872670 -1.081756 1.329098 20.000000
2.869381 -1.118163 1.331229 31.000000
2.844015 -1.146392 1.323748 32.000000
2.810486 -1.170184 1.311816 30.000000
2.810094 -1.208304 1.316025 36.000000
2.771484 -1.229746 1.302457 31.000000
2.762067 -1.263783 1.302514 36.000000
2.739833 -1.291835 1.296662 33.000000
2.659478 -1.291475 1.263120 23.000000
2.682277 -1.340691 1.278710 35.000000
2.659073 -1.367920 1.273003 35.000000
2.623757 -1.387809 1.260947 32.000000
2.624877 -1.426818 1.266390 49.000000
2.580794 -1.441796 1.250772 34.000000
2.568723 -1.474359 1.250659 33.000000
2.560769 -1.508471 1.251990 33.000000
2.496707 -1.509769 1.226476 21.000000
2.499489 -1.550997 1.233925 35.000000
2.478464 -1.577726 1.229561 35.000000
2.453339 -1.601550 1.223278 35.000000
2.428032 -1.624999 1.217010 33.000000
2.402645 -1.647979 1.210566 29.000000
2.395881 -1.683869 1.213709 33.000000
2.388750 -1.719830 1.216731 34.000000
2.329065 -1.717354 1.192950 24.000000
2.317724 -1.749864 1.193886 25.000000
2.291430 -1.771037 1.187218 21.000000
2.278723 -1.803909 1.188520 24.000000
2.273661 -1.841919 1.193004 36.000000
2.231539 -1.851178 1.179004 31.000000
2.222270 -1.885867 1.181486 33.000000
2.187157 -1.900005 1.171207 34.000000
2.149509 -1.909781 1.158621 22.000000
2.141953 -1.947620 1.163144 32.000000
2.114398 -1.965864 1.156000 30.000000
2.095933 -1.994121 1.154911 29.000000
2.083769 -2.028558 1.157320 38.000000
2.045900 -2.035951 1.144571 29.000000
2.036381 -2.073383 1.148701 30.000000
2.019936 -2.104128 1.149124 33.000000
1.974490 -2.104193 1.132983 17.000000
1.968193 -2.143860 1.138306 32.000000
1.932192 -2.153165 1.127609 31.000000
1.923964 -2.193426 1.133250 30.000000
1.902928 -2.219604 1.131424 35.000000
1.872635 -2.234840 1.124287 28.000000
1.854231 -2.264092 1.124249 28.000000
1.826629 -2.282260 1.118730 29.000000
1.798820 -2.300072 1.113224 14.000000
1.788025 -2.339813 1.118285 27.000000
1.759753 -2.357118 1.112670 27.000000
1.753522 -2.404312 1.121074 29.000000
1.724701 -2.421170 1.115339 26.000000
1.658417 -2.383749 1.085019 10.000000
1.601084 -2.356724 1.060122 20.000000
1.490143 -2.246708 0.998810 15.000000
1.239615 -1.964788 0.853651 13.000000
1.152004 -1.871400 0.803946 13.000000
1.083564 -1.804414 0.766582 16.000000
1.059400 -1.809085 0.760097 25.000000
1.037604 -1.817522 0.755337 24.000000
1.016623 -1.830492 0.752554 25.000000
0.974322 1.744405 0.737908 20.000000
0.988380 1.724376 0.737484 29.000000
1.002134 1.704265 0.736967 21.000000
1.017939 1.688086 0.738176 27.000000
1.036055 1.675816 0.741067 24.000000
1.058985 1.671126 0.747492 16.000000
1.078090 1.657766 0.750074 23.000000
1.085541 1.629174 0.745794 22.000000
1.108324 1.623782 0.752180 25.000000
1.115165 1.595119 0.747770 32.000000
1.137711 1.589280 0.754041 22.000000
1.160358 1.583118 0.760339 32.000000
1.166322 1.554206 0.755787 30.000000
1.191632 1.551224 0.763852 22.000000
1.208423 1.536932 0.766415 29.000000
1.222169 1.518760 0.767148 24.000000
1.238600 1.504055 0.769641 32.000000
1.254072 1.489734 0.772455 35.000000
1.267279 1.471189 0.773035 28.000000
1.289429 1.462912 0.779169 46.000000
1.299170 1.440511 0.777818 33.000000
1.318070 1.428293 0.782045 28.000000
1.336084 1.416385 0.786475 32.000000
1.354811 1.403633 0.790660 27.000000
1.360464 1.377430 0.787194 32.000000
1.368237 1.355098 0.785903 37.000000
1.393193 1.348311 0.793745 32.000000
1.401305 1.325204 0.791992 35.000000
1.425421 1.318268 0.800061 32.000000
1.433112 1.294897 0.798292 29.000000
1.467593 1.296533 0.812015 32.000000
1.474965 1.272774 0.810117 29.000000
1.502596 1.267418 0.820006 37.000000
1.508999 1.243934 0.818356 33.000000
1.515661 1.219972 0.816234 30.000000
1.535913 1.207898 0.822173 34.000000
1.556223 1.195460 0.828131 29.000000
1.565346 1.174431 0.828133 28.000000
1.592843 1.166894 0.837891 30.000000
1.605412 1.148107 0.839789 28.000000
1.629162 1.137085 0.847507 36.000000
1.649089 1.123078 0.853219 37.000000
1.653618 1.098523 0.851067 32.000000
1.688682 1.093931 0.864625 37.000000
1.700578 1.074014 0.866296 34.000000
1.716183 1.056304 0.869881 33.000000
1.735240 1.041130 0.875728 29.000000
1.738691 1.015911 0.873231 29.000000
1.777372 1.011626 0.888992 35.000000
1.792474 0.992750 0.892349 34.000000
1.807080 0.974053 0.896055 34.000000
1.821939 0.954714 0.899356 35.000000
1.828066 0.931396 0.898926 29.000000
1.854458 0.918194 0.908469 29.000000
1.889068 0.908369 0.921996 24.000000
1.903068 0.888150 0.925410 27.000000
1.929332 0.873424 0.934817 33.000000
1.942703 0.852937 0.938464 31.000000
1.956113 0.831928 0.941693 28.000000
1.977874 0.814158 0.948911 31.000000
1.995004 0.794617 0.954329 29.000000
1.999204 0.769739 0.953658 26.000000
2.041676 0.759214 0.971235 29.000000
2.054052 0.736956 0.974438 27.000000
2.066316 0.714524 0.977573 29.000000
2.078320 0.691846 0.980640 28.000000
2.111863 0.675873 0.993936 32.000000
2.118982 0.651401 0.995122 30.000000
2.143526 0.631790 1.004135 29.000000
2.141478 0.604415 1.001079 23.000000
2.191896 0.591345 1.022505 26.000000
2.207031 0.568161 1.027527 25.000000
2.243964 0.550199 1.042995 30.000000
2.249843 0.524051 1.043692 26.000000
2.299820 0.507802 1.065224 24.000000
2.318561 0.483850 1.072278 26.000000
2.337124 0.459588 1.079182 25.000000
2.333036 0.430722 1.075691 12.000000
2.391489 0.412909 1.100955 30.000000
2.418275 0.388789 1.112104 24.000000
2.440307 0.363478 1.120952 27.000000
2.480186 0.340057 1.138084 33.000000
2.479279 0.310706 1.136434 26.000000
2.514030 0.285568 1.151518 28.000000
2.544161 0.259236 1.164459 29.000000
2.524076 0.227692 1.154524 9.000000
2.599029 0.204068 1.187950 25.000000
2.628453 0.175725 1.200478 25.000000
2.666472 0.147341 1.217423 23.000000
2.695175 0.117630 1.230138 26.000000
2.723541 0.087196 1.242676 24.000000
2.747013 0.056127 1.253326 24.000000
2.779222 0.024613 1.268037 32.000000
2.802059 -0.007708 1.278414 30.000000
2.856453 -0.040917 1.303223 32.000000
2.887711 -0.074802 1.317458 33.000000
2.900283 -0.108741 1.323585 29.000000
2.939814 -0.144434 1.342059 33.000000
2.992630 -0.181704 1.366649 30.000000
3.026720 -0.219022 1.383138 29.000000
3.060345 -0.257183 1.399418 27.000000
3.093593 -0.296082 1.415587 26.000000
3.144552 -0.337765 1.439822 32.000000
3.181406 -0.378984 1.457715 29.000000
3.235668 -0.423509 1.484195 28.000000
3.293939 -0.470037 1.512506 32.000000
3.342684 -0.516413 1.536542 29.000000
3.345884 -0.556567 1.539654 26.000000
3.317105 -0.591449 1.528644 23.000000
3.256649 -0.619738 1.502966 24.000000
3.258690 -0.659201 1.506204 29.000000
3.233522 -0.693143 1.496843 28.000000
3.190332 -0.722536 1.479034 25.000000
3.186547 -0.760624 1.480217 29.000000
