x y z intensity
2.598485 -0.738439 -0.487378 16.000000
2.590275 -0.767005 -0.486876 11.000000
2.581898 -0.795236 -0.486289 10.000000
2.601224 -0.832635 -0.491011 16.000000
2.610674 -0.867381 -0.494038 10.000000
2.615166 -0.900593 -0.495918 10.000000
2.605218 -0.929235 -0.495317 11.000000
2.576544 -0.950974 -0.491196 10.000000
2.598262 -0.991526 -0.496668 15.000000
2.614789 -1.030808 -0.501246 10.000000
2.621700 -1.066807 -0.504055 10.000000
2.619109 -1.099308 -0.505016 13.000000
2.620602 -1.133786 -0.506845 10.000000
2.603715 -1.160456 -0.505176 10.000000
2.635563 -1.209798 -0.513182 10.000000
2.626714 -1.240660 -0.513243 10.000000
2.635355 -1.280136 -0.516685 14.000000
2.630185 -1.313225 -0.517419 10.000000
2.655041 -1.362612 -0.524480 10.000000
2.661937 -1.403036 -0.527782 14.000000
2.642316 -1.429688 -0.525894 9.000000
2.630798 -1.461306 -0.525824 9.000000
2.627694 -1.497337 -0.527375 9.000000
2.640880 -1.543782 -0.532440 9.000000
2.666364 -1.597912 -0.539859 13.000000
2.636055 -1.619637 -0.536334 9.000000
2.651779 -1.669286 -0.541904 10.000000
2.649805 -1.709375 -0.544238 10.000000
2.676574 -1.768059 -0.552301 10.000000
2.669249 -1.805945 -0.553748 9.000000
2.669445 -1.849616 -0.556876 10.000000
2.665516 -1.889878 -0.558840 10.000000
2.680474 -1.945576 -0.565195 14.000000
2.687259 -1.995060 -0.569632 10.000000
2.688637 -2.042792 -0.573307 12.000000
2.685521 -2.087709 -0.576123 16.000000
2.608958 -2.073819 -0.562989 13.000000
2.524850 -2.052933 -0.548254 10.000000
2.403523 -1.998953 -0.525399 10.000000
2.333298 -1.983266 -0.513110 10.000000
2.259208 -1.963840 -0.500338 19.000000
2.185927 -1.943067 -0.487441 13.000000
2.095745 -1.903494 -0.470421 16.000000
2.038579 -1.893138 -0.461021 24.000000
1.971160 -1.871530 -0.449134 21.000000
1.964637 -1.907135 -0.451124 24.000000
1.926880 -1.910767 -0.445549 30.000000
1.902350 -1.928570 -0.443482 30.000000
1.874219 -1.942494 -0.440531 33.000000
1.846078 -1.956099 -0.437590 26.000000
1.838768 -1.990225 -0.439294 32.000000
1.823439 -2.017906 -0.439549 30.000000
1.807781 -2.045398 -0.439710 26.000000
1.801478 -2.084071 -0.442323 28.000000
1.766839 -2.088067 -0.437546 20.000000
1.756436 -2.122726 -0.439173 21.000000
1.739319 -2.149817 -0.439294 24.000000
1.724926 -2.180663 -0.440187 22.000000
1.713043 -2.215276 -0.441758 25.000000
1.698884 -2.245088 -0.442355 26.000000
1.677208 -2.267847 -0.441563 22.000000
1.675527 -2.318350 -0.446071 20.000000
1.635833 -2.316635 -0.440642 12.000000
1.632879 -2.367217 -0.445096 21.000000
1.626275 -2.413933 -0.448742 26.000000
1.595763 -2.422754 -0.445427 19.000000
1.582527 -2.461096 -0.447415 21.000000
1.576630 -2.512024 -0.451721 22.000000
1.564563 -2.554713 -0.454482 19.000000
1.541616 -2.580493 -0.454126 17.000000
1.528254 -2.623197 -0.456734 7.000000
0.790967 1.372266 -0.226318 6.000000
0.788279 1.333555 -0.222227 10.000000
0.815622 1.345881 -0.226651 15.000000
0.809389 1.303082 -0.221800 19.000000
0.844008 1.327927 -0.228446 14.000000
0.866567 1.330953 -0.231483 26.000000
0.881065 1.321206 -0.232316 19.000000
0.895465 1.311361 -0.233197 21.000000
0.912553 1.305423 -0.234759 26.000000
0.900849 1.259049 -0.229009 10.000000
0.929166 1.268924 -0.233444 23.000000
0.942267 1.259025 -0.234366 20.000000
0.965018 1.260274 -0.237361 22.000000
0.984831 1.257283 -0.239628 31.000000
1.001574 1.250200 -0.241161 22.000000
1.021486 1.246626 -0.243445 22.000000
1.035066 1.235234 -0.244241 22.000000
1.060757 1.239212 -0.248094 10.000000
1.067742 1.219940 -0.247391 32.000000
1.081055 1.208029 -0.248142 27.000000
1.097553 1.199613 -0.249652 24.000000
1.113982 1.190922 -0.251115 29.000000
1.133296 1.186134 -0.253499 25.000000
1.153119 1.180538 -0.255739 29.000000
1.172996 1.174688 -0.257988 31.000000
1.199930 1.175391 -0.261786 17.000000
1.201581 1.152215 -0.260247 35.000000
1.224988 1.148932 -0.263290 32.000000
1.244822 1.141913 -0.265518 31.000000
1.264595 1.134629 -0.267753 36.000000
1.276615 1.120929 -0.268540 28.000000
1.311325 1.125954 -0.273865 41.000000
1.323608 1.111320 -0.274559 33.000000
1.358630 1.115325 -0.279918 24.000000
1.370472 1.100604 -0.280678 34.000000
1.378593 1.082236 -0.280486 32.000000
1.409985 1.081879 -0.285095 33.000000
1.417518 1.063590 -0.285015 35.000000
1.464958 1.074082 -0.292778 29.000000
1.496758 1.072113 -0.297382 32.000000
1.520271 1.064270 -0.300463 30.000000
1.531918 1.047345 -0.301094 17.000000
1.538944 1.027908 -0.300980 46.000000
1.570828 1.024219 -0.305573 31.000000
1.594450 1.014655 -0.308511 31.000000
1.626218 1.010318 -0.313249 51.000000
1.637230 0.992202 -0.313782 29.000000
1.681803 0.994411 -0.320916 32.000000
1.709717 0.985535 -0.324707 35.000000
1.737417 0.976526 -0.328571 21.000000
1.752409 0.959601 -0.329878 34.000000
1.793070 0.956698 -0.336208 49.000000
1.821016 0.945864 -0.339980 34.000000
1.844314 0.932610 -0.343072 49.000000
1.867564 0.918939 -0.346107 34.000000
1.881929 0.900334 -0.347379 29.000000
1.945274 0.904701 -0.357832 34.000000
1.945910 0.879267 -0.356781 16.000000
2.005100 0.879518 -0.366251 32.000000
2.055352 0.874881 -0.374228 35.000000
2.082915 0.859873 -0.378091 28.000000
2.110431 0.844398 -0.381892 31.000000
2.151689 0.833654 -0.388262 35.000000
2.197476 0.823936 -0.395408 29.000000
2.229513 0.808150 -0.400002 33.000000
2.238174 0.783709 -0.400515 10.000000
2.307258 0.779639 -0.411792 32.000000
2.362423 0.769504 -0.420590 40.000000
2.417689 0.758341 -0.429327 32.000000
2.454083 0.740454 -0.434894 29.000000
2.485611 0.720337 -0.439476 30.000000
2.479054 0.689060 -0.437283 25.000000
2.491145 0.663167 -0.438600 26.000000
2.488615 0.633442 -0.437320 16.000000
2.500161 0.607338 -0.438558 36.000000
2.516217 0.582160 -0.440558 85.000000
2.517560 0.553517 -0.440116 88.000000
2.518561 0.524820 -0.439514 75.000000
2.519301 0.496228 -0.438990 82.000000
2.524548 0.468642 -0.439308 75.000000
2.514911 0.438438 -0.437015 32.000000
2.470857 0.402921 -0.428811 8.000000
2.509226 0.380969 -0.434956 9.000000
2.493636 0.350720 -0.431811 9.000000
2.511962 0.325328 -0.434582 9.000000
2.490866 0.294825 -0.430509 9.000000
2.513572 0.269588 -0.434049 12.000000
2.521216 0.242506 -0.434974 30.000000
2.538456 0.216153 -0.437670 83.000000
2.511179 0.186120 -0.432747 9.000000
2.498297 0.157665 -0.430284 9.000000
2.514610 0.131072 -0.432903 9.000000
2.520859 0.103672 -0.433750 9.000000
2.526722 0.076164 -0.434675 9.000000
2.497866 0.047887 -0.429592 9.000000
2.542601 0.020865 -0.437217 9.000000
2.434271 -0.006709 -0.418576 9.000000
2.503026 -0.034339 -0.430361 8.000000
2.487704 -0.061414 -0.427820 8.000000
2.496783 -0.088966 -0.429359 9.000000
2.510390 -0.117041 -0.431822 8.000000
2.538507 -0.146290 -0.436824 10.000000
2.595769 -0.178132 -0.446821 36.000000
2.539639 -0.202269 -0.437355 10.000000
2.591338 -0.234932 -0.446499 89.000000
2.578793 -0.262374 -0.444567 36.000000
2.575824 -0.290626 -0.444406 36.000000
2.582314 -0.320010 -0.445935 32.000000
2.549386 -0.344331 -0.440629 10.000000
2.550359 -0.372922 -0.441154 9.000000
2.575420 -0.405452 -0.445972 8.000000
2.536801 -0.427964 -0.439752 6.000000
2.575677 -0.463539 -0.447010 9.000000
2.614142 -0.499988 -0.454175 23.000000
2.647184 -0.536494 -0.460652 69.000000
2.645983 -0.566542 -0.461074 77.000000
2.644508 -0.596527 -0.461578 37.000000
2.642674 -0.626618 -0.461997 53.000000
2.640564 -0.656645 -0.462330 35.000000
2.614238 -0.680568 -0.458478 10.000000
2.630497 -0.715552 -0.462155 21.000000
2.617822 -0.743064 -0.460898 14.000000
2.623750 -0.775896 -0.462980 18.000000
2.638843 -0.811768 -0.466553 20.000000
2.629871 -0.840649 -0.465955 13.000000
2.667352 -0.884972 -0.473753 19.000000
2.662274 -0.915712 -0.473975 12.000000
2.605719 -0.928352 -0.465075 8.000000
2.660305 -0.980736 -0.476067 22.000000
2.626474 -1.000996 -0.471318 15.000000
2.656724 -1.045957 -0.478053 19.000000
2.659034 -1.080504 -0.479820 18.000000
2.651682 -1.111450 -0.479932 14.000000
2.675714 -1.156010 -0.485706 18.000000
2.694449 -1.199632 -0.490821 14.000000
2.631988 -1.206406 -0.480986 8.000000
2.676819 -1.262421 -0.490814 21.000000
2.662811 -1.291901 -0.490082 10.000000
2.701686 -1.347341 -0.498950 17.000000
2.700197 -1.383506 -0.500457 16.000000
2.680535 -1.411049 -0.498894 10.000000
2.708577 -1.463547 -0.505972 18.000000
2.692295 -1.493540 -0.505115 10.000000
2.676108 -1.522771 -0.504067 8.000000
2.680468 -1.564822 -0.507243 13.000000
2.688983 -1.609010 -0.510918 10.000000
2.692187 -1.651660 -0.514062 21.000000
2.703468 -1.699244 -0.518500 17.000000
2.726205 -1.755883 -0.525411 12.000000
2.727356 -1.799651 -0.528400 20.000000
2.724222 -1.840097 -0.530272 10.000000
2.736377 -1.892745 -0.535510 9.000000
2.727999 -1.930921 -0.536551 21.000000
2.762587 -2.001639 -0.546486 20.000000
2.768207 -2.052697 -0.550851 24.000000
2.769766 -2.100527 -0.554082 28.000000
2.734751 -2.122061 -0.550437 24.000000
2.645574 -2.100135 -0.535836 27.000000
2.561672 -2.078734 -0.521773 22.000000
2.546339 -2.113379 -0.522108 13.000000
2.379836 -2.020035 -0.491243 26.000000
2.282860 -1.981697 -0.474483 24.000000
2.206320 -1.956902 -0.461396 28.000000
2.115112 -1.918259 -0.445565 26.000000
2.068586 -1.918116 -0.438949 23.000000
1.997214 -1.893355 -0.426997 34.000000
1.948759 -1.887187 -0.419524 29.000000
1.934923 -1.915670 -0.419875 28.000000
1.899927 -1.922963 -0.415575 68.000000
1.858202 -1.922591 -0.409778 37.000000
1.851400 -1.956681 -0.411394 71.000000
1.839934 -1.988022 -0.412405 47.000000
1.828063 -2.019251 -0.413401 36.000000
1.809144 -2.043131 -0.412804 56.000000
1.780182 -2.055534 -0.409966 31.000000
1.780996 -2.100734 -0.413653 24.000000
1.745339 -2.105140 -0.409333 32.000000
1.740904 -2.147342 -0.412409 28.000000
1.732723 -2.185913 -0.414635 33.000000
1.705769 -2.201023 -0.412525 26.000000
1.696564 -2.239551 -0.414716 30.000000
1.682000 -2.269241 -0.415251 32.000000
1.651364 -2.279699 -0.412233 24.000000
1.646455 -2.326113 -0.415811 20.000000
1.626595 -2.352358 -0.415667 28.000000
1.611832 -2.386665 -0.417034 27.000000
1.596621 -2.420952 -0.418290 29.000000
1.578102 -2.450961 -0.418814 25.000000
1.555394 -2.471597 -0.417725 26.000000
1.551700 -2.526665 -0.422360 29.000000
1.529094 -2.552251 -0.422120 21.000000
1.538590 -2.633152 -0.430869 9.000000
0.776339 1.342916 -0.207422 7.000000
0.787570 1.330485 -0.207664 11.000000
0.796901 1.313158 -0.207137 22.000000
0.816467 1.312679 -0.209235 21.000000
0.844014 1.324477 -0.213410 25.000000
0.847597 1.298451 -0.211529 23.000000
0.861734 1.288995 -0.212293 26.000000
0.898110 1.312095 -0.218503 26.000000
0.906679 1.293942 -0.217920 21.000000
0.905596 1.264222 -0.215367 15.000000
0.925203 1.262148 -0.217462 24.000000
0.944887 1.259753 -0.219615 27.000000
0.961585 1.253152 -0.221036 32.000000
0.981329 1.250233 -0.223156 27.000000
0.997996 1.243171 -0.224588 32.000000
1.014649 1.235893 -0.226025 28.000000
1.030693 1.228892 -0.227565 25.000000
1.044091 1.217422 -0.228257 20.000000
1.060604 1.209526 -0.229656 32.000000
1.083657 1.208779 -0.232527 31.000000
1.096820 1.196718 -0.233177 33.000000
1.119984 1.195339 -0.236017 31.000000
1.142774 1.194044 -0.238972 33.000000
1.159230 1.184840 -0.240352 31.000000
1.172163 1.171958 -0.241016 31.000000
1.181405 1.155464 -0.240959 17.000000
1.197568 1.145684 -0.242345 33.000000
1.224075 1.146329 -0.245963 61.000000
1.240189 1.136014 -0.247363 37.000000
1.256272 1.125514 -0.248715 36.000000
1.287152 1.127816 -0.252996 52.000000
1.306593 1.120369 -0.255201 34.000000
1.330175 1.115353 -0.257991 33.000000
1.342333 1.100517 -0.258633 22.000000
1.358189 1.088667 -0.259961 30.000000
1.381410 1.083103 -0.262881 44.000000
1.397143 1.070727 -0.264164 33.000000
1.420695 1.064083 -0.266993 33.000000
1.451923 1.063296 -0.271378 42.000000
1.479614 1.058640 -0.274922 35.000000
1.515437 1.059180 -0.279975 33.000000
1.522882 1.039501 -0.279796 26.000000
1.538093 1.025681 -0.281173 35.000000
1.561648 1.016708 -0.284004 43.000000
1.584976 1.007635 -0.286902 34.000000
1.625334 1.008305 -0.292718 34.000000
1.649002 0.997911 -0.295464 35.000000
1.680932 0.992503 -0.299915 35.000000
1.696003 0.976344 -0.301157 35.000000
1.719324 0.965110 -0.304048 30.000000
1.729796 0.945993 -0.304535 33.000000
1.774787 0.945709 -0.311199 55.000000
1.802578 0.935123 -0.314760 37.000000
1.834599 0.926631 -0.319160 36.000000
1.853497 0.910676 -0.321141 35.000000
1.881086 0.898914 -0.324729 46.000000
1.899770 0.882277 -0.326721 32.000000
1.972257 0.889955 -0.338044 29.000000
1.995320 0.874315 -0.340898 33.000000
2.036562 0.865771 -0.346719 32.000000
2.073190 0.854783 -0.351847 35.000000
2.100681 0.839462 -0.355506 32.000000
2.132657 0.825312 -0.359811 31.000000
2.183259 0.817372 -0.367238 41.000000
2.201262 0.796823 -0.369228 29.000000
2.251681 0.787337 -0.376680 36.000000
2.306875 0.778437 -0.384931 42.000000
2.343402 0.762327 -0.390072 36.000000
2.379825 0.745525 -0.395148 36.000000
2.434966 0.733806 -0.403444 40.000000
2.480771 0.718072 -0.410110 29.000000
2.512222 0.697463 -0.414434 33.000000
2.529178 0.672528 -0.416408 43.000000
2.526724 0.642356 -0.415159 55.000000
2.543169 0.617050 -0.417136 93.000000
2.544828 0.588119 -0.416671 78.000000
2.541479 0.558072 -0.415418 61.000000
2.552182 0.531255 -0.416528 94.000000
2.538445 0.499485 -0.413613 31.000000
2.538867 0.470761 -0.413063 10.000000
2.490312 0.433672 -0.404687 8.000000
2.538698 0.413550 -0.412040 9.000000
2.528427 0.383505 -0.409904 9.000000
2.532458 0.355761 -0.410062 9.000000
2.550782 0.329997 -0.412596 18.000000
2.559183 0.302594 -0.413627 34.000000
2.577015 0.276134 -0.416084 90.000000
2.579899 0.247936 -0.416245 95.000000
2.557788 0.217566 -0.412439 32.000000
2.594471 0.192109 -0.417991 62.000000
2.561914 0.161548 -0.412598 21.000000
2.568510 0.133716 -0.413391 9.000000
2.569782 0.105574 -0.413471 9.000000
2.555933 0.076985 -0.411169 9.000000
2.576387 0.049384 -0.414264 9.000000
2.571849 0.021147 -0.413550 9.000000
2.537373 -0.006902 -0.407994 8.000000
2.547010 -0.034880 -0.409503 9.000000
2.541602 -0.062630 -0.408630 8.000000
2.550605 -0.090800 -0.410138 9.000000
2.554432 -0.118956 -0.410853 9.000000
2.577572 -0.148355 -0.414739 9.000000
2.590672 -0.177538 -0.416957 10.000000
2.608270 -0.207436 -0.419966 35.000000
2.600927 -0.235538 -0.419093 26.000000
2.573625 -0.261536 -0.414892 10.000000
2.565761 -0.289128 -0.413941 9.000000
2.572289 -0.318432 -0.415283 9.000000
2.578469 -0.347790 -0.416624 9.000000
2.598955 -0.379582 -0.420333 8.000000
2.614243 -0.411062 -0.423248 8.000000
2.619318 -0.441328 -0.424581 8.000000
2.609534 -0.469023 -0.423382 8.000000
2.623688 -0.501326 -0.426288 9.000000
2.685910 -0.543686 -0.436981 36.000000
2.694298 -0.576170 -0.439003 63.000000
2.692729 -0.606630 -0.439363 65.000000
2.681186 -0.634919 -0.438151 42.000000
2.693374 -0.668884 -0.440863 35.000000
2.666796 -0.693413 -0.437385 31.000000
2.649603 -0.719858 -0.435308 18.000000
2.655881 -0.752913 -0.437230 20.000000
2.661816 -0.786196 -0.439062 19.000000
2.686202 -0.825248 -0.443924 17.000000
2.691200 -0.859100 -0.445740 18.000000
2.672397 -0.885406 -0.443660 11.000000
2.690683 -0.924170 -0.447803 10.000000
2.671181 -0.950215 -0.445635 14.000000
2.693207 -0.991324 -0.450449 18.000000
2.700680 -1.027963 -0.453014 21.000000
2.689343 -1.057420 -0.452390 18.000000
2.696138 -1.094129 -0.454764 21.000000
2.706880 -1.133056 -0.457990 20.000000
2.703444 -1.166791 -0.458895 16.000000
2.708679 -1.204193 -0.461243 11.000000
2.736021 -1.252178 -0.467325 15.000000
2.722082 -1.282286 -0.466674 17.000000
2.734824 -1.324761 -0.470428 18.000000
2.720185 -1.354884 -0.469677 16.000000
2.731752 -1.397951 -0.473312 19.000000
2.746925 -1.444086 -0.477880 21.000000
2.744257 -1.480928 -0.479200 18.000000
2.753828 -1.525627 -0.482979 13.000000
2.737206 -1.555467 -0.482007 10.000000
2.732812 -1.593066 -0.483398 12.000000
2.741084 -1.637869 -0.486846 18.000000
2.752452 -1.686106 -0.491225 18.000000
2.771398 -1.740154 -0.496985 17.000000
2.785873 -1.791547 -0.501866 21.000000
2.766040 -1.822217 -0.500844 13.000000
2.779204 -1.874183 -0.505583 15.000000
2.778752 -1.918957 -0.508269 13.000000
2.814120 -1.989560 -0.517517 26.000000
2.820147 -2.040908 -0.521533 27.000000
2.810049 -2.080027 -0.522461 30.000000
2.826492 -2.140957 -0.528647 35.000000
2.791132 -2.163049 -0.525128 34.000000
2.698147 -2.137723 -0.510509 36.000000
2.624614 -2.126976 -0.499723 32.000000
2.460155 -2.039154 -0.471469 18.000000
2.384851 -2.021578 -0.460094 26.000000
2.318378 -2.008169 -0.450034 30.000000
2.244297 -1.987790 -0.438669 30.000000
2.149036 -1.946150 -0.423119 30.000000
2.087639 -1.932869 -0.414036 32.000000
2.013184 -1.904065 -0.401953 32.000000
1.970819 -1.905643 -0.396548 30.000000
1.907619 -1.885620 -0.386800 35.000000
1.893823 -1.913579 -0.387065 71.000000
1.865937 -1.927385 -0.384485 72.000000
1.835294 -1.936373 -0.381123 61.000000
1.817441 -1.960153 -0.380594 61.000000
1.802504 -1.987427 -0.380846 58.000000
1.803752 -2.033200 -0.384508 57.000000
1.781385 -2.053054 -0.383251 36.000000
1.749240 -2.061247 -0.379907 26.000000
1.752975 -2.110130 -0.384037 36.000000
1.723568 -2.121632 -0.381387 34.000000
1.706482 -2.148339 -0.381416 34.000000
1.704246 -2.194402 -0.384951 35.000000
1.692172 -2.228929 -0.386317 35.000000
1.670726 -2.251442 -0.385619 32.000000
1.660567 -2.289803 -0.387544 32.000000
1.631135 -2.299060 -0.384624 21.000000
1.622890 -2.341377 -0.387276 32.000000
1.611160 -2.379703 -0.389139 32.000000
1.587874 -2.401448 -0.388303 35.000000
1.574982 -2.439729 -0.390124 31.000000
1.553620 -2.465372 -0.389930 31.000000
1.542192 -2.507750 -0.392368 32.000000
1.532488 -2.554452 -0.395433 27.000000
1.528816 -2.608807 -0.399586 10.000000
0.780544 1.348260 -0.194190 7.000000
0.782543 1.318257 -0.191805 10.000000
0.794297 1.305297 -0.191936 23.000000
0.813740 1.304832 -0.193939 19.000000
0.833273 1.304158 -0.195905 22.000000
0.852078 1.303702 -0.197975 27.000000
0.863501 1.290093 -0.198061 20.000000
0.891512 1.300900 -0.201953 26.000000
0.911377 1.299121 -0.203955 20.000000
0.902351 1.256788 -0.199570 14.000000
0.904224 1.230759 -0.197670 24.000000
0.938425 1.248493 -0.202883 23.000000
0.961046 1.249854 -0.205495 28.000000
0.977697 1.243076 -0.206822 24.000000
0.999912 1.244301 -0.209554 22.000000
1.013423 1.233197 -0.210241 27.000000
1.039593 1.237125 -0.213549 29.000000
1.043333 1.214306 -0.212225 21.000000
1.056542 1.202724 -0.212866 32.000000
1.072914 1.194681 -0.214217 29.000000
1.092619 1.190067 -0.216186 31.000000
1.115224 1.189221 -0.218878 30.000000
1.138464 1.187603 -0.221533 31.000000
1.154850 1.178477 -0.222810 32.000000
1.171212 1.169122 -0.224141 30.000000
1.180357 1.152665 -0.224080 21.000000
1.192908 1.139555 -0.224690 34.000000
1.215754 1.136902 -0.227380 49.000000
1.235472 1.130053 -0.229353 54.000000
1.255182 1.122940 -0.231281 34.000000
1.271101 1.112246 -0.232533 35.000000
1.298277 1.111027 -0.235840 37.000000
1.336597 1.119282 -0.241323 37.000000
1.348789 1.104404 -0.241860 21.000000
1.353088 1.083229 -0.241074 35.000000
1.376590 1.077378 -0.243679 35.000000
1.395873 1.068478 -0.245709 38.000000
1.427344 1.067816 -0.249719 36.000000
1.450981 1.060707 -0.252354 41.000000
1.478617 1.056155 -0.255639 52.000000
1.510115 1.054310 -0.259746 33.000000
1.513400 1.031930 -0.258858 23.000000
1.541118 1.026137 -0.262170 41.000000
1.556168 1.012115 -0.263500 43.000000
1.579749 1.002794 -0.266070 48.000000
1.620048 1.003564 -0.271526 44.000000
1.651918 0.998744 -0.275587 44.000000
1.684126 0.993045 -0.279603 37.000000
1.686273 0.969427 -0.278667 35.000000
1.700965 0.953497 -0.279977 28.000000
1.724336 0.941797 -0.282533 62.000000
1.756174 0.934643 -0.286643 47.000000
1.797051 0.931196 -0.292072 44.000000
1.829254 0.922429 -0.296084 54.000000
1.852435 0.909070 -0.298739 37.000000
1.889029 0.901366 -0.303489 48.000000
1.898646 0.880777 -0.304005 34.000000
1.966843 0.886224 -0.313748 23.000000
1.989889 0.870752 -0.316375 36.000000
2.012794 0.854851 -0.319009 33.000000
2.063206 0.849548 -0.325918 36.000000
2.104455 0.839881 -0.331466 35.000000
2.131858 0.824023 -0.334784 34.000000
2.168542 0.810945 -0.339489 36.000000
2.195791 0.793965 -0.342822 32.000000
2.255661 0.787852 -0.351254 30.000000
2.292187 0.772718 -0.356065 37.000000
2.338029 0.759879 -0.362269 39.000000
2.374468 0.743110 -0.367027 37.000000
2.439209 0.734199 -0.376176 51.000000
2.480328 0.717097 -0.381687 36.000000
2.521338 0.699188 -0.387128 69.000000
2.557365 0.679362 -0.391927 85.000000
2.569424 0.652498 -0.392987 46.000000
2.561956 0.620868 -0.391113 68.000000
2.573362 0.594003 -0.392173 66.000000
2.574806 0.564832 -0.391763 62.000000
2.580743 0.536611 -0.392089 68.000000
2.576731 0.506482 -0.390861 35.000000
2.557765 0.473782 -0.387421 10.000000
2.552997 0.444076 -0.386108 9.000000
2.586920 0.420937 -0.390771 9.000000
2.586479 0.391891 -0.390196 26.000000
2.610184 0.366307 -0.393390 54.000000
2.594389 0.335226 -0.390599 81.000000
2.583127 0.305153 -0.388545 70.000000
2.601089 0.278481 -0.390922 71.000000
2.633448 0.252822 -0.395438 81.000000
2.626206 0.223168 -0.394122 41.000000
2.608757 0.192999 -0.391245 33.000000
2.620565 0.165046 -0.392805 62.000000
2.617247 0.136107 -0.392146 19.000000
2.588897 0.106262 -0.387707 9.000000
2.599822 0.078255 -0.389267 9.000000
2.600544 0.049842 -0.389267 9.000000
2.600945 0.021349 -0.389267 9.000000
2.556521 -0.006942 -0.382607 8.000000
2.571118 -0.035150 -0.384747 9.000000
2.595280 -0.063847 -0.388367 8.000000
2.574711 -0.091503 -0.385328 9.000000
2.598217 -0.120793 -0.388946 9.000000
2.611582 -0.150057 -0.391084 10.000000
2.644341 -0.180995 -0.396095 19.000000
2.583060 -0.205167 -0.387147 8.000000
2.610211 -0.236064 -0.391418 9.000000
2.612462 -0.265111 -0.391995 8.000000
2.629040 -0.295925 -0.394785 8.000000
2.640416 -0.326481 -0.396752 9.000000
2.617118 -0.352572 -0.393558 8.000000
2.632782 -0.384028 -0.396259 8.000000
2.647973 -0.415912 -0.399040 8.000000
2.657973 -0.447237 -0.400916 7.000000
2.686974 -0.482461 -0.405813 8.000000
2.681583 -0.511772 -0.405476 9.000000
2.700178 -0.545985 -0.408894 21.000000
2.727916 -0.582623 -0.413602 65.000000
2.716636 -0.611314 -0.412525 41.000000
2.748356 -0.649973 -0.417952 62.000000
2.755613 -0.683604 -0.419797 47.000000
2.690544 -0.698813 -0.410678 24.000000
2.697147 -0.731941 -0.412353 25.000000
2.698562 -0.764121 -0.413380 19.000000
2.709148 -0.799135 -0.415860 16.000000
2.714448 -0.833025 -0.417607 16.000000
2.714678 -0.865723 -0.418535 15.000000
2.719275 -0.899917 -0.420185 14.000000
2.746815 -0.942356 -0.425453 16.000000
2.699131 -0.959022 -0.419125 10.000000
2.739697 -1.007221 -0.426457 22.000000
2.728534 -1.037290 -0.425917 20.000000
2.735612 -1.074232 -0.428170 16.000000
2.755928 -1.116971 -0.432574 21.000000
2.752678 -1.151051 -0.433461 18.000000
2.767337 -1.192706 -0.437031 20.000000
2.767895 -1.228744 -0.438437 17.000000
2.740853 -1.253014 -0.435637 10.000000
2.754062 -1.295389 -0.439178 20.000000
2.779797 -1.345005 -0.444939 20.000000
2.773997 -1.379500 -0.445505 17.000000
2.776437 -1.418980 -0.447679 21.000000
2.773818 -1.456452 -0.449038 18.000000
2.806003 -1.512323 -0.455957 20.000000
2.784868 -1.540782 -0.454464 16.000000
2.763884 -1.568362 -0.452778 9.000000
2.789325 -1.623732 -0.459034 19.000000
2.818175 -1.682286 -0.465868 19.000000
2.812634 -1.720486 -0.466960 17.000000
2.822994 -1.769891 -0.470944 20.000000
2.815876 -1.808931 -0.472115 18.000000
2.817064 -1.852861 -0.474464 16.000000
2.833552 -1.908829 -0.479681 18.000000
2.824618 -1.948428 -0.480815 16.000000
2.860321 -2.018752 -0.489234 35.000000
2.874117 -2.076352 -0.494370 52.000000
2.867102 -2.119812 -0.496033 91.000000
2.843701 -2.151343 -0.494824 93.000000
2.816712 -2.178854 -0.492820 78.000000
2.722771 -2.154471 -0.479306 32.000000
2.633571 -2.131446 -0.466534 30.000000
2.491695 -2.062546 -0.444294 13.000000
2.428072 -2.053957 -0.435537 29.000000
2.326760 -2.012640 -0.420153 26.000000
2.271187 -2.008685 -0.413036 31.000000
2.175557 -1.967251 -0.398455 32.000000
2.095664 -1.937373 -0.386631 28.000000
2.028178 -1.915382 -0.376702 29.000000
1.978610 -1.910099 -0.370248 29.000000
1.904700 -1.879651 -0.359253 29.000000
1.890996 -1.907619 -0.359508 65.000000
1.863089 -1.921262 -0.357111 71.000000
1.828351 -1.927395 -0.353402 65.000000
1.801321 -1.939351 -0.350780 65.000000
1.790055 -1.970158 -0.351685 46.000000
1.775009 -1.997152 -0.351844 48.000000
1.766059 -2.031610 -0.353295 58.000000
1.747065 -2.054693 -0.352783 26.000000
1.746677 -2.100553 -0.356146 34.000000
1.714340 -2.108098 -0.353036 33.000000
1.701613 -2.137714 -0.353623 33.000000
1.687292 -2.168036 -0.354281 34.000000
1.678638 -2.206283 -0.356199 29.000000
1.666338 -2.240540 -0.357459 31.000000
1.647687 -2.266776 -0.357436 31.000000
1.625730 -2.288838 -0.356773 18.000000
1.603512 -2.310705 -0.356019 35.000000
1.606084 -2.369331 -0.360977 31.000000
1.574722 -2.378578 -0.358322 30.000000
1.560939 -2.411558 -0.359225 32.000000
1.550425 -2.453776 -0.361608 28.000000
1.526250 -2.474959 -0.360706 32.000000
1.511948 -2.512940 -0.362341 26.000000
1.527143 -2.602202 -0.371279 9.000000
0.797168 1.375000 -0.183643 6.000000
0.786731 1.323470 -0.178613 10.000000
0.798527 1.310478 -0.178697 10.000000
0.818026 1.310038 -0.180566 13.000000
0.842967 1.317659 -0.183561 10.000000
0.843683 1.287520 -0.181310 16.000000
0.874236 1.302941 -0.185494 11.000000
0.882742 1.285064 -0.184991 15.000000
0.908107 1.291487 -0.188026 21.000000
0.901832 1.253235 -0.184552 9.000000
0.914739 1.243744 -0.185264 21.000000
0.940155 1.249454 -0.188271 19.000000
0.950730 1.235091 -0.188296 13.000000
0.979449 1.244049 -0.191928 23.000000
0.989868 1.229329 -0.191957 14.000000
1.012676 1.229906 -0.194404 24.000000
1.025999 1.218689 -0.195041 18.000000
1.042510 1.211087 -0.196238 10.000000
1.055089 1.199983 -0.196926 30.000000
1.071475 1.191979 -0.198179 24.000000
1.091103 1.187408 -0.200001 22.000000
1.107443 1.178925 -0.201213 27.000000
1.130536 1.177424 -0.203617 19.000000
1.157289 1.179036 -0.206702 27.000000
1.166580 1.162679 -0.206639 24.000000
1.197004 1.167076 -0.210368 11.000000
1.180537 1.126871 -0.205976 29.000000
1.210913 1.130695 -0.209667 24.000000
1.237896 1.130672 -0.212746 26.000000
1.250171 1.116902 -0.213261 30.000000
1.269812 1.109607 -0.215094 26.000000
1.285254 1.099186 -0.216351 30.000000
1.308686 1.094474 -0.218779 24.000000
1.351313 1.105049 -0.224404 16.000000
1.343979 1.074580 -0.221693 29.000000
1.367401 1.068863 -0.224144 24.000000
1.398690 1.068748 -0.227834 28.000000
1.417955 1.059571 -0.229716 31.000000
1.441516 1.052655 -0.232141 26.000000
1.473122 1.051068 -0.235867 31.000000
1.500808 1.046089 -0.238902 26.000000
1.524192 1.038247 -0.241469 19.000000
1.539615 1.024134 -0.242573 35.000000
1.559086 1.012459 -0.244331 31.000000
1.578446 1.000543 -0.246095 27.000000
1.601733 0.991226 -0.248575 31.000000
1.637920 0.988913 -0.252971 29.000000
1.665724 0.980891 -0.256068 28.000000
1.689092 0.970207 -0.258518 33.000000
1.721209 0.963663 -0.262293 18.000000
1.718602 0.937534 -0.260738 33.000000
1.741675 0.925829 -0.263204 33.000000
1.795708 0.929418 -0.270190 29.000000
1.814520 0.914330 -0.272015 31.000000
1.842204 0.903035 -0.275111 29.000000
1.860879 0.887021 -0.276821 25.000000
1.901809 0.881358 -0.281931 32.000000
1.942926 0.874618 -0.286990 16.000000
1.970403 0.861364 -0.290124 26.000000
1.997987 0.847449 -0.293132 29.000000
2.052832 0.844512 -0.300303 29.000000
2.084936 0.831058 -0.304000 30.000000
2.126138 0.820877 -0.309119 31.000000
2.144194 0.801112 -0.310886 23.000000
2.190073 0.791031 -0.316628 31.000000
2.198463 0.767078 -0.316986 10.000000
2.286454 0.770003 -0.328823 31.000000
2.322973 0.754214 -0.333326 33.000000
2.364120 0.739136 -0.338364 32.000000
2.400442 0.721909 -0.342810 32.000000
2.479552 0.716121 -0.353211 34.000000
2.506199 0.694462 -0.356403 33.000000
2.551952 0.677148 -0.362160 41.000000
2.621526 0.665088 -0.371243 37.000000
2.633422 0.637594 -0.372256 55.000000
2.630530 0.606655 -0.371228 54.000000
2.632095 0.576738 -0.370796 35.000000
2.633388 0.547010 -0.370363 45.000000
2.600223 0.510624 -0.365151 34.000000
2.620222 0.484919 -0.367445 23.000000
2.625393 0.456269 -0.367691 24.000000
2.595933 0.421974 -0.363069 15.000000
2.639567 0.399546 -0.368704 39.000000
2.643761 0.370678 -0.368950 55.000000
2.642715 0.341176 -0.368430 38.000000
2.646245 0.312279 -0.368594 53.000000
2.659296 0.284436 -0.370047 40.000000
2.662262 0.255350 -0.370212 37.000000
2.659964 0.225844 -0.369608 64.000000
2.622752 0.193810 -0.364204 10.000000
2.649411 0.166764 -0.367715 36.000000
2.651047 0.137729 -0.367715 35.000000
2.612768 0.107153 -0.362307 9.000000
2.608865 0.078484 -0.361621 8.000000
2.624444 0.050221 -0.363679 8.000000
2.624768 0.021593 -0.363679 7.000000
2.629802 -0.007130 -0.364366 8.000000
2.609830 -0.035623 -0.361541 8.000000
2.619170 -0.064333 -0.362913 8.000000
2.657878 -0.094395 -0.368319 20.000000
2.651783 -0.123171 -0.367551 25.000000
2.689868 -0.154395 -0.372954 32.000000
2.702866 -0.184793 -0.374844 29.000000
2.636511 -0.209246 -0.365854 10.000000
2.643932 -0.238900 -0.367061 8.000000
2.680654 -0.271768 -0.372373 8.000000
2.652890 -0.298302 -0.368786 8.000000
2.639687 -0.325956 -0.367172 8.000000
2.655635 -0.357442 -0.369742 7.000000
2.685899 -0.391417 -0.374275 8.000000
2.686444 -0.421534 -0.374790 7.000000
2.686554 -0.451675 -0.375221 6.000000
2.715647 -0.487086 -0.379742 8.000000
2.705342 -0.515735 -0.378721 8.000000
2.714139 -0.548201 -0.380423 9.000000
2.766217 -0.590116 -0.388241 35.000000
2.769261 -0.622522 -0.389339 33.000000
2.762441 -0.652686 -0.388901 31.000000
2.740759 -0.679188 -0.386517 22.000000
2.761963 -0.716572 -0.390234 14.000000
2.734927 -0.741533 -0.387175 25.000000
2.736345 -0.773905 -0.388004 10.000000
2.746682 -0.809461 -0.390355 10.000000
2.747247 -0.842264 -0.391263 11.000000
2.775719 -0.884207 -0.396121 10.000000
2.775438 -0.917554 -0.397018 11.000000
2.779416 -0.952532 -0.398494 10.000000
2.717557 -0.964524 -0.390569 8.000000
2.767364 -1.016482 -0.398840 13.000000
2.774725 -1.053569 -0.400881 10.000000
2.790887 -1.094495 -0.404343 15.000000
2.792573 -1.130723 -0.405791 13.000000
2.775661 -1.159057 -0.404475 10.000000
2.776442 -1.195315 -0.405916 11.000000
2.799652 -1.241545 -0.410485 10.000000
2.790487 -1.274251 -0.410582 8.000000
2.794545 -1.312905 -0.412475 11.000000
2.820161 -1.362924 -0.417855 10.000000
2.827310 -1.404907 -0.420481 13.000000
2.829707 -1.444441 -0.422241 13.000000
2.831323 -1.484752 -0.424187 10.000000
2.845735 -1.531707 -0.427895 14.000000
2.837499 -1.567740 -0.428509 9.000000
2.802887 -1.589096 -0.425095 8.000000
2.845729 -1.654225 -0.433339 11.000000
2.818975 -1.680354 -0.431225 9.000000
2.863841 -1.750142 -0.440170 12.000000
2.870151 -1.796710 -0.443029 10.000000
2.875389 -1.844244 -0.445974 12.000000
2.883999 -1.894948 -0.449550 28.000000
2.895986 -1.948740 -0.453857 28.000000
2.866871 -1.974268 -0.451390 24.000000
2.881494 -2.031367 -0.456200 65.000000
2.871209 -2.071750 -0.457036 37.000000
2.848330 -2.103345 -0.456055 65.000000
2.829736 -2.136839 -0.455494 53.000000
2.814019 -2.173997 -0.455674 81.000000
2.743364 -2.167948 -0.446972 33.000000
2.653801 -2.145171 -0.435039 19.000000
2.576659 -2.130007 -0.425158 9.000000
2.424316 -2.049512 -0.402637 17.000000
2.342475 -2.023411 -0.391428 13.000000
2.268140 -2.003145 -0.381622 20.000000
2.194531 -1.981453 -0.371863 20.000000
2.103440 -1.941617 -0.359040 13.000000
2.053179 -1.937531 -0.353020 23.000000
1.957668 -1.886927 -0.338904 16.000000
1.908655 -1.880475 -0.332968 10.000000
1.894966 -1.908446 -0.333209 36.000000
1.860129 -1.915049 -0.329765 30.000000
1.828858 -1.924616 -0.326946 36.000000
1.804336 -1.940981 -0.325357 46.000000
1.776391 -1.953356 -0.323083 27.000000
1.774753 -1.995089 -0.325660 36.000000
1.753820 -2.013724 -0.324511 29.000000
1.734956 -2.036630 -0.324045 10.000000
1.731732 -2.078511 -0.326571 30.000000
1.699622 -2.085843 -0.323615 24.000000
1.686077 -2.116016 -0.324326 27.000000
1.684233 -2.161893 -0.327312 30.000000
1.669675 -2.192104 -0.327905 24.000000
1.651639 -2.218277 -0.327897 28.000000
1.634454 -2.243472 -0.327795 19.000000
1.618614 -2.273435 -0.328354 10.000000
1.602253 -2.303330 -0.328813 30.000000
1.593827 -2.345477 -0.331085 23.000000
1.576450 -2.375230 -0.331511 26.000000
1.547824 -2.388229 -0.329622 23.000000
1.540359 -2.434573 -0.332410 25.000000
1.518940 -2.459841 -0.332224 24.000000
1.522796 -2.527509 -0.337714 20.000000
1.505311 -2.561228 -0.338528 9.000000
0.779714 1.341006 -0.165055 7.000000
0.771370 1.293908 -0.160941 15.000000
0.784593 1.285864 -0.161635 21.000000
0.803827 1.285602 -0.163306 20.000000
0.828514 1.293409 -0.166061 25.000000
0.839838 1.280059 -0.166135 18.000000
0.859245 1.279053 -0.167828 25.000000
0.867472 1.261354 -0.167357 28.000000
0.892592 1.267976 -0.170149 23.000000
0.888920 1.233927 -0.167437 18.000000
0.911167 1.236123 -0.169692 20.000000
0.927550 1.230000 -0.170808 24.000000
0.949947 1.231540 -0.173035 32.000000
0.975630 1.236685 -0.175826 22.000000
0.982212 1.218645 -0.175390 34.000000
1.011230 1.226953 -0.178711 24.000000
1.024512 1.215771 -0.179297 22.000000
1.037744 1.204443 -0.179883 22.000000
1.054065 1.196697 -0.180984 21.000000
1.070418 1.188731 -0.182088 30.000000
1.086705 1.180545 -0.183196 30.000000
1.109731 1.179372 -0.185444 25.000000
1.132845 1.177876 -0.187703 35.000000
1.148625 1.169321 -0.188878 31.000000
1.168403 1.163641 -0.190580 31.000000
1.166838 1.136809 -0.188784 26.000000
1.197176 1.141029 -0.192170 26.000000
1.220471 1.137978 -0.194414 31.000000
1.232827 1.124443 -0.194927 44.000000
1.248786 1.114112 -0.196021 30.000000
1.264251 1.104008 -0.197170 42.000000
1.287596 1.099654 -0.199440 32.000000
1.314807 1.098129 -0.202254 34.000000
1.334448 1.089882 -0.203903 31.000000
1.354068 1.081306 -0.205557 26.000000
1.365784 1.066342 -0.206037 34.000000
1.384965 1.057670 -0.207753 33.000000
1.416373 1.057147 -0.211147 28.000000
1.447889 1.056130 -0.214608 34.000000
1.467487 1.045863 -0.216240 32.000000
1.478842 1.029634 -0.216683 28.000000
1.497961 1.019266 -0.218378 29.000000
1.525582 1.013714 -0.221222 29.000000
1.540726 0.999580 -0.222217 35.000000
1.572533 0.995808 -0.225677 38.000000
1.608681 0.994125 -0.229695 28.000000
1.627703 0.981870 -0.231369 32.000000
1.659787 0.976453 -0.234803 33.000000
1.683240 0.965568 -0.237037 30.000000
1.689171 0.944888 -0.236906 28.000000
1.729909 0.942948 -0.241583 28.000000
1.731380 0.919212 -0.240727 33.000000
1.776530 0.918397 -0.245972 40.000000
1.812903 0.912474 -0.250071 32.000000
1.849503 0.905596 -0.254119 33.000000
1.872568 0.891924 -0.256403 35.000000
1.900210 0.879660 -0.259243 26.000000
1.945944 0.875078 -0.264485 26.000000
1.973450 0.861828 -0.267409 30.000000
2.010132 0.851788 -0.271442 29.000000
2.042141 0.839332 -0.274934 32.000000
2.083437 0.829775 -0.279603 31.000000
2.129297 0.821368 -0.284903 32.000000
2.166030 0.808404 -0.288975 35.000000
2.183967 0.788165 -0.290572 24.000000
2.229943 0.777233 -0.295829 34.000000
2.252329 0.757720 -0.298059 32.000000
2.302840 0.746937 -0.304032 32.000000
2.358160 0.736635 -0.310642 33.000000
2.404071 0.722140 -0.315864 37.000000
2.440312 0.704141 -0.319922 35.000000
2.481279 0.686763 -0.324613 41.000000
2.522129 0.668576 -0.329312 27.000000
2.577357 0.653234 -0.335900 42.000000
2.617976 0.633262 -0.340535 61.000000
2.653690 0.611443 -0.344633 74.000000
2.635996 0.577153 -0.341743 64.000000
2.617772 0.543227 -0.338767 33.000000
2.599192 0.509914 -0.335869 10.000000
2.585060 0.477951 -0.333595 9.000000
2.599848 0.451424 -0.335098 8.000000
2.668284 0.433349 -0.343452 35.000000
2.682584 0.405726 -0.344880 49.000000
2.677016 0.375053 -0.343785 50.000000
2.710440 0.349588 -0.347738 95.000000
2.689510 0.317089 -0.344666 70.000000
2.687827 0.287236 -0.344201 72.000000
2.700696 0.258827 -0.345547 83.000000
2.683515 0.227686 -0.343103 23.000000
2.705620 0.199817 -0.345714 67.000000
2.702757 0.169959 -0.345166 61.000000
2.699470 0.140208 -0.344534 54.000000
2.715667 0.111296 -0.346514 76.000000
2.677094 0.080502 -0.341455 10.000000
2.662958 0.050966 -0.339558 9.000000
2.678165 0.022000 -0.341455 13.000000
2.683207 -0.007264 -0.342087 20.000000
2.742554 -0.037381 -0.349591 85.000000
2.746922 -0.067373 -0.350223 81.000000
2.741036 -0.097207 -0.349507 73.000000
2.749763 -0.127622 -0.350686 95.000000
2.758142 -0.158169 -0.351865 74.000000
2.766170 -0.188932 -0.353043 74.000000
2.754063 -0.218343 -0.351610 69.000000
2.741633 -0.247453 -0.350262 25.000000
2.738754 -0.277348 -0.350093 9.000000
2.745479 -0.308349 -0.351185 8.000000
2.737072 -0.337659 -0.350300 8.000000
2.777497 -0.373471 -0.355798 9.000000
2.753639 -0.400873 -0.353107 8.000000
2.758903 -0.432456 -0.354109 8.000000
2.754092 -0.462523 -0.353851 8.000000
2.758617 -0.494341 -0.354849 8.000000
2.782423 -0.529911 -0.358356 9.000000
2.766773 -0.558182 -0.356754 10.000000
2.789631 -0.594601 -0.360252 25.000000
2.773370 -0.622872 -0.358737 10.000000
2.805087 -0.662065 -0.363391 8.000000
2.821806 -0.698611 -0.366161 8.000000
2.770896 -0.718080 -0.360185 37.000000
2.786826 -0.754763 -0.362862 34.000000
2.797663 -0.790442 -0.364998 21.000000
2.788901 -0.820933 -0.364551 13.000000
2.798755 -0.857236 -0.366679 16.000000
2.812940 -0.895097 -0.369333 16.000000
2.821980 -0.931916 -0.371359 11.000000
2.821131 -0.965749 -0.372048 13.000000
2.833782 -1.004945 -0.374774 14.000000
2.836753 -1.040771 -0.376072 15.000000
2.843786 -1.078848 -0.378074 22.000000
2.832001 -1.109622 -0.377419 10.000000
2.824347 -1.142443 -0.377567 15.000000
2.839365 -1.184543 -0.380594 16.000000
2.830868 -1.217534 -0.380734 11.000000
2.862877 -1.268239 -0.386191 10.000000
2.844401 -1.297472 -0.385002 13.000000
2.866015 -1.345489 -0.389307 16.000000
2.860351 -1.380762 -0.389746 22.000000
2.885127 -1.431967 -0.394633 14.000000
2.887265 -1.472080 -0.396268 16.000000
2.893007 -1.515179 -0.398599 19.000000
2.898096 -1.558661 -0.400920 18.000000
2.906969 -1.604718 -0.403834 19.000000
2.924170 -1.655621 -0.407836 21.000000
2.923054 -1.697616 -0.409519 22.000000
2.929939 -1.744860 -0.412288 29.000000
2.928020 -1.786756 -0.413740 29.000000
2.941973 -1.839867 -0.417676 46.000000
2.942607 -1.885469 -0.419805 88.000000
2.909317 -1.909630 -0.417160 37.000000
2.892365 -1.944275 -0.416898 55.000000
2.859206 -1.966791 -0.414050 42.000000
2.845673 -2.003865 -0.414379 46.000000
2.823532 -2.035099 -0.413416 66.000000
2.801069 -2.066119 -0.412454 36.000000
2.798102 -2.111773 -0.414426 60.000000
2.771548 -2.138580 -0.412763 78.000000
2.771377 -2.187484 -0.415191 49.000000
2.673876 -2.158593 -0.403146 31.000000
2.542888 -2.099316 -0.385820 16.000000
2.443890 -2.063205 -0.373217 17.000000
2.379835 -2.054236 -0.365876 22.000000
2.283410 -2.013838 -0.353287 21.000000
2.220665 -2.002227 -0.346029 21.000000
2.136532 -1.969340 -0.335275 26.000000
2.057086 -1.938226 -0.325237 19.000000
2.007191 -1.933146 -0.319723 20.000000
1.943398 -1.913324 -0.311962 25.000000
1.880352 -1.892315 -0.304242 28.000000
1.860441 -1.912145 -0.303177 35.000000
1.832613 -1.925269 -0.301150 35.000000
1.811470 -1.945269 -0.300170 34.000000
1.783471 -1.957679 -0.298153 38.000000
1.758694 -1.973488 -0.296620 30.000000
1.753428 -2.011374 -0.298424 32.000000
1.718489 -2.015423 -0.295226 25.000000
1.721911 -2.064659 -0.298666 28.000000
1.711940 -2.098802 -0.299793 30.000000
1.686885 -2.112798 -0.298164 23.000000
1.676042 -2.146813 -0.299269 26.000000
1.658661 -2.172943 -0.299271 29.000000
1.649858 -2.210905 -0.300890 27.000000
1.634425 -2.240991 -0.301410 28.000000
1.609989 -2.258786 -0.300303 17.000000
1.590979 -2.284399 -0.300269 23.000000
1.582807 -2.326407 -0.302363 27.000000
1.568509 -2.360156 -0.303282 25.000000
1.545384 -2.381461 -0.302682 26.000000
1.535386 -2.423477 -0.304630 22.000000
1.524575 -2.465580 -0.306552 23.000000
1.504365 -2.489749 -0.306264 22.000000
1.479754 -2.510368 -0.305536 7.000000
0.776277 1.333166 -0.150185 7.000000
0.770299 1.290375 -0.146862 19.000000
0.784308 1.281850 -0.147415 25.000000
0.806107 1.285834 -0.149438 27.000000
0.813906 1.269034 -0.149105 28.000000
0.841342 1.280811 -0.152083 26.000000
0.849699 1.263249 -0.151655 32.000000
0.863380 1.253911 -0.152216 32.000000
0.882699 1.252472 -0.153774 31.000000
0.887551 1.230639 -0.152789 19.000000
0.909722 1.232827 -0.154808 30.000000
0.917075 1.214876 -0.154363 31.000000
0.948483 1.228367 -0.157914 29.000000
0.961813 1.217941 -0.158437 35.000000
0.968750 1.199585 -0.157942 29.000000
0.994426 1.204235 -0.160507 30.000000
1.023500 1.212264 -0.163550 34.000000
1.033393 1.197207 -0.163571 10.000000
1.029372 1.167637 -0.161572 36.000000
1.058722 1.174741 -0.164638 33.000000
1.078223 1.170361 -0.166162 32.000000
1.101145 1.169308 -0.168213 33.000000
1.131104 1.175096 -0.171317 34.000000
1.143816 1.162584 -0.171818 47.000000
1.160004 1.153478 -0.172793 33.000000
1.165426 1.133693 -0.172242 21.000000
1.184904 1.127674 -0.173747 39.000000
1.218577 1.135409 -0.177478 40.000000
1.234570 1.125264 -0.178469 52.000000
1.243113 1.108317 -0.178347 52.000000
1.258923 1.097834 -0.179341 42.000000
1.293563 1.103296 -0.183013 37.000000
1.309331 1.092182 -0.183967 42.000000
1.309656 1.068310 -0.182825 24.000000
1.344594 1.072433 -0.186473 32.000000
1.367648 1.067140 -0.188569 35.000000
1.399017 1.067142 -0.191703 34.000000
1.422585 1.060606 -0.193764 37.000000
1.446130 1.053644 -0.195776 34.000000
1.465654 1.043479 -0.197306 34.000000
1.481057 1.030132 -0.198239 36.000000
1.516686 1.030943 -0.202022 21.000000
1.523694 1.011472 -0.201868 35.000000
1.551324 1.005494 -0.204459 36.000000
1.574821 0.996323 -0.206509 50.000000
1.589864 0.981595 -0.207404 45.000000
1.630099 0.982396 -0.211732 37.000000
1.649303 0.969491 -0.213190 38.000000
1.672693 0.958751 -0.215266 35.000000
1.687451 0.942762 -0.216177 19.000000
1.710693 0.931311 -0.218203 34.000000
1.733791 0.919754 -0.220295 34.000000
1.761394 0.909829 -0.222830 35.000000
1.793391 0.901627 -0.225992 42.000000
1.834185 0.897495 -0.230284 34.000000
1.870824 0.890108 -0.234028 35.000000
1.902979 0.880047 -0.237156 32.000000
1.916848 0.861413 -0.238105 15.000000
1.971678 0.860239 -0.244065 31.000000
2.003802 0.848318 -0.247217 32.000000
2.022015 0.830304 -0.248682 29.000000
2.067871 0.822842 -0.253545 31.000000
2.122974 0.818217 -0.259554 35.000000
2.141089 0.798416 -0.260968 29.000000
2.182293 0.786908 -0.265296 32.000000
2.204774 0.767938 -0.267287 21.000000
2.245909 0.754993 -0.271559 33.000000
2.287139 0.741110 -0.275839 35.000000
2.342384 0.731020 -0.281840 32.000000
2.378693 0.714035 -0.285568 32.000000
2.438899 0.703155 -0.292085 50.000000
2.417583 0.668623 -0.288963 60.000000
2.506374 0.663890 -0.299009 50.000000
2.585607 0.654862 -0.307847 19.000000
2.636023 0.637178 -0.313257 35.000000
2.671813 0.615037 -0.316952 72.000000
2.683150 0.586955 -0.317779 75.000000
2.684531 0.556666 -0.317373 40.000000
2.656309 0.520750 -0.313598 13.000000
2.632494 0.486314 -0.310310 9.000000
2.657167 0.461006 -0.312861 8.000000
2.657153 0.431212 -0.312451 9.000000
2.710726 0.409687 -0.318384 35.000000
2.724859 0.381501 -0.319622 77.000000
2.728832 0.351745 -0.319791 70.000000
2.727619 0.321323 -0.319298 78.000000
2.740787 0.292676 -0.320622 83.000000
2.733948 0.261835 -0.319551 57.000000
2.751409 0.233222 -0.321370 72.000000
2.768643 0.204285 -0.323189 31.000000
2.745992 0.172533 -0.320298 46.000000
2.742723 0.142351 -0.319804 71.000000
2.734149 0.111989 -0.318648 34.000000
2.745170 0.082440 -0.319804 22.000000
2.740964 0.052474 -0.319310 32.000000
2.751234 0.022655 -0.320467 39.000000
2.766217 -0.007479 -0.322118 77.000000
2.771013 -0.037719 -0.322696 79.000000
2.770417 -0.067860 -0.322611 54.000000
2.779407 -0.098437 -0.323682 77.000000
2.778210 -0.128772 -0.323682 66.000000
2.786589 -0.159675 -0.324752 91.000000
2.814432 -0.192061 -0.328046 72.000000
2.767620 -0.219212 -0.322762 11.000000
2.794739 -0.252084 -0.326141 80.000000
2.776984 -0.281017 -0.324237 10.000000
2.768876 -0.310735 -0.323489 8.000000
2.780154 -0.342689 -0.325047 8.000000
2.805817 -0.376950 -0.328331 8.000000
2.781895 -0.404705 -0.325854 8.000000
2.821480 -0.441849 -0.330772 9.000000
2.787176 -0.467713 -0.327060 8.000000
2.820992 -0.505016 -0.331483 27.000000
2.839754 -0.540385 -0.334089 35.000000
2.828935 -0.570220 -0.333160 35.000000
2.846843 -0.606244 -0.335759 37.000000
2.810968 -0.630746 -0.332056 9.000000
2.832983 -0.668120 -0.335222 11.000000
2.859404 -0.707318 -0.338865 23.000000
2.846724 -0.737109 -0.337932 12.000000
2.824209 -0.764201 -0.335860 45.000000
2.820541 -0.796198 -0.336070 21.000000
2.830781 -0.832593 -0.337986 19.000000
2.854878 -0.873493 -0.341602 16.000000
2.845249 -0.904490 -0.341144 12.000000
2.863559 -0.944918 -0.344179 19.000000
2.881388 -0.985593 -0.347113 15.000000
2.832983 -1.003748 -0.342122 8.000000
2.873307 -1.053204 -0.347872 19.000000
2.866297 -1.086359 -0.347966 15.000000
2.886819 -1.130105 -0.351343 17.000000
2.897377 -1.170929 -0.353678 18.000000
2.893784 -1.206040 -0.354225 18.000000
2.875932 -1.235660 -0.353183 19.000000
2.916801 -1.291230 -0.359420 19.000000
2.898174 -1.320615 -0.358176 9.000000
2.906093 -1.362853 -0.360378 23.000000
2.909012 -1.403229 -0.362015 16.000000
2.938257 -1.456641 -0.366879 23.000000
2.931099 -1.493278 -0.367385 22.000000
2.954259 -1.546036 -0.371765 24.000000
2.968112 -1.594235 -0.374919 28.000000
2.980988 -1.643515 -0.378059 25.000000
2.954254 -1.671232 -0.376225 17.000000
2.953001 -1.713516 -0.377800 48.000000
2.968300 -1.766133 -0.381457 68.000000
2.949211 -1.797948 -0.380502 88.000000
2.929486 -1.830186 -0.379760 64.000000
2.917603 -1.867678 -0.380108 70.000000
2.905389 -1.905035 -0.380452 81.000000
2.900883 -1.947903 -0.381771 71.000000
2.834902 -1.947940 -0.374847 31.000000
2.829624 -1.990422 -0.376165 84.000000
2.815815 -2.027242 -0.376393 82.000000
2.785444 -2.052125 -0.374465 64.000000
2.778809 -2.094574 -0.375763 88.000000
2.759567 -2.128051 -0.375337 77.000000
2.748604 -2.166699 -0.375869 95.000000
2.705404 -2.181175 -0.372346 36.000000
2.639209 -2.175930 -0.365542 21.000000
2.482229 -2.092637 -0.346049 26.000000
2.372498 -2.045174 -0.332899 24.000000
2.297781 -2.025104 -0.324656 22.000000
2.234870 -2.013589 -0.318027 28.000000
2.150629 -1.980785 -0.308194 25.000000
2.093415 -1.969412 -0.301982 26.000000
2.003618 -1.926851 -0.291203 24.000000
1.936360 -1.903369 -0.283597 17.000000
1.897991 -1.906906 -0.280175 32.000000
1.866614 -1.916937 -0.277800 35.000000
1.838738 -1.930094 -0.275950 45.000000
1.804072 -1.935578 -0.272997 39.000000
1.776102 -1.947954 -0.271082 57.000000
1.754832 -1.967282 -0.270273 47.000000
1.747298 -2.000626 -0.271253 32.000000
1.725380 -2.019611 -0.270357 24.000000
1.706570 -2.042169 -0.269965 29.000000
1.703090 -2.083893 -0.272085 29.000000
1.689624 -2.114043 -0.272598 30.000000
1.666548 -2.132388 -0.271685 31.000000
1.655389 -2.166379 -0.272679 29.000000
1.643635 -2.200301 -0.273658 29.000000
1.622564 -2.222176 -0.273142 29.000000
1.598262 -2.239812 -0.272129 22.000000
1.593799 -2.285767 -0.274548 28.000000
1.577252 -2.315365 -0.274988 28.000000
1.557509 -2.340746 -0.274931 28.000000
1.531990 -2.357730 -0.273810 27.000000
1.518352 -2.390311 -0.274533 27.000000
1.521155 -2.453247 -0.278778 28.000000
1.491763 -2.465539 -0.277149 25.000000
1.459844 -2.473134 -0.275047 9.000000
0.772726 1.325176 -0.135399 7.000000
0.769172 1.286700 -0.132827 16.000000
0.783135 1.278249 -0.133378 22.000000
0.807550 1.286440 -0.135616 29.000000
0.816125 1.269173 -0.135235 27.000000
0.835334 1.268475 -0.136639 30.000000
0.851147 1.263903 -0.137648 30.000000
0.864827 1.254518 -0.138115 29.000000
0.884156 1.253130 -0.139534 31.000000
0.883118 1.223216 -0.137731 17.000000
0.899346 1.217466 -0.138696 23.000000
0.912520 1.207585 -0.139160 29.000000
0.946914 1.225094 -0.142839 27.000000
0.960201 1.214654 -0.143314 30.000000
0.976476 1.207991 -0.144250 34.000000
0.995911 1.204906 -0.145654 28.000000
1.015418 1.201539 -0.147016 32.000000
1.031643 1.194119 -0.147965 17.000000
1.038016 1.175290 -0.147464 29.000000
1.050753 1.163850 -0.147897 35.000000
1.076898 1.166899 -0.150261 35.000000
1.092432 1.159131 -0.151221 33.000000
1.125749 1.168578 -0.154504 34.000000
1.141925 1.159738 -0.155427 32.000000
1.158030 1.150623 -0.156302 35.000000
1.166973 1.134391 -0.156275 13.000000
