x y z intensity
2.581343 -1.508979 -0.520437 10.000000
2.577626 -1.544733 -0.521892 13.000000
2.556302 -1.570636 -0.520107 9.000000
2.560051 -1.611544 -0.523159 10.000000
2.571139 -1.658628 -0.528081 11.000000
2.565564 -1.694729 -0.529395 10.000000
2.550888 -1.725864 -0.529194 9.000000
2.539821 -1.759802 -0.529835 10.000000
2.548924 -1.807213 -0.534396 10.000000
2.536877 -1.841349 -0.534917 11.000000
2.513122 -1.865778 -0.532719 10.000000
2.527712 -1.920522 -0.538992 10.000000
2.529839 -1.966682 -0.542725 13.000000
2.497035 -1.984853 -0.538838 10.000000
2.425386 -1.972059 -0.526656 10.000000
2.286001 -1.901213 -0.499709 10.000000
2.205549 -1.874681 -0.485017 9.000000
2.140106 -1.860310 -0.473961 20.000000
2.071655 -1.841490 -0.461959 21.000000
2.033675 -1.847119 -0.456489 29.000000
2.009663 -1.866285 -0.454482 32.000000
1.981892 -1.881720 -0.451579 27.000000
1.985876 -1.927753 -0.456001 25.000000
1.958411 -1.942034 -0.452840 29.000000
1.943931 -1.970725 -0.453176 26.000000
1.925615 -1.995762 -0.452612 32.000000
1.910436 -2.024293 -0.452845 26.000000
1.905754 -2.062729 -0.455297 30.000000
1.883007 -2.083827 -0.453908 31.000000
1.876431 -2.123071 -0.456408 26.000000
1.875732 -2.169973 -0.460555 29.000000
1.830623 -2.163448 -0.453342 18.000000
1.809948 -2.187397 -0.452553 20.000000
1.801437 -2.226596 -0.454984 24.000000
1.786203 -2.258129 -0.455825 19.000000
1.791595 -2.316859 -0.462014 25.000000
1.773397 -2.343557 -0.461757 26.000000
1.753578 -2.371111 -0.461669 21.000000
1.747873 -2.418452 -0.465331 22.000000
1.718480 -2.433678 -0.462905 12.000000
1.714242 -2.485171 -0.467275 21.000000
1.692541 -2.512293 -0.467027 22.000000
1.663725 -2.525938 -0.464398 17.000000
1.654703 -2.573342 -0.467820 21.000000
1.650206 -2.629251 -0.472802 21.000000
1.631689 -2.664321 -0.473981 18.000000
1.617683 -2.707820 -0.476533 18.000000
1.607903 -2.759911 -0.480537 8.000000
0.835459 1.449455 -0.239049 6.000000
0.843685 1.427287 -0.237847 10.000000
0.861790 1.422063 -0.239480 16.000000
0.869440 1.399763 -0.238256 23.000000
0.891782 1.403093 -0.241377 15.000000
0.912460 1.401439 -0.243742 26.000000
0.919492 1.378828 -0.242448 18.000000
0.942889 1.380810 -0.245547 23.000000
0.960731 1.374342 -0.247153 25.000000
0.975680 1.363635 -0.248032 10.000000
0.981760 1.340750 -0.246658 22.000000
0.989677 1.322372 -0.246158 23.000000
1.022137 1.334869 -0.251410 22.000000
1.030566 1.315671 -0.250756 32.000000
1.047943 1.308080 -0.252326 23.000000
1.074754 1.311634 -0.256140 24.000000
1.082692 1.292070 -0.255479 26.000000
1.125046 1.314316 -0.263130 10.000000
1.113316 1.272011 -0.257951 32.000000
1.146973 1.281689 -0.263273 28.000000
1.164274 1.272538 -0.264828 25.000000
1.184871 1.266708 -0.267095 33.000000
1.204981 1.261161 -0.269533 26.000000
1.232526 1.261833 -0.273350 29.000000
1.246308 1.248105 -0.274113 31.000000
1.274043 1.247988 -0.277955 18.000000
1.276457 1.224015 -0.276465 35.000000
1.300649 1.219895 -0.279552 35.000000
1.321259 1.212031 -0.281821 32.000000
1.341794 1.203894 -0.284098 45.000000
1.354548 1.189358 -0.284933 31.000000
1.378765 1.183860 -0.287949 36.000000
1.399243 1.174824 -0.290248 35.000000
1.412059 1.159186 -0.290926 21.000000
1.432066 1.150069 -0.293293 35.000000
1.452377 1.140159 -0.295497 35.000000
1.476568 1.132967 -0.298558 32.000000
1.500436 1.125806 -0.301688 36.000000
1.520691 1.114944 -0.303917 30.000000
1.552937 1.112353 -0.308544 33.000000
1.576877 1.103897 -0.311650 31.000000
1.588957 1.086342 -0.312305 17.000000
1.596398 1.066284 -0.312216 45.000000
1.624567 1.059258 -0.316026 33.000000
1.669385 1.062342 -0.323010 35.000000
1.697470 1.054584 -0.326974 69.000000
1.713184 1.038231 -0.328339 33.000000
1.745508 1.032078 -0.333072 32.000000
1.778105 1.024956 -0.337695 33.000000
1.784723 1.003115 -0.337517 21.000000
1.812986 0.992772 -0.341281 37.000000
1.840943 0.982241 -0.345185 57.000000
1.864790 0.968601 -0.348153 35.000000
1.888330 0.954868 -0.351259 38.000000
1.942797 0.955958 -0.360050 37.000000
1.962011 0.938646 -0.362162 32.000000
2.003408 0.931738 -0.368525 46.000000
1.986356 0.897543 -0.364197 18.000000
2.059292 0.903289 -0.376150 32.000000
2.091650 0.890332 -0.380837 36.000000
2.110262 0.871163 -0.383055 29.000000
2.151633 0.860883 -0.389348 35.000000
2.179275 0.844341 -0.393240 41.000000
2.225175 0.834321 -0.400392 29.000000
2.257324 0.818231 -0.404991 34.000000
2.256786 0.790227 -0.403846 13.000000
2.330611 0.787530 -0.415960 36.000000
2.385860 0.777138 -0.424762 42.000000
2.431800 0.762767 -0.431833 36.000000
2.472961 0.746150 -0.438239 46.000000
2.528221 0.732686 -0.447010 75.000000
2.531295 0.703580 -0.446498 37.000000
2.538777 0.675847 -0.446986 63.000000
2.622360 0.667485 -0.460823 22.000000
2.667797 0.648060 -0.467963 10.000000
2.737106 0.633266 -0.479233 10.000000
2.796754 0.614901 -0.488924 66.000000
2.851474 0.594192 -0.497610 53.000000
2.901306 0.571472 -0.505554 95.000000
2.917040 0.541502 -0.507607 95.000000
2.903315 0.506150 -0.504508 35.000000
2.908607 0.474305 -0.504781 8.000000
2.899009 0.440149 -0.502522 9.000000
2.879149 0.404941 -0.498569 11.000000
2.917590 0.377862 -0.504757 73.000000
2.911719 0.344638 -0.503248 82.000000
2.910451 0.312155 -0.502583 87.000000
2.889098 0.277891 -0.498443 83.000000
2.882154 0.245419 -0.496929 89.000000
2.860091 0.211980 -0.492874 29.000000
2.886812 0.182184 -0.497198 57.000000
2.878761 0.150053 -0.495593 46.000000
2.831043 0.116428 -0.487122 22.000000
2.837021 0.085518 -0.488057 23.000000
2.837812 0.054404 -0.488057 52.000000
2.843179 0.023331 -0.488904 83.000000
2.848195 -0.007849 -0.489751 91.000000
2.867639 -0.039341 -0.493052 66.000000
2.857165 -0.070535 -0.491357 59.000000
2.861205 -0.101952 -0.492027 85.000000
2.859875 -0.133335 -0.491939 67.000000
2.858279 -0.164718 -0.491850 91.000000
2.861245 -0.196350 -0.492519 61.000000
2.785253 -0.221830 -0.479652 18.000000
2.743481 -0.248725 -0.472714 9.000000
2.765094 -0.281329 -0.476684 8.000000
2.766807 -0.312174 -0.477357 9.000000
2.758381 -0.341829 -0.476340 9.000000
2.749624 -0.371376 -0.475237 8.000000
2.760045 -0.403582 -0.477424 8.000000
2.755553 -0.433810 -0.477165 8.000000
2.736051 -0.461578 -0.474292 6.000000
2.789104 -0.501949 -0.484051 9.000000
2.749690 -0.525913 -0.477725 10.000000
2.801764 -0.567822 -0.487552 59.000000
2.785753 -0.596468 -0.485430 62.000000
2.783946 -0.627980 -0.485916 36.000000
2.786559 -0.660735 -0.487151 60.000000
2.784073 -0.692333 -0.487457 35.000000
2.743042 -0.714100 -0.481068 10.000000
2.730389 -0.742725 -0.479705 19.000000
2.731641 -0.775371 -0.480937 17.000000
2.718300 -0.803856 -0.479664 18.000000
2.733087 -0.840759 -0.483215 20.000000
2.728491 -0.872174 -0.483428 14.000000
2.714148 -0.900497 -0.482065 16.000000
2.718223 -0.934956 -0.483936 12.000000
2.684680 -0.956483 -0.479168 9.000000
2.725078 -1.004615 -0.487658 23.000000
2.695592 -1.027338 -0.483721 16.000000
2.698020 -1.062215 -0.485484 20.000000
2.691015 -1.093500 -0.485591 18.000000
2.683521 -1.124796 -0.485695 16.000000
2.702879 -1.167746 -0.490637 20.000000
2.694449 -1.199632 -0.490821 13.000000
2.658890 -1.218737 -0.485902 9.000000
2.681280 -1.264525 -0.491632 24.000000
2.671687 -1.296207 -0.491715 16.000000
2.684028 -1.338535 -0.495688 20.000000
2.651901 -1.358760 -0.491506 14.000000
2.663072 -1.401857 -0.495644 11.000000
2.660829 -1.437748 -0.497052 18.000000
2.653464 -1.471999 -0.497829 10.000000
2.607490 -1.483726 -0.491143 8.000000
2.620807 -1.529993 -0.495953 14.000000
2.604291 -1.558333 -0.494827 10.000000
2.641709 -1.620691 -0.504424 20.000000
2.611542 -1.641464 -0.500870 16.000000
2.618319 -1.686396 -0.504619 13.000000
2.607880 -1.720814 -0.505253 21.000000
2.593328 -1.751684 -0.504793 11.000000
2.598340 -1.797266 -0.508496 9.000000
2.595024 -1.836799 -0.510397 21.000000
2.582679 -1.871287 -0.510898 16.000000
2.585774 -1.917419 -0.514548 18.000000
2.580918 -1.957310 -0.516304 20.000000
2.563098 -1.988865 -0.515888 18.000000
2.545011 -2.020306 -0.515468 21.000000
2.419783 -1.963595 -0.492872 12.000000
2.303107 -1.911504 -0.472235 9.000000
2.232979 -1.895381 -0.460929 20.000000
2.141114 -1.858651 -0.445022 19.000000
2.084363 -1.848732 -0.435892 27.000000
2.038265 -1.848564 -0.429377 37.000000
2.010622 -1.864368 -0.426649 34.000000
1.993629 -1.889955 -0.426230 68.000000
1.955858 -1.894062 -0.421052 29.000000
1.952482 -1.933054 -0.423685 24.000000
1.952027 -1.975695 -0.426971 57.000000
1.920027 -1.986558 -0.423412 36.000000
1.909150 -2.017715 -0.424227 50.000000
1.893655 -2.046066 -0.424446 36.000000
1.881146 -2.077887 -0.425406 34.000000
1.871416 -2.113456 -0.427013 52.000000
1.851389 -2.137756 -0.426364 29.000000
1.825761 -2.153535 -0.424050 20.000000
1.821086 -2.196502 -0.427098 33.000000
1.796962 -2.216488 -0.425689 28.000000
1.794167 -2.263427 -0.429338 32.000000
1.784543 -2.302669 -0.431576 28.000000
1.762276 -2.326294 -0.430779 29.000000
1.758588 -2.372568 -0.434159 32.000000
1.729724 -2.387874 -0.431794 23.000000
1.715057 -2.423035 -0.433136 18.000000
1.708206 -2.470383 -0.436522 28.000000
1.689377 -2.501488 -0.437097 26.000000
1.667461 -2.528366 -0.436849 27.000000
1.650443 -2.563314 -0.438013 24.000000
1.631846 -2.593083 -0.438257 27.000000
1.619053 -2.636337 -0.440693 27.000000
1.597789 -2.666911 -0.441083 22.000000
1.603531 -2.744291 -0.449055 9.000000
0.835867 1.445887 -0.223326 7.000000
0.843103 1.424301 -0.222307 16.000000
0.856026 1.410585 -0.222505 24.000000
0.879272 1.413655 -0.225330 22.000000
0.894602 1.403862 -0.226201 27.000000
0.909880 1.393865 -0.227073 26.000000
0.927809 1.387832 -0.228571 26.000000
0.945674 1.381583 -0.230075 27.000000
0.960682 1.371010 -0.230900 26.000000
0.960393 1.340719 -0.228399 19.000000
0.977904 1.334043 -0.229849 25.000000
0.995400 1.327098 -0.231355 29.000000
1.015844 1.323862 -0.233508 34.000000
1.030242 1.312550 -0.234279 27.000000
1.041387 1.297222 -0.234353 32.000000
1.068051 1.300940 -0.237921 30.000000
1.084773 1.293371 -0.239505 28.000000
1.095651 1.277542 -0.239529 25.000000
1.109555 1.265350 -0.240256 32.000000
1.126607 1.256688 -0.241743 33.000000
1.150323 1.255094 -0.244552 47.000000
1.184273 1.263954 -0.249565 32.000000
1.211203 1.265543 -0.253282 36.000000
1.224977 1.252039 -0.253984 31.000000
1.245641 1.245424 -0.256125 30.000000
1.255685 1.228113 -0.256110 26.000000
1.279789 1.224343 -0.258984 38.000000
1.299902 1.217340 -0.261200 42.000000
1.320436 1.209521 -0.263369 54.000000
1.333638 1.194828 -0.264032 34.000000
1.357834 1.189748 -0.266888 52.000000
1.374175 1.178319 -0.268401 35.000000
1.405969 1.178905 -0.272691 35.000000
1.414995 1.160089 -0.272633 27.000000
1.427641 1.144337 -0.273254 34.000000
1.451454 1.138021 -0.276210 54.000000
1.479559 1.133888 -0.279747 33.000000
1.491927 1.117435 -0.280380 35.000000
1.535688 1.124640 -0.287035 44.000000
1.556007 1.113298 -0.289116 41.000000
1.576217 1.101660 -0.291204 35.000000
1.588207 1.084091 -0.291797 31.000000
1.599781 1.066818 -0.292450 35.000000
1.619641 1.054464 -0.294551 44.000000
1.655883 1.052714 -0.299737 52.000000
1.671532 1.036964 -0.301039 36.000000
1.720882 1.041410 -0.308343 52.000000
1.753276 1.035218 -0.312822 48.000000
1.777377 1.023189 -0.315607 37.000000
1.796887 1.008649 -0.317764 32.000000
1.812167 0.991041 -0.319036 35.000000
1.835837 0.978239 -0.321904 60.000000
1.855208 0.962426 -0.323950 61.000000
1.891931 0.955588 -0.329134 37.000000
1.933313 0.949891 -0.334970 36.000000
1.965780 0.939386 -0.339350 65.000000
1.998343 0.928055 -0.343674 34.000000
2.030794 0.916369 -0.348077 31.000000
2.054139 0.900089 -0.350947 36.000000
2.086567 0.887029 -0.355232 36.000000
2.109722 0.869845 -0.358047 35.000000
2.141961 0.855958 -0.362492 35.000000
2.169506 0.839572 -0.366028 33.000000
2.215638 0.829494 -0.372684 48.000000
2.252346 0.815314 -0.377796 29.000000
2.293638 0.802007 -0.383699 41.000000
2.330272 0.786332 -0.388835 45.000000
2.362187 0.768438 -0.393199 36.000000
2.408100 0.754383 -0.399843 47.000000
2.472790 0.745205 -0.409711 50.000000
2.504487 0.724936 -0.414031 52.000000
2.531254 0.702747 -0.417573 56.000000
2.572126 0.683948 -0.423479 32.000000
2.632004 0.669121 -0.432457 49.000000
2.682323 0.650813 -0.439960 63.000000
2.737253 0.632589 -0.448178 31.000000
2.782606 0.611020 -0.454831 37.000000
2.842203 0.591625 -0.463861 57.000000
2.896928 0.570023 -0.472024 70.000000
2.956348 0.548171 -0.480985 95.000000
2.981565 0.519220 -0.484518 79.000000
2.962627 0.482607 -0.480845 26.000000
2.928680 0.444214 -0.474792 9.000000
2.933350 0.412079 -0.474976 9.000000
2.903289 0.375602 -0.469615 19.000000
2.936687 0.347229 -0.474641 63.000000
2.950068 0.316108 -0.476317 66.000000
2.943542 0.282883 -0.474915 36.000000
2.862755 0.243506 -0.461614 10.000000
2.899703 0.214710 -0.467166 10.000000
2.896933 0.182673 -0.466553 9.000000
2.879098 0.149885 -0.463379 9.000000
2.875591 0.118137 -0.462674 9.000000
2.871724 0.086497 -0.461970 9.000000
2.887331 0.055344 -0.464262 24.000000
2.892713 0.023785 -0.465145 81.000000
2.912549 -0.007922 -0.468320 67.000000
2.917215 -0.039949 -0.469023 77.000000
2.911739 -0.071751 -0.468140 60.000000
2.900881 -0.103270 -0.466463 62.000000
2.904557 -0.135261 -0.467166 75.000000
2.897920 -0.166793 -0.466284 51.000000
2.900962 -0.198802 -0.466897 45.000000
2.854333 -0.227005 -0.459586 34.000000
2.822178 -0.255574 -0.454744 13.000000
2.814289 -0.285993 -0.453689 9.000000
2.825771 -0.318428 -0.455889 8.000000
2.797670 -0.346333 -0.451670 8.000000
2.818213 -0.380127 -0.455361 8.000000
2.823677 -0.412404 -0.456678 8.000000
2.809336 -0.441738 -0.454834 8.000000
2.804326 -0.472500 -0.454570 8.000000
2.813631 -0.505706 -0.456496 8.000000
2.812826 -0.537466 -0.457019 9.000000
2.845613 -0.576013 -0.462964 32.000000
2.848810 -0.609212 -0.464178 44.000000
2.842058 -0.640271 -0.463728 51.000000
2.815726 -0.666779 -0.460137 35.000000
2.822771 -0.701019 -0.462044 34.000000
2.791056 -0.725723 -0.457765 27.000000
2.768739 -0.752225 -0.454881 18.000000
2.779411 -0.787933 -0.457567 21.000000
2.766016 -0.816973 -0.456250 17.000000
2.757015 -0.847003 -0.455626 16.000000
2.780593 -0.887636 -0.460546 20.000000
2.747411 -0.910260 -0.456114 13.000000
2.779439 -0.954655 -0.462574 13.000000
2.759600 -0.981668 -0.460386 15.000000
2.739561 -1.008386 -0.458202 18.000000
2.756078 -1.049050 -0.462307 20.000000
2.735315 -1.075496 -0.460123 19.000000
2.732758 -1.108990 -0.460941 22.000000
2.743336 -1.148316 -0.464158 19.000000
2.730660 -1.178537 -0.463515 16.000000
2.717708 -1.208207 -0.462780 13.000000
2.722543 -1.246010 -0.465023 11.000000
2.695263 -1.269653 -0.462077 15.000000
2.725930 -1.320453 -0.468898 19.000000
2.698070 -1.343869 -0.465858 14.000000
2.709757 -1.386696 -0.469501 17.000000
2.711932 -1.425690 -0.471793 20.000000
2.700766 -1.457459 -0.471606 18.000000
2.693304 -1.492097 -0.472364 13.000000
2.672751 -1.518839 -0.470657 12.000000
2.651682 -1.545772 -0.469048 12.000000
2.656221 -1.587161 -0.471773 20.000000
2.676581 -1.639629 -0.477684 18.000000
2.670924 -1.677067 -0.478967 18.000000
2.661133 -1.711328 -0.479394 21.000000
2.642187 -1.740625 -0.478418 14.000000
2.643933 -1.782962 -0.480975 14.000000
2.640424 -1.823431 -0.482967 13.000000
2.624359 -1.855400 -0.482620 21.000000
2.639881 -1.910452 -0.488197 20.000000
2.639141 -1.953519 -0.490685 21.000000
2.629386 -1.991657 -0.491782 23.000000
2.607403 -2.020663 -0.490561 21.000000
2.562464 -2.030223 -0.484837 21.000000
2.478589 -2.008637 -0.471920 18.000000
2.326864 -1.928674 -0.445925 14.000000
2.249005 -1.906425 -0.433886 17.000000
2.157587 -1.868893 -0.418822 22.000000
2.081345 -1.843462 -0.406819 29.000000
2.035350 -1.843197 -0.400735 36.000000
2.015025 -1.865639 -0.399635 73.000000
1.988019 -1.880264 -0.396929 56.000000
1.967261 -1.902203 -0.395832 35.000000
1.942815 -1.920410 -0.393937 35.000000
1.942561 -1.962826 -0.397027 63.000000
1.927905 -1.991394 -0.397253 60.000000
1.903394 -2.008224 -0.395265 52.000000
1.888119 -2.036381 -0.395395 57.000000
1.869017 -2.060764 -0.394899 55.000000
1.849749 -2.085048 -0.394313 37.000000
1.836546 -2.116627 -0.395119 35.000000
1.826129 -2.151851 -0.396606 26.000000
1.822588 -2.193926 -0.399287 35.000000
1.792261 -2.206190 -0.396587 34.000000
1.777328 -2.237530 -0.397251 34.000000
1.783231 -2.296104 -0.402792 35.000000
1.761057 -2.319664 -0.402043 35.000000
1.744521 -2.350888 -0.402651 34.000000
1.724546 -2.378026 -0.402476 29.000000
1.691335 -2.383911 -0.398819 21.000000
1.684984 -2.430960 -0.402093 31.000000
1.677829 -2.478173 -0.405241 32.000000
1.658932 -2.508914 -0.405679 34.000000
1.642174 -2.543813 -0.406768 29.000000
1.627602 -2.582771 -0.408499 29.000000
1.609695 -2.617517 -0.409543 32.000000
1.608984 -2.681962 -0.415172 29.000000
1.604004 -2.737109 -0.419238 10.000000
0.830260 1.434137 -0.206559 7.000000
0.840790 1.416380 -0.206082 13.000000
0.853612 1.402770 -0.206269 24.000000
0.879365 1.410061 -0.209579 21.000000
0.889358 1.391937 -0.209090 22.000000
0.911777 1.395044 -0.211846 27.000000
0.929712 1.389014 -0.213248 23.000000
0.944779 1.378627 -0.214019 27.000000
0.959794 1.368137 -0.214790 19.000000
0.957302 1.333323 -0.211724 16.000000
0.974683 1.326663 -0.213073 26.000000
1.000986 1.331726 -0.216409 29.000000
1.015444 1.320601 -0.217126 27.000000
1.029800 1.309321 -0.217844 24.000000
1.052702 1.309994 -0.220617 25.000000
1.066927 1.298303 -0.221341 32.000000
1.090616 1.297842 -0.224030 32.000000
1.091785 1.270698 -0.222081 21.000000
1.108878 1.262301 -0.223410 32.000000
1.125897 1.253677 -0.224796 32.000000
1.139542 1.241174 -0.225470 31.000000
1.176240 1.254285 -0.230853 34.000000
1.207046 1.259145 -0.234878 33.000000
1.217274 1.242179 -0.234853 35.000000
1.248358 1.246130 -0.238905 33.000000
1.258339 1.228817 -0.238884 20.000000
1.264554 1.207997 -0.238185 38.000000
1.284502 1.201191 -0.240238 57.000000
1.315887 1.203607 -0.244281 64.000000
1.340091 1.198904 -0.246926 35.000000
1.353108 1.184004 -0.247535 36.000000
1.377303 1.178654 -0.250195 56.000000
1.404945 1.176518 -0.253664 37.000000
1.413929 1.157742 -0.253541 21.000000
1.422676 1.138938 -0.253472 38.000000
1.442885 1.129263 -0.255414 37.000000
1.474514 1.128674 -0.259552 52.000000
1.502676 1.124173 -0.262899 53.000000
1.538919 1.124992 -0.267648 46.000000
1.559196 1.113711 -0.269570 50.000000
1.566947 1.093989 -0.269521 31.000000
1.574754 1.073766 -0.269352 24.000000
1.602927 1.067293 -0.272685 41.000000
1.626714 1.057998 -0.275446 48.000000
1.650796 1.047893 -0.278036 61.000000
1.666335 1.032237 -0.279283 48.000000
1.715453 1.037157 -0.286187 68.000000
1.748080 1.030756 -0.290221 44.000000
1.763507 1.013829 -0.291430 35.000000
1.782991 0.999478 -0.293479 29.000000
1.815547 0.991615 -0.297478 72.000000
1.834808 0.976492 -0.299478 56.000000
1.854170 0.960794 -0.301355 51.000000
1.877857 0.946938 -0.303951 52.000000
1.914628 0.939590 -0.308768 38.000000
1.969413 0.939722 -0.316403 63.000000
1.988417 0.922421 -0.318379 35.000000
2.043532 0.920778 -0.325981 30.000000
2.048815 0.896537 -0.325744 43.000000
2.081102 0.883861 -0.329835 37.000000
2.108954 0.868385 -0.333145 37.000000
2.141214 0.854551 -0.337256 36.000000
2.168773 0.838292 -0.340581 35.000000
2.224145 0.831738 -0.348193 40.000000
2.256268 0.815832 -0.352264 33.000000
2.283681 0.797639 -0.355617 33.000000
2.325000 0.783779 -0.361162 44.000000
2.366255 0.769052 -0.366643 55.000000
2.402791 0.751974 -0.371405 42.000000
2.462891 0.741327 -0.379828 49.000000
2.494583 0.721218 -0.383881 58.000000
2.530871 0.701831 -0.388592 59.000000
2.576485 0.684442 -0.394858 44.000000
2.631742 0.668323 -0.402518 33.000000
2.667702 0.646495 -0.407256 47.000000
2.708295 0.625150 -0.412736 16.000000
2.772868 0.608281 -0.421899 29.000000
2.827681 0.587956 -0.429606 50.000000
2.897002 0.569435 -0.439442 64.000000
2.966229 0.549443 -0.449290 68.000000
3.015849 0.524586 -0.456108 83.000000
3.031090 0.493211 -0.457866 46.000000
2.997186 0.454119 -0.452155 23.000000
2.982368 0.418539 -0.449483 17.000000
2.976927 0.384654 -0.448192 25.000000
2.966177 0.350404 -0.446162 32.000000
2.950195 0.315857 -0.443390 9.000000
2.953400 0.283539 -0.443481 9.000000
2.907057 0.247034 -0.436270 8.000000
2.939167 0.217443 -0.440798 8.000000
2.931479 0.184628 -0.439409 8.000000
2.948107 0.153313 -0.441720 9.000000
2.954505 0.121268 -0.442459 8.000000
2.926035 0.088074 -0.438110 9.000000
2.912016 0.055812 -0.435890 9.000000
2.947079 0.024191 -0.441071 35.000000
2.937280 -0.007976 -0.439590 62.000000
2.941952 -0.040220 -0.440240 51.000000
2.936374 -0.072238 -0.439409 53.000000
2.935467 -0.104323 -0.439319 62.000000
2.939047 -0.136639 -0.439967 63.000000
2.927539 -0.168211 -0.438398 56.000000
2.930482 -0.200580 -0.438956 41.000000
2.868971 -0.227877 -0.429999 19.000000
2.905707 -0.262788 -0.435730 35.000000
2.858457 -0.290074 -0.428906 9.000000
2.874744 -0.323582 -0.431680 8.000000
2.871084 -0.355003 -0.431412 8.000000
2.871969 -0.386905 -0.431882 8.000000
2.877464 -0.419718 -0.433087 9.000000
2.853166 -0.448141 -0.429962 8.000000
2.867684 -0.482523 -0.432548 8.000000
2.876814 -0.516548 -0.434485 14.000000
2.880759 -0.549785 -0.435593 20.000000
2.898935 -0.586174 -0.438992 30.000000
2.853671 -0.609482 -0.432669 10.000000
2.851744 -0.641717 -0.433042 9.000000
2.825367 -0.668185 -0.429663 9.000000
2.899635 -0.719333 -0.441738 38.000000
2.805443 -0.728655 -0.428216 18.000000
2.821264 -0.765623 -0.431328 20.000000
2.808028 -0.795117 -0.430148 18.000000
2.827762 -0.834124 -0.434068 14.000000
2.832673 -0.869307 -0.435796 18.000000
2.823076 -0.900291 -0.435247 16.000000
2.813205 -0.931002 -0.434699 14.000000
2.826365 -0.969648 -0.437775 18.000000
2.783042 -0.988836 -0.432155 10.000000
2.786133 -1.024292 -0.433685 21.000000
2.788654 -1.060145 -0.435302 17.000000
2.800088 -1.099551 -0.438262 20.000000
2.801784 -1.135556 -0.439772 23.000000
2.784633 -1.164413 -0.438493 18.000000
2.780969 -1.198581 -0.439184 18.000000
2.776941 -1.232759 -0.439870 16.000000
2.754355 -1.259187 -0.437783 10.000000
2.771975 -1.303814 -0.442035 19.000000
2.766433 -1.338539 -0.442800 21.000000
2.747409 -1.366278 -0.441235 16.000000
2.754402 -1.407719 -0.444126 22.000000
2.738762 -1.438046 -0.443363 19.000000
2.736288 -1.474750 -0.444629 19.000000
2.732895 -1.512028 -0.445983 21.000000
2.712222 -1.539047 -0.444315 10.000000
2.716598 -1.581396 -0.447066 16.000000
2.711909 -1.618851 -0.448302 19.000000
2.698609 -1.650737 -0.448029 16.000000
2.713933 -1.701514 -0.452750 21.000000
2.695076 -1.731329 -0.451861 16.000000
2.705374 -1.779400 -0.455652 18.000000
2.702141 -1.820303 -0.457435 16.000000
2.661581 -1.835965 -0.453063 10.000000
2.666126 -1.881693 -0.456019 20.000000
2.681438 -1.937155 -0.461227 20.000000
2.664016 -1.969659 -0.460897 18.000000
2.650172 -2.004932 -0.461149 21.000000
2.636505 -2.039456 -0.461291 21.000000
2.582943 -2.043828 -0.454691 19.000000
2.464160 -1.994336 -0.436523 18.000000
2.342880 -1.939362 -0.417759 10.000000
2.280572 -1.929184 -0.409079 22.000000
2.169395 -1.876520 -0.391737 20.000000
2.100477 -1.857706 -0.381991 28.000000
2.043259 -1.847621 -0.374224 35.000000
2.004706 -1.853286 -0.369850 47.000000
1.963334 -1.854144 -0.364658 54.000000
1.939395 -1.872241 -0.362910 36.000000
1.929390 -1.904017 -0.363910 33.000000
1.929374 -1.946334 -0.366805 61.000000
1.918292 -1.978188 -0.367692 57.000000
1.889751 -1.992121 -0.365270 47.000000
1.878906 -2.022882 -0.365888 69.000000
1.860057 -2.047203 -0.365438 41.000000
1.844165 -2.074963 -0.365552 47.000000
1.824602 -2.098956 -0.365006 40.000000
1.808084 -2.126455 -0.365105 21.000000
1.810078 -2.176798 -0.369073 33.000000
1.786292 -2.196576 -0.367853 31.000000
1.775730 -2.230827 -0.369026 33.000000
1.760388 -2.261958 -0.369629 36.000000
1.744702 -2.293113 -0.370217 34.000000
1.719613 -2.312174 -0.368887 31.000000
1.714761 -2.359052 -0.371986 30.000000
1.688921 -2.377804 -0.370640 19.000000
1.677042 -2.416663 -0.372344 35.000000
1.670105 -2.463776 -0.375366 29.000000
1.654143 -2.498541 -0.376394 32.000000
1.628337 -2.515684 -0.374735 29.000000
1.619333 -2.562832 -0.377680 28.000000
1.604386 -2.601664 -0.379172 32.000000
1.588697 -2.640501 -0.380734 25.000000
1.594961 -2.717760 -0.387767 9.000000
0.854464 1.473828 -0.196842 6.000000
0.840026 1.413124 -0.190713 10.000000
0.863132 1.416503 -0.193155 12.000000
0.875893 1.402710 -0.193339 16.000000
0.891137 1.392954 -0.194050 12.000000
0.911722 1.391352 -0.195931 21.000000
0.932334 1.389529 -0.197821 15.000000
0.950212 1.383285 -0.199130 17.000000
0.959509 1.364590 -0.198669 23.000000
0.968527 1.345918 -0.198200 9.000000
0.982389 1.335725 -0.198965 21.000000
0.990894 1.316885 -0.198432 19.000000
1.014313 1.317693 -0.200890 16.000000
1.031645 1.310347 -0.202156 21.000000
1.052124 1.306645 -0.204030 20.000000
1.063152 1.291209 -0.204094 24.000000
1.083532 1.287027 -0.205978 21.000000
1.110500 1.290071 -0.209037 10.000000
1.114069 1.267062 -0.207935 30.000000
1.121234 1.247334 -0.207382 24.000000
1.164962 1.267787 -0.213539 22.000000
1.188972 1.265717 -0.216026 32.000000
1.206134 1.256158 -0.217233 21.000000
1.226796 1.249849 -0.219117 26.000000
1.240369 1.236222 -0.219709 24.000000
1.278699 1.246729 -0.224725 10.000000
1.266655 1.209074 -0.221002 31.000000
1.294299 1.208557 -0.224106 27.000000
1.314807 1.200921 -0.225964 24.000000
1.335242 1.192904 -0.227773 35.000000
1.351976 1.181405 -0.229012 26.000000
1.371943 1.173325 -0.230944 33.000000
1.396186 1.167651 -0.233407 29.000000
1.408898 1.152139 -0.233967 14.000000
1.417569 1.133418 -0.233832 33.000000
1.449445 1.132995 -0.237593 29.000000
1.477489 1.128960 -0.240669 28.000000
1.493420 1.115963 -0.241942 35.000000
1.521600 1.111136 -0.245038 27.000000
1.553841 1.108661 -0.248791 30.000000
1.569951 1.094283 -0.249908 28.000000
1.602040 1.091275 -0.253802 20.000000
1.601530 1.065319 -0.252328 35.000000
1.621449 1.052957 -0.254105 31.000000
1.645436 1.043007 -0.256539 28.000000
1.677605 1.038179 -0.260349 35.000000
1.710057 1.032466 -0.264112 32.000000
1.742604 1.026163 -0.267887 31.000000
1.762157 1.012175 -0.269701 32.000000
1.781754 0.997561 -0.271519 18.000000
1.801269 0.982631 -0.273279 32.000000
1.829196 0.972353 -0.276430 36.000000
1.852924 0.959032 -0.278799 29.000000
1.872054 0.943320 -0.280640 32.000000
1.931199 0.946660 -0.288402 32.000000
1.945871 0.927534 -0.289465 28.000000
1.991729 0.923029 -0.295261 35.000000
1.992629 0.896992 -0.294332 16.000000
2.052125 0.897089 -0.302156 31.000000
2.080096 0.882275 -0.305178 34.000000
2.098654 0.863362 -0.307006 27.000000
2.130961 0.849403 -0.310711 32.000000
2.167737 0.836938 -0.315167 34.000000
2.209170 0.825388 -0.320306 26.000000
2.245989 0.811227 -0.324712 30.000000
2.245239 0.783398 -0.323730 10.000000
2.319319 0.781071 -0.333549 31.000000
2.355957 0.764923 -0.338058 34.000000
2.406674 0.752440 -0.344454 34.000000
2.443138 0.734749 -0.348907 35.000000
2.493829 0.720244 -0.355245 42.000000
2.520520 0.698430 -0.358440 32.000000
2.571104 0.682230 -0.364877 35.000000
2.602321 0.660215 -0.368523 14.000000
2.671937 0.646918 -0.377701 36.000000
2.698103 0.622239 -0.380764 9.000000
2.757893 0.604303 -0.388518 8.000000
2.812826 0.584283 -0.395599 26.000000
2.886976 0.566936 -0.405420 29.000000
2.951402 0.546210 -0.413888 31.000000
3.006027 0.522419 -0.421000 37.000000
3.060366 0.497468 -0.428025 42.000000
3.050928 0.461812 -0.426164 34.000000
3.050871 0.427758 -0.425765 49.000000
3.040596 0.392542 -0.423900 33.000000
3.054494 0.360456 -0.425459 44.000000
3.018793 0.322888 -0.420072 10.000000
2.977789 0.285613 -0.414089 7.000000
2.985673 0.253499 -0.414867 8.000000
2.973441 0.219724 -0.412901 6.000000
2.975645 0.187298 -0.412993 7.000000
2.982428 0.154946 -0.413679 8.000000
2.969055 0.121765 -0.411713 7.000000
2.960345 0.089058 -0.410340 8.000000
2.961166 0.056665 -0.410340 8.000000
2.941721 0.024200 -0.407596 9.000000
2.976480 -0.008070 -0.412399 38.000000
2.991153 -0.040828 -0.414365 32.000000
2.975654 -0.073089 -0.412307 43.000000
2.994443 -0.106348 -0.414959 36.000000
2.968414 -0.137878 -0.411438 32.000000
2.991489 -0.171707 -0.414774 37.000000
2.974635 -0.203373 -0.412534 29.000000
2.927811 -0.232364 -0.406276 16.000000
2.934962 -0.265197 -0.407465 35.000000
2.897472 -0.293749 -0.402491 10.000000
2.879297 -0.323760 -0.400259 9.000000
2.919878 -0.360555 -0.406145 10.000000
2.891255 -0.389156 -0.402547 10.000000
2.935864 -0.427844 -0.409107 28.000000
2.921324 -0.458390 -0.407559 23.000000
2.881940 -0.484525 -0.402510 13.000000
2.964297 -0.531685 -0.414512 49.000000
2.929165 -0.558404 -0.410054 32.000000
2.932629 -0.592332 -0.411047 34.000000
2.877641 -0.613886 -0.403879 9.000000
2.870752 -0.645337 -0.403607 8.000000
2.907072 -0.686858 -0.409263 10.000000
2.894626 -0.717318 -0.408217 24.000000
2.877045 -0.746429 -0.406494 16.000000
2.883149 -0.781721 -0.408159 20.000000
2.845989 -0.804915 -0.403551 10.000000
2.851227 -0.840271 -0.405212 10.000000
2.860926 -0.877116 -0.407453 10.000000
2.841808 -0.905260 -0.405553 10.000000
2.860112 -0.945547 -0.409131 16.000000
2.854409 -0.978232 -0.409246 10.000000
2.815613 -0.999326 -0.404662 8.000000
2.841780 -1.043816 -0.409565 16.000000
2.825680 -1.072917 -0.408243 10.000000
2.818566 -1.105349 -0.408353 14.000000
2.815538 -1.140021 -0.409128 13.000000
2.807671 -1.172424 -0.409140 10.000000
2.812854 -1.210992 -0.411239 14.000000
2.808713 -1.245563 -0.411813 10.000000
2.781471 -1.270133 -0.409256 8.000000
2.803516 -1.317120 -0.413799 14.000000
2.811236 -1.358611 -0.416533 10.000000
2.791802 -1.387263 -0.415200 16.000000
2.794391 -1.426414 -0.416971 14.000000
2.783037 -1.459430 -0.416952 10.000000
2.784630 -1.498817 -0.418707 12.000000
2.763742 -1.526988 -0.417370 10.000000
2.746829 -1.557314 -0.416593 8.000000
2.747157 -1.596925 -0.418328 10.000000
2.750843 -1.639742 -0.420803 10.000000
2.753856 -1.682929 -0.423265 15.000000
2.756689 -1.725684 -0.425515 10.000000
2.737671 -1.755913 -0.424614 10.000000
2.743114 -1.802378 -0.427589 12.000000
2.723214 -1.832480 -0.426781 9.000000
2.699433 -1.858962 -0.425027 8.000000
2.711279 -1.911370 -0.429252 13.000000
2.714378 -1.958588 -0.432072 10.000000
2.736631 -2.020861 -0.438171 19.000000
2.711005 -2.047182 -0.436382 17.000000
2.676654 -2.067874 -0.433430 10.000000
2.599386 -2.054169 -0.423514 16.000000
2.495653 -2.017334 -0.409114 10.000000
2.339638 -1.934072 -0.386049 8.000000
2.276585 -1.924620 -0.378101 12.000000
2.173547 -1.877492 -0.363200 10.000000
2.119409 -1.871791 -0.356598 18.000000
2.028836 -1.831846 -0.343786 25.000000
1.997722 -1.844031 -0.340995 26.000000
1.955752 -1.845592 -0.336269 35.000000
1.943379 -1.873154 -0.336431 30.000000
1.912189 -1.883957 -0.333585 14.000000
1.926432 -1.940136 -0.338742 48.000000
1.894704 -1.950644 -0.335894 28.000000
1.883553 -1.982174 -0.336724 34.000000
1.865156 -2.006407 -0.336324 36.000000
1.846512 -2.030463 -0.335837 28.000000
1.844028 -2.072964 -0.338372 36.000000
1.805978 -2.073611 -0.334162 28.000000
1.796114 -2.108422 -0.335468 10.000000
1.798459 -2.158600 -0.339154 30.000000
1.771746 -2.174357 -0.337348 23.000000
1.769607 -2.220846 -0.340393 30.000000
1.742205 -2.236306 -0.338578 26.000000
1.717809 -2.255300 -0.337358 23.000000
1.731700 -2.325805 -0.343791 28.000000
1.704627 -2.339793 -0.341868 19.000000
1.670456 -2.346249 -0.338870 10.000000
1.667477 -2.397094 -0.342198 29.000000
1.663609 -2.448169 -0.345581 22.000000
1.647858 -2.482819 -0.346527 26.000000
1.620758 -2.500763 -0.345154 22.000000
1.604099 -2.535314 -0.346165 23.000000
1.592017 -2.578184 -0.348207 24.000000
1.574068 -2.612610 -0.349085 18.000000
1.593414 -2.711132 -0.358342 10.000000
0.839692 1.444160 -0.177751 7.000000
0.835015 1.400666 -0.174220 14.000000
0.849329 1.391958 -0.174971 24.000000
0.869714 1.390979 -0.176692 19.000000
0.890183 1.389683 -0.178422 25.000000
0.908006 1.383960 -0.179620 22.000000
0.931311 1.386328 -0.181904 28.000000
0.940700 1.367832 -0.181484 32.000000
0.958392 1.361449 -0.182692 21.000000
0.955735 1.326673 -0.180022 18.000000
0.978989 1.328132 -0.182322 23.000000
0.993376 1.317291 -0.182930 23.000000
1.013681 1.314167 -0.184644 30.000000
1.034106 1.310808 -0.186365 26.000000
1.053929 1.307625 -0.188196 30.000000
1.074432 1.303638 -0.189880 28.000000
1.085342 1.287958 -0.189943 21.000000
1.102603 1.279721 -0.191125 24.000000
1.113171 1.263801 -0.191132 24.000000
1.130255 1.255182 -0.192267 31.000000
1.150628 1.249989 -0.193972 33.000000
1.174409 1.248109 -0.196252 27.000000
1.194825 1.242319 -0.197973 36.000000
1.211277 1.233102 -0.199180 31.000000
1.245828 1.240750 -0.203209 29.000000
1.234430 1.202661 -0.199720 29.000000
1.265483 1.206133 -0.203135 27.000000
1.289486 1.202328 -0.205408 31.000000
1.317217 1.201414 -0.208270 46.000000
1.337720 1.193455 -0.209981 30.000000
1.354020 1.182399 -0.211170 40.000000
1.374442 1.173824 -0.212892 34.000000
1.391028 1.161789 -0.213979 32.000000
1.395979 1.140135 -0.213305 32.000000
1.443305 1.152567 -0.219104 29.000000
1.444052 1.127450 -0.217844 35.000000
1.471772 1.123963 -0.220774 37.000000
1.499923 1.119506 -0.223602 28.000000
1.536126 1.120492 -0.227687 43.000000
1.552383 1.106367 -0.228750 33.000000
1.572542 1.094872 -0.230413 30.000000
1.584145 1.077909 -0.230943 33.000000
1.608269 1.068658 -0.233212 30.000000
1.628172 1.056313 -0.234829 32.000000
1.664788 1.054228 -0.238917 41.000000
1.680459 1.038483 -0.239944 29.000000
1.699951 1.025452 -0.241638 33.000000
1.736787 1.021753 -0.245696 35.000000
1.760729 1.010018 -0.247949 30.000000
1.780126 0.995767 -0.249663 31.000000
1.803985 0.983326 -0.251927 30.000000
1.832194 0.972735 -0.254744 52.000000
1.855879 0.959417 -0.256958 37.000000
1.883823 0.948170 -0.259853 33.000000
1.902983 0.931782 -0.261467 33.000000
1.930806 0.919663 -0.264377 36.000000
1.972257 0.913012 -0.269072 27.000000
2.013826 0.905604 -0.273711 30.000000
2.046204 0.893600 -0.277267 34.000000
2.087796 0.884698 -0.281929 30.000000
2.115566 0.869510 -0.284819 35.000000
2.143359 0.853640 -0.287645 33.000000
2.184844 0.842795 -0.292335 35.000000
2.217159 0.827486 -0.295796 35.000000
2.230633 0.805006 -0.296781 25.000000
2.262736 0.788663 -0.300180 34.000000
2.318159 0.779866 -0.306771 35.000000
2.359467 0.765305 -0.311508 34.000000
2.396042 0.748469 -0.315632 35.000000
2.437329 0.732130 -0.320234 49.000000
2.464144 0.711017 -0.323046 36.000000
2.529088 0.699995 -0.330867 42.000000
2.536514 0.672389 -0.331190 25.000000
2.591783 0.656890 -0.337780 34.000000
2.627619 0.635595 -0.341789 29.000000
2.644022 0.609215 -0.343377 8.000000
2.732908 0.598372 -0.354307 8.000000
2.773187 0.575478 -0.358879 9.000000
2.827960 0.554794 -0.365430 25.000000
2.921606 0.540175 -0.377026 37.000000
3.000576 0.521004 -0.386748 16.000000
3.074647 0.499345 -0.395758 38.000000
3.109247 0.470257 -0.399733 73.000000
3.104357 0.434924 -0.398665 54.000000
3.089212 0.398441 -0.396333 83.000000
3.098355 0.365291 -0.397060 54.000000
3.097166 0.330980 -0.396620 55.000000
3.051243 0.292422 -0.390399 13.000000
3.068992 0.260392 -0.392389 6.000000
3.037021 0.224291 -0.388060 8.000000
3.039364 0.191125 -0.388153 8.000000
3.026378 0.157188 -0.386257 8.000000
3.042737 0.124700 -0.388247 9.000000
3.034039 0.091236 -0.386982 8.000000
3.020003 0.057800 -0.385085 8.000000
2.995577 0.024608 -0.381924 9.000000
3.005588 -0.008137 -0.383188 10.000000
3.050038 -0.041572 -0.388786 88.000000
3.044423 -0.074670 -0.388153 62.000000
3.038435 -0.107754 -0.387428 61.000000
3.032171 -0.140729 -0.386702 69.000000
3.005732 -0.172367 -0.383450 30.000000
2.983900 -0.203803 -0.380831 20.000000
2.981508 -0.236375 -0.380647 10.000000
3.008387 -0.271530 -0.384342 9.000000
3.005228 -0.304333 -0.384156 10.000000
3.026435 -0.339904 -0.387123 46.000000
3.017670 -0.372275 -0.386212 61.000000
3.038041 -0.408505 -0.389173 98.000000
3.013787 -0.438745 -0.386467 62.000000
3.018622 -0.473166 -0.387444 66.000000
3.013358 -0.506064 -0.387162 72.000000
3.007624 -0.538962 -0.386880 65.000000
3.016322 -0.574457 -0.388481 95.000000
2.985586 -0.602326 -0.384968 49.000000
2.988544 -0.636998 -0.385940 60.000000
2.971814 -0.667440 -0.384406 69.000000
2.964412 -0.699669 -0.384031 35.000000
2.975898 -0.736761 -0.386156 41.000000
2.919765 -0.756660 -0.379536 35.000000
2.896958 -0.784591 -0.377202 25.000000
2.921792 -0.825513 -0.381193 23.000000
2.907881 -0.855956 -0.380104 13.000000
2.907859 -0.890653 -0.380974 17.000000
2.902765 -0.923679 -0.381127 18.000000
2.902069 -0.958364 -0.381898 13.000000
2.900930 -0.993066 -0.382572 15.000000
2.889897 -1.024845 -0.382195 14.000000
2.869359 -1.052734 -0.380394 12.000000
2.885539 -1.094688 -0.383625 20.000000
2.868960 -1.124103 -0.382345 15.000000
2.861147 -1.157328 -0.382486 16.000000
2.866842 -1.196006 -0.384277 20.000000
2.849102 -1.225376 -0.383186 15.000000
2.862877 -1.268239 -0.386191 11.000000
2.844401 -1.297472 -0.385002 10.000000
2.839062 -1.332836 -0.385646 13.000000
2.851413 -1.376447 -0.388528 19.000000
2.831781 -1.405490 -0.387336 13.000000
2.829785 -1.442773 -0.388379 20.000000
2.849041 -1.492152 -0.392541 20.000000
2.832528 -1.523397 -0.391849 13.000000
2.837445 -1.566339 -0.394175 13.000000
2.807549 -1.589592 -0.391571 11.000000
2.802870 -1.627817 -0.392681 13.000000
2.806259 -1.671205 -0.394884 22.000000
2.805136 -1.711769 -0.396376 13.000000
2.811500 -1.758270 -0.399153 18.000000
2.813032 -1.802444 -0.401319 19.000000
2.784810 -1.827906 -0.399307 10.000000
2.801721 -1.883343 -0.403833 15.000000
2.793759 -1.921771 -0.404572 15.000000
2.780722 -1.958128 -0.404921 14.000000
2.775197 -2.000262 -0.406339 22.000000
2.769103 -2.042540 -0.407747 19.000000
2.774323 -2.093826 -0.410904 25.000000
2.744030 -2.117346 -0.408665 24.000000
2.642747 -2.085955 -0.395921 19.000000
2.530909 -2.043177 -0.381590 19.000000
2.366724 -1.953882 -0.359092 13.000000
2.273122 -1.919037 -0.347138 11.000000
2.203133 -1.901710 -0.338710 20.000000
2.108336 -1.859433 -0.326200 20.000000
2.039913 -1.839255 -0.317864 21.000000
1.994096 -1.838051 -0.312924 34.000000
1.945013 -1.832628 -0.307518 31.000000
1.935634 -1.864228 -0.308324 32.000000
1.911539 -1.881958 -0.306848 32.000000
1.897860 -1.909935 -0.307075 33.000000
1.895086 -1.947753 -0.308823 37.000000
1.873719 -1.968452 -0.307905 34.000000
1.858873 -1.996173 -0.308025 33.000000
1.847047 -2.027465 -0.308782 35.000000
1.821505 -2.043970 -0.307213 31.000000
1.818732 -2.086285 -0.309539 30.000000
1.786197 -2.094829 -0.306857 24.000000
1.772837 -2.125721 -0.307499 27.000000
1.771622 -2.171971 -0.310245 30.000000
1.752004 -2.194358 -0.309674 24.000000
1.743329 -2.232999 -0.311284 27.000000
1.725007 -2.259861 -0.311241 28.000000
1.712285 -2.294560 -0.312275 26.000000
1.701794 -2.333362 -0.313834 26.000000
1.676350 -2.351890 -0.312681 15.000000
1.670528 -2.398619 -0.315282 26.000000
1.655515 -2.433274 -0.316252 26.000000
1.631800 -2.455390 -0.315520 23.000000
1.613045 -2.485728 -0.315934 24.000000
1.604571 -2.532681 -0.318356 24.000000
1.595181 -2.579767 -0.320749 23.000000
1.578940 -2.613173 -0.321447 21.000000
1.555509 -2.638885 -0.321178 7.000000
0.841384 1.444980 -0.162781 7.000000
0.836616 1.401467 -0.159506 21.000000
0.846637 1.383719 -0.159130 23.000000
0.874825 1.395447 -0.162177 29.000000
0.883746 1.377928 -0.161900 29.000000
0.912364 1.388932 -0.164921 29.000000
0.919119 1.366456 -0.164045 32.000000
0.936739 1.360452 -0.165149 33.000000
0.957213 1.358200 -0.166755 35.000000
0.963211 1.335546 -0.165813 24.000000
0.974702 1.320886 -0.165866 28.000000
0.992000 1.314131 -0.166975 32.000000
1.021443 1.322856 -0.170061 30.000000
1.032716 1.307725 -0.170117 34.000000
1.046875 1.296326 -0.170679 31.000000
1.070433 1.296279 -0.172775 33.000000
1.094087 1.295869 -0.174829 32.000000
1.101636 1.276268 -0.174373 20.000000
1.111590 1.260898 -0.174477 43.000000
1.128638 1.252318 -0.175511 34.000000
1.162459 1.261796 -0.179144 34.000000
1.179555 1.252571 -0.180191 35.000000
1.193176 1.239583 -0.180719 35.000000
1.206586 1.226385 -0.181247 37.000000
1.223469 1.216586 -0.182247 35.000000
1.247398 1.213432 -0.184357 20.000000
1.264138 1.203081 -0.185365 44.000000
1.284053 1.196417 -0.187014 37.000000
1.308057 1.192244 -0.189092 45.000000
1.321039 1.177794 -0.189527 57.000000
1.356340 1.182786 -0.193218 40.000000
1.384340 1.180721 -0.195856 37.000000
1.400946 1.168603 -0.196839 49.000000
1.405954 1.146863 -0.196268 25.000000
1.418429 1.131324 -0.196713 34.000000
1.438186 1.122179 -0.198295 40.000000
1.466202 1.118389 -0.200909 36.000000
1.514236 1.128937 -0.206247 57.000000
1.526471 1.112180 -0.206653 35.000000
1.550678 1.104012 -0.208752 35.000000
1.570818 1.092564 -0.210253 41.000000
1.574230 1.070058 -0.209687 19.000000
1.610644 1.069192 -0.213387 37.000000
1.634729 1.059553 -0.215452 45.000000
1.658812 1.049460 -0.217522 36.000000
1.691345 1.044250 -0.220642 50.000000
1.706710 1.028566 -0.221683 41.000000
1.722130 1.012300 -0.222604 47.000000
1.745981 1.000758 -0.224698 43.000000
1.774210 0.991233 -0.227292 20.000000
1.797974 0.978827 -0.229336 36.000000
1.825967 0.968652 -0.232007 36.000000
1.858513 0.959995 -0.235117 36.000000
1.873295 0.941799 -0.236061 42.000000
1.905589 0.932434 -0.239249 36.000000
1.942606 0.924261 -0.243007 35.000000
1.975130 0.913413 -0.246148 35.000000
2.025605 0.910288 -0.251615 17.000000
2.039980 0.890039 -0.252520 33.000000
2.058701 0.871559 -0.253990 32.000000
2.113925 0.868045 -0.259985 32.000000
2.141724 0.852229 -0.262600 35.000000
2.173963 0.837868 -0.265788 42.000000
2.201598 0.820980 -0.268343 29.000000
2.229023 0.803758 -0.270976 30.000000
2.251684 0.784277 -0.272974 23.000000
2.302410 0.773986 -0.278390 34.000000
2.358021 0.764078 -0.284388 39.000000
2.389801 0.745818 -0.287545 34.000000
2.421509 0.726888 -0.290708 39.000000
2.457990 0.708659 -0.294371 54.000000
2.484605 0.687159 -0.296974 35.000000
2.573595 0.681696 -0.307029 54.000000
2.609682 0.660959 -0.310714 26.000000
2.616711 0.632510 -0.310962 21.000000
2.623410 0.603895 -0.311210 8.000000
2.712262 0.593323 -0.321227 8.000000
2.752617 0.570785 -0.325422 8.000000
2.817150 0.552282 -0.332586 9.000000
2.881580 0.532329 -0.339671 26.000000
2.940989 0.510248 -0.346279 22.000000
3.064060 0.497246 -0.360298 17.000000
3.113406 0.470547 -0.365680 47.000000
3.152770 0.441411 -0.369815 91.000000
3.157367 0.406983 -0.370011 89.000000
3.156738 0.371875 -0.369531 75.000000
3.155608 0.336973 -0.369149 74.000000
3.154175 0.302080 -0.368668 59.000000
3.112655 0.263843 -0.363564 9.000000
3.115343 0.229867 -0.363660 7.000000
3.117742 0.195891 -0.363660 8.000000
3.099823 0.160885 -0.361443 8.000000
3.066614 0.125607 -0.357394 8.000000
3.072804 0.092280 -0.357973 8.000000
3.083585 0.059034 -0.359224 9.000000
3.054167 0.025150 -0.355753 9.000000
3.069160 -0.008298 -0.357394 16.000000
3.068971 -0.041775 -0.357394 28.000000
3.053416 -0.074792 -0.355566 10.000000
3.032531 -0.107402 -0.353160 9.000000
3.056031 -0.141649 -0.356050 9.000000
3.064256 -0.175585 -0.357112 9.000000
3.077047 -0.209982 -0.358656 8.000000
3.094387 -0.245094 -0.360870 6.000000
3.047008 -0.274839 -0.355580 9.000000
3.053695 -0.309019 -0.356546 10.000000
3.050206 -0.342306 -0.356357 33.000000
3.066057 -0.377930 -0.358474 75.000000
3.056863 -0.410677 -0.357708 62.000000
3.071880 -0.446892 -0.359821 95.000000
3.071733 -0.481039 -0.360110 70.000000
3.071282 -0.515388 -0.360399 29.000000
3.055668 -0.547028 -0.359058 95.000000
3.049564 -0.580311 -0.358772 82.000000
3.028567 -0.610459 -0.356671 37.000000
3.016876 -0.642453 -0.355813 39.000000
3.029060 -0.679684 -0.357819 31.000000
3.026361 -0.713726 -0.358105 31.000000
3.008884 -0.744294 -0.356580 23.000000
2.986175 -0.773218 -0.354486 9.000000
2.968057 -0.803125 -0.352967 21.000000
2.954397 -0.833983 -0.352019 16.000000
2.968984 -0.873242 -0.354487 19.000000
2.949883 -0.902561 -0.352970 18.000000
2.949402 -0.937599 -0.353632 17.000000
2.943757 -0.971382 -0.353818 21.000000
2.970697 -1.016141 -0.357872 16.000000
2.917270 -1.033612 -0.352301 8.000000
2.933945 -1.075431 -0.355214 18.000000
2.922044 -1.107488 -0.354734 13.000000
2.933082 -1.148216 -0.356973 18.000000
2.915802 -1.178375 -0.355927 17.000000
2.921300 -1.217508 -0.357593 17.000000
2.926147 -1.257235 -0.359350 19.000000
2.925888 -1.295252 -0.360540 16.000000
2.884609 -1.314434 -0.356500 9.000000
2.897096 -1.358634 -0.359263 21.000000
2.895586 -1.396752 -0.360344 14.000000
2.902642 -1.438984 -0.362432 21.000000
2.891251 -1.472976 -0.362390 18.000000
2.883815 -1.509170 -0.362901 15.000000
2.884935 -1.549559 -0.364413 20.000000
2.885248 -1.590731 -0.365917 13.000000
2.867746 -1.622294 -0.365208 9.000000
2.845541 -1.651161 -0.364052 17.000000
2.848714 -1.694980 -0.366089 14.000000
2.851611 -1.738447 -0.367910 19.000000
2.840969 -1.774886 -0.368285 18.000000
2.829698 -1.811407 -0.368656 16.000000
2.847198 -1.866880 -0.372832 21.000000
2.838987 -1.906340 -0.373625 16.000000
2.830806 -1.945125 -0.374306 12.000000
2.833689 -1.993282 -0.376705 26.000000
2.823883 -2.033051 -0.377472 26.000000
2.829467 -2.084558 -0.380384 29.000000
2.826445 -2.130481 -0.382205 33.000000
2.775313 -2.140194 -0.377479 27.000000
2.686135 -2.117456 -0.367327 31.000000
2.585422 -2.084442 -0.355833 30.000000
2.562488 -2.112676 -0.354916 15.000000
2.314973 -1.951632 -0.322732 24.000000
2.229395 -1.921814 -0.312820 27.000000
2.129923 -1.877166 -0.300939 24.000000
2.068640 -1.863818 -0.294373 30.000000
1.997012 -1.839301 -0.286180 32.000000
1.955786 -1.839935 -0.282129 37.000000
1.917595 -1.844124 -0.278700 36.000000
1.904442 -1.871994 -0.278923 32.000000
1.890974 -1.899857 -0.279139 52.000000
1.877023 -1.927626 -0.279349 36.000000
1.862751 -1.955300 -0.279554 35.000000
1.844766 -1.979238 -0.279155 35.000000
1.823018 -1.999409 -0.278242 40.000000
1.807809 -2.026672 -0.278432 37.000000
1.812740 -2.075556 -0.281413 34.000000
1.777077 -2.080124 -0.278458 24.000000
1.773556 -2.122329 -0.280562 28.000000
1.762903 -2.157080 -0.281641 30.000000
1.736213 -2.172334 -0.280114 30.000000
1.727818 -2.210784 -0.281673 30.000000
1.715804 -2.245444 -0.282631 28.000000
1.700210 -2.276037 -0.283078 29.000000
1.690049 -2.314600 -0.284502 28.000000
1.664736 -2.332969 -0.283447 20.000000
1.662104 -2.383728 -0.286315 28.000000
1.647290 -2.418179 -0.287199 27.000000
1.631938 -2.452605 -0.288069 29.000000
1.605200 -2.470400 -0.286895 26.000000
1.582395 -2.491132 -0.286112 26.000000
1.578854 -2.546301 -0.289352 28.000000
1.569056 -2.593287 -0.291509 26.000000
1.535746 -2.601720 -0.289348 9.000000
0.842974 1.445647 -0.147708 7.000000
0.833057 1.393568 -0.143859 16.000000
0.853383 1.392909 -0.145342 25.000000
0.873743 1.391885 -0.146732 31.000000
0.883462 1.373890 -0.146393 29.000000
0.909282 1.380767 -0.148735 32.000000
0.917903 1.363032 -0.148444 29.000000
0.935483 1.357011 -0.149398 31.000000
0.955922 1.354845 -0.150860 31.000000
0.958897 1.328179 -0.149550 23.000000
0.979222 1.325596 -0.151015 26.000000
0.993566 1.314838 -0.151520 32.000000
1.019987 1.319635 -0.153862 29.000000
1.031213 1.304484 -0.153912 29.000000
1.048460 1.297041 -0.154884 33.000000
1.065688 1.289326 -0.155859 31.000000
1.089325 1.288992 -0.157717 32.000000
1.096731 1.269458 -0.157300 24.000000
1.117103 1.264836 -0.158699 32.000000
1.120803 1.241440 -0.157756 35.000000
1.151166 1.247374 -0.160624 32.000000
1.170950 1.242443 -0.162090 32.000000
1.194813 1.240270 -0.163983 36.000000
1.208276 1.227124 -0.164458 33.000000
1.225111 1.217274 -0.165357 34.000000
1.252623 1.217649 -0.167745 14.000000
1.262245 1.200401 -0.167694 36.000000
1.286207 1.196686 -0.169616 49.000000
1.306549 1.189165 -0.171011 36.000000
1.319495 1.174757 -0.171444 35.000000
1.343483 1.170044 -0.173330 48.000000
1.386518 1.181000 -0.177650 37.000000
1.398972 1.166201 -0.178097 40.000000
1.400023 1.141354 -0.177080 21.000000
1.416321 1.129002 -0.177957 52.000000
1.440370 1.122515 -0.179871 64.000000
1.468410 1.118729 -0.182228 35.000000
1.496487 1.114426 -0.184593 42.000000
1.532697 1.115513 -0.187954 36.000000
1.544789 1.098596 -0.188361 35.000000
1.564587 1.087707 -0.189758 38.000000
1.584624 1.076057 -0.191161 27.000000
1.600460 1.061359 -0.192010 35.000000
1.632826 1.057268 -0.194915 36.000000
1.661102 1.049942 -0.197271 34.000000
1.680902 1.036843 -0.198633 48.000000
1.700450 1.023862 -0.200060 49.000000
1.728689 1.015248 -0.202435 47.000000
1.744013 0.998719 -0.203245 46.000000
