x y z intensity
2.843840 -0.941574 1.499464 27.000000
2.816191 -0.969489 1.489191 24.000000
2.814150 -1.005527 1.491625 28.000000
2.786052 -1.032535 1.481173 25.000000
2.724360 -1.046209 1.452714 9.000000
2.754427 -1.094882 1.473176 30.000000
2.725736 -1.120596 1.462367 28.000000
2.709263 -1.150973 1.458040 28.000000
2.676208 -1.173851 1.444854 27.000000
2.675629 -1.210835 1.449203 29.000000
2.666101 -1.244514 1.449514 29.000000
2.640557 -1.269910 1.440394 26.000000
2.586089 -1.281369 1.416374 10.000000
2.595861 -1.324322 1.427412 33.000000
2.569273 -1.348758 1.418546 28.000000
2.554291 -1.379216 1.416181 30.000000
2.539209 -1.409478 1.413716 32.000000
2.504200 -1.428302 1.400329 28.000000
2.496315 -1.462487 1.402049 30.000000
2.468848 -1.484961 1.392773 26.000000
2.417569 -1.493252 1.370973 11.000000
2.420422 -1.533713 1.378925 29.000000
2.411386 -1.567060 1.380243 28.000000
2.405119 -1.603478 1.384191 32.000000
2.372324 -1.622146 1.372929 28.000000
2.351325 -1.647257 1.367474 26.000000
2.347656 -1.685937 1.373242 22.000000
2.332643 -1.716643 1.372454 13.000000
2.295621 -1.730911 1.358837 10.000000
2.283661 -1.763807 1.359994 32.000000
2.267838 -1.793872 1.359006 32.000000
2.262215 -1.832279 1.364177 46.000000
2.245687 -1.862152 1.362958 47.000000
2.197701 -1.865416 1.342630 27.000000
2.170572 -1.885477 1.335022 27.000000
2.156942 -1.917336 1.335643 25.000000
2.119380 -1.927585 1.321580 10.000000
2.118538 -1.971282 1.330453 31.000000
2.106152 -2.006543 1.333398 24.000000
2.084570 -2.031445 1.329590 28.000000
2.071383 -2.066477 1.332388 30.000000
2.042933 -2.084404 1.324234 25.000000
2.023883 -2.111754 1.322185 29.000000
1.997159 -2.133113 1.316507 21.000000
1.968404 -2.149858 1.308207 10.000000
1.968761 -2.201060 1.320735 32.000000
1.938169 -2.218172 1.312814 25.000000
1.917911 -2.244381 1.310413 27.000000
1.892874 -2.267841 1.306470 27.000000
1.876412 -2.301545 1.308477 24.000000
1.863864 -2.337851 1.311859 28.000000
1.829514 -2.349724 1.301567 18.000000
1.825725 -2.401234 1.313269 19.000000
1.780177 -2.397741 1.295027 13.000000
1.733773 -2.388782 1.274305 9.000000
1.643746 -2.320022 1.222491 10.000000
1.537201 -2.222944 1.157230 10.000000
1.456282 -2.157823 1.109960 10.000000
1.376934 -2.091050 1.062998 10.000000
1.314280 -2.045903 1.027947 9.000000
1.230714 -1.964383 0.975591 9.000000
1.175641 -1.924333 0.944856 13.000000
1.119183 -1.879336 0.912401 17.000000
1.098642 -1.893150 0.908857 24.000000
1.077884 -1.906675 0.905313 26.000000
0.852356 1.501179 0.731735 24.000000
0.868721 1.490364 0.734596 25.000000
0.884914 1.479378 0.737457 30.000000
0.920273 1.499483 0.756053 15.000000
0.904788 1.437408 0.733157 28.000000
0.920427 1.426060 0.735867 23.000000
0.939990 1.422700 0.742853 26.000000
0.955543 1.410837 0.745521 29.000000
0.965762 1.391339 0.744167 21.000000
0.988960 1.390440 0.752818 26.000000
1.001464 1.374395 0.753354 32.000000
1.021115 1.369686 0.760258 19.000000
1.030640 1.349703 0.758690 32.000000
1.048266 1.340412 0.763177 26.000000
1.062153 1.327834 0.765909 33.000000
1.076837 1.314572 0.768356 34.000000
1.088368 1.297709 0.768624 28.000000
1.113783 1.298467 0.779585 49.000000
1.128184 1.284582 0.781880 33.000000
1.150717 1.281184 0.790721 27.000000
1.152649 1.253471 0.784607 38.000000
1.181412 1.256152 0.797562 35.000000
1.192240 1.238215 0.797660 35.000000
1.202187 1.220644 0.797978 42.000000
1.218379 1.209358 0.802460 35.000000
1.228604 1.191055 0.802362 36.000000
1.251145 1.185567 0.811055 34.000000
1.277145 1.182799 0.821861 33.000000
1.293126 1.170380 0.826234 34.000000
1.315819 1.163747 0.834911 28.000000
1.328403 1.147840 0.837048 35.000000
1.347642 1.137632 0.843499 37.000000
1.359933 1.121285 0.845588 30.000000
1.368594 1.101993 0.845448 42.000000
1.394715 1.096582 0.856164 37.000000
1.403109 1.076888 0.855910 31.000000
1.425663 1.067948 0.864316 35.000000
1.437385 1.050666 0.866190 33.000000
1.455698 1.038847 0.872690 37.000000
1.470801 1.023740 0.876648 42.000000
1.489065 1.011311 0.883123 33.000000
1.507683 0.998153 0.889126 42.000000
1.522089 0.982629 0.893305 37.000000
1.544384 0.971233 0.901491 34.000000
1.554755 0.952788 0.903292 34.000000
1.580321 0.943401 0.913988 42.000000
1.586610 0.922275 0.913454 37.000000
1.608240 0.909865 0.921839 52.000000
1.618071 0.890582 0.923414 35.000000
1.635595 0.875454 0.929469 55.000000
1.656986 0.861946 0.937655 37.000000
1.701915 0.860502 0.959668 56.000000
1.711362 0.840044 0.961037 32.000000
1.724578 0.821439 0.964593 30.000000
1.745479 0.806547 0.972933 36.000000
1.766237 0.791300 0.981228 34.000000
1.807428 0.784507 1.000799 38.000000
1.824075 0.766445 1.006750 42.000000
1.836399 0.746374 1.010376 35.000000
1.848624 0.726138 1.013871 29.000000
1.889819 0.716649 1.033235 34.000000
1.901827 0.695594 1.036622 37.000000
1.925900 0.679017 1.047136 39.000000
1.945749 0.660544 1.055319 46.000000
1.961465 0.639968 1.060737 46.000000
1.976745 0.619404 1.066447 36.000000
2.008967 0.603612 1.081259 70.000000
2.045120 0.588517 1.098610 37.000000
2.068610 0.568890 1.108668 35.000000
2.087465 0.547877 1.116741 45.000000
2.097780 0.524036 1.119708 36.000000
2.142148 0.508442 1.141384 35.000000
2.164917 0.486984 1.151428 45.000000
2.174216 0.462349 1.154878 35.000000
2.218332 0.444429 1.176247 51.000000
2.227282 0.419024 1.179489 27.000000
2.279688 0.401201 1.205675 33.000000
2.318912 0.379935 1.224881 46.000000
2.340487 0.355180 1.234696 44.000000
2.366267 0.330542 1.246750 46.000000
2.391621 0.305386 1.258980 57.000000
2.434310 0.281749 1.280483 56.000000
2.463708 0.255719 1.294803 37.000000
2.475176 0.227358 1.299778 28.000000
2.539402 0.203026 1.332478 37.000000
2.563519 0.174612 1.344507 35.000000
2.596160 0.146087 1.361092 40.000000
2.659546 0.118116 1.393737 41.000000
2.665165 0.086898 1.396148 42.000000
2.710091 0.056310 1.419620 37.000000
2.728180 0.024532 1.429087 32.000000
2.776993 -0.007845 1.454606 35.000000
2.812231 -0.041083 1.473069 35.000000
2.864882 -0.075722 1.500610 34.000000
2.912485 -0.111347 1.526123 40.000000
2.964067 -0.148444 1.553751 36.000000
3.019807 -0.186966 1.583585 42.000000
3.079473 -0.227172 1.615514 34.000000
3.116436 -0.266948 1.636158 31.000000
3.166229 -0.308844 1.663530 35.000000
3.233090 -0.353918 1.700040 37.000000
3.198263 -0.388371 1.683051 36.000000
3.194048 -0.425977 1.682164 36.000000
3.153963 -0.458700 1.663104 39.000000
3.139938 -0.494513 1.657712 36.000000
3.129987 -0.530860 1.654526 35.000000
3.084818 -0.560650 1.632650 29.000000
3.078561 -0.597006 1.631464 35.000000
3.050041 -0.628989 1.619069 33.000000
3.034622 -0.662872 1.612854 35.000000
3.022821 -0.697763 1.609483 40.000000
3.002095 -0.730239 1.601195 35.000000
2.954993 -0.756019 1.579546 34.000000
2.946712 -0.790821 1.577974 32.000000
2.890762 -0.812508 1.551573 27.000000
2.869205 -0.842688 1.542839 31.000000
2.868359 -0.879284 1.545982 33.000000
2.841634 -0.907758 1.535183 33.000000
2.818533 -0.937438 1.527096 33.000000
2.808340 -0.970667 1.525261 33.000000
2.785174 -0.999184 1.516382 30.000000
2.778184 -1.033816 1.517138 32.000000
2.741675 -1.057233 1.501758 26.000000
2.713347 -1.083157 1.490855 30.000000
2.701335 -1.115388 1.488953 35.000000
2.684924 -1.145570 1.484684 32.000000
2.660092 -1.171960 1.475695 34.000000
2.647258 -1.203398 1.473407 33.000000
2.626144 -1.230751 1.466507 30.000000
2.604221 -1.258308 1.460116 29.000000
2.590181 -1.289454 1.458040 29.000000
2.580314 -1.321846 1.457616 33.000000
2.565558 -1.352644 1.455338 36.000000
2.511304 -1.361834 1.430574 32.000000
2.527442 -1.409191 1.446016 33.000000
2.511943 -1.439204 1.443449 33.000000
2.503863 -1.473559 1.445237 32.000000
2.472487 -1.494003 1.433574 29.000000
2.418166 -1.499715 1.408538 26.000000
2.385988 -1.519249 1.397258 29.000000
2.407173 -1.571984 1.416370 33.000000
2.382015 -1.596037 1.409415 29.000000
2.364854 -1.624118 1.406198 32.000000
2.350390 -1.655176 1.405664 33.000000
2.325425 -1.677554 1.397864 27.000000
2.310447 -1.708167 1.397130 14.000000
2.284359 -1.730522 1.389744 17.000000
2.261655 -1.755172 1.384457 25.000000
2.259873 -1.796259 1.392113 33.000000
2.233126 -1.817663 1.384454 30.000000
2.199381 -1.832931 1.372494 32.000000
2.182756 -1.862117 1.371161 32.000000
2.148777 -1.876346 1.359066 28.000000
2.155371 -1.926172 1.372656 25.000000
2.111127 -1.930507 1.353972 21.000000
2.096868 -1.961896 1.354568 26.000000
2.085455 -1.996184 1.357074 33.000000
2.059636 -2.018618 1.351642 29.000000
2.047559 -2.052734 1.354004 28.000000
2.022518 -2.073805 1.347793 31.000000
1.992861 -2.092100 1.339978 25.000000
1.982976 -2.129005 1.344187 26.000000
1.956055 -2.150000 1.338379 18.000000
1.951425 -2.193518 1.346491 26.000000
1.941795 -2.234634 1.353038 32.000000
1.897626 -2.233403 1.333969 24.000000
1.884397 -2.270709 1.338201 25.000000
1.864822 -2.300926 1.338165 29.000000
1.849217 -2.333666 1.339658 26.000000
1.831787 -2.367209 1.341509 24.000000
1.802809 -2.385988 1.335066 16.000000
1.778023 -2.407277 1.330069 11.000000
1.729947 -2.399496 1.309480 10.000000
1.650926 -2.345988 1.264601 12.000000
1.549840 -2.256826 1.201913 10.000000
1.456165 -2.173226 1.143638 10.000000
1.368571 -2.090569 1.087156 10.000000
1.321010 -2.068782 1.063290 10.000000
1.223086 -1.964290 0.997987 9.000000
1.177712 -1.940165 0.974568 10.000000
1.123682 -1.899316 0.943286 10.000000
1.095988 -1.901348 0.933824 16.000000
0.844688 1.498089 0.746727 34.000000
0.857616 1.483822 0.747932 31.000000
0.878553 1.480741 0.754800 28.000000
0.897170 1.473462 0.759684 32.000000
0.893841 1.431046 0.746378 25.000000
0.916831 1.431215 0.755228 29.000000
0.929991 1.415819 0.755971 36.000000
0.945502 1.404044 0.758689 29.000000
0.962468 1.396362 0.763685 34.000000
0.969965 1.373052 0.760173 34.000000
0.987724 1.364465 0.764830 30.000000
1.013582 1.366661 0.775667 34.000000
1.022183 1.347149 0.774357 29.000000
1.037111 1.334321 0.776854 34.000000
1.056555 1.328882 0.783827 57.000000
1.074142 1.319103 0.788383 34.000000
1.082984 1.298693 0.786569 56.000000
1.102409 1.292496 0.793476 37.000000
1.119750 1.282058 0.797944 40.000000
1.130219 1.265144 0.798454 45.000000
1.146600 1.254806 0.803108 30.000000
1.172946 1.253659 0.813913 61.000000
1.186224 1.239453 0.816406 71.000000
1.196172 1.221849 0.816745 39.000000
1.206686 1.203687 0.816724 68.000000
1.232454 1.201619 0.827756 59.000000
1.245277 1.186639 0.830088 50.000000
1.264570 1.177676 0.836777 68.000000
1.273900 1.159239 0.836819 23.000000
1.299842 1.155697 0.847803 35.000000
1.319084 1.145762 0.854439 56.000000
1.328066 1.126832 0.854374 31.000000
1.357534 1.124922 0.867483 48.000000
1.355825 1.097149 0.860731 36.000000
1.381880 1.091700 0.871561 36.000000
1.397360 1.077584 0.875763 34.000000
1.405567 1.057819 0.875459 22.000000
1.431080 1.051684 0.886550 37.000000
1.439017 1.031572 0.886130 36.000000
1.460877 1.022097 0.894974 34.000000
1.479581 1.009231 0.901173 43.000000
1.497721 0.996493 0.907697 34.000000
1.515845 0.983393 0.914117 39.000000
1.538093 0.971938 0.922445 35.000000
1.533309 0.944101 0.915251 16.000000
1.566403 0.939416 0.930658 42.000000
1.576538 0.920586 0.932410 43.000000
1.594224 0.906028 0.938592 41.000000
1.619604 0.895400 0.949355 55.000000
1.629380 0.875850 0.950879 38.000000
1.638520 0.856553 0.952720 33.000000
1.659799 0.842782 0.960997 46.000000
1.716476 0.846598 0.990295 23.000000
1.717807 0.821984 0.987009 32.000000
1.730603 0.803363 0.990950 35.000000
1.767511 0.795437 1.008615 31.000000
1.792235 0.781386 1.019328 35.000000
1.812896 0.765090 1.027685 39.000000
1.829365 0.746759 1.033607 33.000000
1.841583 0.726402 1.037221 33.000000
1.861908 0.709030 1.045349 27.000000
1.898472 0.697606 1.063074 36.000000
1.914484 0.677756 1.068777 46.000000
1.930001 0.657848 1.074701 35.000000
1.958045 0.641731 1.087566 43.000000
1.973375 0.621063 1.093376 35.000000
1.992709 0.601327 1.101463 34.000000
2.028670 0.586268 1.119145 34.000000
2.047861 0.565580 1.127050 28.000000
2.075155 0.546913 1.139952 33.000000
2.093710 0.525442 1.148034 32.000000
2.120772 0.505638 1.160677 32.000000
2.156327 0.487194 1.177965 35.000000
2.165840 0.462429 1.181082 52.000000
2.196843 0.441833 1.195818 32.000000
2.223083 0.419881 1.208528 31.000000
2.266545 0.400405 1.230526 28.000000
2.292517 0.377060 1.243037 34.000000
2.313969 0.352455 1.253039 33.000000
2.348086 0.329354 1.270378 36.000000
2.391038 0.306486 1.291964 32.000000
2.420388 0.281158 1.306726 36.000000
2.440870 0.254294 1.316603 34.000000
2.460795 0.227016 1.326828 31.000000
2.511577 0.201617 1.353019 29.000000
2.535468 0.173357 1.365374 32.000000
2.576715 0.145570 1.387029 34.000000
2.609033 0.116363 1.403778 35.000000
2.649825 0.086714 1.425084 32.000000
2.681287 0.055941 1.442026 31.000000
2.716886 0.024478 1.461063 33.000000
2.761016 -0.007845 1.484839 29.000000
2.800453 -0.041147 1.505958 36.000000
2.843894 -0.075506 1.529341 31.000000
2.886816 -0.110908 1.553015 31.000000
2.946994 -0.148137 1.586056 34.000000
2.980320 -0.185287 1.604581 29.000000
3.057319 -0.226421 1.646649 33.000000
3.080783 -0.265007 1.660737 25.000000
3.143768 -0.307867 1.695238 31.000000
3.214610 -0.353246 1.734872 37.000000
3.206204 -0.390793 1.731726 35.000000
3.179779 -0.425896 1.719580 34.000000
3.140222 -0.458459 1.699585 35.000000
3.117532 -0.492949 1.689487 32.000000
3.103159 -0.528397 1.683787 32.000000
3.066910 -0.559680 1.666309 26.000000
3.034786 -0.590870 1.650884 27.000000
3.032259 -0.627811 1.652489 35.000000
3.020880 -0.662857 1.649066 37.000000
2.983302 -0.691819 1.631540 29.000000
2.962709 -0.724044 1.623222 34.000000
2.937592 -0.754761 1.612358 32.000000
2.895199 -0.780266 1.592028 27.000000
2.903292 -0.819567 1.600260 23.000000
2.843682 -0.838852 1.570199 26.000000
2.830038 -0.871339 1.566530 29.000000
2.824536 -0.906325 1.567230 33.000000
2.797724 -0.934203 1.556157 27.000000
2.795803 -0.970283 1.558986 33.000000
2.784880 -1.003765 1.557557 35.000000
2.757371 -1.030437 1.546113 25.000000
2.721030 -1.053720 1.530453 21.000000
2.696931 -1.081255 1.521785 32.000000
2.680826 -1.111689 1.517466 31.000000
2.676581 -1.147164 1.520094 36.000000
2.647731 -1.171765 1.508648 31.000000
2.630842 -1.201409 1.504149 33.000000
2.625839 -1.236329 1.506367 34.000000
2.599887 -1.262147 1.497471 25.000000
2.562344 -1.280926 1.481110 22.000000
2.563776 -1.319866 1.488117 34.000000
2.541856 -1.345909 1.480668 30.000000
2.522945 -1.374288 1.476112 38.000000
2.511647 -1.406625 1.475830 34.000000
2.472901 -1.423314 1.459601 33.000000
2.491753 -1.473251 1.477417 44.000000
2.437500 -1.479883 1.451953 26.000000
2.398686 -1.494741 1.435439 19.000000
2.404297 -1.538379 1.446680 30.000000
2.380136 -1.561998 1.439141 30.000000
2.352085 -1.582849 1.429176 34.000000
2.349058 -1.621486 1.435546 32.000000
2.335254 -1.651855 1.434473 32.000000
2.313177 -1.677550 1.429306 32.000000
2.270189 -1.686175 1.410177 11.000000
2.254946 -1.716371 1.409414 10.000000
2.260644 -1.762891 1.421777 34.000000
2.234110 -1.784542 1.414122 35.000000
2.210974 -1.808669 1.408600 35.000000
2.184266 -1.829539 1.400787 34.000000
2.167520 -1.858817 1.399596 33.000000
2.143861 -1.881959 1.393810 33.000000
2.126664 -1.910737 1.392317 26.000000
2.089340 -1.921134 1.377713 20.000000
2.084837 -1.961589 1.384845 30.000000
2.066926 -1.989750 1.383134 31.000000
2.045445 -2.014439 1.379149 31.000000
2.028954 -2.046212 1.379969 30.000000
2.013297 -2.076971 1.380180 32.000000
1.987890 -2.097754 1.373828 33.000000
1.964258 -2.122363 1.370117 24.000000
1.929564 -2.132389 1.357284 21.000000
1.924942 -2.175723 1.365680 32.000000
1.912391 -2.213232 1.370148 31.000000
1.906575 -2.256770 1.378297 33.000000
1.861107 -2.255866 1.359366 29.000000
1.850143 -2.296562 1.365738 29.000000
1.837379 -2.332849 1.369253 32.000000
1.805794 -2.348398 1.360787 24.000000
1.784052 -2.373522 1.357892 20.000000
1.763131 -2.402879 1.357554 18.000000
1.694029 -2.365536 1.319907 10.000000
1.639186 -2.345513 1.292778 22.000000
1.542938 -2.259521 1.230377 17.000000
1.454697 -2.183712 1.174988 16.000000
1.365966 -2.102227 1.117837 13.000000
1.308683 -2.065190 1.085331 10.000000
1.218684 -1.972578 1.024738 10.000000
1.173337 -1.948611 1.000810 10.000000
1.112402 -1.896094 0.962915 15.000000
1.090789 -1.905446 0.956889 23.000000
0.854514 1.488601 0.766905 26.000000
0.868549 1.473656 0.767784 35.000000
0.887045 1.466340 0.772758 25.000000
0.899620 1.451626 0.773849 18.000000
0.908260 1.428604 0.770497 33.000000
0.923870 1.416967 0.773278 27.000000
0.939423 1.405217 0.776060 31.000000
0.951333 1.390005 0.776974 31.000000
0.969280 1.381604 0.781793 28.000000
0.984492 1.369230 0.784404 35.000000
1.004052 1.364550 0.791588 25.000000
1.024625 1.358995 0.798403 17.000000
1.028597 1.331710 0.792464 36.000000
1.048051 1.326257 0.799578 29.000000
1.062775 1.312961 0.802032 42.000000
1.073650 1.296587 0.802619 42.000000
1.099717 1.296743 0.813700 37.000000
1.113409 1.283339 0.816346 65.000000
1.124684 1.265936 0.816533 31.000000
1.144105 1.258885 0.823530 22.000000
1.160549 1.248220 0.828253 45.000000
1.174486 1.233531 0.830508 36.000000
1.193881 1.225681 0.837391 64.000000
1.200625 1.204731 0.835424 46.000000
1.210320 1.186902 0.835642 37.000000
1.232715 1.181440 0.844658 57.000000
1.255254 1.175508 0.853652 33.000000
1.261306 1.154114 0.851479 26.000000
1.293787 1.156552 0.867162 38.000000
1.316439 1.149505 0.876075 51.000000
1.328908 1.133396 0.878282 52.000000
1.341199 1.117049 0.880430 41.000000
1.360352 1.106212 0.886972 34.000000
1.368914 1.086769 0.886749 52.000000
1.387321 1.075841 0.893618 32.000000
1.395613 1.056080 0.893269 23.000000
1.421570 1.049503 0.904299 35.000000
1.436264 1.035021 0.908703 34.000000
1.451319 1.019966 0.912812 58.000000
1.473149 1.010030 0.921761 35.000000
1.476501 0.987305 0.919189 30.000000
1.506143 0.981230 0.932286 44.000000
1.516649 0.963061 0.934202 32.000000
1.526969 0.944769 0.936056 26.000000
1.559939 0.940015 0.951742 37.000000
1.573918 0.923379 0.955818 45.000000
1.591666 0.908657 0.962100 59.000000
1.609258 0.893686 0.968398 45.000000
1.618589 0.874517 0.970303 37.000000
1.639979 0.861004 0.978835 61.000000
1.664736 0.849408 0.989986 27.000000
1.689991 0.836981 1.000716 25.000000
1.710788 0.822522 1.009453 34.000000
1.723579 0.803850 1.013379 32.000000
1.756308 0.794036 1.029020 32.000000
1.760805 0.771130 1.028129 34.000000
1.793467 0.760294 1.043694 32.000000
1.818000 0.745330 1.054432 42.000000
1.826166 0.723416 1.055725 28.000000
1.850166 0.707932 1.066704 25.000000
1.878569 0.693233 1.079667 38.000000
1.898363 0.675231 1.088183 33.000000
1.913882 0.655368 1.094199 34.000000
1.941781 0.639290 1.107369 37.000000
1.961235 0.619991 1.115585 35.000000
1.980491 0.600249 1.123814 42.000000
2.012053 0.584022 1.139440 28.000000
2.022689 0.561031 1.142704 24.000000
2.062548 0.545875 1.162941 35.000000
2.085356 0.525545 1.173560 34.000000
2.125102 0.508821 1.193708 36.000000
2.143408 0.486276 1.201739 46.000000
2.152895 0.461586 1.204828 29.000000
2.179212 0.440267 1.217834 33.000000
2.196698 0.416725 1.225973 26.000000
2.252845 0.399768 1.255616 29.000000
2.287334 0.377846 1.273100 37.000000
2.304446 0.352551 1.280888 33.000000
2.329628 0.328168 1.293746 36.000000
2.354958 0.303105 1.306123 35.000000
2.401608 0.280144 1.330811 32.000000
2.421980 0.253329 1.340963 33.000000
2.441797 0.226184 1.351294 28.000000
2.483558 0.200213 1.373185 27.000000
2.520413 0.173093 1.393020 33.000000
2.557054 0.145054 1.412601 34.000000
2.597844 0.116378 1.434606 29.000000
2.642869 0.086818 1.458757 35.000000
2.669774 0.055940 1.473621 34.000000
2.696410 0.024438 1.488209 32.000000
2.753411 -0.007870 1.519712 35.000000
2.792613 -0.041180 1.541262 32.000000
2.840167 -0.075758 1.567538 34.000000
2.891572 -0.111552 1.596522 37.000000
2.933884 -0.148153 1.620471 34.000000
2.980108 -0.186068 1.646724 35.000000
3.039159 -0.226102 1.679996 28.000000
3.066829 -0.264955 1.696786 27.000000
3.125059 -0.307320 1.729592 34.000000
3.195458 -0.352686 1.770040 35.000000
3.187078 -0.390122 1.766958 35.000000
3.165014 -0.425814 1.756870 36.000000
3.125661 -0.458326 1.736601 32.000000
3.107396 -0.493559 1.728608 42.000000
3.093169 -0.529112 1.722919 35.000000
3.031108 -0.555655 1.690671 18.000000
3.029297 -0.592432 1.691787 32.000000
3.009863 -0.625740 1.683294 31.000000
2.994236 -0.659792 1.677532 34.000000
2.978224 -0.693533 1.671562 35.000000
2.944890 -0.722779 1.655907 29.000000
2.915626 -0.752301 1.642565 34.000000
2.920071 -0.790390 1.648066 34.000000
2.818079 -0.799044 1.594425 19.000000
2.838912 -0.841163 1.609307 33.000000
2.821055 -0.872505 1.603096 33.000000
2.811313 -0.906240 1.601455 30.000000
2.797096 -0.938372 1.597331 34.000000
2.778449 -0.968752 1.590733 33.000000
2.767832 -1.001826 1.588793 33.000000
2.748159 -1.032010 1.582517 32.000000
2.704237 -1.051810 1.561324 22.000000
2.680115 -1.079353 1.552415 32.000000
2.664036 -1.109790 1.548149 32.000000
2.655791 -1.143416 1.548411 33.000000
2.643079 -1.175146 1.546309 36.000000
2.614228 -1.199319 1.534592 33.000000
2.600996 -1.230559 1.532204 32.000000
2.579727 -1.257629 1.525024 32.000000
2.549658 -1.280940 1.513570 23.000000
2.539783 -1.313231 1.513148 35.000000
2.525073 -1.343836 1.510976 36.000000
2.506877 -1.371626 1.505684 34.000000
2.503170 -1.408299 1.510101 35.000000
2.483690 -1.436188 1.505204 33.000000
2.456445 -1.459261 1.495578 34.000000
2.444186 -1.491095 1.495038 33.000000
2.382821 -1.492129 1.464461 20.000000
2.396333 -1.539856 1.479903 32.000000
2.345546 -1.547149 1.456742 30.000000
2.347134 -1.587601 1.465036 30.000000
2.344609 -1.625768 1.470891 36.000000
2.300925 -1.636237 1.452140 29.000000
2.294175 -1.671518 1.455496 29.000000
2.271917 -1.696794 1.450299 19.000000
2.242353 -1.716374 1.440373 10.000000
2.245215 -1.759375 1.450293 33.000000
2.218728 -1.781135 1.442451 33.000000
2.181829 -1.793931 1.427862 29.000000
2.168860 -1.826148 1.428886 35.000000
2.138651 -1.843655 1.418663 30.000000
2.131807 -1.881429 1.424051 30.000000
2.117872 -1.913241 1.424830 32.000000
2.083795 -1.926688 1.412124 20.000000
2.075817 -1.964252 1.417237 31.000000
2.048154 -1.983036 1.408815 31.000000
2.036266 -2.017253 1.411463 29.000000
2.020730 -2.048215 1.411773 36.000000
1.992487 -2.066103 1.403175 29.000000
1.972168 -2.094141 1.401660 29.000000
1.946758 -2.114659 1.395180 26.000000
1.930160 -2.144752 1.395145 16.000000
1.911948 -2.175482 1.395574 31.000000
1.888891 -2.198539 1.390962 31.000000
1.861267 -2.218630 1.384783 27.000000
1.846442 -2.251339 1.386529 32.000000
1.821247 -2.274467 1.382298 26.000000
1.816837 -2.321238 1.392424 30.000000
1.790871 -2.343821 1.387947 26.000000
1.770119 -2.373464 1.387814 20.000000
1.753377 -2.405705 1.389067 27.000000
1.684562 -2.368539 1.350642 10.000000
1.635065 -2.356017 1.327146 16.000000
1.539216 -2.270345 1.263556 16.000000
1.446462 -2.187346 1.202846 12.000000
1.355782 -2.102196 1.142365 11.000000
1.301039 -2.069141 1.111348 11.000000
1.208241 -1.968323 1.045007 9.000000
1.170120 -1.956100 1.026764 11.000000
1.107182 -1.899949 0.986049 17.000000
0.845507 1.485847 0.781995 25.000000
0.857331 1.466987 0.780803 26.000000
0.875874 1.459694 0.785866 16.000000
0.889574 1.444502 0.786681 19.000000
0.901936 1.429712 0.787764 23.000000
0.910265 1.406639 0.784251 22.000000
0.928293 1.398722 0.789145 26.000000
0.946234 1.390516 0.794053 21.000000
0.970924 1.393706 0.805632 31.000000
0.973241 1.362888 0.797636 28.000000
1.000701 1.369093 0.811370 25.000000
1.015905 1.356299 0.814009 28.000000
1.017284 1.325412 0.805788 23.000000
1.042213 1.327114 0.817337 35.000000
1.054158 1.310278 0.817668 29.000000
1.070766 1.300793 0.822659 26.000000
1.087334 1.291066 0.827606 34.000000
1.095931 1.270445 0.825601 26.000000
1.118241 1.267060 0.834927 30.000000
1.137706 1.259960 0.842017 31.000000
1.142699 1.235643 0.837646 29.000000
1.162043 1.228085 0.844640 33.000000
1.181354 1.220203 0.851660 33.000000
1.197543 1.208880 0.856401 34.000000
1.210508 1.194113 0.858843 36.000000
1.223356 1.179172 0.861285 31.000000
1.245762 1.173281 0.870410 34.000000
1.265031 1.163961 0.877299 25.000000
1.277635 1.148352 0.879597 21.000000
1.300149 1.141370 0.888688 34.000000
1.315929 1.128236 0.893175 31.000000
1.331653 1.114842 0.897613 30.000000
1.350698 1.103993 0.904303 33.000000
1.362271 1.087742 0.906702 30.000000
1.381198 1.076341 0.913365 33.000000
1.375438 1.045876 0.903708 20.000000
1.407777 1.045047 0.919847 31.000000
1.433716 1.038025 0.931030 35.000000
1.437479 1.015587 0.928501 32.000000
1.459205 1.005682 0.937580 31.000000
1.469974 0.987998 0.939660 32.000000
1.495823 0.979438 0.950640 31.000000
1.506328 0.961269 0.952556 28.000000
1.520456 0.945244 0.956766 23.000000
1.538218 0.931348 0.963285 29.000000
1.567278 0.923793 0.976854 31.000000
1.588374 0.911587 0.986045 31.000000
1.598340 0.892227 0.987695 30.000000
1.608115 0.872739 0.989219 32.000000
1.644469 0.867739 1.007801 31.000000
1.669728 0.855681 1.018764 32.000000
1.682716 0.837505 1.022913 17.000000
1.715378 0.828650 1.038975 27.000000
1.728225 0.809850 1.042962 28.000000
1.744906 0.792569 1.049291 26.000000
1.765479 0.776794 1.057971 25.000000
1.782001 0.758811 1.064196 28.000000
1.798330 0.740565 1.070367 27.000000
1.814597 0.722055 1.076413 25.000000
1.838493 0.706558 1.087578 25.000000
1.858284 0.689080 1.096349 25.000000
1.882433 0.672362 1.107006 29.000000
1.906155 0.655386 1.117962 26.000000
1.929790 0.637942 1.128868 26.000000
1.944646 0.617598 1.135291 27.000000
1.984772 0.604332 1.155754 26.000000
1.991440 0.580341 1.156624 22.000000
2.014276 0.561182 1.167679 23.000000
2.062372 0.548275 1.193176 22.000000
2.085185 0.527784 1.203989 25.000000
2.107791 0.506813 1.214668 24.000000
2.117427 0.482453 1.217948 21.000000
2.139490 0.460820 1.228880 24.000000
2.165905 0.439416 1.241661 20.000000
2.200437 0.419209 1.259745 12.000000
2.217698 0.395150 1.267887 20.000000
2.243447 0.372129 1.280786 21.000000
2.273020 0.349255 1.296475 19.000000
2.332864 0.329953 1.328808 23.000000
2.349121 0.303726 1.336924 18.000000
2.373895 0.278119 1.349798 19.000000
2.411462 0.253360 1.369892 21.000000
2.405514 0.223656 1.365227 9.000000
2.464026 0.199514 1.397812 18.000000
2.491981 0.171843 1.413104 18.000000
2.545866 0.145034 1.443003 18.000000
2.569032 0.115520 1.455496 20.000000
2.604995 0.085916 1.475198 18.000000
2.623035 0.055206 1.485417 16.000000
2.693013 0.024463 1.525020 25.000000
2.749667 -0.007908 1.557048 25.000000
2.779927 -0.041244 1.574099 25.000000
2.822936 -0.075560 1.598436 25.000000
2.869675 -0.111182 1.625528 24.000000
2.915967 -0.147948 1.652518 27.000000
2.935942 -0.184122 1.664419 22.000000
2.998874 -0.224056 1.700824 20.000000
3.070168 -0.266299 1.742020 25.000000
3.101581 -0.306345 1.761376 24.000000
3.175858 -0.352126 1.805096 32.000000
3.171826 -0.390094 1.804312 29.000000
3.132935 -0.423286 1.783760 27.000000
3.115025 -0.458825 1.775838 27.000000
3.092854 -0.493259 1.764806 28.000000
3.091553 -0.530969 1.766382 26.000000
3.025514 -0.556949 1.731066 21.000000
3.002267 -0.589677 1.719973 23.000000
2.986877 -0.623886 1.714325 27.000000
2.963013 -0.655792 1.703042 26.000000
2.938593 -0.687291 1.692199 25.000000
2.930884 -0.722452 1.690931 28.000000
2.905964 -0.753130 1.679687 26.000000
2.893459 -0.786733 1.675674 18.000000
2.868066 -0.816440 1.664250 26.000000
2.816832 -0.838477 1.638651 25.000000
2.824070 -0.877550 1.646944 28.000000
2.785567 -0.901703 1.627768 25.000000
2.763120 -0.930844 1.618749 24.000000
2.756968 -0.965367 1.619341 26.000000
2.749968 -1.000193 1.620439 28.000000
2.698204 -1.017621 1.594105 16.000000
2.699375 -1.054578 1.599039 25.000000
2.687456 -1.087104 1.597321 28.000000
2.659169 -1.112765 1.585762 29.000000
2.630630 -1.137834 1.574127 29.000000
2.626062 -1.173044 1.576738 31.000000
2.613049 -1.204575 1.574436 29.000000
2.583984 -1.228370 1.562448 25.000000
2.546898 -1.247820 1.545605 13.000000
2.545158 -1.284215 1.550109 27.000000
2.526702 -1.313086 1.545546 28.000000
2.528072 -1.351535 1.552201 29.000000
2.501387 -1.375817 1.542682 29.000000
2.478376 -1.401787 1.535460 28.000000
2.452047 -1.424571 1.525196 29.000000
2.436226 -1.454247 1.522444 29.000000
2.397660 -1.469806 1.505534 13.000000
2.377767 -1.496371 1.500259 22.000000
2.361437 -1.525044 1.497245 24.000000
2.355078 -1.561426 1.501855 30.000000
2.327126 -1.582294 1.491608 27.000000
2.302766 -1.605135 1.483630 25.000000
2.292621 -1.637989 1.484901 29.000000
2.274250 -1.666079 1.481985 24.000000
2.266992 -1.701269 1.485351 9.000000
2.251462 -1.731705 1.484542 14.000000
2.221649 -1.751054 1.474382 24.000000
2.185886 -1.763603 1.459060 26.000000
2.169701 -1.793186 1.457979 27.000000
2.160042 -1.828303 1.461379 27.000000
2.133106 -1.848821 1.453303 25.000000
2.116183 -1.877838 1.451904 25.000000
2.098807 -1.906645 1.450493 14.000000
2.064861 -1.920076 1.437618 22.000000
2.056914 -1.957480 1.442717 23.000000
2.038726 -1.985670 1.440991 28.000000
2.020373 -2.013646 1.439252 23.000000
1.992375 -2.031740 1.430567 23.000000
1.973501 -2.059170 1.428627 27.000000
1.966695 -2.099444 1.435506 22.000000
1.951918 -2.134079 1.438261 12.000000
1.926064 -2.154396 1.431605 22.000000
1.900083 -2.174345 1.424767 18.000000
1.881440 -2.205051 1.425151 28.000000
1.855103 -2.224372 1.418221 21.000000
1.840100 -2.257262 1.420071 22.000000
1.817489 -2.283819 1.417905 26.000000
1.801715 -2.316462 1.419485 20.000000
1.794814 -2.364259 1.430200 14.000000
1.763001 -2.379640 1.421348 25.000000
1.746075 -2.411957 1.422601 16.000000
1.693138 -2.397034 1.396385 10.000000
1.619383 -2.346897 1.350465 10.000000
1.532690 -2.277269 1.294654 10.000000
1.435387 -2.186903 1.228479 10.000000
1.364831 -2.132586 1.183832 9.000000
1.299585 -2.079849 1.141172 9.000000
1.205687 -1.980109 1.073914 9.000000
1.153586 -1.944705 1.042718 9.000000
1.102454 -1.908296 1.011724 14.000000
0.859713 1.483707 0.806451 16.000000
0.894630 1.503511 0.826544 16.000000
0.882969 1.445503 0.803890 18.000000
0.903785 1.441650 0.811111 24.000000
0.916190 1.426581 0.812173 24.000000
0.929432 1.410942 0.812874 22.000000
0.946541 1.403173 0.818197 24.000000
0.964705 1.394536 0.823192 23.000000
0.980179 1.382053 0.825953 22.000000
1.005113 1.384450 0.837798 24.000000
1.012483 1.360687 0.833912 20.000000
1.021298 1.340980 0.832426 30.000000
1.033459 1.324310 0.832844 32.000000
1.061386 1.328979 0.846848 29.000000
1.070565 1.308373 0.844928 33.000000
1.087219 1.298591 0.849997 32.000000
1.103888 1.288507 0.855023 30.000000
1.118326 1.274301 0.857458 28.000000
1.134873 1.263818 0.862447 21.000000
1.145288 1.246469 0.862793 45.000000
1.161673 1.235506 0.867738 37.000000
1.181037 1.227498 0.874864 34.000000
1.194187 1.212888 0.877436 35.000000
1.210430 1.201172 0.882187 34.000000
1.223379 1.186172 0.884648 32.000000
1.239430 1.173987 0.889361 34.000000
1.255372 1.161605 0.894027 18.000000
1.264750 1.143086 0.894060 34.000000
1.287156 1.136127 0.903277 36.000000
1.302879 1.123029 0.907801 33.000000
1.325309 1.115360 0.917015 36.000000
1.343794 1.104939 0.924159 35.000000
1.359380 1.090927 0.928614 36.000000
1.367361 1.071753 0.928668 35.000000
1.382705 1.057355 0.932954 21.000000
1.404502 1.048442 0.942347 49.000000
1.419721 1.033543 0.946541 44.000000
1.437912 1.021346 0.953489 37.000000
1.456029 1.008791 0.960396 48.000000
1.477710 0.998397 0.969590 43.000000
1.485317 0.977522 0.968870 52.000000
1.506903 0.966460 0.977977 42.000000
1.521081 0.950356 0.982246 24.000000
1.534685 0.934412 0.986900 69.000000
1.559954 0.924513 0.998297 54.000000
1.573854 0.907559 1.002419 54.000000
1.591429 0.892526 1.008840 50.000000
1.608460 0.877499 1.015661 44.000000
1.645212 0.872073 1.034189 45.000000
1.658326 0.854117 1.038441 45.000000
1.686972 0.843816 1.052380 22.000000
1.696003 0.823381 1.054094 48.000000
1.716676 0.808324 1.063007 37.000000
1.721404 0.785671 1.062087 35.000000
1.757850 0.777079 1.080698 47.000000
1.782349 0.762467 1.091926 62.000000
1.794657 0.742471 1.095673 37.000000
1.814608 0.725679 1.104687 57.000000
1.830742 0.706683 1.110777 24.000000
1.850471 0.689147 1.119621 67.000000
1.878275 0.674114 1.133352 71.000000
1.889596 0.652841 1.137155 55.000000
1.904862 0.632698 1.143227 55.000000
1.953079 0.622842 1.169125 69.000000
1.967864 0.601902 1.175525 37.000000
1.999438 0.585352 1.191284 42.000000
2.018126 0.564836 1.199983 25.000000
2.036741 0.543873 1.208548 43.000000
2.076148 0.527800 1.229497 52.000000
2.102872 0.507863 1.242855 39.000000
2.124948 0.486529 1.254123 63.000000
2.142949 0.463566 1.262298 46.000000
2.173281 0.442969 1.278281 67.000000
2.203413 0.421760 1.294131 40.000000
2.216443 0.396729 1.299921 29.000000
2.254812 0.375681 1.320564 60.000000
2.280231 0.351831 1.333639 78.000000
2.305233 0.327466 1.346970 57.000000
2.360092 0.306488 1.377686 68.000000
2.380469 0.280145 1.388297 50.000000
2.404938 0.253757 1.401253 70.000000
2.429204 0.226853 1.414131 36.000000
2.470153 0.200833 1.437309 34.000000
2.497962 0.172986 1.452801 56.000000
2.529950 0.144676 1.470723 51.000000
2.552980 0.115249 1.483452 40.000000
2.610335 0.086449 1.516083 70.000000
2.628271 0.055479 1.526494 35.000000
2.663230 0.024250 1.546768 40.000000
2.706560 -0.007833 1.571877 34.000000
2.740955 -0.040825 1.591772 35.000000
2.792341 -0.075112 1.621604 33.000000
2.817182 -0.109635 1.636666 30.000000
2.871831 -0.146321 1.669197 35.000000
2.926213 -0.184356 1.701518 32.000000
2.967168 -0.222664 1.726089 29.000000
2.994918 -0.260880 1.742908 24.000000
3.086439 -0.306335 1.797751 34.000000
3.130124 -0.348582 1.824777 36.000000
3.113243 -0.384647 1.816593 36.000000
3.087488 -0.419019 1.803186 35.000000
3.070028 -0.454142 1.794579 33.000000
3.043296 -0.487697 1.781412 32.000000
3.046288 -0.525673 1.785545 35.000000
3.014747 -0.557554 1.769568 28.000000
2.995841 -0.591229 1.760886 34.000000
2.985039 -0.626270 1.756992 35.000000
2.973612 -0.661315 1.753638 35.000000
2.936887 -0.689989 1.734478 32.000000
2.916509 -0.722122 1.725732 35.000000
2.895881 -0.753950 1.716893 33.000000
2.854085 -0.779550 1.695426 29.000000
2.841275 -0.812595 1.691278 21.000000
2.815393 -0.842015 1.680000 34.000000
2.798012 -0.873104 1.673080 32.000000
2.796489 -0.909471 1.676488 39.000000
2.765683 -0.936284 1.662363 31.000000
2.755327 -0.969507 1.660518 34.000000
2.732410 -0.998151 1.651165 32.000000
2.721488 -1.031021 1.649021 29.000000
2.669244 -1.048089 1.622763 19.000000
2.669981 -1.085084 1.627827 35.000000
2.645714 -1.112344 1.618540 32.000000
2.633245 -1.144321 1.616428 35.000000
2.624551 -1.177981 1.616766 42.000000
2.599589 -1.204206 1.607112 35.000000
2.574546 -1.229942 1.597378 33.000000
2.553242 -1.257122 1.590006 28.000000
2.516143 -1.276012 1.572713 16.000000
2.525585 -1.318406 1.584534 36.000000
2.483706 -1.334761 1.565259 35.000000
2.480823 -1.370830 1.569573 35.000000
2.454082 -1.394600 1.559846 34.000000
2.446094 -1.428936 1.562017 35.000000
2.422687 -1.454144 1.554531 35.000000
2.396137 -1.476181 1.543872 30.000000
2.361340 -1.493552 1.528932 16.000000
2.359638 -1.531686 1.535501 32.000000
2.342033 -1.560931 1.532958 32.000000
2.314229 -1.581858 1.522571 34.000000
2.293398 -1.607274 1.516880 30.000000
2.283243 -1.640109 1.518132 31.000000
2.278796 -1.678731 1.524692 35.000000
2.239647 -1.690282 1.506868 18.000000
2.210235 -1.709795 1.496676 9.000000
2.205878 -1.747354 1.502322 35.000000
2.172603 -1.763390 1.489614 27.000000
2.160727 -1.795058 1.490237 32.000000
2.140832 -1.821648 1.486840 29.000000
2.127413 -1.853759 1.487816 30.000000
2.113477 -1.885840 1.488867 33.000000
2.079597 -1.899867 1.475777 26.000000
2.062066 -1.928418 1.474209 12.000000
2.044080 -1.956756 1.472630 31.000000
2.025931 -1.984980 1.470843 27.000000
2.013793 -2.019181 1.473634 32.000000
1.973234 -2.024765 1.455688 28.000000
1.966642 -2.065038 1.462829 27.000000
1.947375 -2.092358 1.460703 29.000000
1.942932 -2.135940 1.469905 25.000000
1.908141 -2.146241 1.456311 11.000000
1.892546 -2.180525 1.458949 29.000000
1.872136 -2.207032 1.456556 26.000000
1.857261 -2.240196 1.458432 30.000000
1.823489 -2.253307 1.447460 27.000000
1.807892 -2.286089 1.449194 27.000000
1.784902 -2.312582 1.446943 29.000000
1.765928 -2.341431 1.446292 24.000000
1.734362 -2.356655 1.437293 12.000000
1.733188 -2.410669 1.451787 24.000000
1.695933 -2.417936 1.438190 12.000000
1.646005 -2.406171 1.413743 16.000000
1.555949 -2.328893 1.351893 17.000000
1.463622 -2.246684 1.288670 12.000000
1.360408 -2.138972 1.212396 10.000000
1.286708 -2.075804 1.162965 10.000000
1.230894 -2.038169 1.128688 8.000000
1.153194 -1.960469 1.073296 10.000000
0.846030 1.472944 0.817152 26.000000
0.869287 1.473358 0.826727 21.000000
0.883366 1.457973 0.827559 18.000000
0.890007 1.431084 0.821800 27.000000
0.912008 1.431227 0.831662 28.000000
0.925472 1.415533 0.832396 31.000000
0.935154 1.396465 0.831184 26.000000
0.955731 1.391603 0.838436 26.000000
0.967654 1.375978 0.839368 32.000000
0.988259 1.370608 0.846601 23.000000
0.999911 1.354671 0.847410 26.000000
1.009712 1.334496 0.845547 33.000000
1.026461 1.325432 0.850785 28.000000
1.052399 1.326022 0.862445 36.000000
1.060818 1.306008 0.860847 32.000000
1.085974 1.306422 0.872813 37.000000
1.086314 1.275458 0.863862 46.000000
1.108585 1.271924 0.873520 29.000000
1.122153 1.258066 0.876245 27.000000
1.135605 1.244034 0.878970 35.000000
1.154930 1.236359 0.886278 35.000000
1.174336 1.228301 0.893555 65.000000
1.184485 1.210433 0.893799 47.000000
1.200644 1.198769 0.898652 47.000000
1.219973 1.189935 0.905807 55.000000
1.232872 1.174680 0.908280 36.000000
1.252108 1.165255 0.915355 32.000000
1.258258 1.143640 0.912992 32.000000
1.274036 1.130836 0.917660 34.000000
1.296410 1.123476 0.926976 71.000000
1.314841 1.113386 0.934302 34.000000
1.333874 1.102534 0.941233 42.000000
1.352307 1.091755 0.948488 50.000000
1.364392 1.074776 0.950543 32.000000
1.368744 1.052755 0.948087 28.000000
1.384031 1.038189 0.952422 36.000000
1.409188 1.031594 0.964319 44.000000
1.427326 1.019388 0.971355 41.000000
1.434631 0.999329 0.971069 41.000000
1.456214 0.989052 0.980443 54.000000
1.477772 0.978387 0.989724 37.000000
1.488365 0.960174 0.991707 31.000000
1.506156 0.946476 0.998459 33.000000
1.523924 0.932472 1.005231 50.000000
1.541605 0.918098 1.011894 65.000000
1.566728 0.907778 1.023433 81.000000
1.583892 0.893072 1.030394 46.000000
1.601340 0.877670 1.036862 62.000000
1.622137 0.864318 1.046205 62.000000
1.646793 0.852554 1.057922 32.000000
1.663671 0.836385 1.064645 32.000000
1.680437 0.819897 1.071318 37.000000
1.704927 0.806797 1.082920 34.000000
1.713689 0.785955 1.084447 38.000000
1.757884 0.780807 1.108374 35.000000
1.762374 0.757553 1.107297 35.000000
1.790332 0.744570 1.121504 45.000000
1.798535 0.722559 1.122734 30.000000
1.822318 0.707009 1.134345 35.000000
1.833884 0.686454 1.138306 44.000000
1.853405 0.668525 1.147167 36.000000
1.885123 0.654481 1.163600 74.000000
1.900364 0.634304 1.169841 44.000000
1.915452 0.613787 1.175950 37.000000
1.958969 0.602013 1.200111 52.000000
1.973914 0.580601 1.206038 31.000000
1.996632 0.561397 1.217399 31.000000
2.027557 0.543877 1.233700 48.000000
2.045954 0.522479 1.242346 51.000000
2.084752 0.506009 1.263921 35.000000
2.115483 0.486497 1.279995 60.000000
2.133104 0.463708 1.288774 33.000000
2.159297 0.442031 1.302031 37.000000
2.138625 0.411063 1.287622 29.000000
2.210710 0.397378 1.329134 35.000000
2.240149 0.375037 1.345459 52.000000
2.261260 0.350521 1.356220 37.000000
2.290375 0.326891 1.372337 35.000000
2.340555 0.305344 1.401066 59.000000
2.352276 0.278123 1.406758 37.000000
2.393689 0.253784 1.430164 49.000000
2.404982 0.225620 1.435529 31.000000
2.450044 0.200134 1.461770 32.000000
2.481971 0.172633 1.480101 48.000000
2.505098 0.143915 1.493238 39.000000
2.549534 0.115653 1.518898 35.000000
2.589359 0.086122 1.541912 37.000000
2.620070 0.055568 1.560184 38.000000
2.659105 0.024274 1.583392 33.000000
2.689270 -0.007833 1.601297 30.000000
2.714853 -0.040696 1.616549 31.000000
2.778795 -0.075129 1.654522 32.000000
2.816247 -0.110208 1.677637 29.000000
2.853464 -0.146118 1.700450 30.000000
2.907384 -0.184046 1.733382 32.000000
2.948166 -0.222349 1.758423 26.000000
3.005587 -0.263079 1.793562 27.000000
3.079358 -0.307068 1.839221 42.000000
3.105635 -0.347548 1.856548 34.000000
3.114441 -0.386632 1.863541 32.000000
3.076013 -0.419521 1.842237 35.000000
3.054370 -0.454009 1.830935 30.000000
3.023523 -0.486827 1.814983 30.000000
3.022547 -0.523849 1.816118 31.000000
2.970132 -0.551758 1.787135 21.000000
2.963919 -0.587535 1.785957 33.000000
2.952851 -0.622531 1.782664 33.000000
2.933398 -0.655334 1.773544 31.000000
2.917452 -0.688821 1.767400 35.000000
2.889218 -0.718667 1.752805 30.000000
2.868696 -0.750295 1.743830 28.000000
2.864455 -0.786080 1.744788 31.000000
2.785371 -0.800420 1.700098 21.000000
2.800930 -0.841707 1.714036 31.000000
2.783590 -0.872747 1.707020 32.000000
2.761379 -0.902557 1.697904 29.000000
2.759491 -0.938713 1.701199 34.000000
2.724550 -0.963545 1.684341 30.000000
2.713933 -0.996518 1.682300 31.000000
2.698970 -1.027747 1.677747 29.000000
2.663617 -1.050739 1.660455 26.000000
2.643585 -1.079993 1.653625 33.000000
2.632004 -1.111816 1.651108 35.000000
2.611578 -1.140375 1.644096 33.000000
2.586978 -1.166859 1.634502 34.000000
2.570055 -1.196412 1.629711 31.000000
2.549064 -1.223893 1.622339 31.000000
2.547200 -1.260607 1.627206 31.000000
2.502465 -1.275716 1.604764 26.000000
2.473258 -1.297852 1.591998 31.000000
2.470603 -1.333972 1.596567 37.000000
2.467024 -1.370569 1.601605 36.000000
2.440933 -1.393805 1.591146 35.000000
2.425359 -1.423771 1.588484 37.000000
2.402029 -1.448941 1.580815 33.000000
2.393323 -1.482914 1.582964 32.000000
2.358464 -1.500485 1.567778 27.000000
2.341935 -1.529339 1.564648 32.000000
2.307072 -1.545747 1.549338 32.000000
2.300891 -1.581314 1.553428 34.000000
2.287305 -1.611816 1.552441 35.000000
2.259184 -1.631963 1.541762 34.000000
2.252148 -1.667187 1.545410 31.000000
2.243671 -1.703063 1.549613 23.000000
2.204656 -1.714095 1.531362 13.000000
2.192272 -1.746973 1.532953 33.000000
2.166846 -1.767943 1.524169 34.000000
2.150485 -1.797588 1.523155 33.000000
2.134843 -1.826341 1.521350 37.000000
2.111253 -1.849962 1.515367 34.000000
2.090809 -1.876052 1.511667 30.000000
2.070073 -1.901948 1.507871 32.000000
2.026660 -1.906403 1.487475 22.000000
2.034277 -1.958984 1.504687 34.000000
2.012891 -1.984082 1.500586 33.000000
1.978766 -1.996428 1.487034 31.000000
1.966259 -2.030319 1.489758 37.000000
1.950308 -2.061028 1.490118 34.000000
1.943047 -2.101353 1.497305 32.000000
1.932266 -2.138367 1.502014 29.000000
1.894569 -2.145637 1.485834 24.000000
1.871539 -2.168864 1.481110 32.000000
1.849699 -2.196179 1.479267 46.000000
1.843201 -2.239559 1.488131 34.000000
1.824905 -2.269181 1.487706 35.000000
1.796507 -2.288928 1.480948 33.000000
1.777623 -2.318126 1.480386 31.000000
1.756885 -2.348061 1.480295 31.000000
1.734760 -2.373322 1.477227 21.000000
1.713144 -2.402792 1.476984 27.000000
1.675179 -2.405578 1.460397 15.000000
1.610449 -2.371484 1.422168 17.000000
1.543621 -2.327790 1.379068 21.000000
1.446932 -2.238376 1.310342 18.000000
1.356617 -2.149791 1.243739 13.000000
1.283082 -2.086910 1.193269 15.000000
1.197306 -1.999330 1.130042 9.000000
1.149987 -1.972113 1.102023 12.000000
0.864594 1.477965 0.846175 25.000000
0.864887 1.439552 0.833702 23.000000
0.889207 1.443804 0.845949 21.000000
0.898175 1.420614 0.842236 29.000000
0.916441 1.412484 0.847468 24.000000
0.933522 1.404580 0.852946 24.000000
0.946699 1.388611 0.853565 33.000000
0.963745 1.380298 0.859002 26.000000
0.986975 1.378462 0.868668 26.000000
0.996194 1.358793 0.867231 29.000000
1.007812 1.342691 0.868000 28.000000
1.025629 1.333000 0.873014 37.000000
1.039740 1.320046 0.875963 32.000000
1.062018 1.317263 0.885870 32.000000
1.068482 1.293155 0.881457 35.000000
1.082188 1.279680 0.884349 28.000000
1.104510 1.276053 0.894147 33.000000
1.109368 1.252268 0.889901 26.000000
1.128710 1.244808 0.897329 31.000000
1.142081 1.230623 0.900003 61.000000
1.164434 1.225781 0.909785 37.000000
1.183810 1.217441 0.917115 52.000000
1.190801 1.196250 0.914941 42.000000
1.210078 1.187402 0.922239 32.000000
1.219809 1.169111 0.922318 37.000000
1.229355 1.150723 0.922324 20.000000
1.251656 1.144123 0.931892 34.000000
1.266790 1.131686 0.936964 53.000000
1.289114 1.124328 0.946476 33.000000
1.308181 1.113768 0.953536 39.000000
1.326591 1.103283 0.960980 53.000000
1.345606 1.092029 0.967966 34.000000
1.353697 1.072721 0.967945 36.000000
1.354715 1.048044 0.963011 18.000000
1.380316 1.041447 0.974751 34.000000
1.398473 1.029524 0.981914 58.000000
1.420090 1.019906 0.991505 41.000000
1.434568 1.004794 0.996124 46.000000
1.456151 0.994432 1.005707 52.000000
1.463317 0.973938 1.005208 34.000000
1.484802 0.962911 1.014646 42.000000
1.495323 0.944484 1.016576 20.000000
1.505658 0.925931 1.018381 35.000000
1.519022 0.909790 1.023062 58.000000
1.540285 0.897478 1.032263 35.000000
1.572284 0.891414 1.049337 52.000000
1.582170 0.871896 1.050868 46.000000
1.621876 0.868823 1.072930 40.000000
1.646487 0.856903 1.084907 56.000000
1.659524 0.838640 1.089206 22.000000
1.660856 0.814456 1.085854 35.000000
1.692979 0.805204 1.102634 48.000000
1.725213 0.795181 1.119457 36.000000
1.741757 0.777427 1.125954 35.000000
1.761719 0.761390 1.135416 47.000000
1.786034 0.746315 1.146904 35.000000
1.789943 0.722938 1.146000 31.000000
1.809973 0.705491 1.154829 32.000000
1.829553 0.687957 1.163952 43.000000
1.841019 0.667064 1.167832 54.000000
1.868100 0.651869 1.182396 46.000000
1.871136 0.627643 1.181024 36.000000
1.914759 0.616521 1.205205 71.000000
1.953971 0.603383 1.227145 45.000000
1.968522 0.582086 1.233679 37.000000
1.995643 0.563716 1.247295 34.000000
2.018168 0.543877 1.258721 36.000000
2.031972 0.521657 1.265375 46.000000
2.075080 0.505959 1.289454 60.000000
2.097240 0.484457 1.300634 35.000000
2.119024 0.462702 1.312060 38.000000
2.140655 0.440388 1.323426 35.000000
2.170444 0.419289 1.339833 32.000000
2.195975 0.396661 1.353587 34.000000
2.225566 0.374231 1.369790 37.000000
2.258827 0.351845 1.388930 80.000000
2.279663 0.326759 1.399643 49.000000
2.325392 0.304674 1.426281 36.000000
2.349783 0.278961 1.439862 50.000000
2.373635 0.252819 1.453796 37.000000
2.380615 0.224390 1.456653 29.000000
2.442408 0.200395 1.493682 33.000000
2.457462 0.171684 1.501489 34.000000
2.497224 0.144139 1.525714 35.000000
2.524238 0.114993 1.541516 46.000000
2.576695 0.086080 1.572671 36.000000
2.602850 0.055475 1.588666 34.000000
2.637363 0.024235 1.609689 33.000000
2.671599 -0.007833 1.630622 28.000000
2.701280 -0.040664 1.648663 32.000000
2.769064 -0.075262 1.690038 32.000000
2.785034 -0.109504 1.700454 26.000000
2.843218 -0.146252 1.736810 33.000000
2.884398 -0.183361 1.761919 29.000000
2.924488 -0.221606 1.788049 25.000000
2.964505 -0.260779 1.813332 21.000000
3.046287 -0.305241 1.865145 33.000000
3.081312 -0.346295 1.887339 33.000000
3.106996 -0.387326 1.904865 33.000000
3.056073 -0.418640 1.875398 33.000000
3.046779 -0.455136 1.872360 34.000000
3.008077 -0.486532 1.850388 32.000000
2.993998 -0.521511 1.844330 31.000000
2.954411 -0.551579 1.822612 20.000000
2.943995 -0.586571 1.818842 29.000000
2.916646 -0.617809 1.804610 34.000000
2.922363 -0.655823 1.810883 33.000000
2.885632 -0.684477 1.791716 35.000000
2.857043 -0.714392 1.777634 33.000000
2.828776 -0.743384 1.762631 29.000000
2.828802 -0.780053 1.766329 28.000000
2.778545 -0.802757 1.739513 18.000000
2.777894 -0.838812 1.742808 30.000000
2.756534 -0.868520 1.733028 31.000000
2.754811 -0.904827 1.736727 35.000000
2.724299 -0.931512 1.722243 29.000000
2.722561 -0.967253 1.724809 34.000000
2.691631 -0.992888 1.710058 29.000000
2.680725 -1.025607 1.708019 26.000000
2.648924 -1.050606 1.693616 23.000000
2.645449 -1.085942 1.696290 31.000000
2.629211 -1.116731 1.691915 32.000000
2.597447 -1.139796 1.676460 35.000000
2.584677 -1.171672 1.674348 31.000000
2.555995 -1.195943 1.661887 32.000000
2.527174 -1.219632 1.649354 32.000000
2.517626 -1.252446 1.649400 24.000000
2.484695 -1.273248 1.634086 26.000000
2.474593 -1.305571 1.633843 32.000000
2.448965 -1.329446 1.623326 36.000000
2.449000 -1.368192 1.631016 37.000000
2.426744 -1.393494 1.622930 34.000000
2.411145 -1.423507 1.620264 36.000000
2.388535 -1.448140 1.611909 36.000000
