x y z intensity
0.880686 1.346438 0.593718 19.000000
0.889911 1.328129 0.592494 28.000000
0.917373 1.336780 0.603452 29.000000
0.929093 1.321967 0.603918 33.000000
0.940572 1.307059 0.604373 31.000000
0.957415 1.299541 0.608288 28.000000
0.968602 1.284384 0.608677 35.000000
0.996740 1.291283 0.619654 29.000000
1.010692 1.279354 0.621784 27.000000
1.018614 1.260056 0.620286 32.000000
1.029299 1.244282 0.620557 30.000000
1.048790 1.239102 0.626162 48.000000
1.068382 1.233620 0.631737 31.000000
1.075552 1.213879 0.630092 33.000000
1.101289 1.214834 0.639321 41.000000
1.117022 1.205573 0.643292 29.000000
1.139769 1.202402 0.650715 24.000000
1.130245 1.165393 0.639730 37.000000
1.156127 1.165068 0.648894 36.000000
1.171610 1.154973 0.652785 47.000000
1.197631 1.153875 0.661963 43.000000
1.203542 1.133142 0.660004 38.000000
1.222322 1.125524 0.665733 71.000000
1.238116 1.113987 0.669236 35.000000
1.256857 1.105706 0.674947 24.000000
1.269086 1.090668 0.676544 32.000000
1.280653 1.075905 0.678417 30.000000
1.303293 1.069405 0.685610 40.000000
1.314679 1.054187 0.687388 35.000000
1.333686 1.044119 0.692617 33.000000
1.359553 1.039834 0.701936 52.000000
1.366971 1.021146 0.701728 32.000000
1.377951 1.005156 0.703417 26.000000
1.400052 0.997037 0.710726 31.000000
1.425950 0.991177 0.719974 35.000000
1.440499 0.977073 0.723442 55.000000
1.454933 0.962707 0.726861 34.000000
1.477003 0.953081 0.734141 38.000000
1.495159 0.940669 0.739456 57.000000
1.521108 0.932719 0.748537 32.000000
1.539178 0.919554 0.753771 28.000000
1.552835 0.904065 0.757375 34.000000
1.574794 0.892609 0.764460 38.000000
1.588601 0.876244 0.767607 37.000000
1.605970 0.862202 0.773014 34.000000
1.627452 0.849982 0.780271 51.000000
1.649073 0.836989 0.787303 56.000000
1.666278 0.821920 0.792515 30.000000
1.691678 0.810447 0.801669 26.000000
1.712897 0.796588 0.808818 31.000000
1.734055 0.782251 0.815922 32.000000
1.750937 0.765718 0.821006 33.000000
1.780398 0.754236 0.831966 35.000000
1.792547 0.735422 0.835294 31.000000
1.809130 0.717816 0.840223 33.000000
1.816699 0.696919 0.841453 24.000000
1.854255 0.686985 0.856463 26.000000
1.896108 0.677832 0.873498 35.000000
1.912081 0.658781 0.878487 33.000000
1.945257 0.645236 0.891463 58.000000
1.960949 0.625446 0.896342 39.000000
1.976428 0.605316 0.901160 34.000000
2.000414 0.587634 0.910194 36.000000
2.019824 0.568167 0.917174 30.000000
2.057009 0.552940 0.931831 24.000000
2.085080 0.534788 0.942639 35.000000
2.117290 0.517284 0.955762 32.000000
2.140723 0.496875 0.964453 33.000000
2.172747 0.478095 0.977399 36.000000
2.209307 0.459329 0.992003 32.000000
2.232086 0.437271 1.000734 34.000000
2.236561 0.411563 1.001644 29.000000
2.313103 0.398042 1.034438 28.000000
2.330960 0.373442 1.040881 34.000000
2.366492 0.351215 1.055640 33.000000
2.388290 0.326319 1.064277 34.000000
2.423273 0.302705 1.079147 35.000000
2.471973 0.279819 1.099604 34.000000
2.502090 0.254036 1.112236 35.000000
2.504692 0.225166 1.112656 24.000000
2.575416 0.201564 1.143259 25.000000
2.609418 0.173862 1.157598 32.000000
2.656725 0.146264 1.178191 37.000000
2.712953 0.118010 1.202665 32.000000
2.741547 0.087524 1.214905 35.000000
2.787891 0.056778 1.235525 35.000000
2.815782 0.024814 1.247772 31.000000
2.856922 -0.007820 1.266098 34.000000
2.911581 -0.041504 1.290213 29.000000
2.970406 -0.076668 1.316345 35.000000
3.037939 -0.113546 1.346621 35.000000
3.082180 -0.150890 1.366665 32.000000
3.144214 -0.190291 1.394590 35.000000
3.173822 -0.228864 1.408652 32.000000
3.125499 -0.261688 1.388099 21.000000
3.104257 -0.296065 1.379589 34.000000
3.082740 -0.329917 1.370980 32.000000
3.074371 -0.365069 1.368545 34.000000
3.052201 -0.398033 1.359637 34.000000
3.043154 -0.432612 1.357002 32.000000
3.020148 -0.464897 1.348109 34.000000
3.010334 -0.499110 1.345582 31.000000
2.973102 -0.528314 1.330856 23.000000
2.953873 -0.559998 1.323604 34.000000
2.965503 -0.597700 1.330855 32.000000
2.931788 -0.626256 1.318076 29.000000
2.898099 -0.653991 1.304912 34.000000
2.895226 -0.688622 1.306030 33.000000
2.861032 -0.715184 1.292599 33.000000
2.875224 -0.754110 1.301545 34.000000
2.795937 -0.768069 1.268685 21.000000
2.800745 -0.804122 1.273339 29.000000
2.778744 -0.832397 1.265884 34.000000
2.756346 -0.860463 1.258827 30.000000
2.755356 -0.895308 1.261570 35.000000
2.723703 -0.919796 1.250250 29.000000
2.713562 -0.951368 1.248815 31.000000
2.707349 -0.984221 1.249273 32.000000
2.679441 -1.008992 1.239697 22.000000
2.651291 -1.033176 1.230048 33.000000
2.626882 -1.058868 1.222684 32.000000
2.619729 -1.090760 1.222779 32.000000
2.603345 -1.119405 1.219200 42.000000
2.578320 -1.144036 1.211679 32.000000
2.574029 -1.177747 1.213840 36.000000
2.556901 -1.205582 1.210087 34.000000
2.527125 -1.227202 1.200258 25.000000
2.525948 -1.262552 1.204184 35.000000
2.511801 -1.292158 1.202498 36.000000
2.485451 -1.314653 1.194478 32.000000
2.475231 -1.345474 1.194192 36.000000
2.448136 -1.367685 1.186479 34.000000
2.424906 -1.391813 1.180638 30.000000
2.429753 -1.431293 1.187935 32.000000
2.378379 -1.438216 1.168349 24.000000
2.374123 -1.473204 1.172035 34.000000
2.361739 -1.503422 1.171654 34.000000
2.337433 -1.525886 1.165485 32.000000
2.328303 -1.558253 1.167023 33.000000
2.315068 -1.587910 1.166440 24.000000
2.305185 -1.620126 1.167764 20.000000
2.298750 -1.655033 1.170888 29.000000
2.232330 -1.646027 1.143402 24.000000
2.236530 -1.688563 1.152062 33.000000
2.218221 -1.714454 1.149288 35.000000
2.202524 -1.743587 1.148776 32.000000
2.187319 -1.771973 1.147700 34.000000
2.170938 -1.800906 1.146986 32.000000
2.155142 -1.828902 1.145798 31.000000
2.120667 -1.842245 1.135603 32.000000
2.090570 -1.857416 1.126853 20.000000
2.097329 -1.907044 1.138912 32.000000
2.070206 -1.924777 1.131839 31.000000
2.069019 -1.968514 1.140081 29.000000
2.043825 -1.989673 1.135136 36.000000
2.019544 -2.009722 1.129826 27.000000
2.003799 -2.040209 1.130322 29.000000
1.994163 -2.077281 1.134462 31.000000
1.952198 -2.080436 1.120192 16.000000
1.943000 -2.116419 1.123735 32.000000
1.925969 -2.146231 1.123978 29.000000
1.893230 -2.158387 1.115146 29.000000
1.893823 -2.208984 1.126011 34.000000
1.872635 -2.234840 1.124287 28.000000
1.851273 -2.260481 1.122456 27.000000
1.832465 -2.289551 1.122305 29.000000
1.801699 -2.303752 1.115005 17.000000
1.782349 -2.332385 1.114734 16.000000
1.703799 -2.282170 1.077291 13.000000
1.645995 -2.256878 1.052329 15.000000
1.556305 -2.184772 1.006440 17.000000
1.465826 -2.106927 0.959017 12.000000
1.416749 -2.085390 0.938069 15.000000
1.345016 -2.027898 0.901534 10.000000
1.269544 -1.961042 0.861789 9.000000
1.239615 -1.964788 0.853651 16.000000
1.179081 -1.915386 0.822843 13.000000
1.131938 -1.884968 0.800804 13.000000
1.087904 -1.857760 0.780548 21.000000
1.058590 -1.854281 0.770614 21.000000
1.039468 -1.871626 0.769465 24.000000
0.795925 1.425007 0.602798 18.000000
0.804224 1.403089 0.600075 27.000000
0.828779 1.409452 0.609483 21.000000
0.841432 1.395377 0.610179 31.000000
0.849023 1.373293 0.607288 22.000000
0.868718 1.370877 0.613191 18.000000
0.884390 1.359916 0.615309 18.000000
0.906776 1.360886 0.622978 18.000000
0.908247 1.330653 0.616395 26.000000
0.919944 1.315878 0.616865 28.000000
0.931348 1.301009 0.617270 21.000000
0.959156 1.308611 0.628499 29.000000
0.964943 1.285854 0.625291 24.000000
0.987352 1.285300 0.632906 23.000000
1.007019 1.280777 0.638680 24.000000
1.015071 1.261404 0.637154 20.000000
1.022805 1.242012 0.635551 29.000000
1.047554 1.244408 0.645248 30.000000
1.061119 1.231857 0.647278 27.000000
1.074524 1.219093 0.649307 33.000000
1.087822 1.206169 0.651283 29.000000
1.107305 1.199902 0.656992 28.000000
1.119766 1.187065 0.659141 24.000000
1.142418 1.183586 0.666708 26.000000
1.155418 1.169827 0.668550 36.000000
1.164317 1.153136 0.668773 32.000000
1.180390 1.142364 0.672504 28.000000
1.199678 1.134527 0.678036 34.000000
1.211608 1.120528 0.680052 27.000000
1.227402 1.109026 0.683705 30.000000
1.249531 1.103888 0.691362 24.000000
1.261759 1.088795 0.693015 25.000000
1.283909 1.082958 0.700662 35.000000
1.291902 1.064972 0.700621 27.000000
1.303756 1.049408 0.702116 28.000000
1.322189 1.039818 0.707767 31.000000
1.347996 1.035504 0.717325 30.000000
1.359088 1.019682 0.719014 29.000000
1.377494 1.009132 0.724609 24.000000
1.384621 0.990208 0.724293 25.000000
1.417975 0.989685 0.737645 34.000000
1.428704 0.972989 0.739194 30.000000
1.435432 0.953579 0.738773 29.000000
1.465067 0.949072 0.750131 34.000000
1.494801 0.944054 0.761470 29.000000
1.512900 0.931183 0.766843 30.000000
1.530631 0.918367 0.772468 23.000000
1.552544 0.907146 0.779741 27.000000
1.562174 0.889142 0.781356 30.000000
1.571924 0.870599 0.782552 29.000000
1.593296 0.858819 0.790048 30.000000
1.606877 0.842020 0.793196 32.000000
1.624041 0.827446 0.798599 29.000000
1.645216 0.814592 0.805965 29.000000
1.674589 0.805235 0.817315 19.000000
1.695762 0.791401 0.824603 24.000000
1.716813 0.777215 0.831846 31.000000
1.750107 0.768379 0.845427 28.000000
1.766812 0.751419 0.850561 25.000000
1.787694 0.735874 0.857670 28.000000
1.820972 0.725299 0.871079 25.000000
1.837222 0.707372 0.876389 26.000000
1.866186 0.693957 0.887754 24.000000
1.882165 0.675286 0.892896 22.000000
1.902391 0.657839 0.900021 29.000000
1.926776 0.641399 0.909135 27.000000
1.946738 0.623027 0.916221 26.000000
1.970741 0.605830 0.925505 28.000000
1.986042 0.585373 0.930362 24.000000
2.014218 0.568497 0.941589 21.000000
2.051051 0.553347 0.956802 24.000000
2.074609 0.534071 0.965875 24.000000
2.111185 0.517643 0.981280 27.000000
2.156655 0.502344 1.000462 26.000000
2.166368 0.478335 1.003412 22.000000
2.189256 0.456866 1.012478 25.000000
2.207532 0.434104 1.019342 21.000000
2.207652 0.407574 1.017881 10.000000
2.288292 0.395091 1.053447 24.000000
2.319386 0.372891 1.066628 21.000000
2.341254 0.348724 1.075452 24.000000
2.385489 0.327073 1.094630 31.000000
2.411539 0.302216 1.105384 24.000000
2.464292 0.279918 1.128736 26.000000
2.476257 0.252316 1.133379 22.000000
2.478760 0.223604 1.133796 9.000000
2.562743 0.201219 1.171365 23.000000
2.587596 0.172993 1.181818 20.000000
2.643759 0.146086 1.207053 19.000000
2.695175 0.117630 1.230138 25.000000
2.718995 0.087050 1.240602 18.000000
2.765205 0.056499 1.261626 21.000000
2.801965 0.024814 1.278414 24.000000
2.842999 -0.007820 1.297092 22.000000
2.901938 -0.041569 1.323974 28.000000
2.955925 -0.076569 1.348579 29.000000
2.991201 -0.112150 1.365077 24.000000
3.057952 -0.150238 1.395990 30.000000
3.115241 -0.189148 1.422642 25.000000
3.144703 -0.227560 1.437053 24.000000
3.105683 -0.260993 1.420150 22.000000
3.098122 -0.296515 1.417659 22.000000
3.072160 -0.329989 1.406675 29.000000
3.045835 -0.362834 1.395596 26.000000
3.037106 -0.397519 1.393115 29.000000
3.037093 -0.433386 1.394568 32.000000
2.996268 -0.462895 1.377304 26.000000
2.995577 -0.498296 1.378456 24.000000
2.962981 -0.528308 1.365451 23.000000
2.943510 -0.560147 1.358450 25.000000
2.950677 -0.596893 1.363837 30.000000
2.917296 -0.625356 1.350458 26.000000
2.874853 -0.651087 1.332779 25.000000
2.876313 -0.686572 1.336107 30.000000
2.846783 -0.714202 1.324437 29.000000
2.843133 -0.748379 1.325313 23.000000
2.795310 -0.770447 1.305655 24.000000
2.786770 -0.802764 1.304394 23.000000
2.769010 -0.832647 1.299228 29.000000
2.738150 -0.857849 1.287542 28.000000
2.715539 -0.885375 1.280159 26.000000
2.709927 -0.918457 1.280865 29.000000
2.686867 -0.945388 1.273308 27.000000
2.667816 -0.973393 1.267708 18.000000
2.640004 -0.997875 1.257953 27.000000
2.646081 -1.035085 1.264387 26.000000
2.613607 -1.057079 1.252434 27.000000
2.589094 -1.082389 1.244845 27.000000
2.585403 -1.116180 1.247396 26.000000
2.565017 -1.142256 1.241191 29.000000
2.539897 -1.166415 1.233449 24.000000
2.535303 -1.199885 1.235615 16.000000
2.517907 -1.227343 1.231732 28.000000
2.504460 -1.256572 1.229678 26.000000
2.486569 -1.283514 1.225617 28.000000
2.476165 -1.314937 1.225849 30.000000
2.453831 -1.339215 1.219609 27.000000
2.438753 -1.368163 1.217747 30.000000
2.419979 -1.393983 1.213335 26.000000
2.368927 -1.401398 1.193390 12.000000
2.365590 -1.435824 1.196780 24.000000
2.345775 -1.461184 1.192683 24.000000
2.341125 -1.496068 1.196319 29.000000
2.324601 -1.523486 1.194011 26.000000
2.319243 -1.558408 1.197520 25.000000
2.305866 -1.588199 1.196980 23.000000
2.295911 -1.620358 1.198301 14.000000
2.266919 -1.639121 1.189819 10.000000
2.245315 -1.662822 1.185084 27.000000
2.219915 -1.683376 1.178410 26.000000
2.212461 -1.717700 1.181470 32.000000
2.190205 -1.740531 1.176563 28.000000
2.181297 -1.775381 1.179865 28.000000
2.151489 -1.791843 1.171005 29.000000
2.125199 -1.810772 1.164008 24.000000
2.122285 -1.851334 1.170929 11.000000
2.095566 -1.869663 1.163843 25.000000
2.084836 -1.903967 1.166695 21.000000
2.057847 -1.921710 1.159438 28.000000
2.049756 -1.958932 1.164060 24.000000
2.027962 -1.983345 1.160973 22.000000
2.013558 -2.013183 1.161195 27.000000
1.984748 -2.030488 1.154239 20.000000
1.984613 -2.077515 1.164108 14.000000
1.959688 -2.096832 1.158453 24.000000
1.924033 -2.106368 1.147495 18.000000
1.913218 -2.143019 1.151558 26.000000
1.880447 -2.155286 1.142499 21.000000
1.883888 -2.209377 1.155567 26.000000
1.852067 -2.220127 1.145939 26.000000
1.839525 -2.256469 1.149583 20.000000
1.855371 -2.329199 1.171387 18.000000
1.801387 -2.314435 1.149239 20.000000
1.773381 -2.332068 1.143575 10.000000
1.717379 -2.311936 1.119710 10.000000
1.629314 -2.245413 1.074225 10.000000
1.559037 -2.200044 1.039828 10.000000
1.476705 -2.134122 0.996687 10.000000
1.409184 -2.085812 0.962676 9.000000
1.365986 -2.071302 0.944823 9.000000
1.271392 -1.978122 0.892008 10.000000
1.227688 -1.957578 0.872656 9.000000
1.167503 -1.908251 0.841110 10.000000
1.127739 -1.889940 0.823805 10.000000
1.093235 -1.879123 0.810032 10.000000
1.052104 -1.855450 0.791126 18.000000
0.793716 1.430794 0.620682 21.000000
0.806786 1.416960 0.621411 17.000000
0.829082 1.419150 0.629277 20.000000
0.834741 1.392988 0.624622 18.000000
0.852157 1.386766 0.628867 19.000000
0.876952 1.392210 0.638552 18.000000
0.871712 1.350183 0.626502 16.000000
0.888864 1.343485 0.630694 21.000000
0.908604 1.340365 0.636676 27.000000
0.917743 1.321680 0.635340 24.000000
0.934744 1.314328 0.639453 28.000000
0.948987 1.302944 0.641730 24.000000
0.965900 1.295176 0.645809 23.000000
0.982734 1.287129 0.649902 25.000000
0.996740 1.275200 0.652085 18.000000
1.013481 1.266731 0.656143 35.000000
1.015520 1.240164 0.650756 26.000000
1.040932 1.242058 0.660416 29.000000
1.057456 1.232967 0.664391 32.000000
1.073252 1.224126 0.668594 27.000000
1.083593 1.207687 0.668730 31.000000
1.099946 1.197969 0.672622 30.000000
1.125048 1.198599 0.682493 24.000000
1.134997 1.181690 0.682526 46.000000
1.144763 1.164641 0.682548 33.000000
1.170099 1.164254 0.692390 35.000000
1.186240 1.153263 0.696187 56.000000
1.195009 1.136230 0.696324 32.000000
1.211000 1.124833 0.700076 35.000000
1.229700 1.116833 0.706015 46.000000
1.242094 1.101905 0.707722 18.000000
1.260718 1.093331 0.713582 32.000000
1.272405 1.078487 0.715520 33.000000
1.284425 1.063033 0.717127 33.000000
1.302919 1.053686 0.722916 34.000000
1.317826 1.041159 0.726683 30.000000
1.339888 1.033984 0.734442 35.000000
1.362021 1.026383 0.742172 34.000000
1.380472 1.015694 0.747874 20.000000
1.384045 0.994028 0.745521 36.000000
1.409828 0.988136 0.755201 37.000000
1.413000 0.966216 0.752782 37.000000
1.431113 0.954515 0.758300 44.000000
1.449165 0.942520 0.763833 37.000000
1.490378 0.944915 0.781530 43.000000
1.504219 0.929943 0.785267 39.000000
1.526175 0.919121 0.792723 24.000000
1.547689 0.908201 0.800500 64.000000
1.561667 0.892055 0.803860 36.000000
1.575154 0.875996 0.807407 38.000000
1.604553 0.868408 0.819153 56.000000
1.618232 0.851366 0.822363 55.000000
1.627349 0.832398 0.823771 48.000000
1.640424 0.815274 0.827174 40.000000
1.653298 0.797994 0.830523 25.000000
1.699085 0.795949 0.850328 41.000000
1.715672 0.779977 0.855972 36.000000
1.732529 0.763433 0.861250 35.000000
1.748959 0.746820 0.866794 38.000000
1.773938 0.733104 0.876119 35.000000
1.802840 0.720875 0.887802 50.000000
1.848689 0.714514 0.907712 33.000000
1.852082 0.691303 0.906825 26.000000
1.885165 0.678834 0.920410 50.000000
1.905306 0.661231 0.927687 59.000000
1.925409 0.643190 0.934979 70.000000
1.949658 0.626167 0.944171 63.000000
1.969278 0.607472 0.951629 46.000000
1.997479 0.590979 0.963160 62.000000
2.047438 0.580024 0.985146 37.000000
2.040457 0.552564 0.979698 25.000000
2.068315 0.534417 0.991072 36.000000
2.100486 0.516697 1.004425 50.000000
2.128019 0.497401 1.015910 42.000000
2.142093 0.474650 1.021011 52.000000
2.187041 0.458050 1.040749 49.000000
2.218531 0.437737 1.054101 36.000000
2.236618 0.414325 1.061051 34.000000
2.281005 0.395320 1.080853 29.000000
2.316599 0.373704 1.096055 52.000000
2.347430 0.350767 1.109390 65.000000
2.368894 0.325972 1.118665 45.000000
2.408303 0.302858 1.136023 58.000000
2.451984 0.279419 1.155431 52.000000
2.481837 0.253657 1.168655 52.000000
2.506989 0.226859 1.179600 35.000000
2.567863 0.202383 1.207788 34.000000
2.601650 0.174551 1.222734 54.000000
2.639477 0.146321 1.240073 52.000000
2.699690 0.118150 1.267951 59.000000
2.728019 0.087686 1.280694 49.000000
2.764864 0.056685 1.298058 46.000000
2.805969 0.024881 1.317368 51.000000
2.855849 -0.007895 1.340740 32.000000
2.860182 -0.041082 1.342672 34.000000
2.931998 -0.076234 1.376466 34.000000
2.962672 -0.111539 1.391235 33.000000
3.029088 -0.149261 1.422891 33.000000
3.067912 -0.187011 1.441694 31.000000
3.124327 -0.226915 1.469191 28.000000
3.103747 -0.261716 1.459963 29.000000
3.082676 -0.295994 1.451058 35.000000
3.056723 -0.329367 1.439933 35.000000
3.039401 -0.363395 1.433261 34.000000
3.021702 -0.397006 1.426490 33.000000
2.999455 -0.429456 1.416991 32.000000
2.994555 -0.464266 1.416174 35.000000
2.962336 -0.494701 1.403068 27.000000
2.925654 -0.523511 1.387253 21.000000
2.906396 -0.554994 1.380212 33.000000
2.904560 -0.589674 1.381427 35.000000
2.889111 -0.621597 1.376208 35.000000
2.868985 -0.652110 1.368786 31.000000
2.866264 -0.686440 1.369606 34.000000
2.840839 -0.715434 1.360192 35.000000
2.810928 -0.742662 1.348588 31.000000
2.780753 -0.769380 1.336904 18.000000
2.767854 -0.800436 1.333543 32.000000
2.754789 -0.831293 1.329991 32.000000
2.737034 -0.860494 1.324253 34.000000
2.710032 -0.886862 1.314722 31.000000
2.691563 -0.915559 1.309197 31.000000
2.672776 -0.943960 1.303586 31.000000
2.662302 -0.975095 1.302063 29.000000
2.638795 -1.001298 1.294192 19.000000
2.632035 -1.033566 1.294568 36.000000
2.624954 -1.065838 1.294843 34.000000
2.600299 -1.091452 1.287189 36.000000
2.584299 -1.119727 1.283035 35.000000
2.567676 -1.148188 1.279359 32.000000
2.534649 -1.168269 1.266763 34.000000
2.517534 -1.195966 1.262922 28.000000
2.492090 -1.219375 1.254780 17.000000
2.503036 -1.260761 1.265078 35.000000
2.489241 -1.289946 1.263013 34.000000
2.474602 -1.319506 1.261230 37.000000
2.452150 -1.343931 1.254884 35.000000
2.429605 -1.367888 1.248459 33.000000
2.422124 -1.401175 1.250581 36.000000
2.395192 -1.422241 1.241855 31.000000
2.336370 -1.424380 1.217358 13.000000
2.355981 -1.473242 1.232959 34.000000
2.339653 -1.500981 1.230732 35.000000
2.330595 -1.533563 1.232361 37.000000
2.313655 -1.561021 1.229941 32.000000
2.303871 -1.593408 1.231452 27.000000
2.290051 -1.623137 1.230845 21.000000
2.268572 -1.647383 1.226129 24.000000
2.221038 -1.652115 1.207336 11.000000
2.228505 -1.697554 1.218532 36.000000
2.202811 -1.718016 1.211569 30.000000
2.184133 -1.743757 1.208596 34.000000
2.165176 -1.769311 1.205622 35.000000
2.131107 -1.783446 1.195026 32.000000
2.122285 -1.817246 1.197798 34.000000
2.102710 -1.842017 1.194551 28.000000
2.078597 -1.864087 1.189807 10.000000
2.092599 -1.919369 1.205925 32.000000
2.057613 -1.931807 1.195114 28.000000
2.047004 -1.965229 1.197391 30.000000
2.025104 -1.989762 1.194290 31.000000
2.007208 -2.016435 1.192557 29.000000
1.991235 -2.047056 1.193116 31.000000
1.952665 -2.054131 1.180200 24.000000
1.937313 -2.083380 1.180190 10.000000
1.929728 -2.123601 1.186264 32.000000
1.909393 -2.150084 1.184662 28.000000
1.896095 -2.182484 1.186275 30.000000
1.871967 -2.205086 1.182556 32.000000
1.859570 -2.241753 1.186381 28.000000
1.829165 -2.256726 1.178878 32.000000
1.807263 -2.282173 1.176829 24.000000
1.793605 -2.318407 1.180467 10.000000
1.768242 -2.339816 1.176417 16.000000
1.726238 -2.338521 1.161237 14.000000
1.651738 -2.291318 1.123950 14.000000
1.578621 -2.242569 1.086804 16.000000
1.480464 -2.154150 1.031540 10.000000
1.412978 -2.106120 0.996677 12.000000
1.346748 -2.056780 0.962043 10.000000
1.274263 -1.994374 0.922114 9.000000
1.220732 -1.958141 0.895042 10.000000
1.180122 -1.940911 0.877159 10.000000
1.123391 -1.894813 0.846829 16.000000
1.084243 -1.875937 0.829219 18.000000
1.047873 -1.860537 0.813432 20.000000
0.784526 1.424256 0.633180 24.000000
0.799916 1.414511 0.635736 24.000000
0.817535 1.408630 0.640121 29.000000
0.832756 1.398537 0.642685 23.000000
0.842972 1.380350 0.641508 29.000000
0.862770 1.377869 0.647705 22.000000
0.872602 1.359481 0.646447 21.000000
0.884708 1.344879 0.647025 29.000000
0.904452 1.341714 0.653150 28.000000
0.911090 1.319199 0.649912 31.000000
0.928073 1.311840 0.654120 26.000000
0.945031 1.304257 0.658288 30.000000
0.961912 1.296395 0.662470 31.000000
0.967634 1.273636 0.659045 25.000000
0.987193 1.269104 0.665085 28.000000
0.994454 1.250301 0.663691 34.000000
1.013903 1.245368 0.669705 35.000000
1.039360 1.247168 0.679551 35.000000
1.047020 1.227478 0.677826 34.000000
1.062758 1.218667 0.682119 35.000000
1.073082 1.202271 0.682205 36.000000
1.095584 1.199379 0.690099 28.000000
1.111220 1.189867 0.694323 25.000000
1.130698 1.182955 0.700256 35.000000
1.140522 1.165873 0.700239 42.000000
1.152764 1.152493 0.702406 69.000000
1.181964 1.154443 0.714166 48.000000
1.190842 1.137323 0.714319 37.000000
1.206793 1.125934 0.718121 60.000000
1.218713 1.111706 0.720209 35.000000
1.240833 1.106403 0.728204 28.000000
1.249678 1.088276 0.727911 29.000000
1.271730 1.082368 0.735892 35.000000
1.283314 1.067275 0.737842 37.000000
1.291240 1.049188 0.737653 35.000000
1.313250 1.042379 0.745581 35.000000
1.324506 1.026755 0.747373 36.000000
1.350094 1.021982 0.757330 30.000000
1.364859 1.008616 0.761074 32.000000
1.383211 0.997718 0.766878 34.000000
1.390326 0.978601 0.766478 37.000000
1.412238 0.969719 0.774249 50.000000
1.430362 0.957920 0.779925 37.000000
1.444672 0.943336 0.783492 48.000000
1.492999 0.950894 0.805945 50.000000
1.491851 0.925832 0.801202 34.000000
1.517189 0.917752 0.811230 33.000000
1.531281 0.901908 0.814623 35.000000
1.552649 0.890672 0.822497 40.000000
1.574104 0.879039 0.830334 49.000000
1.587482 0.862669 0.833944 41.000000
1.605103 0.847900 0.839294 44.000000
1.618293 0.831052 0.842800 52.000000
1.635343 0.815949 0.848418 35.000000
1.672444 0.810791 0.864781 30.000000
1.689466 0.794818 0.870257 36.000000
1.702264 0.776707 0.873567 30.000000
1.718739 0.760521 0.879253 36.000000
1.735358 0.743698 0.884572 35.000000
1.768331 0.733744 0.898656 36.000000
1.797200 0.721453 0.910519 59.000000
1.830209 0.710177 0.924541 30.000000
1.854763 0.695002 0.934199 32.000000
1.875004 0.677758 0.941741 51.000000
1.895144 0.660146 0.949164 54.000000
1.915110 0.642099 0.956532 60.000000
1.934830 0.623886 0.964119 55.000000
1.958679 0.606640 0.973797 36.000000
1.982645 0.588643 0.983146 48.000000
2.014990 0.572849 0.996946 31.000000
2.042643 0.555263 1.008977 32.000000
2.061759 0.534687 1.016223 37.000000
2.085042 0.514814 1.025561 34.000000
2.121158 0.497696 1.041601 37.000000
2.135196 0.474817 1.046728 42.000000
2.179944 0.458225 1.066982 35.000000
2.198112 0.435300 1.074144 34.000000
2.220313 0.412964 1.083630 27.000000
2.273672 0.395391 1.107969 34.000000
2.295529 0.371710 1.117333 40.000000
2.330660 0.349619 1.133050 37.000000
2.347721 0.324175 1.140031 35.000000
2.391238 0.301884 1.160271 48.000000
2.430227 0.277979 1.177870 35.000000
2.460012 0.252401 1.191388 37.000000
2.489522 0.226112 1.204747 30.000000
2.550089 0.201681 1.233573 34.000000
2.583622 0.173985 1.248951 38.000000
2.612266 0.145303 1.262338 36.000000
2.645175 0.116190 1.277726 35.000000
2.695847 0.086922 1.301721 35.000000
2.741596 0.056406 1.323731 36.000000
2.782490 0.024801 1.343482 36.000000
2.791589 -0.007758 1.347830 29.000000
2.827322 -0.040822 1.365126 29.000000
2.885361 -0.075313 1.393091 29.000000
2.929281 -0.110659 1.414824 29.000000
2.986359 -0.147722 1.442875 26.000000
3.056555 -0.186975 1.477228 32.000000
3.099083 -0.225943 1.498846 26.000000
3.056166 -0.258638 1.478673 24.000000
3.053153 -0.294280 1.478257 31.000000
3.027435 -0.327499 1.466888 29.000000
3.010098 -0.361269 1.460070 30.000000
3.006093 -0.396287 1.459146 34.000000
2.970354 -0.426920 1.443461 29.000000
2.974382 -0.462960 1.447082 32.000000
2.960294 -0.496126 1.441835 30.000000
2.914675 -0.523607 1.421749 24.000000
2.900106 -0.555794 1.416322 32.000000
2.911481 -0.593277 1.424066 32.000000
2.869581 -0.619650 1.405785 31.000000
2.862628 -0.653126 1.404692 33.000000
2.842317 -0.683240 1.397032 32.000000
2.834605 -0.716561 1.396044 34.000000
2.804687 -0.743900 1.384291 31.000000
2.748799 -0.763191 1.358970 22.000000
2.753320 -0.799079 1.364161 31.000000
2.744212 -0.831441 1.363192 35.000000
2.713568 -0.856618 1.350920 30.000000
2.699951 -0.886739 1.347144 33.000000
2.672863 -0.912571 1.337242 29.000000
2.654138 -0.940926 1.331632 27.000000
2.656412 -0.976692 1.336516 30.000000
2.624487 -0.999687 1.324230 25.000000
2.609192 -1.028729 1.320395 33.000000
2.593744 -1.057484 1.316471 34.000000
2.573877 -1.084194 1.310240 30.000000
2.574094 -1.120023 1.315097 36.000000
2.541323 -1.140644 1.302333 32.000000
2.536784 -1.174386 1.304874 32.000000
2.507336 -1.196330 1.294543 29.000000
2.498591 -1.227419 1.294219 28.000000
2.485100 -1.256744 1.292158 35.000000
2.483308 -1.292164 1.296400 54.000000
2.448616 -1.311015 1.284214 33.000000
2.442190 -1.344062 1.286068 36.000000
2.419667 -1.368073 1.279451 35.000000
2.400796 -1.394086 1.274937 34.000000
2.389037 -1.424943 1.274969 33.000000
2.346480 -1.436063 1.257709 26.000000
2.338121 -1.468781 1.259643 31.000000
2.330027 -1.500848 1.261006 39.000000
2.317099 -1.530957 1.260657 34.000000
2.300159 -1.558415 1.258237 33.000000
2.290331 -1.590793 1.259747 32.000000
2.272775 -1.617874 1.257133 22.000000
2.262307 -1.650050 1.258524 25.000000
2.218640 -1.657635 1.241397 28.000000
2.211362 -1.692169 1.244647 35.000000
2.192746 -1.718231 1.241669 45.000000
2.166909 -1.738296 1.234629 34.000000
2.151609 -1.766617 1.233593 35.000000
2.121869 -1.783065 1.224372 35.000000
2.099166 -1.804956 1.219121 32.000000
2.099380 -1.848402 1.228414 32.000000
2.079429 -1.873015 1.224965 25.000000
2.066125 -1.903465 1.225514 36.000000
2.038034 -1.922054 1.218532 46.000000
2.034033 -1.961752 1.224838 32.000000
2.021837 -1.995958 1.227686 37.000000
2.000680 -2.019476 1.223908 33.000000
1.978106 -2.043561 1.220602 29.000000
1.955343 -2.067363 1.217202 31.000000
1.924248 -2.079902 1.207355 25.000000
1.925815 -2.130337 1.219416 35.000000
1.905251 -2.156925 1.217842 35.000000
1.873707 -2.168496 1.207820 28.000000
1.855737 -2.198035 1.207991 34.000000
1.840263 -2.231085 1.209971 35.000000
1.818570 -2.256779 1.208068 32.000000
1.806623 -2.292273 1.211327 33.000000
1.781454 -2.313971 1.207277 20.000000
1.764427 -2.346465 1.208938 22.000000
1.708630 -2.326670 1.183997 17.000000
1.653536 -2.305765 1.159009 21.000000
1.567188 -2.238428 1.111652 17.000000
1.474803 -2.157772 1.058877 16.000000
1.404990 -2.106152 1.021334 16.000000
1.349172 -2.072516 0.993357 18.000000
1.269397 -1.998569 0.946912 9.000000
1.220850 -1.970462 0.922985 17.000000
1.175492 -1.945375 0.900982 18.000000
1.123614 -1.907530 0.873616 15.000000
1.077427 -1.876717 0.850092 21.000000
1.034331 -1.849201 0.828478 27.000000
0.790774 1.407856 0.648093 21.000000
0.808330 1.401996 0.652564 22.000000
0.828173 1.399962 0.658875 30.000000
0.836122 1.377748 0.655792 23.000000
0.855934 1.375252 0.662125 26.000000
0.858341 1.345182 0.655140 17.000000
0.877931 1.342338 0.661426 21.000000
0.895063 1.335320 0.665775 27.000000
0.904333 1.316665 0.664325 26.000000
0.920395 1.309775 0.668892 27.000000
0.942719 1.309669 0.677025 31.000000
0.951563 1.290610 0.675493 25.000000
0.971184 1.286278 0.681725 29.000000
0.982415 1.270674 0.682013 21.000000
0.996260 1.258586 0.684250 29.000000
1.009254 1.246817 0.686753 33.000000
1.025871 1.237999 0.690910 29.000000
1.045376 1.232397 0.697007 34.000000
1.055207 1.216578 0.697437 33.000000
1.068543 1.203617 0.699526 30.000000
1.081825 1.190495 0.701561 36.000000
1.100540 1.184405 0.707874 14.000000
1.123093 1.180836 0.715900 36.000000
1.135478 1.167527 0.718182 65.000000
1.145180 1.150381 0.718060 32.000000
1.170354 1.149593 0.728397 47.000000
1.186468 1.138403 0.732294 42.000000
1.191840 1.118040 0.730356 32.000000
1.213836 1.113087 0.738569 42.000000
1.236476 1.107341 0.746484 18.000000
1.248306 1.092622 0.748484 31.000000
1.263432 1.080698 0.752545 33.000000
1.278509 1.068524 0.756562 35.000000
1.290014 1.053222 0.758460 43.000000
1.301351 1.037808 0.760303 36.000000
1.319749 1.027869 0.766311 35.000000
1.345389 1.023034 0.776400 50.000000
1.352812 1.004207 0.776068 16.000000
1.371089 0.993342 0.781959 36.000000
1.381903 0.976894 0.783610 52.000000
1.403804 0.967998 0.791519 35.000000
1.421480 0.956593 0.797632 69.000000
1.435766 0.942006 0.801304 36.000000
1.472826 0.941794 0.817576 36.000000
1.478998 0.922082 0.817220 62.000000
1.500765 0.911329 0.825009 19.000000
1.529939 0.905142 0.837320 50.000000
1.543511 0.889289 0.841074 59.000000
1.564896 0.877645 0.849053 35.000000
1.578251 0.861273 0.852710 51.000000
1.599509 0.848919 0.860667 50.000000
1.604675 0.827881 0.859924 34.000000
1.625750 0.814843 0.867727 47.000000
1.658941 0.807378 0.881956 18.000000
1.671818 0.789583 0.885364 31.000000
1.700629 0.779328 0.897681 60.000000
1.705059 0.757235 0.896655 31.000000
1.725495 0.742552 0.904552 34.000000
1.758391 0.732582 0.918923 42.000000
1.778727 0.716912 0.926740 32.000000
1.811558 0.705718 0.940979 38.000000
1.836049 0.690697 0.950889 27.000000
1.864641 0.676614 0.962871 37.000000
1.880465 0.657511 0.968251 59.000000
1.904402 0.641212 0.978290 42.000000
1.919979 0.621403 0.983489 61.000000
1.956592 0.608199 0.999935 54.000000
1.963063 0.585168 1.000979 35.000000
1.990919 0.568231 1.012939 40.000000
2.023030 0.551897 1.026978 29.000000
2.046179 0.532692 1.036924 32.000000
2.073711 0.513943 1.048658 44.000000
2.096631 0.493726 1.058349 35.000000
2.141240 0.477912 1.079089 34.000000
2.159482 0.455544 1.086460 35.000000
2.190756 0.435416 1.100393 34.000000
2.212872 0.413022 1.110151 32.000000
2.256911 0.394073 1.130834 30.000000
2.283325 0.371080 1.142292 34.000000
2.309187 0.347726 1.154315 50.000000
2.343999 0.324924 1.170308 43.000000
2.374139 0.300750 1.183932 36.000000
2.417218 0.277565 1.204466 42.000000
2.451317 0.252441 1.220497 47.000000
2.471765 0.225282 1.229712 32.000000
2.527723 0.200539 1.256607 33.000000
2.560909 0.173117 1.272585 36.000000
2.607292 0.145536 1.295150 36.000000
2.666885 0.117589 1.324303 53.000000
2.685974 0.086884 1.333191 32.000000
2.731485 0.056406 1.355783 35.000000
2.767685 0.024706 1.373752 35.000000
2.781215 -0.007770 1.380421 26.000000
2.812278 -0.040726 1.395886 32.000000
2.883437 -0.075567 1.431056 32.000000
2.913686 -0.110560 1.446611 29.000000
2.988346 -0.148408 1.484184 32.000000
3.022381 -0.185566 1.501649 29.000000
3.109570 -0.227483 1.545546 30.000000
3.062171 -0.260118 1.523130 24.000000
3.027920 -0.293001 1.507174 28.000000
3.015592 -0.327467 1.502218 32.000000
3.011976 -0.362693 1.501495 35.000000
2.980982 -0.394495 1.487778 31.000000
2.972041 -0.428871 1.484947 34.000000
2.954154 -0.461453 1.477179 30.000000
2.961920 -0.498390 1.483414 31.000000
2.885799 -0.520318 1.446991 18.000000
2.871303 -0.552254 1.441372 32.000000
2.865035 -0.585980 1.440576 32.000000
2.867238 -0.621508 1.443997 36.000000
2.829736 -0.648027 1.427456 30.000000
2.831254 -0.683205 1.430680 35.000000
2.801777 -0.711057 1.418773 32.000000
2.798353 -0.744836 1.419402 30.000000
2.729429 -0.760828 1.387437 21.000000
2.733893 -0.796660 1.392776 32.000000
2.712195 -0.824760 1.384838 30.000000
2.715899 -0.860509 1.389874 39.000000
2.680614 -0.884179 1.375571 31.000000
2.675189 -0.916876 1.376033 32.000000
2.664919 -0.948452 1.374594 34.000000
2.641606 -0.975068 1.366509 27.000000
2.592989 -0.991742 1.345263 21.000000
2.590438 -1.025464 1.347923 31.000000
2.579104 -1.055878 1.346129 32.000000
2.559285 -1.082593 1.339896 34.000000
2.555680 -1.116138 1.342162 33.000000
2.530792 -1.140807 1.334059 34.000000
2.530744 -1.176021 1.338289 37.000000
2.501347 -1.198169 1.327764 26.000000
2.471839 -1.219744 1.317264 25.000000
2.470391 -1.255057 1.321670 35.000000
2.448523 -1.280012 1.315217 33.000000
2.442378 -1.313144 1.317267 44.000000
2.416086 -1.335350 1.308593 32.000000
2.405380 -1.365925 1.308307 35.000000
2.390532 -1.394220 1.305786 35.000000
2.355996 -1.410615 1.292616 28.000000
2.332355 -1.433939 1.286142 25.000000
2.328335 -1.468511 1.289829 32.000000
2.315717 -1.498711 1.289627 33.000000
2.302765 -1.528816 1.289325 36.000000
2.286383 -1.555623 1.286346 32.000000
2.272883 -1.585397 1.285845 32.000000
2.266336 -1.620351 1.289441 23.000000
2.237455 -1.639284 1.280437 13.000000
2.201207 -1.652130 1.267093 26.000000
2.186686 -1.681068 1.266312 31.000000
2.175398 -1.712627 1.267511 32.000000
2.153086 -1.735513 1.262368 35.000000
2.127140 -1.755140 1.255164 33.000000
2.115049 -1.786167 1.256060 33.000000
2.095659 -1.811123 1.252813 35.000000
2.082913 -1.841840 1.253583 24.000000
2.062063 -1.867157 1.250604 27.000000
2.038611 -1.888257 1.245116 30.000000
2.024981 -1.918512 1.245662 33.000000
2.023119 -1.962112 1.254694 32.000000
1.998879 -1.982618 1.248900 29.000000
1.995855 -2.026416 1.257743 37.000000
1.958534 -2.033287 1.243772 29.000000
1.938982 -2.060346 1.242299 26.000000
1.920302 -2.086442 1.240342 26.000000
1.903196 -2.116494 1.240749 31.000000
1.888777 -2.149761 1.243030 32.000000
1.866211 -2.171850 1.238840 33.000000
1.842121 -2.194417 1.235032 27.000000
1.832408 -2.234459 1.241089 35.000000
1.806305 -2.252179 1.234708 29.000000
1.789997 -2.284891 1.236562 26.000000
1.781648 -2.328487 1.244238 28.000000
1.744961 -2.335308 1.232271 19.000000
1.716649 -2.352738 1.226178 20.000000
1.626597 -2.283432 1.175532 18.000000
1.561028 -2.241680 1.140081 16.000000
1.481955 -2.180370 1.095718 22.000000
1.407011 -2.121404 1.053555 15.000000
1.343704 -2.076374 1.019207 10.000000
1.266845 -2.006568 0.973617 10.000000
1.213455 -1.970749 0.945358 14.000000
1.180096 -1.965619 0.932355 21.000000
1.107222 -1.892043 0.887452 17.000000
1.075095 -1.885397 0.874572 19.000000
0.793948 1.425929 0.671947 15.000000
0.804875 1.407888 0.670765 25.000000
0.822529 1.401748 0.675361 20.000000
0.844869 1.403240 0.683717 19.000000
0.847977 1.373062 0.676704 22.000000
0.877669 1.385845 0.690912 10.000000
0.875163 1.347891 0.679830 24.000000
0.877059 1.317820 0.672557 24.000000
0.906937 1.329697 0.686798 17.000000
0.918830 1.314661 0.687232 23.000000
0.933209 1.303212 0.689629 18.000000
0.957370 1.306945 0.700226 22.000000
0.963440 1.284088 0.696625 27.000000
0.983071 1.279395 0.702969 15.000000
0.997090 1.267202 0.705225 28.000000
0.998716 1.241120 0.699760 21.000000
1.021090 1.239340 0.707988 26.000000
1.031799 1.223206 0.708160 29.000000
1.056447 1.224761 0.718738 23.000000
1.066929 1.208267 0.718863 29.000000
1.071159 1.184914 0.714783 28.000000
1.108316 1.198996 0.733524 19.000000
1.121590 1.185285 0.735600 43.000000
1.124596 1.162081 0.731711 28.000000
1.140041 1.151883 0.735999 33.000000
1.159337 1.144206 0.742101 34.000000
1.168192 1.127173 0.742207 29.000000
1.190753 1.122089 0.750311 34.000000
1.202673 1.107806 0.752399 29.000000
1.241528 1.117712 0.771252 24.000000
1.236458 1.087848 0.762823 28.000000
1.254966 1.078915 0.769031 27.000000
1.270076 1.066737 0.773092 31.000000
1.278079 1.048617 0.772929 32.000000
1.289385 1.033190 0.774823 30.000000
1.307762 1.023283 0.780917 34.000000
1.326037 1.012982 0.786974 29.000000
1.351567 1.007799 0.797269 26.000000
1.366205 0.994179 0.801119 31.000000
1.377048 0.977687 0.802831 30.000000
1.391029 0.963993 0.806923 33.000000
1.409148 0.952279 0.812780 34.000000
1.427149 0.940213 0.818653 32.000000
1.456055 0.935508 0.831270 35.000000
1.473592 0.923005 0.837366 31.000000
1.503061 0.916884 0.849645 28.000000
1.528323 0.908242 0.860024 32.000000
1.538087 0.890040 0.861712 35.000000
1.555506 0.876191 0.867650 34.000000
1.560954 0.855494 0.867036 31.000000
1.586121 0.845337 0.877258 36.000000
1.595276 0.826416 0.878662 31.000000
1.616280 0.813367 0.886605 31.000000
1.629167 0.796028 0.890099 30.000000
1.674031 0.794163 0.911567 29.000000
1.686802 0.775997 0.914974 30.000000
1.703267 0.759751 0.920854 30.000000
1.715442 0.741343 0.924468 32.000000
1.739927 0.727962 0.934685 28.000000
1.760154 0.712382 0.942574 31.000000
1.797039 0.702900 0.959385 27.000000
1.825537 0.689500 0.971646 21.000000
1.845667 0.672406 0.979403 32.000000
1.861142 0.653600 0.985211 28.000000
1.885220 0.637189 0.995098 30.000000
1.909017 0.620513 1.005207 31.000000
1.924127 0.600636 1.010786 27.000000
1.956210 0.585545 1.025279 30.000000
1.992617 0.571008 1.041975 26.000000
1.977238 0.541533 1.031587 10.000000
2.034680 0.531830 1.059635 26.000000
2.053499 0.510916 1.067107 23.000000
2.111048 0.499081 1.095087 29.000000
2.129376 0.477091 1.102668 29.000000
2.147545 0.454719 1.110183 23.000000
2.169697 0.432986 1.120193 26.000000
2.200693 0.412333 1.134356 24.000000
2.191805 0.384133 1.128339 9.000000
2.261848 0.369092 1.162963 25.000000
2.287810 0.345757 1.174830 23.000000
2.340019 0.325508 1.200215 24.000000
2.369863 0.301385 1.214538 27.000000
2.408389 0.277578 1.233247 26.000000
2.420076 0.250189 1.238198 25.000000
2.458155 0.224944 1.256762 24.000000
2.504936 0.199486 1.279620 10.000000
2.542474 0.172466 1.298294 26.000000
2.597506 0.145608 1.325887 26.000000
2.612283 0.115634 1.332878 19.000000
2.666873 0.086647 1.360126 24.000000
2.712046 0.056220 1.383204 21.000000
2.730233 0.024507 1.392476 17.000000
2.739235 -0.007695 1.397019 24.000000
2.810307 -0.040920 1.433268 23.000000
2.858808 -0.075234 1.457862 23.000000
2.902244 -0.110530 1.480570 25.000000
2.949690 -0.147095 1.505448 22.000000
3.014667 -0.185908 1.539094 26.000000
3.052588 -0.224227 1.559000 21.000000
3.040879 -0.259321 1.554253 20.000000
3.015674 -0.293018 1.542493 26.000000
2.999064 -0.326951 1.535171 25.000000
2.982071 -0.360572 1.527648 27.000000
2.973642 -0.394952 1.524560 29.000000
2.946963 -0.426776 1.512724 26.000000
2.937768 -0.460741 1.509747 29.000000
2.919387 -0.493015 1.502045 22.000000
2.870032 -0.519420 1.478426 10.000000
2.890320 -0.558325 1.491385 26.000000
2.853587 -0.585883 1.474272 26.000000
2.855730 -0.621358 1.477788 26.000000
2.822738 -0.648941 1.463161 28.000000
2.815509 -0.682115 1.461973 27.000000
2.803359 -0.714287 1.458831 28.000000
2.769663 -0.740197 1.443853 24.000000
2.731229 -0.764488 1.426948 10.000000
2.714127 -0.794148 1.421198 29.000000
2.701063 -0.824813 1.417506 25.000000
2.696161 -0.857896 1.418300 29.000000
2.678303 -0.886766 1.412182 29.000000
2.651279 -0.912717 1.401986 24.000000
2.641425 -0.943810 1.400073 27.000000
2.622414 -0.971889 1.394176 24.000000
2.578114 -0.990047 1.374731 10.000000
2.604640 -1.035342 1.393064 30.000000
2.589035 -1.064396 1.389027 30.000000
2.556686 -1.086154 1.375928 29.000000
2.520233 -1.105436 1.360645 27.000000
2.528572 -1.144285 1.369553 29.000000
2.519791 -1.176218 1.369968 29.000000
2.490939 -1.197955 1.358779 26.000000
2.449344 -1.213614 1.341480 12.000000
2.467868 -1.259024 1.357031 35.000000
2.442003 -1.281946 1.348278 31.000000
2.427762 -1.310896 1.346029 30.000000
2.413428 -1.339658 1.343687 32.000000
2.386998 -1.361455 1.334791 28.000000
2.375964 -1.391979 1.334454 30.000000
2.345405 -1.410713 1.323135 26.000000
2.302629 -1.422258 1.305792 10.000000
2.313862 -1.466191 1.318218 30.000000
2.294218 -1.490918 1.313178 27.000000
2.288803 -1.525931 1.317248 29.000000
2.275494 -1.555935 1.316891 29.000000
2.244110 -1.572146 1.305120 24.000000
2.248614 -1.614812 1.315308 16.000000
2.216193 -1.630945 1.303938 10.000000
2.190946 -1.651985 1.296877 10.000000
2.187017 -1.689163 1.302440 30.000000
2.157817 -1.706846 1.293076 29.000000
2.132041 -1.726845 1.285679 29.000000
2.123638 -1.760948 1.288884 32.000000
2.094036 -1.777425 1.279298 26.000000
2.088405 -1.814102 1.284485 28.000000
2.075548 -1.844983 1.285241 25.000000
2.025335 -1.842050 1.262936 10.000000
2.042045 -1.900106 1.282415 33.000000
2.017299 -1.921892 1.277146 24.000000
2.009656 -1.958440 1.281808 28.000000
1.990847 -1.986132 1.280585 29.000000
1.969630 -2.009613 1.276718 25.000000
1.945071 -2.029521 1.270698 28.000000
1.919266 -2.049918 1.265161 21.000000
1.897554 -2.072477 1.261119 10.000000
1.892689 -2.116011 1.269701 30.000000
1.863046 -2.132196 1.261929 24.000000
1.855564 -2.171421 1.267815 29.000000
1.825480 -2.187097 1.259955 27.000000
1.809913 -2.219981 1.262106 22.000000
1.795360 -2.251927 1.263644 27.000000
1.778850 -2.284654 1.265524 18.000000
1.773007 -2.331897 1.275348 19.000000
1.733690 -2.335127 1.261209 24.000000
1.696023 -2.336771 1.246559 10.000000
1.641091 -2.316274 1.220516 11.000000
1.550273 -2.241847 1.167071 10.000000
1.469147 -2.176885 1.119765 10.000000
1.407307 -2.137176 1.086447 10.000000
1.336682 -2.080777 1.045469 9.000000
1.262521 -2.015152 1.000805 9.000000
1.204491 -1.971556 0.968042 11.000000
1.154600 -1.938809 0.941274 10.000000
1.110231 -1.913120 0.918444 10.000000
1.071062 -1.894608 0.899583 13.000000
0.790986 1.393094 0.679050 20.000000
0.806173 1.383058 0.681705 24.000000
0.821201 1.372863 0.684360 26.000000
0.862606 1.405521 0.708677 14.000000
0.843654 1.340286 0.683620 26.000000
0.858236 1.329705 0.686146 23.000000
0.879346 1.330913 0.694927 25.000000
0.891327 1.316023 0.695419 28.000000
0.908339 1.308611 0.699919 23.000000
0.927979 1.304703 0.706398 28.000000
0.936854 1.285725 0.704751 30.000000
0.961050 1.289116 0.715537 22.000000
0.964147 1.262626 0.709742 29.000000
0.980817 1.254166 0.714072 25.000000
0.996658 1.245956 0.718681 30.000000
1.007550 1.229989 0.718918 34.000000
1.026928 1.224451 0.725234 25.000000
1.048615 1.222493 0.733971 37.000000
1.065173 1.212837 0.738211 31.000000
1.083921 1.206814 0.744821 29.000000
1.081953 1.176592 0.736484 36.000000
1.103687 1.173511 0.745090 31.000000
1.116742 1.159806 0.747149 33.000000
1.132219 1.149601 0.751535 50.000000
1.144441 1.135967 0.753762 34.000000
1.163598 1.128036 0.759909 40.000000
1.178900 1.117109 0.764223 30.000000
1.197531 1.109066 0.770628 32.000000
1.212724 1.097611 0.774862 30.000000
1.241403 1.097931 0.787693 27.000000
1.249860 1.079973 0.787557 34.000000
1.264922 1.067803 0.791725 34.000000
1.276458 1.052459 0.793684 29.000000
1.291391 1.039829 0.797756 38.000000
1.306218 1.027002 0.801839 34.000000
1.317423 1.011124 0.803640 32.000000
1.350060 1.011314 0.818481 32.000000
1.353901 0.989643 0.815881 29.000000
1.371574 0.978813 0.822258 34.000000
1.393391 0.969859 0.830509 36.000000
1.403657 0.953306 0.832470 32.000000
1.429119 0.946140 0.842794 37.000000
1.450506 0.936417 0.851293 37.000000
1.468493 0.923507 0.857192 33.000000
1.478355 0.905968 0.858904 31.000000
1.511109 0.902084 0.873960 32.000000
1.528564 0.888533 0.880035 37.000000
1.549829 0.876819 0.888358 46.000000
1.563221 0.860392 0.892112 35.000000
1.580418 0.845921 0.898114 54.000000
1.593560 0.828953 0.901764 34.000000
1.606256 0.812137 0.905729 35.000000
1.639220 0.804632 0.920525 29.000000
1.656079 0.788812 0.926280 31.000000
1.680682 0.776605 0.936815 42.000000
1.697053 0.760305 0.942793 34.000000
1.717465 0.745459 0.950986 34.000000
1.746017 0.733646 0.963669 37.000000
1.766244 0.717861 0.971777 33.000000
1.778161 0.698460 0.975226 28.000000
1.802405 0.683500 0.985442 30.000000
1.830770 0.669605 0.997891 45.000000
1.846179 0.650909 1.003790 35.000000
1.895210 0.643387 1.027908 46.000000
1.910737 0.623417 1.033304 48.000000
1.925842 0.603454 1.038985 35.000000
1.957892 0.588266 1.053769 46.000000
1.959729 0.563945 1.052739 34.000000
2.004368 0.551223 1.074238 32.000000
2.027333 0.532095 1.084571 42.000000
2.041781 0.510048 1.089818 34.000000
2.068728 0.491016 1.102264 32.000000
2.095639 0.471401 1.114582 35.000000
2.126479 0.452197 1.129521 35.000000
2.161786 0.433100 1.146264 36.000000
2.174978 0.409184 1.151790 29.000000
2.209812 0.388904 1.168720 30.000000
2.270783 0.372049 1.199459 36.000000
2.296658 0.348528 1.211574 41.000000
2.326756 0.325023 1.225932 36.000000
2.343261 0.299211 1.233522 45.000000
2.372682 0.274616 1.248066 42.000000
2.406412 0.249772 1.264691 36.000000
2.435467 0.223711 1.278926 26.000000
2.490822 0.199142 1.306987 36.000000
2.528160 0.172204 1.325962 34.000000
2.556355 0.143847 1.340223 35.000000
2.606444 0.115758 1.365909 36.000000
2.643029 0.086176 1.384552 44.000000
2.687950 0.055850 1.408022 34.000000
2.714893 0.024413 1.422127 32.000000
2.759277 -0.007795 1.445327 32.000000
2.798945 -0.040889 1.466110 33.000000
2.869310 -0.075839 1.502930 35.000000
2.903633 -0.111008 1.521484 35.000000
2.977339 -0.149108 1.560708 36.000000
3.010964 -0.186419 1.578948 36.000000
3.075055 -0.226846 1.613196 32.000000
3.045808 -0.260898 1.599078 27.000000
3.033935 -0.295940 1.594023 37.000000
3.008447 -0.329327 1.581918 34.000000
2.987098 -0.362729 1.571928 35.000000
2.978768 -0.397266 1.568785 38.000000
2.965339 -0.431268 1.563642 37.000000
2.947250 -0.464166 1.555984 35.000000
2.933270 -0.497496 1.550541 34.000000
2.884109 -0.524172 1.526424 29.000000
2.878259 -0.558163 1.525315 36.000000
2.850181 -0.587773 1.512976 35.000000
2.843874 -0.621206 1.511475 34.000000
2.823894 -0.651844 1.503566 45.000000
2.799367 -0.680927 1.493068 33.000000
2.778640 -0.710900 1.485280 33.000000
2.757985 -0.740172 1.476910 29.000000
2.711159 -0.762027 1.455174 26.000000
2.707199 -0.795106 1.455725 32.000000
2.706881 -0.829783 1.458949 34.000000
2.684942 -0.857703 1.450530 33.000000
2.666636 -0.886918 1.444797 34.000000
2.652788 -0.916903 1.440778 33.000000
2.630210 -0.943591 1.432012 29.000000
2.615498 -0.973277 1.428296 31.000000
2.571359 -0.991556 1.408467 25.000000
2.568580 -1.025366 1.411312 30.000000
2.557209 -1.055878 1.409512 35.000000
2.537356 -1.082608 1.403083 32.000000
2.517295 -1.109048 1.396478 33.000000
2.509210 -1.140645 1.396573 32.000000
2.492817 -1.168267 1.392054 32.000000
2.471599 -1.194228 1.385758 29.000000
2.450279 -1.219808 1.379287 27.000000
2.445136 -1.252597 1.381254 32.000000
2.435106 -1.283866 1.381338 36.000000
2.409123 -1.306422 1.372366 31.000000
2.406344 -1.341672 1.376732 32.000000
2.395469 -1.372471 1.376519 33.000000
2.361116 -1.389551 1.362843 32.000000
2.353654 -1.422198 1.364673 30.000000
2.311538 -1.433585 1.346429 26.000000
2.299019 -1.463872 1.346328 28.000000
2.298268 -1.500864 1.352291 32.000000
2.277638 -1.526101 1.347657 30.000000
2.264930 -1.555494 1.346781 32.000000
2.258579 -1.590521 1.350755 34.000000
2.223369 -1.603931 1.336516 21.000000
2.209206 -1.633317 1.335910 12.000000
2.176775 -1.649022 1.324293 21.000000
2.169197 -1.683420 1.327860 27.000000
2.161158 -1.717795 1.331303 32.000000
2.131779 -1.735171 1.321623 29.000000
2.109328 -1.757882 1.316297 31.000000
2.086660 -1.780137 1.310796 31.000000
2.060378 -1.799155 1.303155 27.000000
2.064441 -1.844911 1.314747 25.000000
2.027749 -1.854263 1.300498 20.000000
2.017616 -1.887745 1.303372 25.000000
2.000468 -1.914834 1.301770 32.000000
1.978802 -1.939394 1.298595 28.000000
1.964376 -1.969342 1.298998 26.000000
1.949720 -1.999161 1.299281 31.000000
1.936547 -2.032983 1.302114 24.000000
1.921105 -2.062577 1.302247 24.000000
1.882703 -2.069375 1.288190 16.000000
1.875906 -2.108629 1.294382 24.000000
1.864243 -2.145386 1.299000 29.000000
1.832801 -2.157107 1.288399 25.000000
1.820421 -2.193617 1.292768 26.000000
1.795967 -2.215969 1.288756 29.000000
1.781252 -2.247896 1.290421 25.000000
1.761978 -2.276996 1.290384 23.000000
1.739504 -2.302206 1.288186 15.000000
1.723732 -2.333772 1.289456 17.000000
