x y z intensity
2.106186 1.201843 0.007549 40.000000
2.106029 1.171536 0.007502 20.000000
2.131792 1.155738 0.007623 40.000000
2.157488 1.139506 0.007670 55.000000
2.192005 1.127409 0.007823 46.000000
2.217529 1.110203 0.007947 55.000000
2.233982 1.088249 0.007963 69.000000
2.250180 1.066046 0.008055 54.000000
2.275278 1.047853 0.008103 75.000000
2.295644 1.027168 0.008212 23.000000
2.315790 1.006209 0.008245 46.000000
2.345007 0.988782 0.008388 65.000000
2.369453 0.968906 0.008437 39.000000
2.398436 0.950493 0.008582 48.000000
2.408593 0.924432 0.008582 41.000000
2.456010 0.912219 0.008795 36.000000
2.465765 0.885513 0.008795 53.000000
2.465752 0.855371 0.008841 24.000000
2.503359 0.838132 0.008943 37.000000
2.536093 0.818580 0.009109 69.000000
2.549570 0.792575 0.009126 47.000000
2.586786 0.773465 0.009311 67.000000
2.609442 0.749508 0.009363 66.000000
2.622217 0.722417 0.009380 58.000000
2.654109 0.700323 0.009550 72.000000
2.676108 0.675176 0.009602 29.000000
2.717295 0.654310 0.009809 62.000000
2.743697 0.629269 0.009879 73.000000
2.760169 0.601588 0.010001 67.000000
2.786047 0.575633 0.010071 78.000000
2.806933 0.548207 0.010125 58.000000
2.822529 0.519557 0.010247 54.000000
2.857519 0.494012 0.010355 64.000000
2.907163 0.470132 0.010515 32.000000
2.887385 0.434774 0.010515 9.000000
2.941449 0.410315 0.010695 9.000000
2.960587 0.380322 0.010840 9.000000
2.994390 0.351572 0.010949 9.000000
3.032780 0.322797 0.011076 9.000000
3.080927 0.294123 0.011334 8.000000
3.113842 0.263119 0.011444 9.000000
3.196295 0.235132 0.011737 36.000000
3.228583 0.202286 0.011847 78.000000
3.295468 0.170599 0.012186 88.000000
3.312167 0.135360 0.012241 64.000000
3.338471 0.100196 0.012333 35.000000
3.354283 0.064196 0.012491 15.000000
3.439790 0.028450 0.012808 36.000000
3.489893 -0.009053 0.012994 82.000000
3.499573 -0.047104 0.013031 64.000000
3.548917 -0.086345 0.013326 95.000000
3.557719 -0.125265 0.013363 93.000000
3.491267 -0.160948 0.013119 36.000000
3.429339 -0.195399 0.012894 10.000000
3.397103 -0.230582 0.012885 13.000000
3.354526 -0.264328 0.012734 10.000000
3.266787 -0.293186 0.012412 9.000000
3.218612 -0.324112 0.012242 8.000000
3.200052 -0.357396 0.012185 9.000000
3.151261 -0.386604 0.012015 9.000000
3.117167 -0.416832 0.011997 8.000000
3.117412 -0.451428 0.012016 29.000000
3.102436 -0.483630 0.011978 37.000000
3.047754 -0.509122 0.011787 28.000000
3.037079 -0.541250 0.011768 71.000000
3.001578 -0.568617 0.011654 47.000000
2.980532 -0.598203 0.011597 71.000000
2.929832 -0.621155 0.011516 63.000000
2.908247 -0.649601 0.011459 61.000000
2.837784 -0.666301 0.011209 10.000000
2.801271 -0.689819 0.011093 9.000000
2.730670 -0.703967 0.010844 8.000000
2.809738 -0.756984 0.011190 80.000000
2.772510 -0.779238 0.011074 55.000000
2.749501 -0.805082 0.011017 75.000000
2.750149 -0.837723 0.011055 35.000000
2.779071 -0.879624 0.011209 22.000000
2.859629 -0.939339 0.011574 29.000000
2.906044 -0.989637 0.011805 20.000000
2.956475 -1.042736 0.012055 13.000000
3.109388 -1.134681 0.012829 10.000000
3.279306 -1.237147 0.013584 8.000000
3.284356 -1.279921 0.013662 9.000000
3.312012 -1.332322 0.013836 8.000000
3.306649 -1.371998 0.013875 8.000000
3.291572 -1.407833 0.013875 9.000000
3.280634 -1.445466 0.013895 7.000000
3.282984 -1.489175 0.013972 7.000000
3.298306 -1.539513 0.014108 3.000000
3.204794 -1.538496 0.013778 2.000000
3.313412 -1.635168 0.014208 2.000000
3.246429 -1.646153 0.013997 2.000000
3.232757 -1.683677 0.014016 2.000000
3.209883 -1.716359 0.013997 2.000000
3.204148 -1.758344 0.014054 1.000000
3.258918 -1.834846 0.014381 1.000000
3.121920 -1.802610 0.013862 1.000000
3.192470 -1.889985 0.014266 1.000000
3.013591 -1.828551 0.013554 1.000000
2.772679 -1.723969 0.012555 5.000000
2.741096 -1.746002 0.012497 5.000000
2.822457 -1.841323 0.012958 4.000000
2.827142 -1.888635 0.013074 1.000000
2.856020 -1.953113 0.013304 1.000000
2.830384 -1.981290 0.013180 1.000000
2.861504 -2.049824 0.013428 1.000000
2.726136 -1.998107 0.012894 1.000000
2.552156 -1.913727 0.012169 1.000000
2.610474 -2.002233 0.012550 1.000000
2.734144 -2.144727 0.013256 1.000000
2.726202 -2.186935 0.013332 1.000000
2.559124 -2.146313 0.012639 1.000000
2.600107 -2.229365 0.012961 1.000000
2.647090 -2.320098 0.013320 1.000000
2.433710 -2.228668 0.012488 1.000000
2.409238 -2.255054 0.012387 1.000000
2.337595 -2.236206 0.012143 1.000000
2.316687 -2.264974 0.012162 1.000000
2.260135 -2.258282 0.011993 1.000000
2.347312 -2.397072 0.012594 1.000000
2.193112 -2.288885 0.011802 1.000000
2.219450 -2.367301 0.012082 1.000000
2.142904 -2.335998 0.011802 2.000000
2.187498 -2.437260 0.012193 4.000000
2.065238 -2.351894 0.011558 6.000000
1.873383 -2.180817 0.010616 7.000000
1.714504 -2.040228 0.009841 8.000000
1.565299 -1.904191 0.009027 8.000000
1.469346 -1.827523 0.008588 9.000000
1.356736 -1.725428 0.008038 9.000000
1.273976 -1.656858 0.007654 12.000000
1.234894 -1.642595 0.007463 27.000000
1.217021 -1.655828 0.007463 24.000000
1.213608 -1.689238 0.007554 19.000000
1.192390 -1.698222 0.007472 31.000000
1.165414 -1.698645 0.007418 26.000000
1.149715 -1.715309 0.007436 26.000000
1.139277 -1.740273 0.007427 27.000000
1.117668 -1.748248 0.007409 26.000000
1.096024 -1.756038 0.007391 28.000000
1.079484 -1.772121 0.007346 20.000000
1.047397 -1.762219 0.007257 9.000000
1.243003 1.970488 0.026167 27.000000
1.266977 1.961106 0.026366 31.000000
1.285453 1.943112 0.026451 32.000000
1.306430 1.929033 0.026594 29.000000
1.327264 1.914741 0.026736 32.000000
1.347956 1.900236 0.026878 28.000000
1.350815 1.861240 0.026672 24.000000
1.376920 1.854528 0.026929 34.000000
1.396941 1.839512 0.027070 29.000000
1.416821 1.824215 0.027211 32.000000
1.436559 1.808706 0.027352 33.000000
1.456087 1.793056 0.027493 32.000000
1.475402 1.777124 0.027634 34.000000
1.488177 1.753357 0.027655 30.000000
1.503852 1.733296 0.027665 33.000000
1.529257 1.724318 0.027926 36.000000
1.551256 1.711351 0.028128 37.000000
1.569796 1.694362 0.028269 36.000000
1.588125 1.677231 0.028339 36.000000
1.599289 1.652634 0.028357 42.000000
1.627734 1.645750 0.028683 44.000000
1.649092 1.631462 0.028887 35.000000
1.656015 1.602977 0.028770 38.000000
1.673390 1.584899 0.028911 61.000000
1.690554 1.566539 0.029052 67.000000
1.714914 1.554755 0.029248 59.000000
1.735540 1.539280 0.029453 51.000000
1.740849 1.510405 0.029333 73.000000
1.772415 1.504282 0.029729 82.000000
1.781041 1.478525 0.029672 34.000000
1.781552 1.446421 0.029556 32.000000
1.824650 1.448642 0.030078 52.000000
1.832395 1.422529 0.030090 42.000000
1.851741 1.405515 0.030226 60.000000
1.887071 1.400117 0.030695 44.000000
1.877920 1.361853 0.030374 53.000000
1.888568 1.338430 0.030449 62.000000
1.927712 1.334807 0.030916 34.000000
1.958660 1.324972 0.031251 36.000000
1.985536 1.311804 0.031595 82.000000
1.991297 1.284666 0.031534 47.000000
2.017875 1.270889 0.031807 81.000000
2.031559 1.248835 0.031952 62.000000
2.049311 1.229280 0.032092 62.000000
2.079846 1.216988 0.032434 87.000000
2.088595 1.191858 0.032440 33.000000
2.114546 1.176323 0.032791 37.000000
2.140434 1.160430 0.033068 73.000000
2.157339 1.139431 0.033210 37.000000
2.191780 1.127334 0.033626 73.000000
2.212832 1.107889 0.033838 64.000000
2.220271 1.081605 0.033845 55.000000
2.249952 1.065970 0.034195 95.000000
2.252344 1.037319 0.034133 34.000000
2.290850 1.025049 0.034699 35.000000
2.310974 1.004139 0.034915 64.000000
2.335561 0.984819 0.035200 35.000000
2.369219 0.968828 0.035625 42.000000
2.384257 0.944967 0.035773 46.000000
2.403690 0.922562 0.035991 37.000000
2.422964 0.899954 0.036210 54.000000
2.456114 0.882054 0.036560 30.000000
2.470237 0.857009 0.036710 37.000000
2.493636 0.834877 0.037000 63.000000
2.521576 0.813972 0.037363 41.000000
2.554099 0.793977 0.037797 82.000000
2.562589 0.766222 0.037878 62.000000
2.589973 0.743905 0.038244 56.000000
2.612328 0.719761 0.038539 60.000000
2.629688 0.693945 0.038682 30.000000
2.680619 0.676399 0.039406 45.000000
2.697597 0.649544 0.039633 59.000000
2.719075 0.623595 0.039933 48.000000
2.745170 0.598308 0.040219 71.000000
2.771099 0.572598 0.040591 70.000000
2.796771 0.546291 0.040965 75.000000
2.822266 0.519557 0.041253 86.000000
2.857254 0.493924 0.041772 28.000000
2.887152 0.466940 0.042133 56.000000
2.887118 0.434774 0.042150 9.000000
2.931274 0.408933 0.042817 9.000000
2.960313 0.380322 0.043179 9.000000
2.994021 0.351664 0.043705 8.000000
3.012616 0.320680 0.043922 8.000000
3.035852 0.289847 0.044305 9.000000
3.123519 0.263961 0.045540 7.000000
3.181044 0.234129 0.046339 71.000000
3.218307 0.201661 0.046946 79.000000
3.250232 0.168273 0.047383 78.000000
3.311864 0.135360 0.048357 92.000000
3.333066 0.100046 0.048649 68.000000
3.373970 0.064579 0.049232 71.000000
3.389482 0.028036 0.049451 22.000000
3.424582 -0.008884 0.050066 25.000000
3.479257 -0.046835 0.050870 68.000000
3.528492 -0.085858 0.051601 95.000000
3.517422 -0.123857 0.051455 95.000000
3.465870 -0.159691 0.050724 51.000000
3.424033 -0.195115 0.050244 35.000000
3.396791 -0.230582 0.049878 37.000000
3.279458 -0.258437 0.048193 7.000000
3.251549 -0.291845 0.047827 8.000000
3.193444 -0.321607 0.047021 9.000000
3.184851 -0.355731 0.046948 8.000000
3.146008 -0.385995 0.046436 8.000000
3.102012 -0.414843 0.045850 9.000000
3.077541 -0.445601 0.045557 16.000000
3.082390 -0.480549 0.045703 36.000000
3.057239 -0.510675 0.045410 36.000000
3.017109 -0.537647 0.044897 48.000000
3.001299 -0.568524 0.044751 73.000000
2.945942 -0.591224 0.043927 65.000000
2.924667 -0.620027 0.043708 71.000000
2.903094 -0.648511 0.043488 89.000000
2.837517 -0.666212 0.042611 12.000000
2.801007 -0.689819 0.042173 9.000000
2.754618 -0.710121 0.041501 13.000000
2.794990 -0.752993 0.042231 52.000000
2.757807 -0.775092 0.041793 52.000000
2.720451 -0.796565 0.041355 66.000000
2.725973 -0.830351 0.041487 35.000000
2.759739 -0.873501 0.042142 30.000000
2.816605 -0.925205 0.043071 26.000000
2.905763 -0.989543 0.044596 24.000000
2.932614 -1.034325 0.045177 26.000000
3.048030 -1.112300 0.047039 10.000000
3.339793 -1.259981 0.051750 9.000000
3.339932 -1.301597 0.051858 8.000000
3.330238 -1.339676 0.051931 8.000000
3.334028 -1.383385 0.052110 7.000000
3.378582 -1.444968 0.053048 6.000000
3.335206 -1.469546 0.052504 5.000000
3.337288 -1.513848 0.052792 4.000000
3.220959 -1.503454 0.051099 2.000000
3.303622 -1.585989 0.052680 2.000000
3.313074 -1.635056 0.052998 2.000000
3.330816 -1.689002 0.053458 2.000000
3.250160 -1.692803 0.052456 2.000000
3.227184 -1.725566 0.052273 1.000000
3.252137 -1.784690 0.052874 1.000000
3.171559 -1.785564 0.051876 1.000000
3.203851 -1.850000 0.052618 1.000000
3.153412 -1.866837 0.052009 1.000000
2.717187 -1.689551 0.045312 3.000000
2.749232 -1.751275 0.046063 6.000000
2.755154 -1.797411 0.046386 5.000000
2.768733 -1.849548 0.046848 2.000000
2.806183 -1.919141 0.047833 1.000000
2.690917 -1.883602 0.046115 2.000000
2.670265 -1.912875 0.046015 1.000000
2.701632 -1.980270 0.046823 1.000000
2.711958 -2.033503 0.047279 1.000000
2.602339 -1.996047 0.045645 1.000000
2.659089 -2.085990 0.046933 1.000000
2.706384 -2.171186 0.048077 1.000000
2.527943 -2.073688 0.045206 1.000000
2.428579 -2.036876 0.043727 1.000000
2.516296 -2.157562 0.045626 1.000000
2.477685 -2.171695 0.045250 1.000000
2.625139 -2.352008 0.048301 1.000000
2.455529 -2.248827 0.045527 1.000000
2.390786 -2.237770 0.044675 1.000000
2.322947 -2.222184 0.043759 1.000000
2.270016 -2.219438 0.043021 1.000000
2.256403 -2.254553 0.043127 2.000000
2.210688 -2.257556 0.042625 2.000000
2.196378 -2.292302 0.042730 1.000000
2.137184 -2.279568 0.041962 2.000000
2.149469 -2.343173 0.042506 3.000000
2.047044 -2.280791 0.040875 6.000000
2.035358 -2.317987 0.041048 7.000000
1.892754 -2.203396 0.038564 8.000000
1.765804 -2.101305 0.036273 9.000000
1.500603 -1.866343 0.031429 9.000000
1.390594 -1.768593 0.029457 10.000000
1.282991 -1.668621 0.027495 13.000000
1.243781 -1.654459 0.026911 28.000000
1.219856 -1.659794 0.026718 28.000000
1.204730 -1.676930 0.026657 24.000000
1.195137 -1.702187 0.026787 33.000000
1.165288 -1.698519 0.026467 32.000000
1.152372 -1.719399 0.026469 31.000000
1.130935 -1.727597 0.026342 31.000000
1.112156 -1.739760 0.026216 29.000000
1.093250 -1.751671 0.026153 33.000000
1.081958 -1.776265 0.026216 29.000000
1.037116 -1.744903 0.025462 9.000000
1.147932 1.864454 0.044377 32.000000
1.232122 1.953363 0.047021 28.000000
1.258626 1.948296 0.047507 30.000000
1.282411 1.938659 0.047823 31.000000
1.303413 1.924681 0.048035 28.000000
1.324203 1.910419 0.048248 32.000000
1.341958 1.891868 0.048357 32.000000
1.353540 1.865075 0.048255 27.000000
1.379618 1.858259 0.048677 30.000000
1.393636 1.835249 0.048677 32.000000
1.404274 1.808141 0.048570 28.000000
1.426951 1.796751 0.048886 36.000000
1.455805 1.792774 0.049417 31.000000
1.468805 1.769150 0.049414 33.000000
1.487897 1.753146 0.049625 32.000000
1.497021 1.725535 0.049510 30.000000
1.519026 1.712888 0.049828 32.000000
1.547617 1.707366 0.050366 42.000000
1.555855 1.679482 0.050178 33.000000
1.577462 1.666060 0.050497 38.000000
1.599008 1.652353 0.050818 45.000000
1.620422 1.638430 0.051069 37.000000
1.645255 1.627734 0.051503 35.000000
1.652072 1.599289 0.051379 35.000000
1.662151 1.574305 0.051296 53.000000
1.679203 1.556135 0.051505 58.000000
1.699748 1.541043 0.051758 55.000000
1.735186 1.538997 0.052534 47.000000
1.748048 1.516746 0.052562 72.000000
1.772131 1.504070 0.053002 72.000000
1.776842 1.475050 0.052801 56.000000
1.777322 1.442991 0.052484 29.000000
1.812550 1.439104 0.053269 44.000000
1.824144 1.416186 0.053295 66.000000
1.843423 1.399258 0.053551 47.000000
1.862627 1.382031 0.053809 61.000000
1.873520 1.358706 0.053905 43.000000
1.892292 1.341108 0.054163 53.000000
1.906807 1.320364 0.054304 50.000000
1.954159 1.321954 0.055385 32.000000
1.960078 1.295053 0.055293 58.000000
1.974063 1.273610 0.055437 71.000000
2.004750 1.262751 0.056053 60.000000
2.005645 1.232983 0.055842 57.000000
2.036087 1.221348 0.056461 62.000000
2.044892 1.196572 0.056487 82.000000
2.057766 1.174296 0.056632 48.000000
2.122838 1.180961 0.058214 34.000000
2.122411 1.150677 0.057928 60.000000
2.152472 1.136873 0.058557 64.000000
2.182439 1.122536 0.059187 69.000000
2.207909 1.105500 0.059700 71.000000
2.224313 1.083643 0.059896 82.000000
2.235944 1.059398 0.060047 62.000000
2.251814 1.037168 0.060320 54.000000
2.290314 1.024896 0.061126 35.000000
2.305928 1.001994 0.061401 45.000000
2.339702 0.986606 0.062089 82.000000
2.354871 0.962996 0.062367 58.000000
2.379141 0.942891 0.062812 64.000000
2.407884 0.924196 0.063461 65.000000
2.417805 0.898055 0.063539 53.000000
2.441445 0.876826 0.064067 35.000000
2.436623 0.845539 0.063776 44.000000
2.483595 0.831783 0.064844 81.000000
2.501983 0.807829 0.065252 81.000000
2.510571 0.780621 0.065333 65.000000
2.562018 0.766222 0.066532 76.000000
2.584594 0.742525 0.066987 84.000000
2.606930 0.718433 0.067526 57.000000
2.629024 0.693945 0.067983 41.000000
2.680028 0.676399 0.069192 36.000000
2.682341 0.646033 0.069152 49.000000
2.723351 0.624712 0.070114 73.000000
2.729918 0.595115 0.070199 67.000000
2.765600 0.571500 0.071039 95.000000
2.786351 0.544374 0.071503 71.000000
2.801990 0.515849 0.071841 54.000000
2.822158 0.488050 0.072307 35.000000
2.876659 0.465343 0.073569 35.000000
2.861693 0.431052 0.073152 9.000000
2.925692 0.408242 0.074759 9.000000
2.939845 0.377773 0.075102 9.000000
2.983449 0.350406 0.076115 9.000000
3.002028 0.319622 0.076588 9.000000
3.040176 0.290322 0.077568 9.000000
3.053027 0.258067 0.077822 8.000000
3.165311 0.233028 0.080712 57.000000
3.197664 0.200508 0.081475 93.000000
3.234562 0.167498 0.082463 85.000000
3.261114 0.133418 0.083100 70.000000
3.317366 0.099596 0.084500 70.000000
3.343265 0.064005 0.085238 57.000000
3.358769 0.027788 0.085620 13.000000
3.413854 -0.008858 0.087022 10.000000
3.458522 -0.046566 0.088168 42.000000
3.507751 -0.085372 0.089550 95.000000
3.491693 -0.122978 0.089167 94.000000
3.450150 -0.159001 0.088146 62.000000
3.403340 -0.193977 0.086998 37.000000
3.391077 -0.230243 0.086743 36.000000
3.388379 -0.267078 0.086743 7.000000
3.216003 -0.288618 0.082406 8.000000
3.187786 -0.321106 0.081768 9.000000
3.164199 -0.353414 0.081258 9.000000
3.095720 -0.379907 0.079600 9.000000
3.071619 -0.410867 0.078995 9.000000
3.076876 -0.445601 0.079250 17.000000
3.071846 -0.479009 0.079250 36.000000
3.007277 -0.502438 0.077721 22.000000
3.006613 -0.535893 0.077755 62.000000
2.980909 -0.564802 0.077246 71.000000
2.935407 -0.589165 0.076136 67.000000
2.909359 -0.616917 0.075628 63.000000
2.878069 -0.642972 0.074902 43.000000
2.832028 -0.665069 0.073887 31.000000
2.829422 -0.696903 0.073925 40.000000
2.783051 -0.717609 0.072910 25.000000
2.784719 -0.750304 0.073076 75.000000
2.757195 -0.775092 0.072569 77.000000
2.719846 -0.796565 0.071723 82.000000
2.711021 -0.825981 0.071636 41.000000
2.730528 -0.864449 0.072307 27.000000
2.792228 -0.917404 0.074200 28.000000
2.853061 -0.971815 0.076001 26.000000
2.894239 -1.020741 0.077293 10.000000
3.000383 -1.094966 0.080343 17.000000
3.357846 -1.266820 0.090166 8.000000
3.381191 -1.317714 0.091060 6.000000
3.389865 -1.363598 0.091576 5.000000
3.393274 -1.407957 0.091965 5.000000
3.442136 -1.472262 0.093602 5.000000
3.389428 -1.493397 0.092489 5.000000
3.241025 -1.470151 0.088761 3.000000
3.383362 -1.579237 0.093010 2.000000
3.298445 -1.583490 0.091031 2.000000
3.222752 -1.590476 0.089195 2.000000
3.227597 -1.636667 0.089705 1.000000
3.227323 -1.680923 0.090089 1.000000
3.098688 -1.656881 0.086888 1.000000
3.255840 -1.786755 0.091605 1.000000
3.266716 -1.839180 0.092354 1.000000
3.103616 -1.792062 0.088181 1.000000
3.084032 -1.825759 0.087962 1.000000
2.901519 -1.760700 0.083197 1.000000
2.759148 -1.715553 0.079445 3.000000
2.727655 -1.737450 0.078979 6.000000
2.712788 -1.769799 0.078904 6.000000
2.755654 -1.840913 0.080629 3.000000
2.739648 -1.873579 0.080548 1.000000
2.653561 -1.857502 0.078508 1.000000
2.685918 -1.924117 0.079882 1.000000
2.680964 -1.965086 0.080162 1.000000
2.807314 -2.105165 0.084515 1.000000
2.578041 -1.977394 0.078056 1.000000
2.623178 -2.057811 0.079894 1.000000
2.631775 -2.111332 0.080647 1.000000
2.523579 -2.070118 0.077918 1.000000
2.523840 -2.116792 0.078433 1.000000
2.587991 -2.218977 0.080963 1.000000
2.529809 -2.217421 0.079689 1.000000
2.591096 -2.321558 0.082200 1.000000
2.506732 -2.295685 0.080103 1.000000
2.313651 -2.165638 0.074490 1.000000
2.340516 -2.239069 0.075938 1.000000
2.276777 -2.226040 0.074454 1.000000
2.298347 -2.296562 0.075775 2.000000
2.178827 -2.225027 0.072342 2.000000
2.137200 -2.230556 0.071573 4.000000
2.085426 -2.224486 0.070461 6.000000
2.064605 -2.250694 0.070390 9.000000
2.039992 -2.272977 0.070203 9.000000
2.008596 -2.287560 0.069695 8.000000
1.928228 -2.244751 0.067568 7.000000
1.791280 -2.131586 0.063404 9.000000
1.537896 -1.912799 0.055516 9.000000
1.424376 -1.811473 0.051913 9.000000
1.304062 -1.696104 0.048066 10.000000
1.246596 -1.658202 0.046416 24.000000
1.213747 -1.651424 0.045732 27.000000
1.207458 -1.680738 0.045989 26.000000
1.189201 -1.693751 0.045862 32.000000
1.162272 -1.694146 0.045342 32.000000
1.149400 -1.714931 0.045374 29.000000
1.133484 -1.731528 0.045357 32.000000
1.103889 -1.726810 0.044731 30.000000
1.093061 -1.751418 0.044869 28.000000
1.081768 -1.776011 0.045005 28.000000
1.095673 -1.843490 0.046280 9.000000
1.132168 1.931631 0.065146 4.000000
1.207930 1.961937 0.067670 16.000000
1.229104 1.948713 0.067951 24.000000
1.260983 1.952069 0.068896 16.000000
1.284885 1.942401 0.069328 23.000000
1.297454 1.915979 0.069165 25.000000
1.315307 1.897671 0.069297 20.000000
1.338642 1.887367 0.069800 26.000000
1.367865 1.884877 0.070537 10.000000
1.361391 1.833760 0.069454 22.000000
1.387239 1.826867 0.070038 28.000000
1.403925 1.807722 0.070165 19.000000
1.423423 1.792417 0.070444 27.000000
1.445931 1.780712 0.070878 23.000000
1.468384 1.768799 0.071313 19.000000
1.484242 1.748915 0.071439 26.000000
1.522801 1.755315 0.072656 9.000000
1.511975 1.704990 0.071528 29.000000
1.540482 1.699538 0.072279 32.000000
1.552040 1.675397 0.072243 27.000000
1.570170 1.658382 0.072452 31.000000
1.584686 1.637637 0.072572 27.000000
1.609388 1.627348 0.073170 31.000000
1.637656 1.620281 0.073860 32.000000
1.648060 1.595392 0.073820 11.000000
1.661662 1.573886 0.073869 35.000000
1.678714 1.555716 0.074148 32.000000
1.691854 1.533979 0.074196 28.000000
1.723474 1.528695 0.075126 37.000000
1.736230 1.506567 0.075174 31.000000
1.748705 1.484312 0.075221 32.000000
1.768658 1.468314 0.075595 45.000000
1.784521 1.448941 0.075876 16.000000
1.800244 1.429358 0.076086 30.000000
1.815265 1.410196 0.076297 31.000000
1.850464 1.405444 0.077339 29.000000
1.841575 1.367279 0.076551 33.000000
1.888779 1.370587 0.078099 32.000000
1.899524 1.346960 0.078145 32.000000
1.922316 1.331889 0.078695 33.000000
1.928393 1.305221 0.078572 18.000000
1.975892 1.306219 0.080138 35.000000
1.985797 1.281884 0.080113 36.000000
1.991200 1.254831 0.079990 33.000000
2.000455 1.230437 0.080035 59.000000
2.035145 1.221420 0.081032 35.000000
2.044024 1.196645 0.081078 31.000000
2.078668 1.186756 0.082080 36.000000
2.073994 1.154305 0.081612 17.000000
2.103957 1.141221 0.082445 35.000000
2.142744 1.132278 0.083700 45.000000
2.146069 1.104320 0.083502 31.000000
2.193677 1.098786 0.085035 45.000000
2.210006 1.077076 0.085358 35.000000
2.221567 1.052977 0.085584 34.000000
2.255520 1.039259 0.086605 50.000000
2.225621 0.996314 0.085186 14.000000
2.286753 0.993949 0.087258 33.000000
2.302017 0.970993 0.087585 34.000000
2.330892 0.953536 0.088440 31.000000
2.364346 0.937366 0.089473 35.000000
2.393024 0.918822 0.090332 35.000000
2.416939 0.897977 0.091018 31.000000
2.431247 0.873368 0.091352 34.000000
2.426316 0.842262 0.090979 10.000000
2.468502 0.826941 0.092377 47.000000
2.491590 0.804678 0.092989 59.000000
2.519231 0.783589 0.093860 33.000000
2.546758 0.761844 0.094652 48.000000
2.569283 0.738303 0.095349 36.000000
2.591571 0.714367 0.096048 33.000000
2.608868 0.688760 0.096487 35.000000
2.616119 0.660416 0.096570 13.000000
2.676641 0.644778 0.098705 33.000000
2.707802 0.621275 0.099686 45.000000
2.719216 0.592985 0.100035 37.000000
2.740185 0.566443 0.100659 52.000000
2.770686 0.541499 0.101644 36.000000
2.761720 0.508609 0.101190 10.000000
2.791655 0.482853 0.102177 10.000000
2.821422 0.456563 0.103165 10.000000
2.836104 0.427329 0.103614 8.000000
2.890059 0.403407 0.105508 8.000000
2.919026 0.375225 0.106501 7.000000
2.932816 0.344576 0.106953 8.000000
2.961266 0.315388 0.107949 8.000000
3.004332 0.286996 0.109398 7.000000
3.071914 0.259751 0.111846 8.000000
3.134346 0.230827 0.114118 24.000000
3.176641 0.199257 0.115569 35.000000
3.223494 0.166981 0.117300 57.000000
3.265010 0.133622 0.118753 32.000000
3.296274 0.098996 0.119943 36.000000
3.337146 0.063909 0.121397 36.000000
3.327662 0.027540 0.121034 9.000000
3.402714 -0.008833 0.123864 10.000000
3.447368 -0.046431 0.125500 33.000000
3.476602 -0.084642 0.126592 77.000000
3.470546 -0.122168 0.126410 70.000000
3.443999 -0.158771 0.125500 36.000000
3.392218 -0.193304 0.123682 56.000000
3.365009 -0.228447 0.122772 33.000000
3.292594 -0.259514 0.120226 8.000000
3.195012 -0.286831 0.116770 8.000000
3.166824 -0.319005 0.115861 7.000000
3.148233 -0.351749 0.115218 8.000000
3.104592 -0.381029 0.113764 8.000000
3.050768 -0.408123 0.111947 8.000000
3.056052 -0.442641 0.112216 10.000000
3.046118 -0.475064 0.112035 28.000000
2.986540 -0.499051 0.109945 18.000000
2.985911 -0.532292 0.110034 64.000000
2.960254 -0.560988 0.109308 33.000000
2.909908 -0.584247 0.107586 32.000000
2.874054 -0.609569 0.106500 14.000000
2.813685 -0.628717 0.104419 9.000000
2.811594 -0.660322 0.104512 26.000000
2.818829 -0.694423 0.104966 35.000000
2.762732 -0.712530 0.103072 19.000000
2.774101 -0.747616 0.103706 54.000000
2.732183 -0.768242 0.102357 35.000000
2.685327 -0.786645 0.100830 37.000000
2.676611 -0.815698 0.100745 36.000000
2.700985 -0.855310 0.101917 19.000000
2.786494 -0.915754 0.105423 24.000000
2.823671 -0.962054 0.107037 21.000000
2.846088 -1.004025 0.108199 10.000000
2.928904 -1.069167 0.111687 16.000000
3.178992 -1.199670 0.121503 3.000000
3.342618 -1.303084 0.128183 3.000000
3.305197 -1.329912 0.127073 4.000000
3.281280 -1.361875 0.126608 5.000000
3.399533 -1.454459 0.131546 4.000000
3.292163 -1.450964 0.127881 3.000000
3.422856 -1.598264 0.133813 1.000000
3.391809 -1.628919 0.133168 1.000000
3.333560 -1.645778 0.131349 1.000000
3.364413 -1.706745 0.133060 1.000000
3.443243 -1.794062 0.136701 1.000000
3.295784 -1.763055 0.131370 1.000000
3.363984 -1.846875 0.134766 1.000000
3.539632 -1.993671 0.142414 1.000000
3.145571 -1.817167 0.127127 1.000000
3.054046 -1.854051 0.124483 1.000000
2.804631 -1.744686 0.114880 1.000000
2.743227 -1.748291 0.112944 4.000000
2.703134 -1.764435 0.111879 5.000000
2.716950 -1.816024 0.113065 2.000000
2.882671 -1.972550 0.120525 1.000000
2.750508 -1.926401 0.115664 1.000000
2.810511 -2.014567 0.118895 1.000000
2.703822 -1.983021 0.114980 1.000000
2.709993 -2.033400 0.115973 1.000000
2.712790 -2.128139 0.117393 1.000000
2.701215 -2.167000 0.117692 1.000000
2.557595 -2.145090 0.112835 1.000000
2.568191 -2.202089 0.114045 1.000000
2.675649 -2.345267 0.119724 1.000000
2.345906 -2.195791 0.107239 1.000000
2.361589 -2.259202 0.108774 1.000000
2.218927 -2.169558 0.103001 1.000000
2.191702 -2.189999 0.102551 4.000000
2.118725 -2.163757 0.099958 6.000000
2.095053 -2.186689 0.099681 8.000000
2.078032 -2.216636 0.099639 9.000000
2.050440 -2.235404 0.099197 8.000000
2.039433 -2.272417 0.099571 9.000000
2.011336 -2.290665 0.099036 8.000000
1.976622 -2.300980 0.098271 5.000000
1.845425 -2.196117 0.092665 8.000000
1.568759 -1.951298 0.080345 8.000000
1.430131 -1.818908 0.073969 8.000000
1.315920 -1.711494 0.068818 9.000000
1.258228 -1.673737 0.066492 12.000000
1.207515 -1.642994 0.064497 19.000000
1.207142 -1.680359 0.065256 10.000000
1.188885 -1.693309 0.065003 29.000000
1.167612 -1.702012 0.064594 19.000000
1.140738 -1.702098 0.063875 22.000000
1.124957 -1.718542 0.063780 24.000000
1.106331 -1.730645 0.063592 22.000000
1.092809 -1.751040 0.063649 25.000000
1.073714 -1.762762 0.063397 21.000000
1.041790 -1.752876 0.062380 9.000000
1.112930 1.901651 0.083979 9.000000
1.102677 1.837992 0.082087 27.000000
1.206312 1.962078 0.088632 30.000000
1.232811 1.957308 0.089370 25.000000
1.254005 1.943814 0.089794 28.000000
1.274988 1.930038 0.090147 29.000000
1.295900 1.916120 0.090571 28.000000
1.310912 1.893704 0.090531 31.000000
1.334270 1.883431 0.091151 24.000000
1.342915 1.852658 0.090711 29.000000
1.362902 1.837912 0.091060 32.000000
1.379730 1.819046 0.091210 29.000000
1.396403 1.799967 0.091428 32.000000
1.412710 1.780815 0.091575 30.000000
1.435089 1.769213 0.092124 30.000000
1.454224 1.753487 0.092472 33.000000
1.473219 1.737623 0.092820 26.000000
1.485462 1.713930 0.092759 31.000000
1.510653 1.705129 0.093516 41.000000
1.532445 1.692272 0.094069 34.000000
1.550715 1.675467 0.094348 44.000000
1.565482 1.654893 0.094490 34.000000
1.586836 1.641298 0.095046 42.000000
1.587062 1.606098 0.094282 37.000000
1.622191 1.606292 0.095673 31.000000
1.650388 1.598938 0.096582 35.000000
1.645972 1.560279 0.095669 42.000000
1.677526 1.555786 0.096791 42.000000
1.686969 1.530622 0.096647 53.000000
1.707335 1.515500 0.097207 36.000000
1.746353 1.516393 0.098766 45.000000
1.759006 1.494013 0.098835 54.000000
1.775150 1.474768 0.099117 34.000000
1.779521 1.445791 0.098753 34.000000
1.803032 1.432536 0.099465 46.000000
1.814563 1.409705 0.099530 35.000000
1.829794 1.389841 0.099811 52.000000
1.852906 1.375722 0.100456 48.000000
1.859695 1.349551 0.100302 36.000000
1.882444 1.334905 0.101020 38.000000
1.901002 1.317165 0.101451 32.000000
1.935884 1.310394 0.102832 40.000000
1.954262 1.291940 0.103266 36.000000
1.964020 1.267833 0.103332 33.000000
1.986111 1.251665 0.103989 56.000000
1.995125 1.227747 0.104054 36.000000
2.012646 1.208491 0.104491 51.000000
2.038629 1.194048 0.105446 54.000000
2.051548 1.171818 0.105663 33.000000
2.068542 1.151802 0.106103 40.000000
2.107251 1.143530 0.107666 49.000000
2.128387 1.125127 0.108335 36.000000
2.158286 1.111105 0.109457 48.000000
2.179157 1.091998 0.110131 52.000000
2.195411 1.070434 0.110506 36.000000
2.224954 1.055042 0.111635 63.000000
2.227241 1.026563 0.111407 30.000000
2.261047 1.012495 0.112769 32.000000
2.285611 0.993873 0.113603 40.000000
2.296271 0.968975 0.113831 32.000000
2.315948 0.947708 0.114440 37.000000
2.339967 0.928004 0.115356 37.000000
2.363798 0.908153 0.116198 36.000000
2.392272 0.889353 0.117348 42.000000
2.387684 0.858242 0.116815 26.000000
2.439373 0.847020 0.119042 37.000000
2.453102 0.822021 0.119430 57.000000
2.466628 0.796920 0.119819 37.000000
2.489488 0.774525 0.120671 49.000000
2.512047 0.751659 0.121525 61.000000
2.553658 0.734000 0.123307 43.000000
2.580710 0.711711 0.124398 42.000000
2.569001 0.678475 0.123632 24.000000
2.619808 0.661556 0.125889 33.000000
2.651103 0.638927 0.127219 36.000000
2.677322 0.614571 0.128235 37.000000
2.703303 0.589792 0.129337 58.000000
2.738904 0.566443 0.130823 48.000000
2.744885 0.536621 0.130994 52.000000
2.721139 0.501369 0.129675 10.000000
2.736223 0.473486 0.130313 6.000000
2.800392 0.453284 0.133212 10.000000
2.884177 0.434774 0.137053 75.000000
2.888722 0.403318 0.137142 31.000000
2.887957 0.371314 0.136996 21.000000
2.921543 0.343410 0.138496 9.000000
2.915205 0.310626 0.138116 9.000000
2.968147 0.283670 0.140560 9.000000
2.990969 0.253015 0.141593 7.000000
3.098136 0.228163 0.146635 44.000000
3.155245 0.197909 0.149229 65.000000
3.167152 0.164137 0.149797 59.000000
3.223691 0.131988 0.152491 83.000000
3.234859 0.097196 0.152963 44.000000
3.275696 0.062761 0.154851 61.000000
3.281190 0.027168 0.155187 21.000000
3.381178 -0.008781 0.159911 9.000000
3.415825 -0.045923 0.161565 43.000000
3.475008 -0.084536 0.164399 95.000000
3.473947 -0.122344 0.164399 95.000000
3.442419 -0.158771 0.162982 95.000000
3.400634 -0.193873 0.161093 63.000000
3.353498 -0.227770 0.158967 86.000000
3.236313 -0.255196 0.153534 8.000000
3.223389 -0.289413 0.153062 8.000000
3.155427 -0.318004 0.149894 9.000000
3.141819 -0.351098 0.149422 8.000000
3.113073 -0.382247 0.148146 9.000000
3.079059 -0.412003 0.146730 9.000000
3.039809 -0.440492 0.144985 10.000000
3.054575 -0.476510 0.145834 74.000000
3.004857 -0.502252 0.143713 41.000000
2.974688 -0.530538 0.142443 24.000000
2.919709 -0.553455 0.139998 11.000000
2.879258 -0.578256 0.138261 9.000000
2.823941 -0.599114 0.135822 9.000000
2.826987 -0.631897 0.136203 10.000000
2.810271 -0.660234 0.135645 19.000000
2.802951 -0.690749 0.135469 65.000000
2.780769 -0.717434 0.134678 82.000000
2.743852 -0.739815 0.133186 48.000000
2.730882 -0.768069 0.132778 73.000000
2.693631 -0.789198 0.131290 51.000000
2.680192 -0.816984 0.130885 50.000000
2.685403 -0.850527 0.131499 43.000000
2.723469 -0.895298 0.133655 25.000000
2.822304 -0.961872 0.138920 24.000000
2.872964 -1.014091 0.141759 26.000000
2.894635 -1.057174 0.143197 21.000000
2.995102 -1.130964 0.148572 5.000000
3.187524 -1.242984 0.158561 2.000000
3.289665 -1.324100 0.164131 2.000000
3.229019 -1.340591 0.161606 1.000000
3.342850 -1.430651 0.167848 1.000000
3.253954 -1.434625 0.163942 1.000000
3.015347 -1.368773 0.152457 1.000000
3.267266 -1.526164 0.165804 1.000000
3.421600 -1.643829 0.174298 1.000000
3.354248 -1.656609 0.171432 1.000000
3.273720 -1.661421 0.168004 1.000000
3.064985 -1.597589 0.157964 1.000000
3.147710 -1.728821 0.163469 1.000000
3.070390 -1.774567 0.160881 1.000000
3.072375 -1.820666 0.161796 1.000000
2.941413 -1.786526 0.155597 1.000000
2.786455 -1.733427 0.148070 1.000000
2.695801 -1.718066 0.143945 5.000000
2.672770 -1.744633 0.143428 6.000000
2.707547 -1.809774 0.146047 4.000000
2.733094 -1.870150 0.148208 1.000000
2.688010 -1.882699 0.146566 1.000000
2.634780 -1.888592 0.144385 2.000000
2.686584 -1.970386 0.148084 1.000000
2.764790 -2.074543 0.153318 2.000000
2.631136 -2.019376 0.146810 1.000000
2.887917 -2.266930 0.162060 1.000000
2.691627 -2.160746 0.152042 1.000000
2.528910 -2.075959 0.143721 1.000000
2.414295 -2.026275 0.138166 2.000000
2.411008 -2.068824 0.138873 2.000000
2.486035 -2.180572 0.144247 1.000000
2.339362 -2.097498 0.136672 2.000000
2.224264 -2.038555 0.130872 2.000000
2.187378 -2.049042 0.129639 3.000000
2.208246 -2.114209 0.131858 6.000000
2.160094 -2.113660 0.129980 8.000000
2.122795 -2.122978 0.128754 9.000000
2.113567 -2.160279 0.129242 9.000000
2.089934 -2.183173 0.128873 9.000000
2.113834 -2.256834 0.131477 14.000000
2.041930 -2.228131 0.128134 9.000000
2.030991 -2.265072 0.128517 9.000000
2.029333 -2.313290 0.129618 9.000000
2.007303 -2.339076 0.129452 7.000000
1.862945 -2.219162 0.121246 8.000000
1.753186 -2.135010 0.115265 8.000000
1.481177 -1.885840 0.099316 9.000000
1.357137 -1.767095 0.092009 9.000000
1.250949 -1.665875 0.085708 9.000000
1.223946 -1.667282 0.084776 16.000000
1.208665 -1.684481 0.084664 15.000000
1.193232 -1.701616 0.084551 18.000000
1.149283 -1.677347 0.082473 21.000000
1.139362 -1.702223 0.082768 24.000000
1.115376 -1.706122 0.082053 22.000000
1.096824 -1.718137 0.081742 21.000000
1.096645 -1.759583 0.082764 18.000000
1.085246 -1.784230 0.083044 16.000000
1.078542 -1.817384 0.083714 8.000000
1.160388 1.982809 0.108304 9.000000
1.161312 1.935842 0.106903 31.000000
1.208436 1.965629 0.109762 32.000000
1.232316 1.956602 0.110494 34.000000
1.248026 1.934644 0.110439 34.000000
1.266235 1.916830 0.110690 32.000000
1.286942 1.902933 0.111182 39.000000
1.313192 1.897037 0.112088 34.000000
1.327933 1.874506 0.112094 35.000000
1.336425 1.843802 0.111537 35.000000
1.353350 1.825179 0.111778 32.000000
1.373137 1.810322 0.112195 36.000000
1.398837 1.803217 0.113106 34.000000
1.415189 1.783964 0.113276 35.000000
1.434463 1.768517 0.113763 36.000000
1.456785 1.756635 0.114431 34.000000
1.469294 1.733049 0.114347 35.000000
1.484769 1.713168 0.114511 35.000000
1.500023 1.693151 0.114605 35.000000
1.525044 1.684172 0.115527 41.000000
1.545930 1.671800 0.116268 36.000000
1.543442 1.633049 0.115082 36.000000
1.585442 1.641228 0.117290 69.000000
1.596207 1.616758 0.117194 35.000000
1.603063 1.588649 0.116766 50.000000
1.641814 1.591916 0.118735 34.000000
1.637341 1.553267 0.117524 55.000000
1.657830 1.538732 0.118130 82.000000
1.674557 1.520483 0.118476 42.000000
1.705940 1.515360 0.119870 69.000000
1.714859 1.490122 0.119762 50.000000
1.738575 1.477775 0.120568 43.000000
1.758453 1.461860 0.121181 54.000000
1.770442 1.439422 0.121265 28.000000
1.785993 1.419966 0.121614 43.000000
1.809287 1.406500 0.122496 58.000000
1.832506 1.392721 0.123311 39.000000
1.835536 1.363671 0.122858 58.000000
1.854322 1.346477 0.123407 59.000000
1.873032 1.328986 0.124026 52.000000
1.891454 1.311335 0.124577 60.000000
1.913930 1.296182 0.125401 26.000000
1.936247 1.280779 0.126226 48.000000
1.958470 1.264982 0.127125 71.000000
1.976374 1.246196 0.127683 43.000000
1.994123 1.227175 0.128242 67.000000
2.011355 1.208348 0.128802 48.000000
2.024408 1.186331 0.129089 37.000000
2.054583 1.174079 0.130477 65.000000
2.067240 1.151585 0.130767 30.000000
2.083996 1.131401 0.131260 35.000000
2.109411 1.115644 0.132381 72.000000
2.130322 1.097168 0.133154 41.000000
2.151040 1.078351 0.134003 70.000000
2.198555 1.072398 0.136452 74.000000
2.201049 1.044119 0.136118 36.000000
2.225893 1.026338 0.137255 41.000000
2.250573 1.008186 0.138319 26.000000
2.279587 0.991881 0.139667 36.000000
2.294824 0.968975 0.140176 50.000000
2.305180 0.943924 0.140405 35.000000
2.315306 0.918798 0.140633 44.000000
2.348503 0.902549 0.142273 43.000000
2.362795 0.878680 0.142786 34.000000
2.400381 0.863077 0.144717 35.000000
2.400228 0.833680 0.144306 28.000000
2.437402 0.817261 0.146243 35.000000
2.465203 0.796841 0.147616 62.000000
2.483209 0.772962 0.148344 47.000000
2.510605 0.751579 0.149643 62.000000
2.528210 0.727021 0.150454 50.000000
2.550366 0.703583 0.151472 41.000000
2.591589 0.684770 0.153637 40.000000
2.598881 0.656583 0.153801 26.000000
2.639814 0.636421 0.155972 35.000000
2.670863 0.613369 0.157573 37.000000
2.682274 0.585365 0.158028 45.000000
2.732477 0.565346 0.160784 46.000000
2.728651 0.533661 0.160379 37.000000
2.694989 0.496677 0.158159 10.000000
2.729693 0.472549 0.160057 9.000000
2.788890 0.451601 0.163402 10.000000
2.828191 0.426497 0.165510 51.000000
2.891972 0.404008 0.169066 54.000000
2.911020 0.374498 0.170023 49.000000
2.934797 0.345159 0.171360 48.000000
2.943284 0.313710 0.171740 26.000000
2.946541 0.281679 0.171830 10.000000
2.999174 0.253857 0.174820 9.000000
3.076421 0.226696 0.179169 34.000000
3.103593 0.194783 0.180713 42.000000
3.170295 0.164396 0.184581 76.000000
3.186907 0.130557 0.185549 37.000000
3.227990 0.097046 0.187872 56.000000
3.258822 0.062474 0.189615 54.000000
3.239355 0.026837 0.188552 16.000000
3.349266 -0.008600 0.194944 10.000000
3.418833 -0.045990 0.199011 35.000000
3.453031 -0.084050 0.201045 95.000000
3.451975 -0.121641 0.201045 91.000000
3.425461 -0.157976 0.199592 84.000000
3.383707 -0.192917 0.197268 75.000000
3.346567 -0.227432 0.195234 55.000000
3.304093 -0.260591 0.192910 9.000000
3.211567 -0.288520 0.187582 9.000000
3.163519 -0.318908 0.184872 8.000000
3.110317 -0.347770 0.181969 9.000000
3.091435 -0.379717 0.181003 9.000000
3.057467 -0.409259 0.179263 9.000000
3.018267 -0.437441 0.177139 18.000000
3.023189 -0.471797 0.177626 15.000000
2.924410 -0.488988 0.172029 7.000000
2.923795 -0.521587 0.172228 9.000000
2.903271 -0.550574 0.171270 9.000000
2.862872 -0.575217 0.169155 9.000000
2.856445 -0.606281 0.168977 9.000000
2.810692 -0.628541 0.166578 9.000000
2.794018 -0.656719 0.165825 15.000000
2.796428 -0.689378 0.166314 55.000000
2.745270 -0.708527 0.163546 16.000000
2.751928 -0.742241 0.164323 83.000000
2.710102 -0.762488 0.162136 56.000000
2.687297 -0.787708 0.161103 71.000000
2.683341 -0.818354 0.161218 84.000000
2.669492 -0.845917 0.160760 86.000000
2.660161 -0.874936 0.160589 28.000000
2.730895 -0.930907 0.165279 24.000000
2.805391 -0.990453 0.170244 9.000000
2.888252 -1.055178 0.175675 25.000000
2.881267 -1.088242 0.175772 7.000000
3.134384 -1.222921 0.191804 3.000000
3.190368 -1.284936 0.195758 2.000000
3.277591 -1.361658 0.201791 2.000000
3.271797 -1.401173 0.202141 1.000000
3.311375 -1.460487 0.205101 1.000000
3.263517 -1.481992 0.202902 1.000000
3.102471 -1.449753 0.193545 1.000000
3.203544 -1.539683 0.200554 1.000000
3.137364 -1.550124 0.197135 1.000000
3.102552 -1.575099 0.195691 1.000000
2.978982 -1.553417 0.188645 1.000000
3.032353 -1.623465 0.192814 1.000000
3.084482 -1.694836 0.196969 1.000000
2.912857 -1.684280 0.187691 1.000000
2.971642 -1.761783 0.192281 1.000000
2.820365 -1.713117 0.183264 1.000000
2.797366 -1.741040 0.182684 1.000000
2.618273 -1.669461 0.171786 3.000000
2.650018 -1.730691 0.174810 7.000000
2.680857 -1.792824 0.177725 5.000000
2.636426 -1.805078 0.175684 2.000000
2.637044 -1.848017 0.176662 2.000000
2.624883 -1.882575 0.176914 1.000000
2.604151 -1.911106 0.176519 1.000000
2.691022 -2.020375 0.183474 2.000000
2.708404 -2.079992 0.185674 2.000000
2.579539 -2.026158 0.177944 1.000000
2.603992 -2.091748 0.180786 1.000000
2.569449 -2.110619 0.179569 1.000000
2.443052 -2.051867 0.171801 2.000000
2.416740 -2.075135 0.171143 3.000000
2.322667 -2.038839 0.165574 3.000000
2.244540 -2.014040 0.161193 6.000000
2.226192 -2.041746 0.160999 8.000000
2.192832 -2.055688 0.159741 9.000000
2.181142 -2.089934 0.160075 9.000000
2.165383 -2.120554 0.160234 9.000000
2.149193 -2.151145 0.160297 10.000000
2.104740 -2.152954 0.158258 9.000000
2.087996 -2.183081 0.158229 10.000000
2.053943 -2.194761 0.156985 9.000000
2.047754 -2.234478 0.157733 10.000000
2.026728 -2.260332 0.157529 10.000000
1.982294 -2.259796 0.155515 9.000000
1.970591 -2.296357 0.155994 9.000000
1.903796 -2.267906 0.152195 8.000000
1.793537 -2.184251 0.144747 9.000000
1.644713 -2.047865 0.134036 9.000000
1.517531 -1.932160 0.124997 9.000000
1.423509 -1.853476 0.118471 13.000000
1.313345 -1.749033 0.110476 21.000000
1.220422 -1.662562 0.103792 18.000000
1.193602 -1.663498 0.102663 16.000000
1.178389 -1.680474 0.102537 22.000000
1.162899 -1.697262 0.102409 24.000000
1.124972 -1.680784 0.100298 29.000000
1.114878 -1.705437 0.100668 25.000000
1.099013 -1.721662 0.100540 26.000000
1.077649 -1.729219 0.099858 25.000000
1.066633 -1.753661 0.100216 21.000000
1.060249 -1.786611 0.101055 9.000000
1.158563 1.982669 0.129010 8.000000
1.180041 1.969894 0.129572 25.000000
1.209214 1.969672 0.130982 31.000000
1.219849 1.939488 0.130410 29.000000
1.246267 1.934503 0.131541 32.000000
1.261732 1.912453 0.131531 32.000000
1.279599 1.894519 0.131804 32.000000
1.302914 1.884578 0.132582 36.000000
1.320412 1.866216 0.132852 32.000000
1.331827 1.839620 0.132537 28.000000
1.354655 1.828982 0.133315 34.000000
1.371471 1.810183 0.133578 32.000000
1.387992 1.791172 0.133770 32.000000
1.407320 1.776001 0.134255 33.000000
1.426509 1.760552 0.134809 33.000000
1.448743 1.748739 0.135592 37.000000
1.461246 1.725224 0.135480 33.000000
1.479909 1.709187 0.135964 35.000000
1.498433 1.692944 0.136447 36.000000
1.516751 1.676562 0.136862 35.000000
1.534861 1.659903 0.137346 47.000000
1.539121 1.628529 0.136613 63.000000
1.556797 1.611675 0.137024 37.000000
1.581280 1.601650 0.138116 58.000000
1.595078 1.580795 0.138222 37.000000
1.622923 1.573708 0.139627 36.000000
1.639443 1.556496 0.140111 40.000000
1.648996 1.531663 0.139905 64.000000
1.672967 1.520276 0.140940 56.000000
1.693217 1.505205 0.141667 71.000000
1.713331 1.489844 0.142396 57.000000
1.733240 1.474263 0.143126 67.000000
1.745407 1.452006 0.143229 37.000000
1.765038 1.435994 0.143892 33.000000
1.788434 1.422794 0.144942 57.000000
1.803878 1.403156 0.145291 51.000000
1.819043 1.383379 0.145711 68.000000
1.834069 1.363391 0.146060 42.000000
1.856888 1.349130 0.147049 57.000000
1.871487 1.328705 0.147400 62.000000
1.881777 1.305365 0.147430 35.000000
1.920708 1.301498 0.149712 35.000000
1.926435 1.274917 0.149421 53.000000
1.944119 1.256926 0.150168 41.000000
1.970370 1.243675 0.151496 77.000000
1.975342 1.216779 0.151131 44.000000
2.001297 1.202849 0.152463 50.000000
2.022902 1.185973 0.153401 62.000000
2.044402 1.168765 0.154414 55.000000
2.065722 1.151296 0.155358 33.000000
2.082474 1.131039 0.155975 67.000000
2.094650 1.108280 0.156265 52.000000
2.128784 1.096802 0.158203 66.000000
2.140576 1.073511 0.158496 58.000000
2.152002 1.050439 0.158862 65.000000
2.199336 1.044044 0.161808 69.000000
2.215110 1.022157 0.162438 51.000000
2.216974 0.993826 0.161996 32.000000
2.268843 0.987595 0.165293 41.000000
2.261056 0.955007 0.164185 50.000000
2.298964 0.941729 0.166491 37.000000
2.322904 0.922404 0.167800 43.000000
2.337422 0.898814 0.168365 36.000000
2.361100 0.878525 0.169602 48.000000
2.384583 0.857855 0.170842 35.000000
2.398442 0.833525 0.171412 35.000000
2.426214 0.813930 0.173072 44.000000
2.444396 0.790543 0.173982 50.000000
2.471934 0.769757 0.175492 58.000000
2.484949 0.744263 0.176068 54.000000
2.511979 0.722883 0.177662 48.000000
2.534081 0.699439 0.178840 53.000000
2.575318 0.680782 0.181460 35.000000
2.601915 0.657723 0.182984 31.000000
2.623441 0.632829 0.184252 36.000000
2.654435 0.609934 0.186121 37.000000
2.675470 0.584217 0.187311 58.000000
2.696323 0.558182 0.188503 55.000000
2.716905 0.531660 0.189697 56.000000
2.702873 0.498486 0.188498 10.000000
2.698339 0.467357 0.187982 8.000000
2.777142 0.449919 0.193290 13.000000
2.826180 0.426410 0.196462 77.000000
2.865219 0.400467 0.199039 46.000000
2.909046 0.374409 0.201874 62.000000
2.932720 0.345068 0.203428 71.000000
2.951213 0.314768 0.204549 47.000000
2.984183 0.285479 0.206704 65.000000
2.987117 0.252923 0.206795 24.000000
3.074252 0.226696 0.212739 18.000000
3.091450 0.194157 0.213867 36.000000
3.148235 0.163362 0.217751 52.000000
3.174697 0.130052 0.219474 44.000000
3.215847 0.096746 0.222329 59.000000
3.231596 0.061996 0.223363 36.000000
3.182212 0.026479 0.220013 16.000000
3.356887 -0.008626 0.232083 10.000000
3.386504 -0.045587 0.234152 32.000000
3.445721 -0.083929 0.238290 95.000000
3.429607 -0.120833 0.237256 82.000000
3.408206 -0.157286 0.235876 91.000000
3.361404 -0.191780 0.232773 82.000000
3.329279 -0.226314 0.230602 68.000000
3.286845 -0.259413 0.227844 8.000000
3.194396 -0.287082 0.221541 9.000000
3.151455 -0.317810 0.218785 9.000000
3.078373 -0.344347 0.213867 10.000000
3.074488 -0.377796 0.213772 24.000000
3.075168 -0.411813 0.214021 45.000000
3.040898 -0.440926 0.211863 63.000000
2.996489 -0.467856 0.209019 9.000000
2.907566 -0.486428 0.203084 7.000000
2.936529 -0.524126 0.205398 9.000000
2.876690 -0.545744 0.201441 9.000000
2.855929 -0.574055 0.200322 9.000000
2.825205 -0.599886 0.198430 9.000000
2.794151 -0.625185 0.196629 9.000000
2.758097 -0.648551 0.194401 10.000000
2.784805 -0.686901 0.196621 53.000000
2.762682 -0.713342 0.195421 30.000000
2.730660 -0.736868 0.193539 62.000000
2.703321 -0.761050 0.192002 63.000000
2.690115 -0.788855 0.191404 74.000000
2.676683 -0.816641 0.190892 88.000000
2.653344 -0.841223 0.189701 73.000000
2.639324 -0.868443 0.189191 29.000000
2.705348 -0.922679 0.194363 26.000000
2.728131 -0.963687 0.196472 17.000000
2.839238 -1.037864 0.205095 26.000000
2.823198 -1.066985 0.204479 8.000000
3.053021 -1.191975 0.221754 3.000000
3.174278 -1.278818 0.231228 2.000000
3.141721 -1.305703 0.229567 2.000000
3.159459 -1.353483 0.231608 2.000000
3.327086 -1.468434 0.244720 1.000000
3.138369 -1.426157 0.231648 1.000000
2.973530 -1.390479 0.220183 2.000000
3.232516 -1.554710 0.240266 1.000000
3.345319 -1.653484 0.249501 1.000000
2.993564 -1.520453 0.224073 1.000000
3.047597 -1.589822 0.229085 1.000000
3.012553 -1.613517 0.227337 1.000000
3.042876 -1.672775 0.230669 1.000000
2.906379 -1.681268 0.222225 1.000000
2.913641 -1.728168 0.223792 1.000000
2.924418 -1.778014 0.225680 1.000000
2.828726 -1.762347 0.219351 1.000000
2.607489 -1.664282 0.203116 2.000000
2.643811 -1.727575 0.206892 7.000000
2.633173 -1.761908 0.207158 6.000000
2.589097 -1.773573 0.204817 2.000000
2.602295 -1.824707 0.206936 1.000000
2.586229 -1.855901 0.206774 2.000000
2.573926 -1.890039 0.207031 1.000000
2.620942 -1.969015 0.212029 2.000000
2.591376 -1.991405 0.210884 2.000000
2.600871 -2.044257 0.212954 2.000000
2.768973 -2.225760 0.228149 1.000000
2.320514 -1.907429 0.192442 2.000000
2.364509 -1.987268 0.197404 5.000000
2.289706 -1.967432 0.192386 8.000000
2.260606 -1.985770 0.191290 9.000000
2.253650 -2.023673 0.192003 11.000000
2.220393 -2.038095 0.190593 10.000000
2.198090 -2.062241 0.190040 10.000000
2.194262 -2.102544 0.191056 10.000000
2.260347 -2.213621 0.198318 28.000000
2.162093 -2.164057 0.191188 12.000000
2.107033 -2.155418 0.187828 9.000000
2.073090 -2.167455 0.186345 9.000000
2.059568 -2.200855 0.186722 10.000000
2.035514 -2.223158 0.186077 9.000000
2.017935 -2.252619 0.186139 9.000000
1.993338 -2.274442 0.185584 9.000000
1.968464 -2.296079 0.184937 9.000000
1.930578 -2.302051 0.183165 8.000000
1.810542 -2.207144 0.173426 10.000000
1.717743 -2.141052 0.166168 14.000000
1.626636 -2.073215 0.158958 21.000000
1.506785 -1.964141 0.148870 30.000000
1.365648 -1.820702 0.136377 23.000000
1.213007 -1.654323 0.122480 10.000000
1.192038 -1.663310 0.121744 16.000000
1.182548 -1.688463 0.122130 26.000000
1.152871 -1.684716 0.120511 25.000000
1.120654 -1.676450 0.118606 27.000000
1.110593 -1.701071 0.119052 28.000000
1.092086 -1.713057 0.118555 25.000000
1.076092 -1.729094 0.118411 23.000000
1.062411 -1.749207 0.118491 24.000000
1.017883 -1.717773 0.115173 8.000000
1.160378 1.985924 0.149971 8.000000
1.181903 1.973122 0.150604 16.000000
1.202021 1.960882 0.151308 25.000000
1.223265 1.947658 0.152011 18.000000
1.236270 1.921565 0.151651 27.000000
1.257096 1.908007 0.152280 23.000000
1.280572 1.898306 0.153243 26.000000
1.298258 1.880123 0.153468 30.000000
1.321474 1.869940 0.154433 16.000000
1.324176 1.831188 0.153037 24.000000
1.335045 1.804573 0.152641 22.000000
1.360635 1.797903 0.153871 23.000000
1.380084 1.782936 0.154492 33.000000
1.405519 1.775654 0.155730 24.000000
1.424777 1.760206 0.156284 29.000000
1.437467 1.736865 0.156147 29.000000
1.453074 1.717263 0.156421 19.000000
