x y z intensity
1.939867 -0.071826 -0.718827 18.000000
1.952970 -0.094426 -0.724036 26.000000
1.961185 -0.117128 -0.727253 24.000000
1.903714 -0.135323 -0.706238 9.000000
1.948834 -0.160727 -0.723336 21.000000
1.942383 -0.182305 -0.721284 18.000000
1.940288 -0.204331 -0.721094 18.000000
1.942598 -0.226838 -0.722509 22.000000
1.940053 -0.248790 -0.722127 19.000000
1.946481 -0.272105 -0.725335 21.000000
1.934199 -0.292694 -0.721364 19.000000
1.903170 -0.310056 -0.710545 9.000000
1.936571 -0.338085 -0.724120 21.000000
1.923637 -0.358296 -0.720091 13.000000
1.928771 -0.381880 -0.723097 17.000000
1.933802 -0.405544 -0.725842 19.000000
1.915493 -0.424531 -0.720287 16.000000
1.915345 -0.447221 -0.721371 17.000000
1.933219 -0.474425 -0.729268 22.000000
1.877897 -0.483480 -0.709781 9.000000
1.908813 -0.514558 -0.722887 15.000000
1.907616 -0.537481 -0.723896 10.000000
1.924223 -0.565676 -0.731756 18.000000
1.918034 -0.587438 -0.730909 13.000000
1.920537 -0.611922 -0.733416 14.000000
1.922651 -0.636740 -0.736112 14.000000
1.911301 -0.656850 -0.733420 11.000000
1.895162 -0.675411 -0.729159 9.000000
1.918591 -0.708295 -0.740222 17.000000
1.897646 -0.724966 -0.734128 11.000000
1.915916 -0.756823 -0.743322 16.000000
1.890207 -0.771367 -0.735474 10.000000
1.885934 -0.794849 -0.736306 10.000000
1.894567 -0.823594 -0.741871 13.000000
1.893980 -0.849081 -0.744241 10.000000
1.880487 -0.868439 -0.741278 9.000000
1.887894 -0.897946 -0.746933 13.000000
1.890624 -0.925702 -0.750820 10.000000
1.888875 -0.951426 -0.753015 16.000000
1.878324 -0.972938 -0.751782 14.000000
1.867636 -0.994314 -0.750480 10.000000
1.885690 -1.031386 -0.760789 16.000000
1.890860 -1.061981 -0.766058 12.000000
1.846527 -1.064617 -0.751287 9.000000
1.871476 -1.107129 -0.764769 13.000000
1.851380 -1.123407 -0.759911 10.000000
1.874828 -1.167215 -0.773454 13.000000
1.854230 -1.183274 -0.768513 10.000000
1.849334 -1.209419 -0.770098 10.000000
1.867219 -1.251737 -0.781736 18.000000
1.849815 -1.270054 -0.778282 10.000000
1.847276 -1.299519 -0.781593 9.000000
1.840503 -1.326343 -0.783252 11.000000
1.807270 -1.332893 -0.773064 9.000000
1.845315 -1.393593 -0.794133 10.000000
1.829945 -1.414784 -0.792342 10.000000
1.818584 -1.438164 -0.791794 12.000000
1.817449 -1.470935 -0.796373 14.000000
1.808535 -1.497854 -0.797629 10.000000
1.817327 -1.540023 -0.806891 10.000000
1.811180 -1.570132 -0.809619 11.000000
1.800975 -1.597189 -0.810648 10.000000
1.793989 -1.627284 -0.813252 15.000000
1.783164 -1.654240 -0.814243 11.000000
1.789166 -1.697522 -0.823053 15.000000
1.746843 -1.694788 -0.809625 10.000000
1.637402 -1.624499 -0.764788 9.000000
1.559762 -1.582328 -0.734321 9.000000
1.489815 -1.545336 -0.707078 15.000000
1.463278 -1.551933 -0.700192 24.000000
1.414277 -1.533646 -0.682454 31.000000
1.384996 -1.535603 -0.674112 30.000000
1.377839 -1.562032 -0.676556 33.000000
1.344602 -1.560322 -0.666850 32.000000
1.324753 -1.571946 -0.663069 28.000000
1.323016 -1.605276 -0.668476 26.000000
1.305812 -1.620279 -0.666209 24.000000
1.296314 -1.646979 -0.668634 21.000000
1.278723 -1.661615 -0.666284 25.000000
1.249535 -1.660880 -0.657832 20.000000
1.236420 -1.683335 -0.658644 21.000000
1.221223 -1.701246 -0.657736 27.000000
1.192108 -1.699418 -0.649287 17.000000
1.186475 -1.733252 -0.654468 19.000000
1.160048 -1.734770 -0.647472 17.000000
1.149481 -1.759839 -0.649365 18.000000
1.129608 -1.773535 -0.647015 24.000000
1.105827 -1.778172 -0.641535 18.000000
1.100651 -1.815809 -0.647884 18.000000
1.096092 -1.852982 -0.653893 16.000000
1.069278 -1.852974 -0.646873 13.000000
1.055443 -1.878250 -0.648674 14.000000
1.040132 -1.898668 -0.648798 8.000000
0.620725 1.142992 -0.379771 6.000000
0.639763 1.148412 -0.385563 9.000000
0.652640 1.140635 -0.387068 19.000000
0.657321 1.120786 -0.384402 24.000000
0.692053 1.149805 -0.398621 10.000000
0.721748 1.170448 -0.410250 22.000000
0.752765 1.190068 -0.421782 11.000000
0.809532 1.249818 -0.447926 12.000000
0.844667 1.271989 -0.461055 15.000000
0.876881 1.290052 -0.472963 9.000000
0.909632 1.307488 -0.484948 18.000000
0.954797 1.339446 -0.502646 17.000000
1.022433 1.401906 -0.532348 11.000000
1.065853 1.428517 -0.549005 22.000000
1.508487 1.930169 -0.760075 26.000000
1.552840 1.942779 -0.774631 29.000000
1.583610 1.935336 -0.781411 10.000000
1.595054 1.906290 -0.779560 27.000000
1.618426 1.891629 -0.783685 32.000000
1.641717 1.876738 -0.787740 26.000000
1.656426 1.850084 -0.786874 33.000000
1.685873 1.841708 -0.793884 33.000000
1.702288 1.818881 -0.794843 28.000000
1.738220 1.816611 -0.804858 34.000000
1.727756 1.766006 -0.793515 9.000000
1.750128 1.749573 -0.797345 20.000000
1.766402 1.725460 -0.797791 18.000000
1.784934 1.705186 -0.800088 15.000000
1.803306 1.684675 -0.802226 23.000000
1.814502 1.657515 -0.801344 21.000000
1.796966 1.605031 -0.787855 11.000000
1.803636 1.575000 -0.785270 20.000000
0.979526 0.781172 -0.415521 95.000000
0.973056 0.758188 -0.410138 66.000000
0.973759 0.741254 -0.407888 51.000000
0.970413 0.721506 -0.404041 72.000000
0.981875 0.713398 -0.406641 35.000000
0.989688 0.702031 -0.407461 56.000000
0.997344 0.690625 -0.408281 32.000000
1.004687 0.679336 -0.409219 78.000000
1.012109 0.667734 -0.410000 90.000000
1.015237 0.653725 -0.409293 81.000000
1.014378 0.636940 -0.406817 88.000000
1.017136 0.623002 -0.406016 95.000000
1.015854 0.606384 -0.403481 72.000000
0.989624 0.575828 -0.391308 95.000000
1.004020 0.569232 -0.395286 33.000000
0.997707 0.550980 -0.391162 80.000000
1.003627 0.539617 -0.391860 100.000000
1.005249 0.525989 -0.390857 95.000000
1.002465 0.510239 -0.388253 98.000000
1.007985 0.498799 -0.388871 95.000000
1.013359 0.487323 -0.389452 95.000000
1.018625 0.475738 -0.389997 95.000000
1.040988 0.471918 -0.397105 27.000000
1.024362 0.450667 -0.389551 95.000000
1.029281 0.438950 -0.390022 95.000000
1.029583 0.425503 -0.388952 98.000000
1.003517 0.401456 -0.377835 95.000000
1.003414 0.388396 -0.376707 98.000000
1.007554 0.377020 -0.377159 95.000000
1.007153 0.364005 -0.375990 95.000000
1.037756 0.361858 -0.386354 36.000000
1.037196 0.348588 -0.385085 100.000000
1.027418 0.332549 -0.380595 95.000000
1.030982 0.320843 -0.380945 98.000000
1.038889 0.310558 -0.383029 103.000000
1.037656 0.297502 -0.381748 98.000000
1.036291 0.284513 -0.380464 98.000000
1.062110 0.278735 -0.389127 108.000000
1.951914 0.488728 -0.713708 22.000000
1.957127 0.466575 -0.714164 22.000000
1.957418 0.443447 -0.713142 22.000000
1.962099 0.421346 -0.713662 23.000000
1.966584 0.399115 -0.714182 26.000000
1.952304 0.373281 -0.707862 25.000000
1.960867 0.352091 -0.710121 25.000000
1.946033 0.326768 -0.703661 10.000000
1.963444 0.306957 -0.709086 26.000000
1.957342 0.283392 -0.706046 28.000000
1.946225 0.259416 -0.701448 26.000000
1.953571 0.237970 -0.703449 29.000000
1.956058 0.215901 -0.703704 28.000000
1.944236 0.192378 -0.698843 25.000000
1.955642 0.171226 -0.702339 24.000000
1.952666 0.148789 -0.700845 10.000000
1.972980 0.127917 -0.707712 24.000000
1.964796 0.105176 -0.704597 24.000000
1.984693 0.083710 -0.711339 27.000000
1.957236 0.060430 -0.701289 26.000000
1.948332 0.038156 -0.698044 25.000000
1.967475 0.016328 -0.704852 26.000000
1.958125 -0.005903 -0.701479 25.000000
1.939171 -0.027724 -0.694609 21.000000
1.962323 -0.050203 -0.702848 29.000000
1.956919 -0.072236 -0.701099 23.000000
1.951328 -0.094099 -0.699350 24.000000
1.968985 -0.117256 -0.705835 37.000000
1.972275 -0.139774 -0.707391 63.000000
1.942520 -0.159760 -0.697033 24.000000
1.950063 -0.182559 -0.700273 24.000000
1.943223 -0.204093 -0.698337 22.000000
1.945620 -0.226611 -0.699702 21.000000
1.952423 -0.249705 -0.702683 24.000000
1.949616 -0.271710 -0.702237 21.000000
1.955868 -0.295184 -0.705276 25.000000
1.952600 -0.317230 -0.704828 21.000000
1.944307 -0.338532 -0.702830 10.000000
1.954493 -0.362978 -0.707283 24.000000
1.959680 -0.386890 -0.710182 21.000000
1.955345 -0.409016 -0.709664 19.000000
1.973822 -0.436161 -0.717444 24.000000
1.969043 -0.458418 -0.716789 16.000000
1.977605 -0.484036 -0.721274 21.000000
1.967700 -0.505210 -0.719013 17.000000
1.921138 -0.516425 -0.703355 12.000000
1.938102 -0.544501 -0.710972 23.000000
1.945682 -0.570306 -0.715179 21.000000
1.939448 -0.592221 -0.714326 21.000000
1.941811 -0.617124 -0.716990 21.000000
1.939567 -0.640356 -0.717724 19.000000
1.945887 -0.666946 -0.721899 18.000000
1.942948 -0.690481 -0.722688 12.000000
1.904346 -0.701073 -0.710193 10.000000
1.936367 -0.737651 -0.724120 22.000000
1.923869 -0.757758 -0.721468 18.000000
1.924194 -0.783240 -0.723889 18.000000
1.933083 -0.812175 -0.729386 21.000000
1.915405 -0.830436 -0.725156 13.000000
1.919307 -0.857733 -0.728788 13.000000
1.914092 -0.881506 -0.729405 14.000000
1.904361 -0.903215 -0.728316 10.000000
1.919910 -0.937299 -0.737010 22.000000
1.913789 -0.961146 -0.737397 16.000000
1.928422 -0.995868 -0.745903 15.000000
1.917496 -1.017720 -0.744642 16.000000
1.910513 -1.041626 -0.744861 13.000000
1.903271 -1.065556 -0.745073 15.000000
1.908078 -1.096442 -0.750119 17.000000
1.883924 -1.110729 -0.743799 10.000000
1.887721 -1.142175 -0.748959 19.000000
1.887350 -1.170926 -0.752135 16.000000
1.894307 -1.205324 -0.758779 17.000000
1.885258 -1.229176 -0.758713 20.000000
1.895200 -1.266574 -0.766829 16.000000
1.889446 -1.293139 -0.768175 15.000000
1.878956 -1.317529 -0.768140 13.000000
1.860482 -1.336254 -0.764932 9.000000
1.869118 -1.373895 -0.772494 18.000000
1.850179 -1.392456 -0.769202 10.000000
1.872363 -1.442571 -0.783140 16.000000
1.871393 -1.475759 -0.787592 18.000000
1.836676 -1.482218 -0.777852 11.000000
1.846626 -1.523705 -0.786577 17.000000
1.829861 -1.544777 -0.784578 13.000000
1.845316 -1.593575 -0.796553 10.000000
1.838549 -1.624074 -0.799085 21.000000
1.824363 -1.648127 -0.798504 12.000000
1.834328 -1.694698 -0.808617 18.000000
1.822740 -1.722142 -0.809446 22.000000
1.797157 -1.736195 -0.804050 14.000000
1.716587 -1.697014 -0.774472 11.000000
1.637810 -1.655568 -0.744737 12.000000
1.487395 -1.537203 -0.681763 10.000000
1.464195 -1.547135 -0.676611 33.000000
1.415102 -1.528660 -0.659407 34.000000
1.395432 -1.541195 -0.655770 49.000000
1.378001 -1.557561 -0.653907 56.000000
1.348747 -1.558696 -0.645798 34.000000
1.325838 -1.566637 -0.640643 50.000000
1.309041 -1.581596 -0.638412 30.000000
1.312214 -1.622947 -0.646805 28.000000
1.271172 -1.607768 -0.632738 34.000000
1.271560 -1.644724 -0.639265 26.000000
1.250160 -1.655910 -0.635742 32.000000
1.235319 -1.673797 -0.634884 35.000000
1.220329 -1.691549 -0.633948 28.000000
1.201302 -1.705919 -0.631819 30.000000
1.183140 -1.719424 -0.629358 25.000000
1.159567 -1.724782 -0.624087 22.000000
1.140164 -1.738490 -0.621835 34.000000
1.124405 -1.755306 -0.620812 26.000000
1.107164 -1.772647 -0.619911 29.000000
1.090966 -1.789182 -0.618799 24.000000
1.085599 -1.826861 -0.624929 21.000000
1.054298 -1.818272 -0.615269 26.000000
1.045582 -1.851669 -0.619927 18.000000
1.037559 -1.884531 -0.624258 8.000000
0.631610 1.157234 -0.372393 7.000000
0.627329 1.120662 -0.364428 12.000000
0.632648 1.100577 -0.361703 24.000000
0.664478 1.126084 -0.374075 22.000000
0.701084 1.159696 -0.389420 20.000000
0.738555 1.192577 -0.404833 21.000000
0.767281 1.208033 -0.414652 20.000000
0.821893 1.263695 -0.438640 17.000000
0.859940 1.289812 -0.452789 18.000000
0.870789 1.276090 -0.453107 11.000000
0.929015 1.328616 -0.477221 19.000000
0.973681 1.360938 -0.494615 24.000000
1.039859 1.418978 -0.521862 24.000000
1.442793 1.881779 -0.708934 37.000000
1.519977 1.936206 -0.738420 35.000000
1.552514 1.933885 -0.746775 29.000000
1.572986 1.916258 -0.749383 32.000000
1.585172 1.886615 -0.747244 33.000000
1.617678 1.883133 -0.755502 37.000000
1.618781 1.843124 -0.749273 35.000000
1.651204 1.838957 -0.757482 33.000000
1.681415 1.829950 -0.764020 41.000000
1.697742 1.807345 -0.764926 34.000000
1.720374 1.791388 -0.768701 31.000000
1.749611 1.782011 -0.775450 35.000000
1.766178 1.757975 -0.775959 34.000000
1.795315 1.747810 -0.782661 37.000000
1.807150 1.720722 -0.781835 29.000000
1.811701 1.687051 -0.778072 18.000000
1.829915 1.666302 -0.780131 24.000000
1.840771 1.639055 -0.779176 24.000000
1.815306 1.580437 -0.763094 19.000000
1.788870 1.522571 -0.746842 22.000000
1.004748 0.762255 -0.406218 98.000000
0.993646 0.736844 -0.399585 83.000000
1.001660 0.725418 -0.400458 85.000000
0.990179 0.700184 -0.393574 33.000000
1.021284 0.704990 -0.403631 75.000000
1.028731 0.693520 -0.404587 91.000000
1.028357 0.676468 -0.402237 84.000000
1.031787 0.662086 -0.401432 95.000000
1.026716 0.642870 -0.397620 95.000000
1.029705 0.628605 -0.396759 95.000000
1.028249 0.612120 -0.394442 95.000000
1.030679 0.598086 -0.393643 71.000000
1.004170 0.567566 -0.381690 95.000000
1.001936 0.551605 -0.379247 95.000000
1.012038 0.542484 -0.381485 95.000000
1.013630 0.528842 -0.380571 100.000000
1.010870 0.513039 -0.378033 95.000000
1.020630 0.503650 -0.380237 98.000000
1.021775 0.490027 -0.379236 98.000000
1.031360 0.480395 -0.381372 98.000000
1.049517 0.474535 -0.386695 95.000000
1.041614 0.456885 -0.382434 93.000000
1.042088 0.443311 -0.381424 95.000000
1.042521 0.429617 -0.380300 95.000000
1.042697 0.416131 -0.379245 89.000000
1.020706 0.394000 -0.370067 98.000000
1.020464 0.380818 -0.368956 98.000000
1.024535 0.369272 -0.369377 98.000000
1.041880 0.362356 -0.374657 95.000000
1.050243 0.352093 -0.376658 100.000000
1.054028 0.340167 -0.377051 98.000000
1.048560 0.325507 -0.374288 98.000000
1.042995 0.310908 -0.371378 95.000000
1.059941 0.303089 -0.376613 98.000000
1.085991 0.297355 -0.385094 115.000000
1.968650 0.491672 -0.695318 26.000000
1.973952 0.469415 -0.695777 25.000000
1.978862 0.447224 -0.696431 26.000000
1.974393 0.422791 -0.693575 23.000000
1.997426 0.404326 -0.700599 25.000000
1.978479 0.377339 -0.692861 25.000000
1.963766 0.351710 -0.686935 21.000000
1.995474 0.334244 -0.696963 20.000000
2.003671 0.312442 -0.698984 27.000000
2.006944 0.289858 -0.699311 29.000000
2.000650 0.265963 -0.696377 26.000000
1.975236 0.239999 -0.686913 25.000000
1.987072 0.218806 -0.690434 25.000000
1.979926 0.195417 -0.687427 28.000000
1.967794 0.171892 -0.682783 21.000000
2.007275 0.152561 -0.695916 19.000000
2.022982 0.130855 -0.700948 27.000000
2.010070 0.107319 -0.696241 26.000000
2.015831 0.084897 -0.698071 31.000000
2.011955 0.062012 -0.696501 26.000000
2.012541 0.039326 -0.696436 26.000000
2.003351 0.016562 -0.693231 26.000000
1.998690 -0.005938 -0.691596 21.000000
1.960764 -0.027926 -0.678453 21.000000
1.974491 -0.050388 -0.683294 22.000000
1.978512 -0.072821 -0.684865 30.000000
1.996561 -0.095978 -0.691209 71.000000
1.990681 -0.118224 -0.689317 55.000000
1.994043 -0.140966 -0.690757 30.000000
1.982881 -0.162654 -0.687427 56.000000
1.976376 -0.184506 -0.685474 32.000000
1.974261 -0.206808 -0.685217 25.000000
1.976585 -0.229528 -0.686528 25.000000
1.974016 -0.251755 -0.686142 23.000000
1.985235 -0.275999 -0.690773 25.000000
1.963431 -0.295505 -0.683871 20.000000
1.964765 -0.318371 -0.685050 10.000000
1.965826 -0.341342 -0.686355 16.000000
1.966676 -0.364290 -0.687401 22.000000
1.990448 -0.391910 -0.696693 20.000000
1.990758 -0.415263 -0.697792 22.000000
1.986099 -0.437769 -0.697333 20.000000
1.995067 -0.463287 -0.701537 24.000000
1.999104 -0.487994 -0.704247 21.000000
1.979912 -0.507041 -0.698796 10.000000
1.969739 -0.528096 -0.696521 22.000000
1.968508 -0.551536 -0.697412 25.000000
1.957901 -0.572290 -0.695009 19.000000
1.960578 -0.597212 -0.697573 22.000000
1.967642 -0.623437 -0.701541 22.000000
1.947231 -0.641215 -0.695987 18.000000
1.971527 -0.673938 -0.706433 20.000000
1.950683 -0.691348 -0.700750 10.000000
1.956421 -0.718249 -0.704620 19.000000
1.944137 -0.738522 -0.702081 18.000000
1.940308 -0.762360 -0.702875 17.000000
1.945155 -0.789459 -0.706586 21.000000
1.958291 -0.820654 -0.713672 17.000000
1.966741 -0.850121 -0.718871 18.000000
1.961691 -0.874259 -0.719425 18.000000
1.934778 -0.888532 -0.712045 10.000000
1.929268 -0.912483 -0.712532 16.000000
1.936303 -0.942554 -0.717757 20.000000
1.951434 -0.977191 -0.726050 22.000000
1.949133 -1.003575 -0.727938 21.000000
1.942331 -1.027719 -0.728242 18.000000
1.943610 -1.056421 -0.731609 20.000000
1.936237 -1.080565 -0.731754 20.000000
1.911833 -1.095642 -0.725920 10.000000
1.916318 -1.126725 -0.730679 16.000000
1.916312 -1.155580 -0.733781 20.000000
1.911530 -1.182500 -0.735598 19.000000
1.922841 -1.219135 -0.743248 24.000000
1.921204 -1.248908 -0.746506 18.000000
1.923206 -1.281371 -0.751218 21.000000
1.917271 -1.308164 -0.752522 19.000000
1.891127 -1.321880 -0.746342 10.000000
1.891950 -1.354495 -0.750856 12.000000
1.892381 -1.387315 -0.755343 17.000000
1.885178 -1.414016 -0.756443 17.000000
1.896058 -1.455766 -0.765378 19.000000
1.902519 -1.495025 -0.772666 23.000000
1.878661 -1.510681 -0.767771 21.000000
1.873101 -1.541073 -0.770381 20.000000
1.878128 -1.580771 -0.777498 13.000000
1.853613 -1.595845 -0.772443 14.000000
1.861212 -1.638885 -0.780920 21.000000
1.857539 -1.672761 -0.784769 21.000000
1.856860 -1.709951 -0.790078 26.000000
1.852113 -1.744026 -0.793774 24.000000
1.836684 -1.768239 -0.792982 22.000000
1.762999 -1.735414 -0.767009 16.000000
1.689547 -1.701803 -0.741403 10.000000
1.541332 -1.587112 -0.681684 10.000000
1.478077 -1.555975 -0.659017 26.000000
1.432001 -1.541101 -0.643793 36.000000
1.398537 -1.540116 -0.634618 60.000000
1.369301 -1.541541 -0.626744 52.000000
1.352728 -1.556930 -0.624640 60.000000
1.329824 -1.564826 -0.619646 62.000000
1.306098 -1.572973 -0.614933 34.000000
1.292307 -1.591351 -0.614218 32.000000
1.278307 -1.609535 -0.613428 36.000000
1.257237 -1.620739 -0.610038 35.000000
1.242893 -1.638600 -0.609238 36.000000
1.216911 -1.640987 -0.602768 34.000000
1.212582 -1.674650 -0.607804 35.000000
1.180899 -1.668613 -0.598477 31.000000
1.184003 -1.714054 -0.607597 31.000000
1.160486 -1.719338 -0.602424 27.000000
1.138596 -1.728906 -0.598860 33.000000
1.122847 -1.745705 -0.597876 31.000000
1.110931 -1.771104 -0.599837 33.000000
1.092279 -1.783516 -0.597315 29.000000
1.071093 -1.791535 -0.593492 32.000000
1.048540 -1.799960 -0.589878 28.000000
1.042571 -1.837495 -0.595707 24.000000
1.030205 -1.861787 -0.597215 9.000000
0.629566 1.117520 -0.351577 15.000000
0.643667 1.114551 -0.354365 21.000000
0.688037 1.160785 -0.373029 13.000000
0.710130 1.169481 -0.379918 16.000000
0.748593 1.201912 -0.394731 13.000000
0.794857 1.246251 -0.413871 13.000000
0.837700 1.281103 -0.430204 19.000000
0.875230 1.307631 -0.444077 12.000000
0.895242 1.305187 -0.448349 10.000000
0.936574 1.334461 -0.463735 18.000000
0.992654 1.382434 -0.486091 10.000000
1.471393 1.910459 -0.696363 31.000000
1.506471 1.912699 -0.705774 33.000000
1.539799 1.909856 -0.713525 26.000000
1.566100 1.899875 -0.718745 26.000000
1.586295 1.882185 -0.721250 42.000000
1.600929 1.856211 -0.720543 34.000000
1.627000 1.845316 -0.725712 36.000000
1.646647 1.826842 -0.728060 37.000000
1.667000 1.807508 -0.730095 35.000000
1.696117 1.799024 -0.736648 37.000000
1.725380 1.790160 -0.743148 31.000000
1.741105 1.767188 -0.744008 29.000000
1.756677 1.744055 -0.744702 57.000000
1.779597 1.726719 -0.748040 44.000000
1.798093 1.706485 -0.750174 42.000000
1.826950 1.695778 -0.756585 57.000000
1.830989 1.662090 -0.752828 24.000000
1.866778 1.657136 -0.762179 26.000000
1.852204 1.607665 -0.750995 15.000000
1.825772 1.549418 -0.735263 10.000000
1.787349 1.482783 -0.715029 29.000000
1.721804 1.396191 -0.684360 29.000000
1.017632 0.734631 -0.392317 79.000000
1.002220 0.706499 -0.384190 36.000000
1.037413 0.713979 -0.395460 44.000000
1.037030 0.697017 -0.393384 95.000000
1.044626 0.685143 -0.394143 83.000000
1.048086 0.670621 -0.393396 91.000000
1.047129 0.653823 -0.391211 95.000000
1.046102 0.636853 -0.388857 95.000000
1.040595 0.617792 -0.385132 95.000000
1.051463 0.608240 -0.387270 80.000000
1.049663 0.591733 -0.384966 66.000000
1.022752 0.561359 -0.373392 100.000000
1.024572 0.547600 -0.372538 91.000000
1.026194 0.533824 -0.371641 100.000000
1.027658 0.520106 -0.370740 100.000000
1.024695 0.504272 -0.368298 98.000000
1.030115 0.492664 -0.368848 100.000000
1.044053 0.485027 -0.372512 90.000000
1.062305 0.479076 -0.377654 37.000000
1.063107 0.465095 -0.376633 94.000000
1.063755 0.451213 -0.375572 78.000000
1.068613 0.439125 -0.376054 95.000000
1.059997 0.421875 -0.371960 95.000000
1.064575 0.409827 -0.372363 95.000000
1.064479 0.396194 -0.371322 98.000000
1.064238 0.382624 -0.370241 70.000000
1.050351 0.364375 -0.364447 71.000000
1.067758 0.357077 -0.369553 98.000000
1.062549 0.342087 -0.366793 98.000000
1.066206 0.330110 -0.367152 98.000000
1.074308 0.319415 -0.369074 100.000000
1.114226 0.317770 -0.381995 118.000000
2.012963 0.501507 -0.686013 19.000000
2.027535 0.481027 -0.689689 22.000000
2.032626 0.458118 -0.690158 25.000000
2.023525 0.432368 -0.686040 23.000000
2.004858 0.404917 -0.678699 24.000000
2.009132 0.382294 -0.679093 26.000000
2.031827 0.363009 -0.685794 20.000000
2.007599 0.335418 -0.676662 11.000000
2.025198 0.315088 -0.681790 27.000000
2.019102 0.290927 -0.678961 23.000000
2.026823 0.268849 -0.680869 26.000000
2.024876 0.245523 -0.679617 28.000000
2.027501 0.222690 -0.679748 24.000000
2.025012 0.199457 -0.678560 23.000000
2.017656 0.175853 -0.675527 19.000000
2.028874 0.153897 -0.678953 15.000000
2.039911 0.131662 -0.682250 26.000000
2.031754 0.108271 -0.679150 23.000000
2.032801 0.085426 -0.679281 26.000000
2.047807 0.063018 -0.684097 29.000000
2.038917 0.039761 -0.680930 26.000000
2.043988 0.016902 -0.682579 28.000000
2.044054 -0.006050 -0.682513 24.000000
1.991693 -0.028262 -0.665030 19.000000
2.024432 -0.051538 -0.676114 34.000000
2.028520 -0.074451 -0.677566 69.000000
2.022868 -0.097016 -0.675788 63.000000
2.016961 -0.119474 -0.674140 40.000000
2.029725 -0.143096 -0.678691 39.000000
2.023360 -0.165555 -0.676848 65.000000
2.016744 -0.187842 -0.675071 69.000000
2.028747 -0.211929 -0.679420 78.000000
2.007470 -0.232579 -0.672905 24.000000
2.014283 -0.256267 -0.675673 21.000000
2.006644 -0.278277 -0.673833 21.000000
2.031670 -0.305048 -0.682905 19.000000
2.004879 -0.324056 -0.674562 10.000000
2.005897 -0.347397 -0.675811 18.000000
2.006636 -0.370778 -0.676927 19.000000
2.016473 -0.396093 -0.681187 22.000000
2.021406 -0.420623 -0.683803 20.000000
2.007488 -0.441285 -0.680064 19.000000
2.011782 -0.465958 -0.682674 21.000000
2.011218 -0.489715 -0.683712 18.000000
2.019630 -0.515860 -0.687746 13.000000
1.990999 -0.532368 -0.679251 18.000000
1.989679 -0.555963 -0.680086 18.000000
2.006439 -0.584912 -0.687164 25.000000
1.990836 -0.604710 -0.683372 19.000000
1.988683 -0.628530 -0.684196 20.000000
1.981716 -0.650904 -0.683459 22.000000
2.001536 -0.682411 -0.691985 18.000000
1.993999 -0.704819 -0.691103 14.000000
1.990790 -0.728860 -0.691771 18.000000
1.991719 -0.754482 -0.693848 18.000000
1.965602 -0.770103 -0.686907 19.000000
1.983650 -0.802757 -0.695091 14.000000
1.987958 -0.830643 -0.698827 18.000000
1.978764 -0.853038 -0.697859 17.000000
1.978058 -0.879230 -0.699968 13.000000
1.976991 -0.905479 -0.701999 10.000000
1.988540 -0.937944 -0.708551 17.000000
1.961120 -0.951977 -0.701299 17.000000
1.989040 -0.993202 -0.713868 24.000000
1.978209 -1.015506 -0.712585 19.000000
1.979729 -1.044405 -0.715872 22.000000
1.976702 -1.071103 -0.717550 24.000000
1.952258 -1.086695 -0.711916 13.000000
1.957000 -1.117976 -0.716544 16.000000
1.952808 -1.145100 -0.718342 17.000000
1.944499 -1.169300 -0.718329 21.000000
1.947729 -1.201465 -0.723047 25.000000
1.946858 -1.230863 -0.725945 19.000000
1.945231 -1.260755 -0.729044 21.000000
1.939237 -1.288134 -0.730555 19.000000
1.941169 -1.320388 -0.734817 17.000000
1.938352 -1.350645 -0.737711 13.000000
1.927358 -1.375398 -0.737612 14.000000
1.923787 -1.405722 -0.740399 16.000000
1.931200 -1.444662 -0.747606 22.000000
1.926704 -1.475259 -0.750342 17.000000
1.925547 -1.508906 -0.754375 21.000000
1.923898 -1.542662 -0.758458 24.000000
1.914441 -1.570456 -0.759500 18.000000
1.904535 -1.598260 -0.760449 17.000000
1.887079 -1.619763 -0.758466 13.000000
1.901820 -1.669430 -0.769494 20.000000
1.901381 -1.706883 -0.774649 26.000000
1.893463 -1.738023 -0.776870 19.000000
1.881516 -1.765880 -0.777543 26.000000
1.865808 -1.790332 -0.776679 24.000000
1.821696 -1.788595 -0.764659 16.000000
1.711039 -1.717370 -0.723762 10.000000
1.568748 -1.609611 -0.668763 10.000000
1.505118 -1.578642 -0.646786 16.000000
1.445591 -1.549860 -0.626284 35.000000
1.405506 -1.541842 -0.614639 36.000000
1.376206 -1.543250 -0.607014 57.000000
1.350170 -1.547790 -0.600765 75.000000
1.329684 -1.559877 -0.597537 66.000000
1.303779 -1.563603 -0.591268 52.000000
1.293224 -1.585604 -0.591977 29.000000
1.266431 -1.589348 -0.586001 35.000000
1.249520 -1.603483 -0.583871 35.000000
1.234424 -1.621831 -0.583311 32.000000
1.211473 -1.627832 -0.578434 35.000000
1.198905 -1.649716 -0.579235 33.000000
1.181372 -1.663108 -0.577035 30.000000
1.161094 -1.672224 -0.573415 28.000000
1.161281 -1.713675 -0.580870 22.000000
1.145830 -1.730616 -0.579919 31.000000
1.121202 -1.735874 -0.575133 30.000000
1.110652 -1.760537 -0.576782 31.000000
1.083366 -1.761207 -0.570617 28.000000
1.069805 -1.781453 -0.570909 30.000000
1.052314 -1.798176 -0.569993 27.000000
1.038246 -1.818223 -0.570247 25.000000
1.027231 -1.847278 -0.573231 8.000000
0.639704 1.131930 -0.344172 9.000000
0.669280 1.153594 -0.354476 10.000000
0.699382 1.174690 -0.364848 10.000000
0.719146 1.179244 -0.370199 9.000000
0.763007 1.219810 -0.387187 10.000000
0.806976 1.260037 -0.404387 10.000000
0.847461 1.290820 -0.418896 10.000000
0.909417 1.353372 -0.444213 10.000000
0.916220 1.330727 -0.441804 9.000000
0.957941 1.359869 -0.456676 10.000000
1.023818 1.418966 -0.482165 11.000000
1.440637 1.906470 -0.663367 26.000000
1.490220 1.928384 -0.679212 27.000000
1.505632 1.903304 -0.678680 20.000000
1.540840 1.905100 -0.687821 24.000000
1.561034 1.887780 -0.690151 18.000000
1.585112 1.873123 -0.693608 25.000000
1.598662 1.848027 -0.693213 33.000000
1.631016 1.844453 -0.700938 26.000000
1.641808 1.814617 -0.698850 30.000000
1.667674 1.803190 -0.703779 31.000000
1.706662 1.805272 -0.714330 24.000000
1.710078 1.768047 -0.709297 29.000000
1.745790 1.765828 -0.718354 21.000000
1.744243 1.725763 -0.712122 31.000000
1.780679 1.722100 -0.720901 38.000000
1.795695 1.698645 -0.721626 32.000000
1.817369 1.681551 -0.724995 36.000000
1.853264 1.677016 -0.734008 33.000000
1.867639 1.652850 -0.734582 25.000000
1.881866 1.628527 -0.735150 20.000000
1.837766 1.553890 -0.712602 9.000000
1.828681 1.511678 -0.704402 13.000000
1.841269 1.487895 -0.704713 26.000000
1.789648 1.413488 -0.680706 18.000000
1.710175 1.319981 -0.646468 31.000000
1.037497 0.712318 -0.381241 29.000000
1.049216 0.703143 -0.383456 35.000000
1.052867 0.688561 -0.382766 95.000000
1.060371 0.676562 -0.383488 37.000000
1.059397 0.659669 -0.381408 42.000000
1.062518 0.645081 -0.380621 73.000000
1.057199 0.625677 -0.376896 36.000000
1.059727 0.611445 -0.376172 52.000000
1.070533 0.601677 -0.378269 46.000000
1.064392 0.582794 -0.374551 64.000000
1.062164 0.566323 -0.372294 98.000000
1.064115 0.552012 -0.371353 76.000000
1.078578 0.544327 -0.374968 95.000000
1.045831 0.513236 -0.362225 95.000000
1.051304 0.501470 -0.362783 83.000000
1.056703 0.489594 -0.363342 95.000000
1.070657 0.481595 -0.366883 23.000000
1.075837 0.469508 -0.367371 42.000000
1.076511 0.455487 -0.366364 71.000000
1.081408 0.443337 -0.366850 66.000000
1.081760 0.429353 -0.365799 57.000000
1.081850 0.415543 -0.364819 75.000000
1.086336 0.403307 -0.365227 52.000000
1.086149 0.389498 -0.364204 73.000000
1.094790 0.378872 -0.366154 25.000000
1.067178 0.356002 -0.356002 91.000000
1.084610 0.348384 -0.360929 95.000000
1.079222 0.333354 -0.358270 95.000000
1.137628 0.337466 -0.376752 118.000000
2.029477 0.504472 -0.666779 16.000000
2.048742 0.484921 -0.671876 21.000000
2.044641 0.459766 -0.669305 18.000000
2.040226 0.434819 -0.666664 18.000000
2.044771 0.411962 -0.667199 21.000000
2.058472 0.390747 -0.670648 20.000000
2.048571 0.365145 -0.666476 18.000000
2.028955 0.338225 -0.659180 10.000000
2.046563 0.317674 -0.664222 25.000000
2.040457 0.293353 -0.661498 19.000000
2.048282 0.271051 -0.663291 22.000000
2.046337 0.247500 -0.662027 21.000000
2.039450 0.223537 -0.659232 20.000000
2.037015 0.200185 -0.657965 16.000000
2.043856 0.177698 -0.659627 20.000000
2.002916 0.151579 -0.646046 9.000000
2.061394 0.132777 -0.664615 21.000000
2.062785 0.109666 -0.664682 24.000000
2.063844 0.086554 -0.664814 21.000000
2.059882 0.063230 -0.663348 25.000000
2.055718 0.040012 -0.661816 21.000000
2.060741 0.017046 -0.663414 25.000000
2.056047 -0.006064 -0.661882 26.000000
2.041638 -0.028933 -0.657155 33.000000
2.045938 -0.051900 -0.658687 45.000000
2.045282 -0.074864 -0.658556 65.000000
2.044363 -0.097763 -0.658359 42.000000
2.047934 -0.121008 -0.659824 66.000000
2.051235 -0.144294 -0.661157 48.000000
2.030610 -0.165685 -0.654774 26.000000
2.042870 -0.189799 -0.659166 54.000000
2.045434 -0.213179 -0.660432 67.000000
2.024144 -0.233867 -0.653990 31.000000
2.054528 -0.260790 -0.664421 23.000000
2.042175 -0.282518 -0.661036 17.000000
2.039003 -0.305378 -0.660639 15.000000
2.044970 -0.329688 -0.663226 15.000000
1.994328 -0.344547 -0.647655 9.000000
2.032653 -0.374624 -0.660907 19.000000
2.023807 -0.396489 -0.658922 14.000000
2.033438 -0.421989 -0.662955 21.000000
2.024061 -0.443855 -0.660970 16.000000
2.019083 -0.466555 -0.660439 12.000000
2.046314 -0.496994 -0.670527 21.000000
2.040851 -0.519925 -0.669920 13.000000
2.016701 -0.537876 -0.663122 9.000000
2.015343 -0.561678 -0.663899 18.000000
2.004537 -0.582989 -0.661785 14.000000
2.048234 -0.620650 -0.677789 21.000000
2.018650 -0.636502 -0.669496 13.000000
2.016202 -0.660615 -0.670257 13.000000
2.017966 -0.686228 -0.672451 13.000000
2.019390 -0.711976 -0.674569 10.000000
1.989247 -0.726337 -0.666176 9.000000
2.025806 -0.765626 -0.680349 18.000000
2.004093 -0.783001 -0.674890 10.000000
2.004271 -0.809146 -0.676984 11.000000
1.999759 -0.833516 -0.677578 12.000000
1.999314 -0.859731 -0.679589 10.000000
1.994215 -0.884140 -0.680103 11.000000
1.997549 -0.912476 -0.683514 10.000000
1.978871 -0.930802 -0.679494 9.000000
2.007353 -0.971753 -0.691707 19.000000
1.992460 -0.992070 -0.689017 12.000000
1.994409 -1.020856 -0.692236 13.000000
1.995715 -1.050217 -0.695583 17.000000
1.975856 -1.067927 -0.691345 10.000000
1.985134 -1.101612 -0.697323 18.000000
1.968732 -1.121714 -0.694698 11.000000
1.956653 -1.143629 -0.693251 9.000000
1.976732 -1.185510 -0.703701 13.000000
1.963567 -1.207868 -0.702377 10.000000
1.970858 -1.242394 -0.708029 13.000000
1.961129 -1.267358 -0.708142 13.000000
1.959100 -1.297476 -0.711072 10.000000
1.952712 -1.325028 -0.712464 10.000000
1.949912 -1.355266 -0.715286 10.000000
1.931554 -1.373984 -0.712031 9.000000
1.959036 -1.426831 -0.726232 18.000000
1.939522 -1.446049 -0.723102 10.000000
1.946503 -1.485374 -0.729978 13.000000
1.941539 -1.516212 -0.732459 14.000000
1.932480 -1.544000 -0.733499 10.000000
1.915631 -1.565731 -0.731688 10.000000
1.920542 -1.605762 -0.738284 10.000000
1.902382 -1.627984 -0.736611 9.000000
1.928025 -1.687328 -0.751508 17.000000
1.913268 -1.712121 -0.750874 10.000000
1.905280 -1.743312 -0.752950 16.000000
1.896917 -1.774496 -0.755003 18.000000
1.898508 -1.815627 -0.761123 16.000000
1.874626 -1.834219 -0.757732 10.000000
1.746091 -1.746483 -0.711205 9.000000
1.596210 -1.632015 -0.655212 8.000000
1.538011 -1.608801 -0.636893 10.000000
1.451796 -1.552153 -0.606050 12.000000
1.418836 -1.550598 -0.597261 26.000000
1.382191 -1.545486 -0.587351 35.000000
1.349841 -1.542768 -0.578587 29.000000
1.320810 -1.543156 -0.571222 46.000000
1.297375 -1.551031 -0.566721 31.000000
1.289990 -1.576633 -0.568768 11.000000
1.261168 -1.575853 -0.561407 29.000000
1.249458 -1.598022 -0.562288 22.000000
1.235427 -1.615726 -0.561499 29.000000
1.211627 -1.622296 -0.556979 32.000000
1.191608 -1.631796 -0.553607 21.000000
1.178923 -1.653461 -0.554323 28.000000
1.161514 -1.666501 -0.552139 21.000000
1.167251 -1.715840 -0.561974 10.000000
1.135845 -1.708664 -0.553234 25.000000
1.124597 -1.733982 -0.555115 18.000000
1.111546 -1.754552 -0.555412 25.000000
1.089389 -1.763367 -0.552091 25.000000
1.075922 -1.783689 -0.552298 23.000000
1.051095 -1.787849 -0.547640 21.000000
1.038340 -1.812678 -0.549294 17.000000
1.040592 -1.862151 -0.558316 9.000000
0.631618 1.140344 -0.331160 7.000000
0.626776 1.103753 -0.323942 10.000000
0.675593 1.159126 -0.343799 10.000000
0.709938 1.189019 -0.356453 15.000000
0.730702 1.193025 -0.361515 24.000000
0.790266 1.258196 -0.385436 19.000000
0.826983 1.285968 -0.398327 21.000000
0.854518 1.296471 -0.406099 17.000000
0.914059 1.355074 -0.429256 10.000000
0.931815 1.348324 -0.432026 10.000000
0.999009 1.412913 -0.457988 10.000000
1.397354 1.886795 -0.626188 37.000000
1.464958 1.932060 -0.648948 28.000000
1.497092 1.930932 -0.656435 28.000000
1.509552 1.902061 -0.654615 31.000000
1.538708 1.896419 -0.660836 23.000000
1.544296 1.859868 -0.656293 28.000000
1.573308 1.853624 -0.662531 31.000000
1.600244 1.842527 -0.667090 29.000000
1.616499 1.821008 -0.668006 42.000000
1.632601 1.799330 -0.668837 29.000000
1.662356 1.790854 -0.674675 31.000000
1.688097 1.779201 -0.679433 36.000000
1.693556 1.746417 -0.676251 23.000000
1.716367 1.730110 -0.679366 33.000000
1.751962 1.727635 -0.688106 33.000000
1.773906 1.711250 -0.691484 32.000000
1.792969 1.690625 -0.693203 45.000000
1.821627 1.680178 -0.699229 33.000000
1.828984 1.650000 -0.697031 35.000000
1.857461 1.638844 -0.703001 54.000000
1.886697 1.626654 -0.708677 29.000000
1.896813 1.599194 -0.707831 27.000000
1.910268 1.574641 -0.708266 17.000000
1.919758 1.547000 -0.707238 16.000000
1.959079 1.543157 -0.717252 25.000000
1.964368 1.512191 -0.714760 18.000000
1.965312 1.478359 -0.710859 20.000000
1.977458 1.453250 -0.711108 24.000000
1.954126 1.402794 -0.698721 10.000000
1.052981 0.686703 -0.368398 50.000000
1.048077 0.667260 -0.365049 76.000000
1.043125 0.647734 -0.361484 70.000000
1.046054 0.633414 -0.360734 41.000000
1.032295 0.609360 -0.354271 66.000000
1.051246 0.605013 -0.359256 29.000000
1.074533 0.602422 -0.365524 81.000000
1.055727 0.576638 -0.357680 95.000000
1.070471 0.569111 -0.361070 52.000000
1.068022 0.552739 -0.358867 100.000000
1.069794 0.538406 -0.357971 87.000000
1.071214 0.524323 -0.357109 89.000000
1.076837 0.512278 -0.357717 95.000000
1.069268 0.494170 -0.353933 33.000000
1.083335 0.486078 -0.357378 60.000000
1.084130 0.471982 -0.356427 86.000000
1.089218 0.459771 -0.356917 53.000000
1.094155 0.447522 -0.357369 95.000000
1.094530 0.433435 -0.356373 94.000000
1.099185 0.421086 -0.356823 74.000000
1.103652 0.408811 -0.357311 83.000000
1.103577 0.394775 -0.356232 34.000000
1.076113 0.371476 -0.346490 95.000000
1.075534 0.357945 -0.345432 95.000000
1.074849 0.344335 -0.344299 98.000000
1.110512 0.342127 -0.354845 123.000000
2.049524 0.532592 -0.649467 16.000000
2.064481 0.511910 -0.653010 22.000000
2.055958 0.485528 -0.649147 18.000000
2.070410 0.464555 -0.652626 24.000000
2.061333 0.438335 -0.648620 17.000000
2.065976 0.415187 -0.648957 22.000000
2.051571 0.388550 -0.643537 24.000000
2.046231 0.363872 -0.640990 18.000000
2.064219 0.343324 -0.645745 20.000000
2.067828 0.320266 -0.646213 22.000000
2.061713 0.295785 -0.643595 21.000000
2.069509 0.273325 -0.645405 22.000000
2.062891 0.248975 -0.642650 21.000000
2.070228 0.226396 -0.644327 21.000000
2.067803 0.202711 -0.643048 23.000000
2.046069 0.177548 -0.635985 18.000000
2.071719 0.156448 -0.643446 18.000000
2.068546 0.132976 -0.642100 18.000000
2.069870 0.109798 -0.642232 24.000000
2.070930 0.086686 -0.642364 21.000000
2.076498 0.063654 -0.643911 23.000000
2.081871 0.040516 -0.645391 27.000000
2.058259 0.016967 -0.638056 34.000000
2.072652 -0.006093 -0.642497 82.000000
2.067744 -0.029203 -0.640884 91.000000
2.072056 -0.052449 -0.642364 95.000000
2.071393 -0.075627 -0.642232 95.000000
2.070467 -0.098805 -0.642033 98.000000
2.069274 -0.121917 -0.641901 75.000000
2.058288 -0.144426 -0.638745 26.000000
2.070856 -0.168594 -0.643114 95.000000
2.049973 -0.189930 -0.636872 82.000000
2.062056 -0.214364 -0.640974 81.000000
2.064285 -0.237957 -0.642252 95.000000
2.066370 -0.261656 -0.643462 68.000000
2.087038 -0.288007 -0.650505 30.000000
2.088534 -0.312063 -0.651575 28.000000
2.042637 -0.328503 -0.637911 9.000000
2.067190 -0.356232 -0.646349 20.000000
2.058539 -0.378478 -0.644409 20.000000
2.063709 -0.403302 -0.646881 20.000000
2.073250 -0.429305 -0.650886 27.000000
2.073120 -0.453512 -0.651881 22.000000
2.068039 -0.476682 -0.651339 23.000000
2.072046 -0.502036 -0.653729 24.000000
2.052633 -0.521642 -0.648655 9.000000
2.056129 -0.547015 -0.650905 21.000000
2.054624 -0.571315 -0.651823 19.000000
2.052888 -0.595650 -0.652671 22.000000
2.046408 -0.618431 -0.651784 19.000000
2.048713 -0.644218 -0.654015 19.000000
2.041519 -0.667238 -0.653399 18.000000
2.038719 -0.691589 -0.654030 15.000000
2.035680 -0.715836 -0.654589 9.000000
2.036758 -0.742028 -0.656800 19.000000
2.042106 -0.769695 -0.660176 14.000000
2.046926 -0.797871 -0.663679 19.000000
2.042542 -0.822562 -0.664282 17.000000
2.024646 -0.841838 -0.660486 13.000000
2.032952 -0.872031 -0.665267 17.000000
2.023435 -0.894801 -0.664280 14.000000
2.022283 -0.921401 -0.666094 9.000000
2.025239 -0.950090 -0.669332 18.000000
2.014835 -0.972679 -0.668191 11.000000
2.025676 -1.005780 -0.674193 21.000000
2.027317 -1.035221 -0.677464 22.000000
2.007522 -1.053381 -0.673384 14.000000
2.016927 -1.087418 -0.679408 22.000000
1.996722 -1.105166 -0.675186 11.000000
2.001196 -1.137231 -0.679687 9.000000
2.005466 -1.169086 -0.683948 11.000000
1.996658 -1.194147 -0.684103 10.000000
2.003859 -1.229262 -0.689885 15.000000
1.994388 -1.254396 -0.689944 16.000000
1.972833 -1.271224 -0.685492 10.000000
1.990851 -1.314620 -0.695342 18.000000
1.980343 -1.339758 -0.695221 13.000000
1.973495 -1.367493 -0.696564 9.000000
1.978050 -1.403591 -0.701988 13.000000
1.958829 -1.423037 -0.698983 10.000000
1.958640 -1.456500 -0.702903 15.000000
1.954144 -1.487246 -0.705338 13.000000
1.956810 -1.523923 -0.710508 10.000000
1.966517 -1.566861 -0.718391 18.000000
1.949439 -1.588887 -0.716555 11.000000
1.946899 -1.623073 -0.720186 9.000000
1.951172 -1.663510 -0.726434 11.000000
1.932467 -1.686039 -0.724726 10.000000
1.935715 -1.726813 -0.730828 13.000000
1.931190 -1.761419 -0.734180 12.000000
1.940304 -1.809230 -0.742895 14.000000
1.930411 -1.841566 -0.744995 18.000000
1.907097 -1.859675 -0.741457 11.000000
1.869953 -1.863932 -0.732495 10.000000
1.649972 -1.682504 -0.651915 9.000000
1.558496 -1.624267 -0.620591 9.000000
1.488239 -1.585340 -0.597402 15.000000
1.411796 -1.538519 -0.571907 21.000000
1.382454 -1.539820 -0.564725 29.000000
1.330997 -1.515199 -0.548395 42.000000
1.307744 -1.523247 -0.544121 32.000000
1.316331 -1.567227 -0.552709 24.000000
1.298797 -1.582430 -0.550962 30.000000
1.279017 -1.592963 -0.547662 23.000000
1.264184 -1.611479 -0.547209 29.000000
1.241222 -1.617787 -0.542632 24.000000
1.234721 -1.647552 -0.545890 27.000000
1.214508 -1.657238 -0.542599 30.000000
1.193212 -1.667248 -0.539446 21.000000
1.183932 -1.692272 -0.541113 24.000000
1.173222 -1.717940 -0.543011 26.000000
1.152427 -1.726775 -0.539588 21.000000
1.141106 -1.752231 -0.541384 29.000000
1.114918 -1.752566 -0.535399 17.000000
1.097899 -1.769577 -0.534613 23.000000
1.075708 -1.778095 -0.531340 21.000000
1.066973 -1.806567 -0.534048 18.000000
1.051657 -1.827324 -0.534391 17.000000
1.037288 -1.847328 -0.534514 6.000000
0.641609 1.154722 -0.323274 6.000000
0.647216 1.134515 -0.320940 10.000000
0.684260 1.168772 -0.334148 25.000000
0.708873 1.182004 -0.341566 23.000000
0.744839 1.210878 -0.353732 22.000000
0.796224 1.264174 -0.373345 30.000000
0.831274 1.287463 -0.384440 23.000000
0.872255 1.318157 -0.397999 25.000000
0.924084 1.364648 -0.416751 19.000000
0.947416 1.365855 -0.421894 10.000000
1.012228 1.426406 -0.445742 27.000000
1.435655 1.931851 -0.617989 35.000000
1.471699 1.934358 -0.626274 53.000000
1.489025 1.914221 -0.627320 33.000000
1.510201 1.896868 -0.629308 32.000000
1.539316 1.891307 -0.635306 33.000000
1.550947 1.862237 -0.633436 31.000000
1.570594 1.844961 -0.635653 36.000000
1.594257 1.830336 -0.638760 36.000000
1.607208 1.805344 -0.638351 34.000000
1.640215 1.801022 -0.645304 70.000000
1.665872 1.789716 -0.649949 37.000000
1.682383 1.766914 -0.650437 43.000000
1.704553 1.751574 -0.653733 36.000000
1.716350 1.725656 -0.653148 32.000000
1.749273 1.719275 -0.660037 67.000000
1.771046 1.703009 -0.663278 68.000000
1.792813 1.686433 -0.666527 46.000000
1.804386 1.659124 -0.665541 67.000000
1.832897 1.648493 -0.671264 63.000000
1.857840 1.634279 -0.675770 60.000000
1.886341 1.622814 -0.681533 60.000000
1.900681 1.597823 -0.681705 29.000000
1.914088 1.573388 -0.682107 36.000000
1.938543 1.557858 -0.686494 35.000000
1.962892 1.542002 -0.690814 25.000000
1.975670 1.516936 -0.691137 25.000000
1.991999 1.494611 -0.692794 25.000000
1.996518 1.463585 -0.690264 24.000000
2.008446 1.438194 -0.690487 22.000000
1.909531 1.335549 -0.652856 12.000000
1.063391 0.658569 -0.354239 95.000000
1.066415 0.644022 -0.353509 88.000000
1.069265 0.629528 -0.352774 70.000000
1.067578 0.612852 -0.350781 48.000000
1.086807 0.607822 -0.355485 67.000000
1.089225 0.593192 -0.354663 98.000000
1.074293 0.569806 -0.348446 95.000000
1.101822 0.568666 -0.355884 85.000000
1.086414 0.545562 -0.349604 95.000000
1.088042 0.531139 -0.348684 95.000000
1.093694 0.518989 -0.349299 98.000000
1.094908 0.504750 -0.348449 95.000000
1.100308 0.492494 -0.348986 34.000000
1.101151 0.478249 -0.348091 87.000000
1.106300 0.465889 -0.348587 81.000000
1.106852 0.451677 -0.347649 95.000000
1.102749 0.435725 -0.345309 88.000000
1.107460 0.423325 -0.345723 95.000000
1.107481 0.409224 -0.344736 65.000000
1.120874 0.400101 -0.347993 95.000000
1.075280 0.370312 -0.332920 35.000000
1.083776 0.359818 -0.334724 98.000000
1.984459 0.561908 -0.607115 31.000000
2.027394 0.549839 -0.619146 24.000000
2.061129 0.534337 -0.628101 9.000000
2.080716 0.514825 -0.632959 21.000000
2.081506 0.490467 -0.632087 24.000000
2.081999 0.466145 -0.631145 21.000000
2.082266 0.441859 -0.630134 20.000000
2.096410 0.420439 -0.633380 24.000000
2.091345 0.395248 -0.631014 22.000000
2.104985 0.373618 -0.634265 22.000000
2.061646 0.342222 -0.620377 10.000000
2.088923 0.322796 -0.627827 24.000000
2.097032 0.300193 -0.629588 23.000000
2.090698 0.275470 -0.626941 24.000000
2.093518 0.252173 -0.627277 22.000000
2.091372 0.228222 -0.626052 20.000000
2.088948 0.204444 -0.624893 23.000000
2.091086 0.181052 -0.625027 21.000000
2.092891 0.157727 -0.625161 9.000000
2.099277 0.134642 -0.626722 19.000000
2.100616 0.111197 -0.626789 24.000000
2.111263 0.088152 -0.629846 25.000000
2.107281 0.064453 -0.628485 31.000000
2.112676 0.041048 -0.629913 50.000000
2.093847 0.017270 -0.624267 73.000000
2.093914 -0.006068 -0.624200 83.000000
2.098505 -0.029540 -0.625562 95.000000
2.098104 -0.052932 -0.625495 95.000000
2.092580 -0.076216 -0.624000 84.000000
2.096433 -0.099782 -0.625227 95.000000
2.085663 -0.122612 -0.622239 86.000000
2.103388 -0.147235 -0.627747 81.000000
2.082536 -0.169115 -0.621907 37.000000
2.090151 -0.193282 -0.624559 95.000000
2.087945 -0.216541 -0.624292 81.000000
2.090167 -0.240413 -0.625516 78.000000
2.087487 -0.263724 -0.625114 86.000000
2.079725 -0.286382 -0.623423 82.000000
2.109703 -0.314520 -0.632979 32.000000
2.110905 -0.338774 -0.634129 21.000000
2.069299 -0.355822 -0.622354 10.000000
2.084217 -0.382407 -0.627565 21.000000
2.094086 -0.408360 -0.631349 24.000000
2.089536 -0.431718 -0.630874 23.000000
2.089400 -0.456031 -0.631815 25.000000
2.079690 -0.478299 -0.629923 20.000000
2.088379 -0.504834 -0.633555 20.000000
2.096789 -0.531612 -0.637178 16.000000
2.067691 -0.548857 -0.629569 13.000000
2.089369 -0.579553 -0.637280 21.000000
2.078346 -0.601531 -0.635251 21.000000
2.090114 -0.630193 -0.640191 18.000000
2.074015 -0.650579 -0.636616 18.000000
2.066757 -0.673873 -0.636064 17.000000
2.072999 -0.701437 -0.639441 18.000000
2.074264 -0.727855 -0.641547 15.000000
2.057344 -0.747638 -0.637841 10.000000
2.085012 -0.784119 -0.648252 20.000000
2.071900 -0.805743 -0.646007 21.000000
2.076365 -0.834215 -0.649340 21.000000
2.058320 -0.853716 -0.645632 18.000000
2.053320 -0.878616 -0.646030 18.000000
2.056926 -0.907278 -0.649270 16.000000
2.055748 -0.934177 -0.650969 14.000000
2.041141 -0.955018 -0.648510 10.000000
2.056744 -0.990211 -0.655647 20.000000
2.050034 -1.015538 -0.656083 23.000000
2.038993 -1.038272 -0.654921 18.000000
2.044482 -1.070215 -0.659399 20.000000
2.041380 -1.097400 -0.660823 16.000000
2.037591 -1.124996 -0.662457 19.000000
2.046106 -1.159823 -0.668107 14.000000
2.033570 -1.182357 -0.666689 10.000000
2.037040 -1.215123 -0.670939 17.000000
2.019545 -1.235480 -0.668302 18.000000
2.018188 -1.265824 -0.671017 18.000000
2.020411 -1.298895 -0.675145 21.000000
2.002076 -1.318937 -0.672349 17.000000
2.007518 -1.354898 -0.677718 14.000000
2.032321 -1.404770 -0.689626 13.000000
1.989379 -1.408069 -0.678748 10.000000
1.993443 -1.444517 -0.683896 16.000000
2.000835 -1.484040 -0.690269 21.000000
1.992261 -1.512272 -0.691277 15.000000
1.998631 -1.552265 -0.697586 22.000000
1.993052 -1.583613 -0.699800 18.000000
1.975810 -1.605850 -0.698027 16.000000
2.006544 -1.667924 -0.713315 16.000000
1.965759 -1.672202 -0.703771 10.000000
1.983958 -1.725745 -0.715013 19.000000
1.965247 -1.747865 -0.713017 18.000000
1.960654 -1.782725 -0.716156 16.000000
1.951238 -1.815040 -0.718301 18.000000
1.966606 -1.869960 -0.729170 21.000000
1.956844 -1.901926 -0.730820 21.000000
1.860183 -1.849411 -0.700541 10.000000
1.687787 -1.714990 -0.640433 9.000000
1.605705 -1.667539 -0.614099 10.000000
1.514175 -1.608523 -0.584220 16.000000
1.431439 -1.554065 -0.556786 18.000000
1.388215 -1.541719 -0.545022 30.000000
1.333349 -1.513483 -0.527995 37.000000
1.316424 -1.528754 -0.526340 50.000000
1.290844 -1.532159 -0.520785 35.000000
1.289108 -1.565624 -0.525412 25.000000
1.278559 -1.587358 -0.525993 25.000000
1.260893 -1.602005 -0.524259 27.000000
1.246888 -1.619654 -0.523572 30.000000
1.225947 -1.630077 -0.520597 32.000000
1.208730 -1.643503 -0.518606 27.000000
1.187595 -1.653442 -0.515579 29.000000
1.167377 -1.662484 -0.512370 24.000000
1.159868 -1.691845 -0.515389 19.000000
1.142118 -1.704496 -0.513324 28.000000
1.120422 -1.713602 -0.510243 27.000000
1.114412 -1.746937 -0.514399 25.000000
1.101237 -1.767360 -0.514648 27.000000
1.084120 -1.784143 -0.513879 26.000000
1.063008 -1.791777 -0.510524 29.000000
1.050337 -1.816633 -0.512051 23.000000
1.032485 -1.832995 -0.511188 8.000000
0.676188 1.211128 -0.326418 6.000000
0.658086 1.148330 -0.312732 10.000000
0.689703 1.174628 -0.323297 12.000000
0.720259 1.195717 -0.332650 21.000000
0.758996 1.228678 -0.345509 20.000000
0.810754 1.281925 -0.364435 26.000000
0.848689 1.309206 -0.376319 21.000000
0.902651 1.360540 -0.395493 18.000000
0.950447 1.398298 -0.411052 23.000000
0.974226 1.399212 -0.416041 13.000000
1.376005 1.886980 -0.574241 34.000000
1.436449 1.926192 -0.593145 35.000000
1.469452 1.925006 -0.599918 32.000000
1.490695 1.907950 -0.601897 36.000000
1.510721 1.891504 -0.604029 33.000000
1.534653 1.877747 -0.607147 32.000000
1.548195 1.853290 -0.606846 35.000000
1.568712 1.835357 -0.608670 32.000000
1.588013 1.817955 -0.610722 61.000000
1.617838 1.810483 -0.616235 62.000000
1.633682 1.788864 -0.616989 35.000000
1.653519 1.770020 -0.618744 52.000000
1.682244 1.762142 -0.624452 37.000000
1.697590 1.739949 -0.625125 36.000000
1.727153 1.730621 -0.630556 36.000000
1.738580 1.704579 -0.629901 35.000000
1.757461 1.684470 -0.631513 53.000000
1.778950 1.668131 -0.634614 49.000000
1.803922 1.654831 -0.638908 45.000000
1.829501 1.640442 -0.642984 79.000000
1.854291 1.626356 -0.647305 37.000000
1.882654 1.615023 -0.652835 81.000000
1.896328 1.590781 -0.653281 36.000000
1.917723 1.571971 -0.655966 35.000000
1.930781 1.547422 -0.656328 54.000000
1.970243 1.543661 -0.665679 36.000000
1.967664 1.506844 -0.660819 38.000000
2.010937 1.504950 -0.671423 31.000000
2.015981 1.473232 -0.668812 20.000000
2.023978 1.444980 -0.667718 20.000000
1.972288 1.375245 -0.647120 16.000000
1.963165 1.336754 -0.640675 25.000000
1.905229 1.266584 -0.618538 36.000000
1.093680 0.642612 -0.346608 71.000000
