x y z intensity
2.320166 0.612158 -0.043286 31.000000
2.394546 0.604083 -0.044549 32.000000
2.410674 0.580418 -0.044729 36.000000
2.436295 0.558701 -0.045166 40.000000
2.466668 0.537549 -0.045618 35.000000
2.511536 0.518824 -0.046340 35.000000
2.512109 0.490625 -0.046250 13.000000
2.556598 0.470520 -0.046973 9.000000
2.576295 0.445303 -0.047244 10.000000
2.640224 0.426867 -0.048328 8.000000
2.679317 0.403423 -0.049043 8.000000
2.733047 0.381218 -0.049948 8.000000
2.766756 0.355306 -0.050490 8.000000
2.800292 0.328834 -0.051033 8.000000
2.888156 0.307362 -0.052572 8.000000
2.961018 0.282629 -0.053748 35.000000
2.998793 0.253344 -0.054380 24.000000
3.116035 0.229263 -0.056458 30.000000
3.153249 0.197596 -0.057090 35.000000
3.220079 0.166624 -0.058264 20.000000
3.281692 0.134135 -0.059348 27.000000
3.372837 0.101143 -0.060974 74.000000
3.418747 0.065336 -0.061683 82.000000
3.469259 0.028592 -0.062585 98.000000
3.454367 -0.009068 -0.062314 98.000000
3.429058 -0.046266 -0.061863 95.000000
3.373352 -0.082088 -0.060768 32.000000
3.367326 -0.118579 -0.060678 26.000000
3.330827 -0.153580 -0.060048 81.000000
3.314022 -0.188857 -0.059677 95.000000
3.296830 -0.223810 -0.059407 82.000000
3.259322 -0.256866 -0.058778 26.000000
3.241391 -0.290951 -0.058409 70.000000
3.223092 -0.324613 -0.058140 89.000000
3.174719 -0.354621 -0.057235 72.000000
3.165662 -0.388431 -0.057145 32.000000
3.141461 -0.420145 -0.056690 31.000000
3.107036 -0.449899 -0.056154 41.000000
3.111836 -0.485170 -0.056236 43.000000
3.047282 -0.509028 -0.055071 25.000000
3.061216 -0.545541 -0.055427 66.000000
3.055142 -0.578759 -0.055332 76.000000
3.029083 -0.607948 -0.054882 69.000000
2.997841 -0.635580 -0.054438 46.000000
2.932186 -0.654959 -0.053281 9.000000
2.924941 -0.686781 -0.053189 9.000000
2.917330 -0.718419 -0.053189 10.000000
2.914192 -0.751306 -0.053186 29.000000
2.886616 -0.777612 -0.052741 78.000000
2.868323 -0.806204 -0.052474 50.000000
2.955364 -0.865404 -0.054141 66.000000
3.151507 -0.960003 -0.057920 52.000000
3.240936 -1.025769 -0.059662 66.000000
3.262872 -1.071760 -0.060171 98.000000
3.293723 -1.121591 -0.060853 95.000000
3.229438 -1.138984 -0.059787 34.000000
3.230984 -1.179141 -0.059944 95.000000
3.204039 -1.208805 -0.059578 95.000000
3.176790 -1.237957 -0.059213 92.000000
3.144606 -1.264939 -0.058762 95.000000
3.135257 -1.300892 -0.058745 95.000000
3.097977 -1.325045 -0.058210 70.000000
3.097201 -1.364619 -0.058366 86.000000
3.068563 -1.391894 -0.058004 53.000000
3.053240 -1.425113 -0.057901 98.000000
3.033101 -1.456065 -0.057713 98.000000
3.003632 -1.482289 -0.057353 98.000000
2.991835 -1.517060 -0.057336 98.000000
2.961844 -1.542589 -0.056876 95.000000
2.931698 -1.567523 -0.056519 75.000000
2.936464 -1.611410 -0.056842 52.000000
2.918777 -1.643205 -0.056740 29.000000
2.918000 -1.684897 -0.056976 35.000000
2.912393 -1.724110 -0.057023 35.000000
2.889215 -1.753127 -0.056835 33.000000
2.882766 -1.792404 -0.056984 34.000000
2.888380 -1.839809 -0.057278 44.000000
2.897412 -1.890181 -0.057758 37.000000
2.876716 -1.921647 -0.057653 28.000000
2.863851 -1.958547 -0.057607 16.000000
2.846450 -1.992441 -0.057584 22.000000
2.848989 -2.040768 -0.057975 19.000000
2.818462 -2.065770 -0.057596 12.000000
2.799850 -2.099380 -0.057571 10.000000
2.816447 -2.160248 -0.058177 10.000000
2.816431 -2.209313 -0.058560 9.000000
2.854572 -2.289845 -0.059645 9.000000
2.829441 -2.320897 -0.059533 8.000000
2.826958 -2.370888 -0.059796 9.000000
2.812331 -2.411280 -0.059926 9.000000
2.800912 -2.454876 -0.060022 10.000000
2.788978 -2.498686 -0.060230 9.000000
2.706244 -2.478213 -0.058800 9.000000
2.540438 -2.377738 -0.055543 13.000000
2.424102 -2.318849 -0.053446 10.000000
2.277166 -2.226234 -0.050543 9.000000
2.185575 -2.183784 -0.048847 13.000000
2.084763 -2.128870 -0.047017 18.000000
1.992305 -2.079228 -0.045264 17.000000
1.918336 -2.046054 -0.043914 18.000000
1.865577 -2.033613 -0.043041 22.000000
1.766535 -1.968171 -0.041167 21.000000
1.715375 -1.953412 -0.040308 23.000000
1.687515 -1.964394 -0.039995 23.000000
1.627499 -1.936645 -0.038914 28.000000
1.603245 -1.950310 -0.038683 31.000000
1.582055 -1.967570 -0.038528 35.000000
1.560633 -1.984600 -0.038451 29.000000
1.542028 -2.005362 -0.038373 28.000000
1.547216 -2.057925 -0.038898 32.000000
1.527859 -2.078613 -0.038817 25.000000
1.508180 -2.099129 -0.038734 23.000000
1.488175 -2.119393 -0.038651 27.000000
1.467924 -2.139560 -0.038567 27.000000
1.455855 -2.171931 -0.038705 27.000000
1.443187 -2.204304 -0.038840 27.000000
1.424610 -2.228248 -0.038826 24.000000
1.408335 -2.256308 -0.038884 27.000000
1.388941 -2.280027 -0.038867 19.000000
1.346208 -2.264855 -0.038197 9.000000
0.864759 1.475115 -0.011950 7.000000
0.862701 1.435670 -0.011706 15.000000
0.872997 1.417699 -0.011636 18.000000
0.893677 1.416604 -0.011757 18.000000
0.903535 1.398441 -0.011687 26.000000
0.924143 1.396873 -0.011757 13.000000
0.944881 1.395082 -0.011879 22.000000
0.957100 1.380637 -0.011843 25.000000
0.980698 1.382412 -0.011949 21.000000
0.977974 1.347426 -0.011788 21.000000
0.995538 1.340719 -0.011824 20.000000
1.010012 1.329864 -0.011824 21.000000
1.027451 1.322753 -0.011910 25.000000
1.044873 1.315474 -0.011946 16.000000
1.055923 1.300159 -0.011910 26.000000
1.085898 1.307840 -0.012088 24.000000
1.103297 1.299823 -0.012176 22.000000
1.104239 1.272646 -0.012033 26.000000
1.121337 1.264302 -0.012068 19.000000
1.124931 1.240915 -0.011961 27.000000
1.155365 1.246985 -0.012192 25.000000
1.172292 1.237957 -0.012228 24.000000
1.196095 1.235883 -0.012335 32.000000
1.212996 1.226367 -0.012371 27.000000
1.233424 1.220134 -0.012496 22.000000
1.235830 1.196200 -0.012388 26.000000
1.256056 1.189533 -0.012460 22.000000
1.272605 1.179152 -0.012496 34.000000
1.281661 1.161869 -0.012460 30.000000
1.312983 1.164412 -0.012693 30.000000
1.333122 1.156611 -0.012766 36.000000
1.357109 1.151720 -0.012874 31.000000
1.369548 1.136836 -0.012874 28.000000
1.381879 1.121843 -0.012874 25.000000
1.401879 1.112905 -0.012946 22.000000
1.429695 1.109818 -0.013146 30.000000
1.441736 1.094186 -0.013146 29.000000
1.465603 1.087325 -0.013255 26.000000
1.485449 1.077155 -0.013328 35.000000
1.501177 1.063806 -0.013364 29.000000
1.516798 1.050256 -0.013401 29.000000
1.532313 1.036447 -0.013437 28.000000
1.551835 1.025191 -0.013510 24.000000
1.575508 1.016407 -0.013618 29.000000
1.590725 1.001848 -0.013712 31.000000
1.601511 0.984464 -0.013712 28.000000
1.620700 0.972109 -0.013785 34.000000
1.674351 0.979650 -0.014150 33.000000
1.680606 0.958938 -0.014113 26.000000
1.695250 0.943003 -0.014150 29.000000
1.723015 0.934062 -0.014296 29.000000
1.741906 0.919951 -0.014369 30.000000
1.760718 0.905526 -0.014442 32.000000
1.792801 0.897563 -0.014624 26.000000
1.820386 0.886741 -0.014770 33.000000
1.838940 0.871247 -0.014843 32.000000
1.884648 0.867918 -0.015134 26.000000
1.884829 0.843318 -0.015061 29.000000
1.912247 0.830806 -0.015207 28.000000
1.934976 0.815826 -0.015317 29.000000
1.971459 0.806095 -0.015536 30.000000
2.012641 0.797604 -0.015791 28.000000
2.035168 0.781109 -0.015900 30.000000
2.057544 0.764177 -0.016010 32.000000
2.070422 0.743494 -0.016046 21.000000
2.111477 0.732473 -0.016301 35.000000
2.133476 0.714249 -0.016411 27.000000
2.150614 0.694180 -0.016484 29.000000
2.186710 0.679704 -0.016703 33.000000
2.237020 0.668833 -0.017031 30.000000
2.268173 0.651434 -0.017213 33.000000
2.294440 0.632115 -0.017359 31.000000
2.315625 0.611029 -0.017468 13.000000
2.380304 0.600489 -0.017906 31.000000
2.396394 0.576982 -0.017904 27.000000
2.426853 0.556542 -0.018085 29.000000
2.452321 0.534432 -0.018231 31.000000
2.487368 0.513845 -0.018448 28.000000
2.473165 0.483036 -0.018303 9.000000
2.537247 0.466979 -0.018739 8.000000
2.556987 0.441977 -0.018848 7.000000
2.650421 0.428545 -0.019502 20.000000
2.704368 0.407229 -0.019781 8.000000
2.693769 0.375776 -0.019673 7.000000
2.782058 0.357302 -0.020288 8.000000
2.830431 0.332332 -0.020613 7.000000
2.868712 0.305246 -0.020866 8.000000
2.931519 0.279779 -0.021300 30.000000
2.989197 0.252594 -0.021606 9.000000
3.071540 0.225962 -0.022183 30.000000
3.148645 0.197284 -0.022723 32.000000
3.200598 0.165688 -0.023083 28.000000
3.277097 0.133931 -0.023523 27.000000
3.343367 0.100244 -0.023989 31.000000
3.409271 0.065145 -0.024455 48.000000
3.459789 0.028615 -0.024814 95.000000
3.429895 -0.008897 -0.024494 66.000000
3.394586 -0.045691 -0.024244 35.000000
3.358872 -0.081724 -0.023994 9.000000
3.332761 -0.117348 -0.023816 10.000000
3.316352 -0.152889 -0.023607 95.000000
3.284578 -0.187151 -0.023394 49.000000
3.262316 -0.221440 -0.023252 57.000000
3.214863 -0.253331 -0.022833 26.000000
3.167190 -0.284247 -0.022515 16.000000
3.158916 -0.318101 -0.022479 14.000000
3.145296 -0.351291 -0.022312 9.000000
3.106597 -0.381220 -0.022065 10.000000
3.112211 -0.416169 -0.022136 85.000000
3.082774 -0.446412 -0.021864 34.000000
3.082676 -0.480549 -0.021899 49.000000
3.062454 -0.511593 -0.021794 35.000000
3.042001 -0.542127 -0.021595 32.000000
3.026047 -0.573270 -0.021525 57.000000
3.009852 -0.604106 -0.021455 36.000000
2.973760 -0.630488 -0.021152 31.000000
2.947283 -0.658321 -0.021013 9.000000
2.900971 -0.681158 -0.020644 8.000000
2.907987 -0.716120 -0.020748 8.000000
2.895194 -0.746405 -0.020622 37.000000
2.867671 -0.772501 -0.020484 32.000000
2.844710 -0.799531 -0.020381 47.000000
2.912648 -0.852853 -0.020840 36.000000
3.118430 -0.949905 -0.022385 35.000000
3.241455 -1.025977 -0.023242 48.000000
3.268042 -1.073530 -0.023516 69.000000
3.279949 -1.116968 -0.023581 61.000000
3.229856 -1.139193 -0.023309 49.000000
3.217313 -1.174103 -0.023204 59.000000
3.181067 -1.200085 -0.023035 86.000000
3.181865 -1.239980 -0.023032 69.000000
3.140381 -1.263177 -0.022830 83.000000
3.126435 -1.297266 -0.022726 95.000000
3.084597 -1.319250 -0.022525 36.000000
3.111340 -1.370770 -0.022723 86.000000
3.059766 -1.387969 -0.022456 43.000000
3.017406 -1.408401 -0.022154 60.000000
3.010974 -1.445451 -0.022220 88.000000
3.013008 -1.486919 -0.022251 37.000000
2.992245 -1.517265 -0.022218 35.000000
2.979990 -1.552031 -0.022148 34.000000
2.967378 -1.586586 -0.022079 28.000000
2.949920 -1.618831 -0.022079 22.000000
2.953939 -1.663032 -0.022139 23.000000
2.957277 -1.707604 -0.022303 21.000000
2.960134 -1.752334 -0.022361 30.000000
2.923720 -1.774083 -0.022231 21.000000
2.904307 -1.805812 -0.022126 19.000000
2.897128 -1.845390 -0.022119 13.000000
2.897835 -1.890498 -0.022280 10.000000
2.901978 -1.938522 -0.022366 9.000000
2.897185 -1.981338 -0.022387 8.000000
2.891825 -2.024191 -0.022515 9.000000
2.877762 -2.061471 -0.022471 9.000000
2.883304 -2.113383 -0.022693 8.000000
2.868175 -2.150694 -0.022647 8.000000
2.884216 -2.212194 -0.022852 8.000000
2.887459 -2.265078 -0.023072 8.000000
2.909395 -2.333982 -0.023335 8.000000
2.906977 -2.384539 -0.023408 8.000000
2.884646 -2.419307 -0.023439 8.000000
2.865811 -2.457068 -0.023386 9.000000
2.831333 -2.481582 -0.023210 8.000000
2.818998 -2.525605 -0.023217 7.000000
2.717643 -2.488679 -0.022604 8.000000
2.577154 -2.412224 -0.021545 9.000000
2.478502 -2.371000 -0.020830 9.000000
2.305962 -2.254488 -0.019585 9.000000
2.192932 -2.191135 -0.018732 9.000000
2.098938 -2.143341 -0.018036 10.000000
1.995940 -2.083014 -0.017256 9.000000
1.939026 -2.068110 -0.016957 10.000000
1.858986 -2.026497 -0.016365 12.000000
1.780055 -1.983297 -0.015778 10.000000
1.738627 -1.979949 -0.015520 10.000000
1.664867 -1.938004 -0.015049 15.000000
1.640520 -1.952188 -0.014941 17.000000
1.603400 -1.950541 -0.014718 27.000000
1.572733 -1.956112 -0.014554 24.000000
1.545258 -1.965179 -0.014420 22.000000
1.529991 -1.989739 -0.014477 23.000000
1.538359 -2.046172 -0.014687 21.000000
1.516094 -2.062734 -0.014609 21.000000
1.490754 -2.075002 -0.014503 17.000000
1.479713 -2.107354 -0.014538 18.000000
1.459596 -2.127429 -0.014487 23.000000
1.442015 -2.151404 -0.014543 16.000000
1.429574 -2.183629 -0.014576 21.000000
1.413918 -2.211639 -0.014580 21.000000
1.400475 -2.243827 -0.014610 17.000000
1.386421 -2.275920 -0.014639 20.000000
1.366725 -2.299481 -0.014613 7.000000
0.847059 1.444974 0.003425 6.000000
0.857550 1.427150 0.003455 12.000000
0.883483 1.434780 0.003497 19.000000
0.890959 1.412426 0.003517 24.000000
0.908961 1.406892 0.003578 18.000000
0.932419 1.409433 0.003662 25.000000
0.939274 1.386854 0.003680 25.000000
0.959948 1.384798 0.003754 20.000000
0.974912 1.374308 0.003805 27.000000
0.972100 1.339384 0.003737 10.000000
0.995538 1.340770 0.003822 24.000000
1.013036 1.333897 0.003885 22.000000
1.030518 1.326753 0.003948 19.000000
1.051041 1.323355 0.004023 29.000000
1.071683 1.319617 0.004047 21.000000
1.089092 1.311738 0.004111 24.000000
1.100061 1.296063 0.004150 26.000000
1.100962 1.268921 0.004153 10.000000
1.127972 1.271835 0.004254 29.000000
1.145079 1.263192 0.004267 30.000000
1.162161 1.254372 0.004331 24.000000
1.182605 1.248900 0.004409 31.000000
1.192618 1.232342 0.004449 26.000000
1.216512 1.229975 0.004488 35.000000
1.236978 1.223703 0.004567 36.000000
1.243015 1.203207 0.004593 17.000000
1.252425 1.186148 0.004580 37.000000
1.283607 1.189400 0.004700 37.000000
1.300182 1.178712 0.004767 34.000000
1.324205 1.174418 0.004861 50.000000
1.336899 1.159942 0.004861 37.000000
1.353297 1.148539 0.004929 37.000000
1.369548 1.136890 0.004998 35.000000
1.385761 1.125049 0.005012 17.000000
1.409711 1.119177 0.005109 33.000000
1.433644 1.112939 0.005207 33.000000
1.445719 1.097264 0.005207 35.000000
1.465603 1.087381 0.005291 35.000000
1.477410 1.071341 0.005347 32.000000
1.493074 1.058080 0.005361 35.000000
1.504523 1.041717 0.005417 35.000000
1.524031 1.030901 0.005503 22.000000
1.560179 1.030760 0.005593 36.000000
1.579709 1.019117 0.005680 35.000000
1.586494 0.999184 0.005665 33.000000
1.605828 0.987140 0.005753 52.000000
1.629333 0.977310 0.005856 41.000000
1.665779 0.974659 0.005949 51.000000
1.684949 0.961475 0.006039 37.000000
1.690940 0.940632 0.006023 20.000000
1.723015 0.934122 0.006161 54.000000
1.759591 0.929351 0.006255 60.000000
1.782950 0.917021 0.006364 35.000000
1.810684 0.906516 0.006489 37.000000
1.829438 0.891182 0.006521 38.000000
1.843521 0.873387 0.006599 40.000000
1.866546 0.859616 0.006648 51.000000
1.894020 0.847465 0.006776 23.000000
1.912247 0.830869 0.006808 48.000000
1.939583 0.817833 0.006938 42.000000
1.976087 0.808053 0.007037 34.000000
1.998697 0.792078 0.007152 39.000000
2.039836 0.782901 0.007268 34.000000
2.076360 0.771208 0.007436 33.000000
2.094018 0.752010 0.007469 34.000000
2.097306 0.727557 0.007520 15.000000
2.138286 0.715905 0.007639 53.000000
2.164957 0.698788 0.007776 48.000000
2.191484 0.681258 0.007844 35.000000
2.227510 0.666039 0.008018 57.000000
2.263439 0.650126 0.008121 37.000000
2.284799 0.629459 0.008173 35.000000
2.330201 0.614856 0.008384 52.000000
2.346443 0.592002 0.008419 16.000000
2.406191 0.579398 0.008686 42.000000
2.436676 0.558853 0.008774 63.000000
2.452397 0.534509 0.008885 47.000000
2.492264 0.514934 0.009009 58.000000
2.483057 0.484953 0.008956 9.000000
2.532408 0.466153 0.009194 8.000000
2.591475 0.448018 0.009391 16.000000
2.685054 0.434214 0.009712 29.000000
2.704452 0.407229 0.009849 36.000000
2.743372 0.382684 0.009975 11.000000
2.787018 0.358025 0.010205 8.000000
2.835483 0.332915 0.010368 8.000000
2.883627 0.306921 0.010532 9.000000
2.946541 0.281294 0.010840 36.000000
3.029145 0.255962 0.011133 62.000000
3.111526 0.228896 0.011426 32.000000
3.158722 0.197909 0.011591 68.000000
3.205592 0.165947 0.011853 66.000000
3.247223 0.132706 0.012001 14.000000
3.363460 0.100946 0.012426 25.000000
3.394275 0.064962 0.012640 64.000000
3.424791 0.028326 0.012752 95.000000
3.409896 -0.008846 0.012696 95.000000
3.344592 -0.045018 0.012454 25.000000
3.303991 -0.080386 0.012406 15.000000
3.262908 -0.114885 0.012256 21.000000
3.271502 -0.150817 0.012293 16.000000
3.249636 -0.185160 0.012218 13.000000
3.202555 -0.217376 0.012147 8.000000
3.155148 -0.248618 0.011977 8.000000
3.127351 -0.280672 0.011882 10.000000
3.114144 -0.313592 0.011844 9.000000
3.085764 -0.344631 0.011750 9.000000
3.096672 -0.379907 0.011807 20.000000
3.087432 -0.412855 0.011883 48.000000
3.092670 -0.447845 0.011921 95.000000
3.067855 -0.478239 0.011845 51.000000
3.037890 -0.507474 0.011749 31.000000
3.027235 -0.539495 0.011730 91.000000
3.001578 -0.568617 0.011654 57.000000
2.965826 -0.595251 0.011539 81.000000
2.934723 -0.622192 0.011536 61.000000
2.883848 -0.644152 0.011363 10.000000
2.876724 -0.675444 0.011363 10.000000
2.849820 -0.701774 0.011286 10.000000
2.895285 -0.746405 0.011497 29.000000
2.858015 -0.769990 0.011382 78.000000
2.835084 -0.796825 0.011324 62.000000
2.874260 -0.841613 0.011516 81.000000
3.027555 -0.922224 0.012170 34.000000
3.189020 -1.009380 0.012862 48.000000
3.239645 -1.064168 0.013112 100.000000
3.223153 -1.097626 0.013093 79.000000
3.196954 -1.127552 0.013035 54.000000
3.198630 -1.167247 0.013197 95.000000
3.157677 -1.191261 0.013081 62.000000
3.153913 -1.229087 0.013119 98.000000
3.121826 -1.255816 0.013042 72.000000
3.094211 -1.283853 0.012984 62.000000
3.089297 -1.321318 0.013022 70.000000
3.061010 -1.348698 0.012964 33.000000
3.037101 -1.377642 0.012926 22.000000
3.040059 -1.418974 0.013003 59.000000
3.056048 -1.467090 0.013139 35.000000
3.062328 -1.511258 0.013131 71.000000
3.036839 -1.539877 0.013093 37.000000
3.042073 -1.584365 0.013189 42.000000
3.024697 -1.617338 0.013189 35.000000
3.011286 -1.652507 0.013208 23.000000
2.984437 -1.680307 0.013170 9.000000
2.996351 -1.730106 0.013304 16.000000
2.990252 -1.770269 0.013362 9.000000
3.000767 -1.820770 0.013497 10.000000
2.976490 -1.850693 0.013477 9.000000
2.994121 -1.907172 0.013651 9.000000
3.002525 -1.958796 0.013785 9.000000
3.001760 -2.005286 0.013881 8.000000
2.992218 -2.046253 0.013939 7.000000
2.973746 -2.081645 0.013847 9.000000
2.975314 -2.131351 0.013962 9.000000
2.968101 -2.175454 0.014038 9.000000
2.956180 -2.216684 0.014095 9.000000
2.967529 -2.276095 0.014267 8.000000
2.934780 -2.302109 0.014229 7.000000
2.929010 -2.349625 0.014324 5.000000
2.814313 -2.308547 0.013774 2.000000
2.919240 -2.448339 0.014418 3.000000
2.911360 -2.496238 0.014512 2.000000
2.853894 -2.501355 0.014361 2.000000
2.807826 -2.515711 0.014266 3.000000
2.739767 -2.508940 0.014058 7.000000
2.591756 -2.425891 0.013326 8.000000
2.438759 -2.332981 0.012669 9.000000
2.309537 -2.257984 0.012124 8.000000
2.224765 -2.222941 0.011805 13.000000
2.112931 -2.157722 0.011336 10.000000
2.040909 -2.130035 0.010983 18.000000
1.959545 -2.090083 0.010667 18.000000
1.869126 -2.037550 0.010294 13.000000
1.806773 -2.013065 0.010071 21.000000
1.722132 -1.961164 0.009638 16.000000
1.664867 -1.938082 0.009435 12.000000
1.646953 -1.959844 0.009453 33.000000
1.593874 -1.938954 0.009192 29.000000
1.585265 -1.971698 0.009265 33.000000
1.542167 -1.961249 0.009137 31.000000
1.545230 -2.009634 0.009283 27.000000
1.514323 -2.014277 0.009152 32.000000
1.519055 -2.066763 0.009315 26.000000
1.493672 -2.079062 0.009297 19.000000
1.479713 -2.107433 0.009273 29.000000
1.456767 -2.123306 0.009273 26.000000
1.453151 -2.168017 0.009399 28.000000
1.429574 -2.183708 0.009319 24.000000
1.411224 -2.207427 0.009355 25.000000
1.395180 -2.235343 0.009408 29.000000
1.368213 -2.246110 0.009310 20.000000
1.333515 -2.243606 0.009240 9.000000
0.852013 1.453549 0.018615 7.000000
0.854874 1.422763 0.018440 16.000000
0.875517 1.421906 0.018653 27.000000
0.890908 1.412324 0.018755 24.000000
0.906146 1.402590 0.018857 26.000000
0.921334 1.392703 0.018959 25.000000
0.939172 1.386752 0.019118 27.000000
0.954149 1.376477 0.019220 31.000000
0.974809 1.374205 0.019438 24.000000
0.977872 1.347376 0.019308 18.000000
0.995436 1.340719 0.019468 31.000000
1.012933 1.333845 0.019629 26.000000
1.027348 1.322753 0.019731 30.000000
1.044770 1.315422 0.019893 27.000000
1.065276 1.311803 0.020114 29.000000
1.085794 1.307840 0.020337 29.000000
1.096722 1.292148 0.020381 28.000000
1.100859 1.268818 0.020251 26.000000
1.124551 1.267991 0.020536 29.000000
1.148332 1.266844 0.020822 35.000000
1.162057 1.254268 0.020926 34.000000
1.182500 1.248848 0.021101 31.000000
1.192513 1.232290 0.021144 35.000000
1.216406 1.229869 0.021435 35.000000
1.236819 1.223597 0.021665 33.000000
1.242910 1.203102 0.021593 26.000000
1.255950 1.189533 0.021699 34.000000
1.272499 1.179152 0.021868 61.000000
1.300075 1.178659 0.022173 52.000000
1.320357 1.171047 0.022407 42.000000
1.333014 1.156558 0.022461 65.000000
1.353134 1.148431 0.022697 57.000000
1.361746 1.130449 0.022687 32.000000
1.374008 1.115541 0.022795 28.000000
1.417432 1.125340 0.023365 35.000000
1.433533 1.112884 0.023540 36.000000
1.441570 1.094186 0.023531 35.000000
1.461476 1.084346 0.023772 32.000000
1.473196 1.068350 0.023828 36.000000
1.480669 1.049352 0.023873 36.000000
1.508465 1.044507 0.024192 35.000000
1.528003 1.033646 0.024380 31.000000
1.551722 1.025191 0.024692 51.000000
1.575394 1.016350 0.024948 40.000000
1.586380 0.999126 0.025005 62.000000
1.605656 0.987025 0.025254 42.000000
1.629160 0.977252 0.025513 60.000000
1.665603 0.974600 0.025974 63.000000
1.671744 0.953982 0.025966 32.000000
1.695132 0.943003 0.026287 34.000000
1.714105 0.929297 0.026482 36.000000
1.746207 0.922285 0.026881 37.000000
1.787212 0.919246 0.027419 64.000000
1.806028 0.904216 0.027617 49.000000
1.824757 0.888930 0.027816 51.000000
1.838816 0.871185 0.027946 73.000000
1.857275 0.855370 0.028146 35.000000
1.884703 0.843318 0.028548 31.000000
1.912056 0.830806 0.028888 37.000000
1.925571 0.811942 0.029021 33.000000
1.962009 0.802311 0.029502 36.000000
2.003148 0.793920 0.030055 36.000000
2.039636 0.782834 0.030540 36.000000
2.062097 0.765918 0.030817 36.000000
2.089109 0.750253 0.031097 29.000000
2.106550 0.730834 0.031305 36.000000
2.133339 0.714249 0.031654 53.000000
2.150476 0.694180 0.031864 35.000000
2.181726 0.678220 0.032286 61.000000
2.208138 0.660240 0.032639 41.000000
2.263223 0.650054 0.033419 51.000000
2.284582 0.629459 0.033704 43.000000
2.305810 0.608478 0.033918 30.000000
2.346147 0.592002 0.034489 35.000000
2.391383 0.575812 0.035134 47.000000
2.421828 0.555424 0.035567 51.000000
2.442322 0.532303 0.035782 53.000000
2.477343 0.511899 0.036288 41.000000
2.463121 0.481119 0.036078 9.000000
2.542006 0.467963 0.037156 9.000000
2.601086 0.449641 0.038027 10.000000
2.679869 0.433416 0.039108 51.000000
2.699258 0.406484 0.039407 52.000000
2.748070 0.383375 0.040141 40.000000
2.771884 0.356113 0.040431 18.000000
2.800378 0.328920 0.040878 8.000000
2.858505 0.304276 0.041676 9.000000
2.951246 0.281769 0.043071 64.000000
2.964105 0.250489 0.043216 16.000000
3.076339 0.226423 0.044814 62.000000
3.138474 0.196658 0.045781 55.000000
3.190320 0.165171 0.046509 55.000000
3.246925 0.132706 0.047409 14.000000
3.328069 0.099896 0.048576 18.000000
3.383967 0.064770 0.049378 84.000000
3.409480 0.028202 0.049743 98.000000
3.394586 -0.008807 0.049628 36.000000
3.339286 -0.044951 0.048824 71.000000
3.318582 -0.080751 0.048531 61.000000
3.307576 -0.116468 0.048385 53.000000
3.221162 -0.148416 0.047143 9.000000
3.199425 -0.182316 0.046948 9.000000
3.192285 -0.216699 0.046875 9.000000
3.139906 -0.247440 0.046143 8.000000
3.087228 -0.277097 0.045410 9.000000
3.069089 -0.309084 0.045190 9.000000
3.055669 -0.341302 0.045044 9.000000
3.046765 -0.373819 0.044971 16.000000
3.077236 -0.411530 0.045483 61.000000
3.062697 -0.443452 0.045337 58.000000
3.067571 -0.478239 0.045483 69.000000
3.012859 -0.503262 0.044751 36.000000
2.967891 -0.528876 0.044165 49.000000
2.957090 -0.560150 0.044092 77.000000
2.970450 -0.596143 0.044292 71.000000
2.924667 -0.620027 0.043708 65.000000
2.883578 -0.644152 0.043196 14.000000
2.852118 -0.669640 0.042831 9.000000
2.830133 -0.696992 0.042611 9.000000
2.861123 -0.737578 0.043106 37.000000
2.843262 -0.765998 0.042960 62.000000
2.820375 -0.792677 0.042741 66.000000
2.840400 -0.831687 0.043179 66.000000
3.003353 -0.914843 0.045709 50.000000
3.174414 -1.004752 0.048474 70.000000
3.220334 -1.057823 0.049244 95.000000
3.213377 -1.094299 0.049317 95.000000
3.182499 -1.122459 0.049026 54.000000
3.170139 -1.156860 0.048923 81.000000
3.152690 -1.189394 0.048851 74.000000
3.125654 -1.218092 0.048531 35.000000
3.126156 -1.257579 0.048748 39.000000
3.126229 -1.297163 0.048862 41.000000
3.116569 -1.332909 0.048934 33.000000
3.133904 -1.380849 0.049335 48.000000
3.095984 -1.404388 0.048975 26.000000
3.112235 -1.452705 0.049374 53.000000
3.091794 -1.484296 0.049302 35.000000
3.075465 -1.517792 0.049197 27.000000
3.067739 -1.555601 0.049236 26.000000
3.055061 -1.591189 0.049307 23.000000
3.046427 -1.628915 0.049345 15.000000
3.072437 -1.686075 0.049952 10.000000
3.067002 -1.726699 0.050166 8.000000
3.060977 -1.767500 0.050272 9.000000
3.080277 -1.823541 0.050803 9.000000
3.051735 -1.851785 0.050661 9.000000
3.065327 -1.906024 0.051118 10.000000
3.048612 -1.941981 0.051079 9.000000
3.035694 -1.980431 0.051109 9.000000
3.047269 -2.035614 0.051561 9.000000
3.037280 -2.077187 0.051772 8.000000
3.018578 -2.112960 0.051730 8.000000
3.015733 -2.160355 0.051968 8.000000
3.004054 -2.201942 0.052065 6.000000
3.011954 -2.258448 0.052509 5.000000
2.967301 -2.275981 0.052046 4.000000
2.914770 -2.286566 0.051446 3.000000
2.944265 -2.362025 0.052303 2.000000
2.968594 -2.435156 0.053086 1.000000
2.869094 -2.406341 0.051658 2.000000
2.926191 -2.509021 0.053058 2.000000
2.785986 -2.441921 0.050880 2.000000
2.788978 -2.498800 0.051315 2.000000
2.743114 -2.512203 0.050859 7.000000
2.591539 -2.425674 0.048427 7.000000
2.456616 -2.350055 0.046277 10.000000
2.330789 -2.278856 0.044172 9.000000
2.249330 -2.247486 0.042991 16.000000
2.130236 -2.175398 0.041073 18.000000
2.033811 -2.122635 0.039567 18.000000
1.962790 -2.093555 0.038538 20.000000
1.882476 -2.052119 0.037226 20.000000
1.813287 -2.020342 0.036208 21.000000
1.738466 -1.979869 0.035060 21.000000
1.677742 -1.953096 0.034184 17.000000
1.633931 -1.944377 0.033564 32.000000
1.600071 -1.946525 0.033223 35.000000
1.569524 -1.952062 0.032872 34.000000
1.548195 -1.969033 0.032796 36.000000
1.520695 -1.977772 0.032589 32.000000
1.511164 -2.010127 0.032696 33.000000
1.512977 -2.058627 0.033138 31.000000
1.484764 -2.066725 0.032853 24.000000
1.473810 -2.099092 0.033033 33.000000
1.445297 -2.106658 0.032826 29.000000
1.430723 -2.134712 0.032862 32.000000
1.415723 -2.162634 0.032975 32.000000
1.405679 -2.198922 0.033135 29.000000
1.387078 -2.222458 0.033182 32.000000
1.373254 -2.254490 0.033274 28.000000
1.330881 -2.239149 0.032674 9.000000
0.856914 1.461968 0.034037 7.000000
0.857296 1.426896 0.033587 15.000000
0.870122 1.413239 0.033638 24.000000
0.888088 1.407943 0.033891 27.000000
0.905993 1.402437 0.034197 26.000000
0.921130 1.392499 0.034350 27.000000
0.933412 1.378320 0.034400 22.000000
0.953995 1.376324 0.034760 28.000000
0.971763 1.369973 0.035017 30.000000
0.971848 1.339132 0.034648 17.000000
0.995232 1.340515 0.035114 27.000000
1.012729 1.333641 0.035373 29.000000
1.021012 1.314653 0.035314 25.000000
1.041457 1.311354 0.035680 33.000000
1.071371 1.319357 0.036368 29.000000
1.076059 1.296094 0.036201 28.000000
1.093281 1.288181 0.036463 30.000000
1.097378 1.264889 0.036293 18.000000
1.124344 1.267836 0.036882 32.000000
1.141409 1.259228 0.037146 35.000000
1.158399 1.250444 0.037359 33.000000
1.175364 1.241378 0.037625 35.000000
1.188828 1.228488 0.037782 33.000000
1.216195 1.229711 0.038329 35.000000
1.236606 1.223438 0.038710 34.000000
1.235463 1.195990 0.038423 20.000000
1.252057 1.185885 0.038640 46.000000
1.268568 1.175595 0.038910 62.000000
1.292401 1.171730 0.039354 55.000000
1.316348 1.167515 0.039854 35.000000
1.328970 1.153120 0.039961 51.000000
1.345295 1.141799 0.040236 35.000000
1.361476 1.130233 0.040458 46.000000
1.369857 1.112174 0.040452 21.000000
1.409326 1.118958 0.041418 35.000000
1.425359 1.106587 0.041644 62.000000
1.441294 1.094020 0.041870 36.000000
1.453170 1.078223 0.041980 38.000000
1.464825 1.062314 0.042146 32.000000
1.488549 1.054967 0.042606 38.000000
1.504076 1.041494 0.042835 41.000000
1.523582 1.030676 0.043181 20.000000
1.551381 1.025021 0.043764 40.000000
1.562450 1.008049 0.043878 52.000000
1.581807 0.996348 0.044228 46.000000
1.596851 0.981674 0.044460 44.000000
1.616010 0.969364 0.044812 49.000000
1.647993 0.964326 0.045523 69.000000
1.654027 0.943896 0.045520 49.000000
1.686041 0.937965 0.046236 21.000000
1.713748 0.929118 0.046774 49.000000
1.745845 0.922105 0.047495 62.000000
1.782399 0.916776 0.048338 72.000000
1.801189 0.901855 0.048702 53.000000
1.819892 0.886617 0.049006 51.000000
1.829409 0.866780 0.049129 42.000000
1.856838 0.855245 0.049740 42.000000
1.884262 0.843192 0.050289 23.000000
1.907090 0.828686 0.050781 40.000000
1.939005 0.817640 0.051456 46.000000
1.961621 0.802181 0.051952 44.000000
1.984166 0.786356 0.052385 41.000000
2.029903 0.779118 0.053499 39.000000
2.061694 0.765784 0.054181 47.000000
2.083930 0.748428 0.054686 33.000000
2.082463 0.722641 0.054506 29.000000
2.132858 0.714317 0.055687 64.000000
2.145236 0.692644 0.055948 51.000000
2.171692 0.675252 0.056514 36.000000
2.212434 0.661672 0.057454 59.000000
2.224288 0.639013 0.057649 54.000000
2.274438 0.626803 0.058914 37.000000
2.310061 0.609753 0.059735 35.000000
2.340784 0.590779 0.060434 30.000000
2.390783 0.575812 0.061635 48.000000
2.421298 0.555424 0.062337 63.000000
2.441788 0.532303 0.062790 48.000000
2.471908 0.510810 0.063495 36.000000
2.477302 0.483994 0.063572 9.000000
2.521791 0.464264 0.064657 8.000000
2.585747 0.447166 0.066250 26.000000
2.679289 0.433416 0.068521 35.000000
2.703533 0.407229 0.069109 54.000000
2.737576 0.381993 0.069952 60.000000
2.776245 0.356750 0.070923 52.000000
2.824597 0.331749 0.072063 29.000000
2.862861 0.304805 0.073037 15.000000
2.930710 0.279868 0.074775 60.000000
2.983301 0.252173 0.076045 26.000000
3.055646 0.224955 0.077916 37.000000
3.127825 0.196129 0.079695 55.000000
3.174662 0.164396 0.080936 52.000000
3.231150 0.132192 0.082336 10.000000
3.297382 0.098996 0.083990 20.000000
3.368252 0.064483 0.085875 78.000000
3.393757 0.028078 0.086512 95.000000
3.388862 -0.008794 0.086385 92.000000
3.318582 -0.044681 0.084601 61.000000
3.307879 -0.080508 0.084447 68.000000
3.271902 -0.115237 0.083554 37.000000
3.225466 -0.148646 0.082406 9.000000
3.168799 -0.180609 0.081003 9.000000
3.176641 -0.215683 0.081258 8.000000
3.099370 -0.244297 0.079344 7.000000
3.076609 -0.276108 0.078834 9.000000
3.053511 -0.307581 0.078324 9.000000
3.040016 -0.339543 0.078069 9.000000
3.046109 -0.373819 0.078324 19.000000
3.066664 -0.410205 0.078867 81.000000
3.047196 -0.441302 0.078485 59.000000
3.052092 -0.475929 0.078740 57.000000
2.967837 -0.495849 0.076701 24.000000
2.972167 -0.529753 0.076864 81.000000
2.946533 -0.558289 0.076355 78.000000
2.930507 -0.588182 0.076009 62.000000
2.909359 -0.616917 0.075628 62.000000
2.868312 -0.640792 0.074648 16.000000
2.822296 -0.662784 0.073633 9.000000
2.819715 -0.694512 0.073671 9.000000
2.821771 -0.727594 0.073925 27.000000
2.828154 -0.762007 0.074216 77.000000
2.814938 -0.791325 0.074089 77.000000
2.839768 -0.831687 0.074885 89.000000
2.959651 -0.901732 0.078206 35.000000
3.102223 -0.982122 0.082150 32.000000
3.200615 -1.051582 0.085052 66.000000
3.193726 -1.087852 0.085075 37.000000
3.186491 -1.123813 0.085098 19.000000
3.206982 -1.170363 0.085875 36.000000
3.198840 -1.206832 0.085897 35.000000
3.180927 -1.239668 0.085667 35.000000
3.195099 -1.285252 0.086314 35.000000
3.190139 -1.323672 0.086459 35.000000
3.175589 -1.358255 0.086354 30.000000
3.151574 -1.388597 0.085999 23.000000
3.122673 -1.416466 0.085520 9.000000
3.138782 -1.465075 0.086287 15.000000
3.122709 -1.499124 0.086181 11.000000
3.106213 -1.532962 0.085969 12.000000
3.116147 -1.580152 0.086607 10.000000
3.116494 -1.623199 0.086995 11.000000
3.111911 -1.663952 0.087259 9.000000
3.102469 -1.702588 0.087290 8.000000
3.114269 -1.753351 0.088044 6.000000
3.142573 -1.814557 0.089288 9.000000
3.131346 -1.853769 0.089312 10.000000
3.123727 -1.895540 0.089568 10.000000
3.107225 -1.931977 0.089467 9.000000
3.094434 -1.971079 0.089600 8.000000
3.056073 -1.993755 0.088889 7.000000
3.092318 -2.065822 0.090480 6.000000
3.069726 -2.099312 0.090253 4.000000
3.112201 -2.178552 0.092078 6.000000
3.080069 -2.206477 0.091604 5.000000
3.023643 -2.216263 0.090408 4.000000
2.967275 -2.225117 0.089331 3.000000
2.958798 -2.269440 0.089585 2.000000
2.949600 -2.313881 0.089836 2.000000
2.955386 -2.370948 0.090563 1.000000
2.995060 -2.456879 0.092476 1.000000
2.937459 -2.463702 0.091287 2.000000
2.880183 -2.469506 0.090103 1.000000
2.871878 -2.517250 0.090464 1.000000
2.769793 -2.481665 0.087869 2.000000
2.750033 -2.518501 0.087877 6.000000
2.612893 -2.445736 0.084125 7.000000
2.463321 -2.356550 0.079922 9.000000
2.358984 -2.306415 0.077142 9.000000
2.241773 -2.240031 0.073910 12.000000
2.140356 -2.185741 0.071065 13.000000
2.071493 -2.161979 0.069373 17.000000
1.965771 -2.096851 0.066418 17.000000
1.899031 -2.070197 0.064745 20.000000
1.806278 -2.012570 0.062160 18.000000
1.734846 -1.975791 0.060196 14.000000
1.667656 -1.941406 0.058438 10.000000
1.636915 -1.947894 0.057940 26.000000
1.590241 -1.934632 0.056800 31.000000
1.572350 -1.955652 0.056760 39.000000
1.544876 -1.964722 0.056305 35.000000
1.514297 -1.969541 0.055815 32.000000
1.504926 -2.001829 0.056035 32.000000
1.489060 -2.026015 0.056105 30.000000
1.475782 -2.054235 0.056208 23.000000
1.459213 -2.078323 0.056276 33.000000
1.433751 -2.089859 0.055933 31.000000
1.419356 -2.117711 0.056030 28.000000
1.407273 -2.149771 0.056313 31.000000
1.381208 -2.160618 0.055968 30.000000
1.384191 -2.217898 0.056820 28.000000
1.365211 -2.241360 0.056797 26.000000
1.366399 -2.298991 0.057716 9.000000
0.859235 1.465970 0.049442 5.000000
0.849371 1.413739 0.048189 9.000000
0.880400 1.429958 0.049321 16.000000
0.885168 1.403411 0.048937 21.000000
0.908450 1.406329 0.049635 13.000000
0.923683 1.396361 0.049839 19.000000
0.930356 1.373877 0.049595 15.000000
0.953740 1.376017 0.050248 18.000000
0.968564 1.365589 0.050504 20.000000
0.983337 1.355008 0.050708 9.000000
0.991998 1.336197 0.050609 27.000000
1.003406 1.321394 0.050659 17.000000
1.023823 1.318295 0.051168 16.000000
1.041150 1.311047 0.051526 25.000000
1.055309 1.299648 0.051730 15.000000
1.085327 1.307373 0.052710 21.000000
1.089738 1.284062 0.052451 19.000000
1.133095 1.306106 0.054063 10.000000
1.117403 1.260048 0.052862 31.000000
1.131029 1.247809 0.053068 22.000000
1.154691 1.246466 0.053748 28.000000
1.168179 1.233807 0.053903 29.000000
1.191990 1.231819 0.054588 24.000000
1.208798 1.222288 0.054957 31.000000
1.229130 1.216089 0.055435 25.000000
1.249510 1.209578 0.055968 16.000000
1.251688 1.185569 0.055643 34.000000
1.264533 1.171882 0.055854 26.000000
1.288326 1.168107 0.056499 30.000000
1.312233 1.163930 0.057200 35.000000
1.328594 1.152852 0.057524 27.000000
1.341055 1.138296 0.057686 32.000000
1.364943 1.133155 0.058340 31.000000
1.373306 1.115055 0.058391 19.000000
1.397146 1.109306 0.059050 30.000000
1.412750 1.097500 0.059379 25.000000
1.436597 1.091108 0.060042 29.000000
1.452397 1.078333 0.060374 30.000000
1.464107 1.062425 0.060540 27.000000
1.479673 1.049241 0.060873 33.000000
1.499242 1.038760 0.061375 28.000000
1.514575 1.025131 0.061711 18.000000
1.550700 1.025134 0.062893 30.000000
1.557570 1.005452 0.062837 28.000000
1.576895 0.993741 0.063347 29.000000
1.600364 0.984349 0.064028 42.000000
1.615262 0.969422 0.064314 30.000000
1.651606 0.966909 0.065513 33.000000
1.675085 0.956342 0.066143 32.000000
1.694125 0.942885 0.066664 24.000000
1.695464 0.919648 0.066438 34.000000
1.731868 0.915161 0.067650 33.000000
1.759510 0.905405 0.068461 32.000000
1.796045 0.899617 0.069621 36.000000
1.810228 0.882239 0.069917 31.000000
1.828729 0.866780 0.070450 34.000000
1.851614 0.853154 0.071096 35.000000
1.874448 0.839108 0.071744 18.000000
1.897226 0.824639 0.072394 31.000000
1.919882 0.809808 0.073046 31.000000
1.947035 0.796506 0.073875 29.000000
1.983449 0.786356 0.075059 34.000000
2.024508 0.777327 0.076422 30.000000
2.051588 0.762236 0.077260 29.000000
2.087957 0.750049 0.078453 31.000000
2.081722 0.722641 0.078058 12.000000
2.117889 0.709487 0.079256 47.000000
2.144480 0.692576 0.080034 35.000000
2.170928 0.675252 0.080883 33.000000
2.197297 0.657305 0.081664 35.000000
2.247523 0.645842 0.083408 32.000000
2.264012 0.624075 0.083908 29.000000
2.299669 0.607130 0.085052 30.000000
2.301216 0.580921 0.084946 9.000000
2.380316 0.573396 0.087778 33.000000
2.396113 0.549761 0.088211 31.000000
2.431185 0.530174 0.089439 31.000000
2.441701 0.504741 0.089695 21.000000
2.466646 0.482077 0.090490 8.000000
2.516016 0.463359 0.092188 8.000000
2.589789 0.447938 0.094789 32.000000
2.633985 0.426232 0.096312 13.000000
2.677994 0.403506 0.097837 32.000000
2.721802 0.379921 0.099365 35.000000
2.760437 0.354839 0.100715 29.000000
2.813717 0.330583 0.102610 36.000000
2.846989 0.303217 0.103783 17.000000
2.894903 0.276542 0.105413 22.000000
2.972338 0.251331 0.108221 35.000000
3.064584 0.225689 0.111578 21.000000
3.101838 0.194565 0.112848 28.000000
3.173595 0.164396 0.115485 37.000000
3.250033 0.133009 0.118208 9.000000
3.286285 0.098696 0.119580 17.000000
3.362125 0.064388 0.122306 52.000000
3.377627 0.027953 0.122851 78.000000
3.357744 -0.008716 0.122227 89.000000
3.292486 -0.044345 0.119862 35.000000
3.281792 -0.079899 0.119498 43.000000
3.245834 -0.114258 0.118225 34.000000
3.179460 -0.146575 0.115861 8.000000
3.152767 -0.179659 0.114951 9.000000
3.135690 -0.212879 0.114406 8.000000
3.098326 -0.244203 0.113132 7.000000
3.070596 -0.275662 0.112223 9.000000
3.057452 -0.307988 0.111859 8.000000
3.029057 -0.338434 0.110857 9.000000
3.005404 -0.368856 0.110130 15.000000
3.021053 -0.404147 0.110857 30.000000
3.046162 -0.441208 0.111853 79.000000
3.001684 -0.468135 0.110400 31.000000
2.986540 -0.499051 0.109945 25.000000
2.956396 -0.527030 0.108946 82.000000
2.925889 -0.554476 0.108040 35.000000
2.914806 -0.585231 0.107767 36.000000
2.898494 -0.614752 0.107405 39.000000
2.833191 -0.633075 0.105143 10.000000
2.816458 -0.661464 0.104693 9.000000
2.804274 -0.690838 0.104424 9.000000
2.777247 -0.716274 0.103614 13.000000
2.831995 -0.763218 0.105871 70.000000
2.794715 -0.785825 0.104700 36.000000
2.795617 -0.818954 0.104971 51.000000
2.910815 -0.887072 0.109560 24.000000
3.091603 -0.979006 0.116657 24.000000
3.246954 -1.067080 0.122844 32.000000
3.249350 -1.107087 0.123173 28.000000
3.237190 -1.141995 0.123068 22.000000
3.238692 -1.182252 0.123500 25.000000
3.221066 -1.215548 0.123111 14.000000
3.198299 -1.246823 0.122649 13.000000
3.217120 -1.294473 0.123687 10.000000
3.212054 -1.333143 0.123937 10.000000
3.206587 -1.371908 0.124080 10.000000
3.191569 -1.406629 0.123973 9.000000
3.189670 -1.447438 0.124292 8.000000
3.201005 -1.494672 0.125140 9.000000
3.211633 -1.542389 0.126094 9.000000
3.185700 -1.572779 0.125523 9.000000
3.217360 -1.632146 0.127245 9.000000
3.199512 -1.667069 0.127024 8.000000
3.198849 -1.711200 0.127506 9.000000
3.153735 -1.731445 0.126343 6.000000
3.091191 -1.741090 0.124371 4.000000
3.197492 -1.847162 0.129226 8.000000
3.198691 -1.894625 0.129873 7.000000
3.177916 -1.929250 0.129532 6.000000
3.161043 -1.966402 0.129479 6.000000
3.147759 -2.006104 0.129599 6.000000
3.125760 -2.040298 0.129371 6.000000
3.128231 -2.090926 0.130180 4.000000
3.060003 -2.093894 0.127939 2.000000
3.041112 -2.129935 0.127885 3.000000
3.037951 -2.177596 0.128517 2.000000
2.997978 -2.198760 0.127489 1.000000
3.049741 -2.288325 0.130512 1.000000
3.040450 -2.333559 0.130845 1.000000
3.035179 -2.381048 0.131345 1.000000
3.067614 -2.460936 0.133656 1.000000
2.967270 -2.488689 0.130909 1.000000
2.909605 -2.494833 0.129207 1.000000
2.874820 -2.519845 0.128636 1.000000
2.843433 -2.547677 0.128118 2.000000
2.723439 -2.494193 0.123588 4.000000
2.666963 -2.496304 0.121915 6.000000
2.466308 -2.359381 0.113597 7.000000
2.351133 -2.298823 0.109138 7.000000
2.265937 -2.264177 0.106025 10.000000
2.157184 -2.203033 0.101773 9.000000
2.067396 -2.157822 0.098365 10.000000
1.972080 -2.103616 0.094558 11.000000
1.898431 -2.069682 0.091843 10.000000
1.825809 -2.034390 0.089141 13.000000
1.734365 -1.975229 0.085398 10.000000
1.670522 -1.944650 0.083053 9.000000
1.630018 -1.939776 0.081849 18.000000
1.589858 -1.934174 0.080575 24.000000
1.565628 -1.947403 0.080185 29.000000
1.535152 -1.952478 0.079400 30.000000
1.507825 -1.961087 0.078854 24.000000
1.492456 -1.985315 0.078870 26.000000
1.491636 -2.029581 0.079673 23.000000
1.469564 -2.045654 0.079442 11.000000
1.453082 -2.069600 0.079449 27.000000
1.436191 -2.093516 0.079453 19.000000
1.418967 -2.117244 0.079454 25.000000
1.390458 -2.124134 0.078832 22.000000
1.391662 -2.176992 0.079992 21.000000
1.378580 -2.208940 0.080293 25.000000
1.354492 -2.223726 0.079975 20.000000
1.315004 -2.212576 0.078740 9.000000
0.845423 1.444565 0.063794 7.000000
0.850784 1.418124 0.063335 20.000000
0.863521 1.404524 0.063446 26.000000
0.881340 1.399285 0.063891 22.000000
0.899200 1.393837 0.064388 26.000000
0.914246 1.383958 0.064641 24.000000
0.929241 1.373978 0.064945 28.000000
0.944084 1.363796 0.065198 28.000000
0.970378 1.369768 0.066292 24.000000
0.967603 1.334885 0.065359 25.000000
0.982004 1.324260 0.065611 24.000000
1.005362 1.325476 0.066462 30.000000
1.016679 1.310502 0.066566 30.000000
1.030813 1.299408 0.066819 25.000000
1.047993 1.291991 0.067275 30.000000
1.071533 1.292043 0.068137 32.000000
1.079068 1.272733 0.067986 25.000000
1.089557 1.257134 0.068037 26.000000
1.106487 1.248932 0.068496 29.000000
1.133406 1.251615 0.069574 35.000000
1.153705 1.246518 0.070193 37.000000
1.163812 1.230282 0.070246 30.000000
1.180579 1.221097 0.070712 45.000000
1.197319 1.211680 0.071128 32.000000
1.221080 1.209113 0.072017 33.000000
1.237791 1.199203 0.072437 31.000000
1.250793 1.185674 0.072700 35.000000
1.259976 1.168537 0.072699 44.000000
1.291123 1.171463 0.073969 53.000000
1.307587 1.160667 0.074448 35.000000
1.323909 1.149576 0.074875 46.000000
1.336388 1.135062 0.075089 35.000000
1.352495 1.123633 0.075518 36.000000
1.372441 1.115055 0.076163 27.000000
1.396274 1.109360 0.077026 27.000000
1.412203 1.097118 0.077460 34.000000
1.432013 1.087701 0.078113 35.000000
1.443823 1.071991 0.078278 34.000000
1.463499 1.062038 0.078933 36.000000
1.487212 1.054633 0.079810 32.000000
1.502735 1.041215 0.080197 32.000000
1.518097 1.027596 0.080640 32.000000
1.545909 1.021982 0.081688 30.000000
1.561144 1.007765 0.082136 33.000000
1.576212 0.993342 0.082527 35.000000
1.599503 0.984292 0.083420 35.000000
1.618682 0.971936 0.084037 36.000000
1.637799 0.959277 0.084714 34.000000
1.643841 0.938941 0.084664 30.000000
1.667053 0.928246 0.085509 34.000000
1.685801 0.914824 0.086133 35.000000
1.730970 0.915041 0.088107 34.000000
1.763044 0.907631 0.089412 37.000000
1.786194 0.895081 0.090271 34.000000
1.809306 0.882177 0.091071 39.000000
1.832315 0.868858 0.091935 44.000000
1.846206 0.850939 0.092348 32.000000
1.869011 0.836941 0.093216 31.000000
1.891698 0.822584 0.094024 32.000000
1.918928 0.809745 0.095126 32.000000
1.946136 0.796377 0.096167 35.000000
1.963901 0.778861 0.096817 30.000000
2.004799 0.770229 0.098550 33.000000
2.017748 0.750120 0.098977 35.000000
2.053972 0.738291 0.100488 27.000000
2.061907 0.715953 0.100621 34.000000
2.112130 0.707764 0.102830 36.000000
2.138695 0.690971 0.103889 35.000000
2.169956 0.675113 0.105183 37.000000
2.191462 0.655733 0.106016 52.000000
2.203250 0.633282 0.106387 36.000000
2.243677 0.618764 0.108152 35.000000
2.279264 0.601956 0.109689 26.000000
2.319571 0.585740 0.111462 31.000000
2.359772 0.568715 0.113239 35.000000
2.375515 0.545292 0.113779 35.000000
2.434924 0.531238 0.116496 38.000000
2.420995 0.500695 0.115638 13.000000
2.436085 0.476251 0.116257 8.000000
2.500108 0.460644 0.119142 9.000000
2.568900 0.444532 0.122344 16.000000
2.622902 0.424554 0.124769 41.000000
2.656999 0.400528 0.126258 59.000000
2.695811 0.376384 0.127984 34.000000
2.764116 0.355391 0.131122 81.000000
2.782658 0.327084 0.131912 34.000000
2.786082 0.296867 0.131998 14.000000
2.853796 0.272741 0.135144 9.000000
2.906366 0.245858 0.137588 9.000000
3.003499 0.221193 0.142156 35.000000
3.065522 0.192281 0.144985 42.000000
3.102312 0.160777 0.146730 34.000000
3.178779 0.130149 0.150366 9.000000
3.239850 0.097346 0.153199 24.000000
3.305656 0.063335 0.156267 81.000000
3.341121 0.027664 0.158022 95.000000
3.301268 -0.008573 0.156132 69.000000
3.280990 -0.044110 0.155187 82.000000
3.275295 -0.079678 0.154951 80.000000
3.239355 -0.114082 0.153298 37.000000
3.187980 -0.147036 0.150936 10.000000
3.176252 -0.181081 0.150463 9.000000
3.134250 -0.212879 0.148574 9.000000
3.072008 -0.242240 0.145739 9.000000
3.069183 -0.275567 0.145739 9.000000
3.041137 -0.306486 0.144465 9.000000
3.012771 -0.336677 0.143284 9.000000
3.018888 -0.370682 0.143664 19.000000
3.019656 -0.404054 0.143900 98.000000
3.000267 -0.434762 0.143099 68.000000
2.970685 -0.463423 0.141829 91.000000
2.965449 -0.495665 0.141829 69.000000
2.940270 -0.524400 0.140795 50.000000
2.949151 -0.559036 0.141410 95.000000
2.918432 -0.586124 0.140142 70.000000
2.892341 -0.613625 0.139111 48.000000
2.870854 -0.641702 0.138316 31.000000
2.839443 -0.667087 0.137053 25.000000
2.846595 -0.701505 0.137578 37.000000
2.777607 -0.748916 0.134824 60.000000
2.807809 -0.789705 0.136519 70.000000
2.779904 -0.814474 0.135495 37.000000
2.856961 -0.870867 0.139518 18.000000
3.009175 -0.953072 0.147354 24.000000
3.197942 -1.051274 0.156940 11.000000
3.290325 -1.121378 0.161957 10.000000
3.310974 -1.168699 0.163371 8.000000
3.340325 -1.219947 0.165245 8.000000
3.303490 -1.247412 0.163869 9.000000
3.331777 -1.299236 0.165737 8.000000
3.317465 -1.335289 0.165518 10.000000
3.330503 -1.382724 0.166685 10.000000
3.329075 -1.424755 0.167156 9.000000
3.331646 -1.468879 0.167856 10.000000
3.329161 -1.511224 0.168323 9.000000
3.303468 -1.543074 0.167641 10.000000
3.295541 -1.583267 0.167877 10.000000
3.296030 -1.627856 0.168457 9.000000
3.260358 -1.654640 0.167318 9.000000
3.224435 -1.680701 0.166182 8.000000
3.250033 -1.739259 0.168127 7.000000
3.160843 -1.736035 0.164151 6.000000
3.076511 -1.733626 0.160525 5.000000
3.031470 -1.752072 0.158842 2.000000
3.214177 -1.904697 0.169263 2.000000
3.163406 -1.921358 0.167340 1.000000
3.172403 -1.973521 0.168578 1.000000
3.117019 -1.986514 0.166437 1.000000
3.095227 -2.020389 0.166098 1.000000
3.172647 -2.120655 0.171135 1.000000
3.153570 -2.157866 0.171009 1.000000
3.154423 -2.209378 0.171997 1.000000
3.040755 -2.179593 0.166632 1.000000
2.992702 -2.194897 0.164957 1.000000
3.060447 -2.296387 0.169713 1.000000
2.920403 -2.241386 0.162951 1.000000
2.966499 -2.328615 0.166470 1.000000
2.886390 -2.317095 0.163044 1.000000
2.850475 -2.392353 0.163128 1.000000
2.737025 -2.348571 0.157651 1.000000
2.752665 -2.414439 0.159717 1.000000
2.815417 -2.524334 0.164485 1.000000
2.647758 -2.426691 0.155789 2.000000
2.672247 -2.503246 0.158375 7.000000
2.579896 -2.470031 0.154050 6.000000
2.374319 -2.323279 0.142871 9.000000
2.267611 -2.267807 0.137538 10.000000
2.151996 -2.199557 0.131592 10.000000
2.058845 -2.150697 0.126956 10.000000
1.956747 -2.089121 0.121707 16.000000
1.896801 -2.069768 0.119027 14.000000
1.827559 -2.038193 0.115644 10.000000
1.762489 -2.009107 0.112574 10.000000
1.678716 -1.956180 0.108261 9.000000
1.631683 -1.943680 0.106195 13.000000
1.591500 -1.938111 0.104634 24.000000
1.570359 -1.955269 0.104251 26.000000
1.549064 -1.972274 0.103868 28.000000
1.515368 -1.973124 0.102737 30.000000
1.496939 -1.993457 0.102562 23.000000
1.484108 -2.021681 0.102796 24.000000
1.467872 -2.045731 0.102821 17.000000
1.459989 -2.082026 0.103453 21.000000
1.431662 -2.089472 0.102737 21.000000
1.422812 -2.125703 0.103359 23.000000
1.399687 -2.141016 0.102969 24.000000
1.379095 -2.160305 0.102778 19.000000
1.366181 -2.192059 0.103107 21.000000
1.350067 -2.219617 0.103308 17.000000
1.348814 -2.272805 0.104693 8.000000
0.837498 1.431071 0.078167 7.000000
0.847861 1.413336 0.078049 24.000000
0.863168 1.404021 0.078401 29.000000
0.878325 1.394554 0.078754 34.000000
0.896088 1.389083 0.079295 29.000000
0.911139 1.379285 0.079649 31.000000
0.928836 1.373421 0.080244 36.000000
0.946522 1.367345 0.080791 30.000000
