x y z intensity
1.074215 -0.303317 -0.595208 95.000000
1.070973 -0.315980 -0.594513 98.000000
1.084297 -0.333877 -0.603324 93.000000
1.093225 -0.350787 -0.609772 100.000000
1.583906 -0.613184 -0.895371 38.000000
1.646868 -0.660032 -0.933908 30.000000
1.717273 -0.711877 -0.976877 32.000000
1.741950 -0.746205 -0.994112 22.000000
1.786448 -0.790201 -1.022827 19.000000
1.802023 -0.822437 -1.035174 26.000000
1.809134 -0.851337 -1.042786 16.000000
1.811469 -0.878891 -1.048337 10.000000
1.794109 -0.896331 -1.041857 21.000000
1.752464 -0.901604 -1.021926 20.000000
1.691880 -0.895198 -0.990098 31.000000
1.214107 -0.679434 -0.716639 100.000000
1.700685 -1.087156 -1.027711 25.000000
1.744860 -1.144006 -1.059456 24.000000
1.754717 -1.179648 -1.070652 20.000000
1.770873 -1.221180 -1.086662 23.000000
1.765076 -1.247295 -1.088660 22.000000
1.751191 -1.268639 -1.086445 18.000000
1.755702 -1.302562 -1.094908 11.000000
1.755470 -1.334657 -1.101532 13.000000
1.744257 -1.358545 -1.101279 15.000000
1.746759 -1.393615 -1.109913 21.000000
1.731454 -1.414630 -1.107248 15.000000
1.726238 -1.444123 -1.111223 16.000000
1.724010 -1.476554 -1.117298 20.000000
1.711326 -1.500282 -1.116644 10.000000
1.715062 -1.538859 -1.126884 14.000000
1.711553 -1.571606 -1.132673 15.000000
1.701147 -1.598275 -1.133887 17.000000
1.703350 -1.637421 -1.143791 22.000000
1.692148 -1.664084 -1.144852 18.000000
1.686032 -1.697780 -1.150543 19.000000
1.664741 -1.714720 -1.144980 17.000000
1.646384 -1.734614 -1.141502 11.000000
1.672938 -1.804664 -1.170566 18.000000
1.644707 -1.814579 -1.160401 10.000000
1.658426 -1.871404 -1.180154 16.000000
1.643422 -1.898751 -1.180950 23.000000
1.626361 -1.921770 -1.179175 15.000000
1.619329 -1.959340 -1.186184 19.000000
1.606044 -1.989955 -1.188827 17.000000
1.604892 -2.033996 -1.199313 16.000000
1.596182 -2.071846 -1.205947 16.000000
1.574561 -2.090830 -1.201553 9.000000
1.583767 -2.154217 -1.222548 13.000000
1.565207 -2.181261 -1.222565 11.000000
1.554140 -2.219357 -1.228749 10.000000
1.549276 -2.264114 -1.238336 14.000000
1.539575 -2.306162 -1.246318 10.000000
1.526701 -2.344396 -1.251984 10.000000
1.520567 -2.394227 -1.263680 10.000000
1.503944 -2.428722 -1.267147 9.000000
1.498514 -2.482754 -1.280557 10.000000
1.471136 -2.501522 -1.275720 10.000000
1.475238 -2.570684 -1.296350 10.000000
0.819470 1.436902 -0.709772 18.000000
0.837445 1.430427 -0.714442 18.000000
0.860068 1.431650 -0.723101 14.000000
0.880486 1.428626 -0.729811 17.000000
0.869083 1.374964 -0.710477 11.000000
0.896484 1.383289 -0.723065 17.000000
0.902959 1.361084 -0.719872 23.000000
0.925543 1.361096 -0.728503 12.000000
0.950879 1.364500 -0.739097 19.000000
0.957805 1.341466 -0.735540 19.000000
0.977900 1.336879 -0.742052 17.000000
0.983441 1.314185 -0.738611 20.000000
0.972941 1.269386 -0.722502 10.000000
0.969997 1.235790 -0.712415 27.000000
1.005578 1.252542 -0.731467 25.000000
1.048244 1.275175 -0.754514 21.000000
1.076946 1.279487 -0.767209 29.000000
1.105124 1.283781 -0.780195 20.000000
1.122297 1.273470 -0.784512 24.000000
1.135651 1.260002 -0.787080 21.000000
1.143484 1.239243 -0.785028 12.000000
1.165867 1.235390 -0.793819 27.000000
1.198473 1.240448 -0.808613 29.000000
1.208374 1.222870 -0.808926 23.000000
1.234219 1.221035 -0.819785 29.000000
1.247871 1.205742 -0.821836 25.000000
1.277118 1.206187 -0.834852 26.000000
1.319845 1.218365 -0.856475 29.000000
1.312748 1.184326 -0.845836 9.000000
1.332251 1.174497 -0.852376 28.000000
1.355116 1.167205 -0.861047 28.000000
1.384942 1.165344 -0.874038 21.000000
1.411422 1.160027 -0.884842 30.000000
1.427506 1.145805 -0.889132 25.000000
1.457616 1.142405 -0.902130 25.000000
1.487904 1.138389 -0.915051 30.000000
1.485920 1.109635 -0.908227 10.000000
1.519783 1.107470 -0.923340 26.000000
1.553349 1.105106 -0.938831 34.000000
1.572842 1.091347 -0.945074 27.000000
1.602927 1.085273 -0.958249 32.000000
1.622401 1.070762 -0.964474 29.000000
1.663840 1.070806 -0.984343 27.000000
1.690875 1.060148 -0.994884 29.000000
1.717506 1.049332 -1.005798 13.000000
1.747906 1.040232 -1.018918 21.000000
1.759084 1.019404 -1.020723 23.000000
1.754493 0.989590 -1.013539 14.000000
1.765228 0.968601 -1.015259 21.000000
1.779626 0.949575 -1.019166 16.000000
1.774131 0.920049 -1.011719 14.000000
1.783769 0.899063 -1.013564 19.000000
1.769592 0.865912 -1.001339 9.000000
1.791177 0.850400 -1.009493 10.000000
1.800207 0.829214 -1.011055 21.000000
1.788641 0.798816 -1.001239 11.000000
1.797168 0.777533 -1.002649 17.000000
1.793250 0.751027 -0.997213 13.000000
1.801318 0.729689 -0.998480 13.000000
1.800906 0.705043 -0.995105 15.000000
1.808540 0.683604 -0.996167 9.000000
1.799275 0.655944 -0.988059 15.000000
1.827134 0.642065 -1.000786 24.000000
1.821301 0.616174 -0.995089 16.000000
1.828172 0.594437 -0.995815 19.000000
1.834449 0.572766 -0.996873 19.000000
1.832092 0.548483 -0.993189 17.000000
1.842077 0.528135 -0.996680 19.000000
1.809316 0.495703 -0.976626 10.000000
1.844507 0.482254 -0.993771 16.000000
1.854123 0.461410 -0.996674 23.000000
1.846050 0.436385 -0.990521 16.000000
1.859335 0.416510 -0.995871 21.000000
1.863600 0.394661 -0.996789 23.000000
1.854833 0.369950 -0.990356 17.000000
1.867383 0.349754 -0.995715 21.000000
1.840519 0.322347 -0.980112 10.000000
1.861410 0.303496 -0.989922 24.000000
1.851464 0.279478 -0.983403 26.000000
1.872034 0.260034 -0.993028 26.000000
1.861470 0.236339 -0.986569 26.000000
1.863928 0.214342 -0.987021 25.000000
1.866128 0.192410 -0.987345 26.000000
1.868133 0.170348 -0.987539 26.000000
1.847958 0.146537 -0.976021 10.000000
1.739020 0.117354 -0.918087 32.000000
1.100849 0.035259 -0.580402 62.000000
1.092309 0.022124 -0.575853 100.000000
1.096882 0.009271 -0.578223 100.000000
1.092497 -0.003618 -0.575891 98.000000
1.087999 -0.016441 -0.573484 95.000000
1.101039 -0.029598 -0.580364 95.000000
1.100659 -0.042592 -0.580326 98.000000
1.104507 -0.055771 -0.582581 95.000000
1.099444 -0.068504 -0.580098 95.000000
1.103096 -0.081787 -0.582237 66.000000
1.097696 -0.094416 -0.579794 98.000000
1.105402 -0.108235 -0.584298 98.000000
1.108537 -0.121739 -0.586395 98.000000
1.107191 -0.134775 -0.586126 95.000000
1.110079 -0.148397 -0.588105 98.000000
1.104000 -0.160845 -0.585588 98.000000
1.097780 -0.173191 -0.582996 76.000000
1.087133 -0.184653 -0.578009 36.000000
1.093797 -0.199043 -0.582268 98.000000
1.095963 -0.212756 -0.584127 95.000000
1.093541 -0.225714 -0.583819 95.000000
1.095448 -0.239465 -0.585557 95.000000
1.092784 -0.252398 -0.585132 95.000000
1.094274 -0.266340 -0.586941 98.000000
1.086955 -0.278186 -0.584244 83.000000
1.083905 -0.290964 -0.583665 32.000000
1.097748 -0.308623 -0.592422 95.000000
1.154033 -0.338998 -0.623950 100.000000
1.243649 -0.381272 -0.673932 100.000000
1.353662 -0.432422 -0.735254 103.000000
1.541225 -0.532614 -0.841508 44.000000
1.640052 -0.588275 -0.897635 33.000000
1.708479 -0.635620 -0.937852 23.000000
1.751207 -0.675087 -0.964207 11.000000
1.772597 -0.707363 -0.979023 22.000000
1.793604 -0.740261 -0.993667 16.000000
1.805963 -0.770216 -1.003649 17.000000
1.834236 -0.807701 -1.022621 19.000000
1.829504 -0.831173 -1.023311 13.000000
1.828562 -0.856495 -1.026190 13.000000
1.814938 -0.876398 -1.022545 10.000000
1.793164 -0.892094 -1.014320 9.000000
1.815420 -0.929397 -1.030439 18.000000
1.765601 -0.930204 -1.006323 16.000000
1.692472 -0.917164 -0.968658 27.000000
1.526210 -0.850301 -0.877268 44.000000
1.559578 -0.892870 -0.900353 29.000000
1.657773 -0.974809 -0.961227 24.000000
1.704602 -1.029185 -0.992857 10.000000
1.731521 -1.072932 -1.013086 9.000000
1.776054 -1.129890 -1.044763 15.000000
1.782700 -1.163074 -1.053558 12.000000
1.799458 -1.204478 -1.069313 15.000000
1.779163 -1.220628 -1.062463 13.000000
1.765511 -1.241986 -1.060334 10.000000
1.766872 -1.273258 -1.066562 10.000000
1.770882 -1.307768 -1.075314 10.000000
1.759961 -1.331789 -1.075111 9.000000
1.770158 -1.372205 -1.088007 11.000000
1.748064 -1.387810 -1.081140 10.000000
1.750243 -1.422976 -1.089440 10.000000
1.758962 -1.464097 -1.101948 10.000000
1.742994 -1.485103 -1.099158 10.000000
1.740391 -1.517812 -1.105000 10.000000
1.723906 -1.538594 -1.102031 9.000000
1.724017 -1.574367 -1.109796 8.000000
1.713581 -1.601047 -1.111000 10.000000
1.709390 -1.633976 -1.116371 10.000000
1.703888 -1.667541 -1.122094 10.000000
1.708432 -1.710224 -1.133658 10.000000
1.687015 -1.727273 -1.128119 10.000000
1.683302 -1.764410 -1.135665 10.000000
1.679973 -1.800941 -1.142656 9.000000
1.672066 -1.834991 -1.147819 8.000000
1.670830 -1.875117 -1.156612 10.000000
1.664822 -1.912761 -1.163664 10.000000
1.650537 -1.939355 -1.163904 10.000000
1.643549 -1.977103 -1.170675 10.000000
1.636002 -2.014952 -1.177382 10.000000
1.623366 -2.044967 -1.179382 10.000000
1.614777 -2.082920 -1.185881 9.000000
1.616543 -2.135506 -1.200405 8.000000
1.602478 -2.165596 -1.202039 9.000000
1.602702 -2.218647 -1.216262 9.000000
1.591472 -2.256982 -1.222175 10.000000
1.569182 -2.280382 -1.219952 9.000000
1.572240 -2.341582 -1.237715 9.000000
1.548271 -2.360005 -1.232827 9.000000
1.547233 -2.417707 -1.248160 9.000000
1.554687 -2.491308 -1.271387 8.000000
1.532215 -2.518392 -1.270560 9.000000
1.516406 -2.557158 -1.275519 9.000000
1.502171 -2.599904 -1.282365 9.000000
0.786123 1.405724 -0.671469 29.000000
0.810592 1.411817 -0.681804 23.000000
0.828283 1.405607 -0.686383 27.000000
0.836421 1.383359 -0.683137 28.000000
0.882895 1.423763 -0.711049 20.000000
0.878592 1.381716 -0.698029 18.000000
0.896095 1.374648 -0.702550 21.000000
0.908469 1.359662 -0.703080 21.000000
0.918058 1.340788 -0.701561 28.000000
0.945870 1.348167 -0.713935 21.000000
0.957875 1.332722 -0.714405 29.000000
0.985101 1.339814 -0.727097 26.000000
1.016248 1.349573 -0.741536 20.000000
1.005908 1.304352 -0.725812 26.000000
1.031526 1.306237 -0.736209 19.000000
1.047838 1.297572 -0.740849 30.000000
1.059186 1.281076 -0.741041 32.000000
1.085088 1.281958 -0.751487 24.000000
1.104365 1.275940 -0.758112 35.000000
1.121503 1.265745 -0.762312 30.000000
1.138546 1.255250 -0.766580 26.000000
1.151658 1.241684 -0.769021 31.000000
1.168528 1.230793 -0.773194 21.000000
1.194175 1.229898 -0.783844 33.000000
1.207118 1.215689 -0.786203 34.000000
1.227112 1.207160 -0.792398 26.000000
1.253037 1.205057 -0.803040 34.000000
1.276399 1.198946 -0.811274 33.000000
1.299140 1.192891 -0.819835 29.000000
1.305156 1.171287 -0.817804 24.000000
1.334700 1.170569 -0.830524 21.000000
1.364445 1.169325 -0.843298 30.000000
1.380453 1.155874 -0.847548 31.000000
1.396403 1.142157 -0.851747 28.000000
1.426415 1.139456 -0.864455 42.000000
1.435183 1.119540 -0.864283 30.000000
1.483274 1.129612 -0.887683 28.000000
1.491941 1.109086 -0.887482 30.000000
1.522264 1.104348 -0.900098 27.000000
1.541648 1.091231 -0.906269 32.000000
1.579039 1.091001 -0.923620 35.000000
1.602269 1.079504 -0.931826 29.000000
1.632930 1.072550 -0.944474 33.000000
1.667053 1.067773 -0.959546 33.000000
1.674518 1.045720 -0.959375 26.000000
1.709151 1.039438 -0.974049 32.000000
1.747348 1.035236 -0.991302 27.000000
1.750603 1.009987 -0.988701 21.000000
1.788852 1.004569 -1.005894 28.000000
1.787847 0.976845 -1.001022 19.000000
1.790523 0.951368 -0.998199 23.000000
1.796815 0.927999 -0.997573 23.000000
1.798918 0.902508 -0.994657 15.000000
1.816772 0.884988 -1.000463 11.000000
1.838279 0.869400 -1.008850 15.000000
1.807070 0.828706 -0.987849 12.000000
1.824057 0.811070 -0.993864 18.000000
1.808044 0.778943 -0.981903 13.000000
1.816370 0.757526 -0.983313 16.000000
1.824493 0.736041 -0.984589 17.000000
1.832416 0.714423 -0.985797 10.000000
1.840137 0.692737 -0.986871 18.000000
1.847656 0.670917 -0.987946 23.000000
1.846275 0.646213 -0.984725 21.000000
1.857591 0.625717 -0.987844 25.000000
1.847170 0.598377 -0.979971 18.000000
1.857803 0.577932 -0.983222 21.000000
1.829789 0.545776 -0.966161 20.000000
1.857111 0.530282 -0.978307 23.000000
1.867161 0.509521 -0.981294 16.000000
1.855202 0.483107 -0.973234 14.000000
1.860516 0.461127 -0.973825 15.000000
1.869710 0.440299 -0.976945 20.000000
1.870030 0.417297 -0.975400 16.000000
1.874492 0.395251 -0.975990 17.000000
1.865454 0.370667 -0.970028 21.000000
1.838782 0.342993 -0.954510 14.000000
1.881850 0.328283 -0.975619 20.000000
1.885319 0.306157 -0.976143 24.000000
1.884125 0.283304 -0.974324 24.000000
1.878310 0.259880 -0.970096 21.000000
1.867729 0.236169 -0.963846 18.000000
1.887867 0.216250 -0.973351 23.000000
1.885656 0.193642 -0.971396 22.000000
1.892102 0.171879 -0.973937 21.000000
1.880620 0.148610 -0.967224 21.000000
1.850972 0.124459 -0.951574 22.000000
1.838919 0.101959 -0.944918 28.000000
1.085148 0.021892 -0.557094 91.000000
1.089745 0.009196 -0.559452 100.000000
1.094230 -0.003604 -0.561698 100.000000
1.089707 -0.016374 -0.559340 100.000000
1.098414 -0.029398 -0.563793 98.000000
1.102445 -0.042458 -0.566038 100.000000
1.097472 -0.055177 -0.563680 95.000000
1.092391 -0.067791 -0.561248 52.000000
1.096040 -0.080919 -0.563341 98.000000
1.103927 -0.094568 -0.567788 100.000000
1.102825 -0.107524 -0.567636 100.000000
1.110457 -0.121448 -0.571966 100.000000
1.104698 -0.133934 -0.569420 98.000000
1.098798 -0.146278 -0.566800 103.000000
1.097126 -0.159196 -0.566572 100.000000
1.104100 -0.173459 -0.570855 70.000000
1.080229 -0.182691 -0.559146 95.000000
1.082585 -0.196135 -0.561042 98.000000
1.084697 -0.209757 -0.563048 98.000000
1.078062 -0.221537 -0.560250 95.000000
1.079929 -0.235149 -0.562140 98.000000
1.081662 -0.248825 -0.563989 100.000000
1.109258 -0.268867 -0.579336 103.000000
1.851690 -0.518363 -0.972933 22.000000
1.867317 -0.546464 -0.983289 17.000000
1.878339 -0.573633 -0.991302 16.000000
1.863518 -0.593014 -0.985727 20.000000
1.873995 -0.620483 -0.993583 14.000000
1.879652 -0.646967 -0.999376 20.000000
1.889491 -0.674980 -1.006989 19.000000
1.844299 -0.683337 -0.985730 9.000000
1.853342 -0.711500 -0.993539 18.000000
1.857953 -0.738338 -0.999025 16.000000
1.870528 -0.768737 -1.008820 18.000000
1.866233 -0.792487 -1.009601 17.000000
1.865794 -0.817995 -1.012530 16.000000
1.865139 -0.843556 -1.015377 16.000000
1.847535 -0.861942 -1.009614 10.000000
1.822071 -0.875767 -0.999018 9.000000
1.856572 -0.919333 -1.021904 16.000000
1.842354 -0.939290 -1.018145 13.000000
1.847839 -0.969436 -1.025276 16.000000
1.841146 -0.993421 -1.025774 17.000000
1.838122 -1.019537 -1.028392 14.000000
1.846429 -1.052370 -1.037502 18.000000
1.846664 -1.080980 -1.042049 13.000000
1.784785 -1.072581 -1.011611 8.000000
1.830135 -1.129430 -1.042634 15.000000
1.817955 -1.150946 -1.040446 12.000000
1.820665 -1.182127 -1.046873 11.000000
1.818750 -1.211390 -1.051391 15.000000
1.797763 -1.228062 -1.045065 10.000000
1.814278 -1.269755 -1.059828 16.000000
1.796527 -1.288777 -1.055501 10.000000
1.789521 -1.315583 -1.057557 9.000000
1.800286 -1.356001 -1.070167 14.000000
1.785362 -1.377473 -1.067730 10.000000
1.795120 -1.418338 -1.080238 14.000000
1.783118 -1.442570 -1.079742 10.000000
1.770822 -1.466655 -1.079236 10.000000
1.772126 -1.502303 -1.087041 16.000000
1.766113 -1.532269 -1.090563 10.000000
1.763141 -1.565253 -1.096081 9.000000
1.759673 -1.598321 -1.101555 13.000000
1.749133 -1.625370 -1.102629 10.000000
1.740624 -1.656031 -1.106173 10.000000
1.719690 -1.673445 -1.100940 10.000000
1.720165 -1.713646 -1.110517 10.000000
1.730597 -1.763159 -1.125837 16.000000
1.708719 -1.780257 -1.120290 9.000000
1.716830 -1.831005 -1.135698 9.000000
1.697577 -1.851184 -1.132082 10.000000
1.676894 -1.871866 -1.128803 10.000000
1.683093 -1.923205 -1.143909 12.000000
1.671922 -1.953353 -1.146085 10.000000
1.667774 -1.994747 -1.154739 10.000000
1.660182 -2.032771 -1.161295 12.000000
1.647553 -2.062941 -1.163227 10.000000
1.664262 -2.133555 -1.187573 9.000000
1.612963 -2.117402 -1.163667 9.000000
1.619744 -2.177544 -1.181724 9.000000
1.618835 -2.226196 -1.193115 10.000000
1.602363 -2.257201 -1.194940 9.000000
1.606391 -2.318240 -1.212523 10.000000
1.586151 -2.345530 -1.212148 10.000000
1.583290 -2.399445 -1.225376 10.000000
1.599514 -2.484596 -1.254102 9.000000
1.560133 -2.484685 -1.239669 9.000000
1.545146 -2.523486 -1.244600 9.000000
1.536430 -2.574173 -1.255348 10.000000
1.522285 -2.617053 -1.262031 9.000000
1.518703 -2.679969 -1.278105 9.000000
0.791889 1.403926 -0.655314 28.000000
0.804757 1.390044 -0.655973 33.000000
0.824519 1.387991 -0.662256 26.000000
0.839536 1.377766 -0.664813 29.000000
0.871531 1.394808 -0.680646 29.000000
0.869145 1.356838 -0.669765 20.000000
0.873660 1.330653 -0.664510 30.000000
0.893233 1.327512 -0.670745 24.000000
0.915482 1.327881 -0.678947 27.000000
0.939610 1.332199 -0.689354 33.000000
0.959531 1.328047 -0.695638 26.000000
0.973981 1.316259 -0.697974 33.000000
1.004979 1.326291 -0.712113 26.000000
1.011002 1.303029 -0.708512 21.000000
1.019479 1.283459 -0.706799 31.000000
1.047180 1.289227 -0.719239 29.000000
1.064252 1.279883 -0.723441 35.000000
1.093118 1.284316 -0.735652 33.000000
1.109489 1.274856 -0.740128 33.000000
1.123452 1.261287 -0.742268 38.000000
1.140442 1.250873 -0.746425 31.000000
1.156601 1.240724 -0.750820 20.000000
1.179764 1.236490 -0.758946 36.000000
1.192776 1.222508 -0.761285 35.000000
1.206301 1.207899 -0.763283 42.000000
1.238583 1.212723 -0.777847 45.000000
1.255330 1.200741 -0.781813 35.000000
1.274719 1.192083 -0.788137 36.000000
1.304207 1.192252 -0.800676 31.000000
1.307341 1.167172 -0.796307 20.000000
1.330020 1.160637 -0.804643 33.000000
1.356293 1.156572 -0.815032 31.000000
1.375657 1.146241 -0.821234 33.000000
1.395027 1.135563 -0.827457 36.000000
1.421509 1.130188 -0.837769 33.000000
1.458806 1.132702 -0.854417 39.000000
1.471040 1.115250 -0.856342 33.000000
1.497727 1.108463 -0.866640 21.000000
1.502421 1.085220 -0.864295 33.000000
1.547536 1.090732 -0.885099 34.000000
1.570656 1.079866 -0.893250 40.000000
1.600750 1.074035 -0.905939 35.000000
1.635293 1.069717 -0.920413 34.000000
1.658464 1.057365 -0.928464 48.000000
1.684968 1.047394 -0.938944 32.000000
1.700421 1.029504 -0.942627 21.000000
1.719144 1.014086 -0.948800 36.000000
1.765228 1.014020 -0.969909 37.000000
1.791785 1.001977 -0.980316 29.000000
1.818392 0.989354 -0.990615 28.000000
1.813168 0.959418 -0.983649 25.000000
1.827521 0.940027 -0.987341 27.000000
1.825589 0.912276 -0.982366 22.000000
1.831422 0.888675 -0.981577 10.000000
1.837073 0.864963 -0.980782 18.000000
1.854344 0.847232 -0.986721 16.000000
1.826649 0.808788 -0.968337 15.000000
1.851719 0.794404 -0.978496 21.000000
1.843586 0.765699 -0.971115 20.000000
1.847613 0.742344 -0.970279 21.000000
1.847212 0.717325 -0.967043 16.000000
1.838059 0.689214 -0.959405 10.000000
1.862420 0.673653 -0.969263 22.000000
1.861275 0.648693 -0.965805 20.000000
1.868108 0.626923 -0.967011 22.000000
1.862128 0.600684 -0.961201 22.000000
1.877086 0.581518 -0.966680 23.000000
1.857436 0.551799 -0.954360 28.000000
1.871996 0.532434 -0.959706 20.000000
1.860451 0.505678 -0.951582 10.000000
1.887394 0.489587 -0.963643 20.000000
1.870949 0.461980 -0.953223 12.000000
1.888891 0.443135 -0.960666 18.000000
1.897955 0.421974 -0.963613 21.000000
1.889308 0.396960 -0.957610 16.000000
1.902303 0.376470 -0.962582 22.000000
1.915006 0.355907 -0.967758 23.000000
1.879025 0.326572 -0.948386 10.000000
1.900278 0.307330 -0.957553 21.000000
1.907788 0.285816 -0.960503 22.000000
1.906380 0.262845 -0.958668 24.000000
1.909201 0.240536 -0.958931 25.000000
1.902803 0.217148 -0.954863 22.000000
1.909474 0.195333 -0.957486 26.000000
1.907048 0.172608 -0.955450 23.000000
1.886576 0.148517 -0.944418 10.000000
1.883533 0.126144 -0.942507 26.000000
1.857959 0.102642 -0.929360 23.000000
1.774070 0.077236 -0.887035 34.000000
1.100236 0.009272 -0.549799 98.000000
1.100273 -0.003604 -0.549799 98.000000
1.104671 -0.016546 -0.551959 100.000000
1.113387 -0.029674 -0.556276 100.000000
1.104068 -0.042363 -0.551808 98.000000
1.103540 -0.055252 -0.551695 100.000000
1.107365 -0.068456 -0.553777 95.000000
1.119956 -0.082344 -0.560284 98.000000
1.114502 -0.095062 -0.557938 100.000000
1.108942 -0.107676 -0.555554 100.000000
1.116624 -0.121601 -0.559786 98.000000
1.119727 -0.135198 -0.561747 100.000000
1.113713 -0.147721 -0.559327 100.000000
1.120888 -0.162024 -0.563552 103.000000
1.114728 -0.174380 -0.560863 100.000000
1.099444 -0.185261 -0.554034 76.000000
1.101799 -0.198898 -0.555878 100.000000
1.095226 -0.210869 -0.553160 98.000000
1.123555 -0.230000 -0.568398 100.000000
1.837402 -0.489241 -0.937528 24.000000
1.896778 -0.528855 -0.969824 18.000000
1.912419 -0.557303 -0.979990 19.000000
1.893374 -0.575811 -0.972359 20.000000
1.899954 -0.602018 -0.977889 17.000000
1.905902 -0.628594 -0.983610 23.000000
1.903330 -0.652285 -0.984580 20.000000
1.896084 -0.674639 -0.983486 19.000000
1.905427 -0.703215 -0.991164 17.000000
1.897633 -0.725561 -0.989991 15.000000
1.897994 -0.751148 -0.993125 19.000000
1.889819 -0.773385 -0.991740 19.000000
1.885512 -0.797236 -0.992466 16.000000
1.889208 -0.824646 -0.997472 18.000000
1.884018 -0.848859 -0.998389 19.000000
1.878998 -0.872748 -0.998880 16.000000
1.893623 -0.906601 -1.010487 20.000000
1.863387 -0.918961 -0.998167 12.000000
1.881326 -0.955267 -1.011753 22.000000
1.866831 -0.975316 -1.007952 18.000000
1.872041 -1.005805 -1.014861 19.000000
1.868948 -1.032161 -1.017366 22.000000
1.853761 -1.051874 -1.013270 19.000000
1.857922 -1.082723 -1.019896 17.000000
1.877258 -1.123075 -1.034969 19.000000
1.853071 -1.138353 -1.026866 15.000000
1.844641 -1.162416 -1.026795 16.000000
1.843098 -1.191705 -1.031261 17.000000
1.837322 -1.218689 -1.033582 18.000000
1.831810 -1.245183 -1.035364 15.000000
1.836671 -1.279850 -1.043840 13.000000
1.826189 -1.304345 -1.043763 14.000000
1.826479 -1.336738 -1.049913 13.000000
1.800891 -1.350195 -1.041255 10.000000
1.814865 -1.393660 -1.055665 17.000000
1.813920 -1.426425 -1.061486 15.000000
1.798340 -1.447896 -1.058928 10.000000
1.814186 -1.495163 -1.075006 18.000000
1.808368 -1.525342 -1.078467 15.000000
1.802202 -1.555609 -1.081896 12.000000
1.799098 -1.588897 -1.087195 19.000000
1.767647 -1.598463 -1.076389 10.000000
1.773918 -1.640965 -1.087723 14.000000
1.772857 -1.677426 -1.094882 16.000000
1.754081 -1.698896 -1.092107 10.000000
1.761916 -1.745180 -1.105123 20.000000
1.745571 -1.769810 -1.104170 10.000000
1.745857 -1.809975 -1.112907 15.000000
1.741404 -1.847770 -1.119891 12.000000
1.715721 -1.861363 -1.112227 10.000000
1.707308 -1.895734 -1.117043 15.000000
1.704480 -1.937031 -1.125725 13.000000
1.693094 -1.967302 -1.127837 13.000000
1.706853 -2.029914 -1.148221 19.000000
1.678623 -2.043457 -1.140644 10.000000
1.683250 -2.095203 -1.154361 16.000000
1.665895 -2.122787 -1.154546 10.000000
1.659307 -2.164845 -1.162456 9.000000
1.654907 -2.210724 -1.172241 10.000000
1.638799 -2.241928 -1.174054 10.000000
1.635648 -2.291809 -1.185528 11.000000
1.638539 -2.348554 -1.200193 15.000000
1.607760 -2.360825 -1.192078 10.000000
1.602420 -2.411045 -1.203083 10.000000
1.596317 -2.461478 -1.213976 10.000000
1.581933 -2.500391 -1.218945 9.000000
1.581508 -2.562935 -1.235128 12.000000
1.558368 -2.590039 -1.234239 10.000000
1.551360 -2.645030 -1.246301 12.000000
1.536371 -2.688166 -1.252704 11.000000
0.767687 1.387810 -0.625794 27.000000
0.784968 1.382330 -0.630135 26.000000
0.809248 1.388678 -0.639986 27.000000
0.826624 1.382631 -0.644324 31.000000
0.846299 1.380429 -0.650488 25.000000
0.866092 1.377896 -0.656679 29.000000
0.860902 1.336075 -0.644119 20.000000
0.880399 1.333285 -0.650244 22.000000
0.900010 1.330160 -0.656343 32.000000
0.914412 1.319146 -0.658673 26.000000
0.942090 1.326821 -0.670527 29.000000
0.961865 1.322801 -0.676660 32.000000
0.976233 1.311025 -0.678928 25.000000
0.993291 1.302811 -0.683122 29.000000
0.996078 1.276135 -0.677620 26.000000
1.014897 1.271718 -0.683959 31.000000
1.034622 1.266464 -0.690001 47.000000
1.072062 1.282154 -0.707766 32.000000
1.077100 1.258594 -0.704059 36.000000
1.108287 1.266725 -0.718195 37.000000
1.128325 1.260115 -0.724253 31.000000
1.151450 1.256518 -0.732252 31.000000
1.158305 1.236344 -0.730613 21.000000
1.181402 1.232148 -0.738596 35.000000
1.198237 1.221061 -0.742574 68.000000
1.220784 1.216653 -0.750841 36.000000
1.240774 1.208186 -0.756796 53.000000
1.260153 1.199908 -0.763004 36.000000
1.280134 1.190777 -0.768885 36.000000
1.296167 1.178758 -0.773060 55.000000
1.308673 1.163447 -0.775164 14.000000
1.335450 1.159476 -0.785031 29.000000
1.354757 1.149620 -0.791165 40.000000
1.381101 1.145251 -0.801280 32.000000
1.400485 1.134624 -0.807407 35.000000
1.434118 1.134971 -0.821629 39.000000
1.449963 1.120749 -0.825580 31.000000
1.480231 1.117238 -0.837773 36.000000
1.484946 1.094197 -0.835510 23.000000
1.500507 1.079181 -0.839370 34.000000
1.527115 1.071796 -0.849391 37.000000
1.576346 1.079288 -0.871838 35.000000
1.603263 1.070610 -0.881888 44.000000
1.630143 1.061445 -0.891841 35.000000
1.652881 1.049681 -0.900065 34.000000
1.683699 1.041900 -0.912103 39.000000
1.706336 1.029241 -0.920255 24.000000
1.713811 1.006513 -0.919629 34.000000
1.740254 0.995404 -0.929848 47.000000
1.794484 0.999232 -0.954717 34.000000
1.817084 0.984628 -0.962780 31.000000
1.836095 0.967072 -0.968260 24.000000
1.850540 0.947542 -0.971915 24.000000
1.860765 0.925690 -0.973456 25.000000
1.858206 0.898140 -0.968833 10.000000
1.863850 0.874300 -0.968097 15.000000
1.873362 0.852292 -0.969347 18.000000
1.878181 0.828597 -0.968809 16.000000
1.862314 0.795703 -0.957100 18.000000
1.866615 0.772169 -0.956327 21.000000
1.887451 0.755379 -0.964050 18.000000
1.878636 0.726683 -0.956706 18.000000
1.848395 0.690414 -0.938534 9.000000
1.868536 0.673334 -0.946051 13.000000
1.884381 0.654340 -0.951295 21.000000
1.878625 0.627861 -0.945776 17.000000
1.889551 0.607336 -0.949072 21.000000
1.900238 0.586578 -0.952306 23.000000
1.906698 0.564170 -0.952911 20.000000
1.899742 0.538210 -0.947298 19.000000
1.892239 0.512620 -0.941938 10.000000
1.893386 0.489257 -0.940435 12.000000
1.907434 0.469224 -0.945434 21.000000
1.912357 0.447004 -0.946232 17.000000
1.903889 0.421728 -0.940448 15.000000
1.921604 0.402297 -0.947629 18.000000
1.917027 0.378068 -0.943878 15.000000
1.925361 0.356570 -0.946783 16.000000
1.889296 0.327092 -0.927585 10.000000
1.914891 0.308637 -0.938998 16.000000
1.931530 0.288336 -0.945998 24.000000
1.925661 0.264529 -0.942034 21.000000
1.937292 0.243238 -0.946925 25.000000
1.935405 0.220081 -0.944941 26.000000
1.915276 0.195270 -0.934356 17.000000
1.921781 0.173339 -0.936801 19.000000
1.905548 0.149544 -0.928455 10.000000
1.920632 0.128199 -0.935074 21.000000
1.894930 0.104315 -0.922159 25.000000
1.855526 0.080475 -0.902618 25.000000
1.173576 0.009877 -0.570619 113.000000
1.110663 -0.003618 -0.539973 94.000000
1.110588 -0.016546 -0.539936 95.000000
1.119391 -0.029712 -0.544156 98.000000
1.123466 -0.042915 -0.546303 100.000000
1.118441 -0.055776 -0.544042 98.000000
1.117795 -0.068808 -0.543890 98.000000
1.134863 -0.083155 -0.552588 59.000000
1.125011 -0.095596 -0.547952 95.000000
1.128378 -0.109127 -0.549943 98.000000
1.136093 -0.123248 -0.554075 100.000000
1.130154 -0.135966 -0.551777 98.000000
1.128687 -0.149091 -0.551430 98.000000
1.135858 -0.163538 -0.555556 100.000000
1.138476 -0.177461 -0.557461 95.000000
1.140963 -0.191448 -0.559286 68.000000
1.218525 -0.219124 -0.598164 103.000000
1.420886 -0.289788 -0.699413 100.000000
1.584998 -0.342499 -0.781348 98.000000
1.677837 -0.383014 -0.828456 63.000000
1.778790 -0.427769 -0.879700 34.000000
1.861345 -0.470683 -0.922385 32.000000
1.904007 -0.505175 -0.945469 16.000000
1.941984 -0.539311 -0.965876 11.000000
1.953374 -0.566984 -0.973625 21.000000
1.942589 -0.588593 -0.970711 16.000000
1.927598 -0.608467 -0.965303 20.000000
1.920967 -0.630889 -0.964141 21.000000
1.926742 -0.657754 -0.969633 17.000000
1.936402 -0.686360 -0.977192 24.000000
1.916117 -0.704319 -0.969576 10.000000
1.916767 -0.729950 -0.972689 13.000000
1.929752 -0.760611 -0.982071 21.000000
1.913046 -0.779681 -0.976466 13.000000
1.925446 -0.810770 -0.985670 23.000000
1.912205 -0.831595 -0.982340 22.000000
1.907329 -0.855676 -0.982850 17.000000
1.910136 -0.883795 -0.987884 21.000000
1.916691 -0.914012 -0.994950 10.000000
1.898755 -0.932204 -0.988855 13.000000
1.908785 -0.964656 -0.997858 25.000000
1.898126 -0.987054 -0.996201 17.000000
1.882965 -1.007458 -0.992725 18.000000
1.887867 -1.038265 -0.999344 20.000000
1.880511 -1.062531 -0.999559 19.000000
1.900447 -1.102618 -1.014365 24.000000
1.872436 -1.115918 -1.004370 10.000000
1.875928 -1.147151 -1.010598 11.000000
1.870851 -1.174213 -1.012920 18.000000
1.858244 -1.195941 -1.010695 12.000000
1.867822 -1.232928 -1.021221 20.000000
1.861696 -1.260176 -1.023337 16.000000
1.866453 -1.295164 -1.031563 16.000000
1.863350 -1.325088 -1.035544 20.000000
1.848720 -1.347072 -1.033246 9.000000
1.826630 -1.363449 -1.026840 10.000000
1.829870 -1.398814 -1.034720 14.000000
1.836172 -1.437187 -1.044518 13.000000
1.841876 -1.475914 -1.054180 18.000000
1.833004 -1.503323 -1.055565 13.000000
1.830692 -1.536616 -1.060987 10.000000
1.838373 -1.578856 -1.072357 18.000000
1.796536 -1.579869 -1.055720 9.000000
1.793228 -1.613182 -1.060899 10.000000
1.796159 -1.652694 -1.069888 16.000000
1.790956 -1.686893 -1.075213 11.000000
1.782916 -1.717328 -1.078088 18.000000
1.766984 -1.741971 -1.077196 12.000000
1.777664 -1.791847 -1.091759 13.000000
1.773669 -1.829732 -1.098720 18.000000
1.759578 -1.857743 -1.099534 10.000000
1.743239 -1.881513 -1.097932 10.000000
1.747072 -1.929734 -1.110391 13.000000
1.731838 -1.957613 -1.111022 14.000000
1.723436 -1.991561 -1.115005 20.000000
1.722352 -2.036872 -1.125205 12.000000
1.711566 -2.071760 -1.129420 16.000000
1.703276 -2.110254 -1.135428 17.000000
1.701491 -2.155259 -1.144768 9.000000
1.686346 -2.186656 -1.146708 9.000000
1.676339 -2.225366 -1.152431 10.000000
1.676706 -2.279031 -1.165616 10.000000
1.668061 -2.321743 -1.172895 12.000000
1.653326 -2.356987 -1.176310 10.000000
1.651156 -2.411214 -1.188998 13.000000
1.624967 -2.431145 -1.184666 10.000000
1.623920 -2.489528 -1.199039 9.000000
1.629312 -2.559977 -1.218766 9.000000
1.594223 -2.567703 -1.208506 10.000000
1.597689 -2.638634 -1.227877 10.000000
1.580933 -2.677899 -1.232325 10.000000
1.558799 -2.709184 -1.232930 9.000000
1.565889 -2.793110 -1.257246 10.000000
0.783483 1.406564 -0.619080 16.000000
0.798592 1.396930 -0.621554 21.000000
0.818311 1.395233 -0.627593 18.000000
0.838098 1.393210 -0.633660 23.000000
0.843285 1.367081 -0.628818 24.000000
0.870407 1.376534 -0.640335 10.000000
0.870026 1.342543 -0.631720 21.000000
0.884460 1.331940 -0.634030 18.000000
0.909294 1.336542 -0.643738 16.000000
0.921030 1.321688 -0.644165 27.000000
0.943413 1.321846 -0.651978 17.000000
0.963198 1.317852 -0.658013 21.000000
0.974708 1.302485 -0.658339 23.000000
1.016965 1.327475 -0.679354 15.000000
0.999916 1.275063 -0.660843 23.000000
1.022491 1.273765 -0.668662 19.000000
1.045142 1.272150 -0.676463 19.000000
1.061968 1.263031 -0.680488 30.000000
1.087748 1.264238 -0.690260 20.000000
1.109951 1.261970 -0.698329 27.000000
1.126868 1.251958 -0.702309 25.000000
1.153069 1.251940 -0.712088 18.000000
1.147115 1.218345 -0.702781 31.000000
1.179645 1.224407 -0.716368 24.000000
1.196335 1.213385 -0.720229 26.000000
1.225433 1.215649 -0.732193 32.000000
1.235519 1.197626 -0.732181 24.000000
1.261480 1.195785 -0.742146 32.000000
1.274689 1.180558 -0.743991 32.000000
1.304173 1.180979 -0.755936 21.000000
1.327582 1.174327 -0.763683 21.000000
1.329653 1.149713 -0.759735 23.000000
1.352378 1.142992 -0.767689 24.000000
1.375769 1.135375 -0.775376 28.000000
1.398582 1.127801 -0.783270 26.000000
1.428657 1.125467 -0.795199 28.000000
1.451599 1.117004 -0.803101 28.000000
1.467282 1.102603 -0.806944 19.000000
1.479214 1.085287 -0.808780 27.000000
1.505772 1.078439 -0.818639 24.000000
1.524946 1.065816 -0.824359 27.000000
1.555436 1.060616 -0.836246 31.000000
1.593563 1.059903 -0.852117 23.000000
1.631951 1.058370 -0.867978 34.000000
1.651172 1.043942 -0.873685 31.000000
1.662209 1.024742 -0.875514 17.000000
1.689082 1.014346 -0.885212 31.000000
1.715566 1.003912 -0.895205 31.000000
1.738490 0.990255 -0.902771 25.000000
1.780879 0.987634 -0.920928 36.000000
1.827521 0.986228 -0.941210 31.000000
1.846508 0.968679 -0.946596 26.000000
1.873068 0.955356 -0.956414 22.000000
1.883361 0.933362 -0.957965 10.000000
1.889343 0.909324 -0.957298 13.000000
1.895071 0.885171 -0.956625 15.000000
1.875357 0.850066 -0.943658 10.000000
1.901261 0.835328 -0.953245 16.000000
1.905868 0.811443 -0.952621 13.000000
1.906376 0.785508 -0.949482 16.000000
1.923124 0.766633 -0.954987 18.000000
1.901686 0.732804 -0.941560 10.000000
1.888233 0.702693 -0.932227 10.000000
1.891483 0.679074 -0.931208 12.000000
1.898851 0.656902 -0.932222 13.000000
1.905949 0.634731 -0.933101 16.000000
1.908526 0.610974 -0.931872 15.000000
1.910601 0.587453 -0.930773 15.000000
1.916791 0.565247 -0.931782 18.000000
1.909767 0.539213 -0.926312 10.000000
1.919888 0.518137 -0.929231 13.000000
1.925448 0.495764 -0.929968 13.000000
1.922010 0.471101 -0.926331 11.000000
1.926945 0.448763 -0.927198 16.000000
1.940453 0.428309 -0.932178 16.000000
1.931716 0.402962 -0.926473 14.000000
1.949295 0.383093 -0.933451 21.000000
1.940099 0.357922 -0.927538 10.000000
1.943758 0.335436 -0.928203 14.000000
1.942950 0.312032 -0.926340 18.000000
1.941729 0.288799 -0.924674 18.000000
1.940162 0.265670 -0.923204 20.000000
1.943003 0.243074 -0.923468 19.000000
1.950073 0.220987 -0.925799 18.000000
1.952324 0.198338 -0.926197 21.000000
1.940868 0.174410 -0.920058 13.000000
1.938071 0.151566 -0.918317 13.000000
1.939645 0.129060 -0.918382 20.000000
1.945472 0.106737 -0.920715 18.000000
1.883296 0.081445 -0.890935 22.000000
1.152628 -0.003696 -0.544972 110.000000
1.134471 -0.016814 -0.536385 100.000000
1.134280 -0.029989 -0.536232 100.000000
1.138376 -0.043336 -0.538330 100.000000
1.133322 -0.056300 -0.536117 100.000000
1.132671 -0.069475 -0.535964 95.000000
1.145318 -0.083600 -0.542331 98.000000
1.139921 -0.096512 -0.539926 98.000000
1.147803 -0.110582 -0.543999 100.000000
1.142062 -0.123403 -0.541634 95.000000
1.149570 -0.137773 -0.545781 95.000000
1.143523 -0.150542 -0.543455 98.000000
1.218015 -0.174690 -0.579270 103.000000
1.599165 -0.286440 -0.763237 71.000000
1.658170 -0.316961 -0.792602 46.000000
1.752234 -0.356028 -0.838748 41.000000
1.796942 -0.386882 -0.861486 29.000000
1.850068 -0.420752 -0.888304 27.000000
1.893979 -0.453778 -0.910771 28.000000
1.928395 -0.485783 -0.929164 21.000000
1.936111 -0.511696 -0.934772 10.000000
1.974120 -0.546309 -0.955024 18.000000
1.963697 -0.567948 -0.951947 11.000000
1.970525 -0.594656 -0.957241 17.000000
1.955361 -0.614796 -0.951920 13.000000
1.939842 -0.634735 -0.946815 10.000000
1.954245 -0.664699 -0.956364 18.000000
1.942607 -0.685960 -0.953223 10.000000
1.952105 -0.714856 -0.960433 9.000000
1.948453 -0.739109 -0.961339 11.000000
1.931943 -0.758412 -0.955826 10.000000
1.936273 -0.785992 -0.960767 16.000000
1.935880 -0.812180 -0.963816 11.000000
1.918725 -0.830984 -0.958099 10.000000
1.921914 -0.859011 -0.963076 14.000000
1.941647 -0.894517 -0.975915 11.000000
1.927640 -0.915228 -0.972408 9.000000
1.925727 -0.941770 -0.975045 16.000000
1.915378 -0.964193 -0.973464 10.000000
1.920990 -0.994923 -0.980064 14.000000
1.893674 -1.009039 -0.970446 11.000000
1.922650 -1.052995 -0.989215 13.000000
1.919220 -1.079778 -0.991485 16.000000
1.907060 -1.102478 -0.989864 10.000000
1.895194 -1.124514 -0.987800 9.000000
1.898257 -1.156417 -0.994272 10.000000
1.874303 -1.171080 -0.986005 10.000000
1.888225 -1.210343 -0.998393 10.000000
1.886270 -1.240126 -1.002533 10.000000
1.883922 -1.269953 -1.006574 10.000000
1.881256 -1.299896 -1.010513 10.000000
1.878114 -1.329954 -1.014427 9.000000
1.874723 -1.360045 -1.018239 9.000000
1.856146 -1.379318 -1.013914 9.000000
1.859349 -1.414920 -1.021541 9.000000
1.883712 -1.467618 -1.041030 11.000000
1.860642 -1.483921 -1.034500 10.000000
1.855228 -1.514322 -1.037851 10.000000
1.848667 -1.545376 -1.041492 10.000000
1.842554 -1.575879 -1.044624 9.000000
1.856753 -1.624536 -1.059562 9.000000
1.817939 -1.628424 -1.045212 9.000000
1.814164 -1.661916 -1.050065 10.000000
1.832469 -1.718247 -1.068989 11.000000
1.817546 -1.742678 -1.067775 10.000000
1.788237 -1.754702 -1.059097 9.000000
1.792415 -1.798216 -1.069362 10.000000
1.775706 -1.822958 -1.068354 9.000000
1.796834 -1.887615 -1.090411 9.000000
1.773860 -1.904929 -1.084953 9.000000
1.777725 -1.953420 -1.097113 10.000000
1.768447 -1.988437 -1.101445 10.000000
1.741637 -2.001765 -1.093855 9.000000
1.758600 -2.068329 -1.115135 10.000000
1.730024 -2.082170 -1.107854 10.000000
1.736355 -2.138735 -1.123160 9.000000
1.738841 -2.192191 -1.136371 9.000000
1.723396 -2.223919 -1.138218 9.000000
1.699129 -2.244481 -1.134420 9.000000
1.716062 -2.320636 -1.158372 10.000000
1.682566 -2.329845 -1.148818 9.000000
1.684026 -2.387927 -1.163155 10.000000
1.668657 -2.423396 -1.166398 9.000000
1.663044 -2.474172 -1.176738 9.000000
1.671981 -2.548599 -1.198041 9.000000
1.651928 -2.580252 -1.198910 9.000000
1.636457 -2.619789 -1.203468 9.000000
1.622684 -2.663199 -1.209561 9.000000
1.615340 -2.718786 -1.221074 9.000000
1.597655 -2.758430 -1.225181 9.000000
1.590804 -2.818273 -1.238150 9.000000
0.783246 1.396733 -0.599711 23.000000
0.805277 1.399351 -0.607340 18.000000
0.832115 1.409752 -0.618599 25.000000
0.844808 1.395659 -0.619228 21.000000
0.869573 1.401313 -0.628695 18.000000
0.879589 1.382930 -0.627543 25.000000
0.887682 1.360065 -0.624250 10.000000
0.907471 1.357147 -0.630188 23.000000
0.908878 1.326968 -0.623396 21.000000
0.928549 1.323647 -0.629287 18.000000
0.950943 1.323822 -0.636917 27.000000
0.965202 1.312340 -0.639160 22.000000
0.982153 1.304467 -0.643182 21.000000
0.996239 1.292631 -0.645325 26.000000
1.056267 1.339066 -0.676981 10.000000
1.021172 1.264969 -0.647705 26.000000
1.040811 1.259844 -0.653501 28.000000
1.059742 1.254902 -0.659537 25.000000
1.076386 1.245718 -0.663404 33.000000
1.117616 1.264025 -0.682278 26.000000
1.128282 1.247148 -0.682453 25.000000
1.154435 1.247226 -0.691989 26.000000
1.167371 1.233843 -0.694229 10.000000
1.171270 1.209816 -0.690443 35.000000
1.204013 1.215474 -0.703743 29.000000
1.226581 1.211271 -0.711669 29.000000
1.246605 1.202888 -0.717316 33.000000
1.263182 1.191122 -0.721064 28.000000
1.285868 1.185763 -0.728957 34.000000
1.305851 1.176498 -0.734548 32.000000
1.332132 1.173458 -0.744316 21.000000
1.338127 1.151408 -0.742203 32.000000
1.364444 1.147666 -0.751903 30.000000
1.380225 1.134587 -0.755800 28.000000
1.407195 1.129536 -0.765206 35.000000
1.433699 1.124385 -0.774888 29.000000
1.456737 1.115978 -0.782645 30.000000
1.464989 1.096115 -0.782506 29.000000
1.510165 1.103265 -0.802002 20.000000
1.507130 1.074835 -0.795841 33.000000
1.518752 1.057125 -0.797563 30.000000
1.579551 1.072754 -0.825005 32.000000
1.575867 1.044019 -0.818644 34.000000
1.618002 1.045322 -0.836206 30.000000
1.644928 1.035997 -0.845723 33.000000
1.679622 1.030974 -0.859199 34.000000
1.690513 1.011552 -0.861037 18.000000
1.725345 1.005376 -0.874515 49.000000
1.743953 0.989871 -0.880264 35.000000
1.778886 0.982496 -0.893677 31.000000
1.825589 0.981329 -0.913451 52.000000
1.856711 0.970287 -0.924792 32.000000
1.891514 0.961050 -0.938464 28.000000
1.926443 0.951102 -0.952177 26.000000
1.895422 0.908896 -0.933322 10.000000
1.917675 0.892499 -0.940822 23.000000
1.927283 0.870103 -0.942094 25.000000
1.923920 0.842285 -0.937534 19.000000
1.937247 0.821536 -0.940768 25.000000
1.954624 0.802281 -0.945909 23.000000
1.946211 0.772868 -0.939067 17.000000
1.958664 0.751950 -0.942377 25.000000
1.945289 0.721213 -0.933314 10.000000
1.935826 0.692438 -0.926210 18.000000
1.947567 0.671420 -0.929298 28.000000
1.928860 0.640118 -0.917847 17.000000
1.953163 0.623131 -0.926971 27.000000
1.942267 0.595202 -0.919821 22.000000
1.948800 0.572540 -0.920501 21.000000
1.954857 0.549878 -0.921386 24.000000
1.929936 0.518941 -0.907728 10.000000
1.953064 0.501025 -0.916810 21.000000
1.967178 0.480675 -0.921832 24.000000
1.967906 0.456696 -0.920371 20.000000
1.968273 0.432955 -0.919041 21.000000
1.972802 0.410175 -0.919717 24.000000
1.963739 0.384637 -0.914093 19.000000
1.972307 0.362700 -0.916642 20.000000
1.944841 0.334361 -0.902489 10.000000
1.984265 0.317593 -0.919732 23.000000
1.983073 0.293995 -0.918122 24.000000
1.995176 0.272211 -0.922691 25.000000
1.998015 0.249093 -0.922962 28.000000
1.987036 0.224445 -0.917181 27.000000
1.984798 0.201025 -0.915499 23.000000
1.991400 0.178455 -0.917853 26.000000
1.966033 0.153240 -0.905535 10.000000
1.981290 0.131361 -0.911861 22.000000
1.996167 0.109167 -0.918323 26.000000
1.992702 0.085876 -0.916370 27.000000
1.984491 0.062547 -0.912195 31.000000
1.966788 0.039246 -0.904043 28.000000
1.158387 -0.017081 -0.532365 96.000000
1.144567 -0.030146 -0.525987 94.000000
1.148684 -0.043546 -0.528036 95.000000
1.143605 -0.056602 -0.525833 89.000000
1.142952 -0.069829 -0.525718 83.000000
1.133041 -0.082397 -0.521469 22.000000
1.132050 -0.095520 -0.521355 95.000000
1.144515 -0.109908 -0.527418 98.000000
1.977100 -0.305951 -0.915033 21.000000
1.978228 -0.329525 -0.916507 15.000000
1.987892 -0.354869 -0.922335 10.000000
1.979426 -0.377053 -0.919717 21.000000
1.988612 -0.402609 -0.925265 19.000000
1.984120 -0.425611 -0.924584 24.000000
1.997246 -0.452568 -0.932053 22.000000
1.992096 -0.475777 -0.931435 22.000000
1.991361 -0.499819 -0.932541 19.000000
1.985856 -0.522873 -0.931715 16.000000
1.971226 -0.543437 -0.926693 11.000000
1.987151 -0.572557 -0.936042 19.000000
1.985071 -0.596938 -0.937410 18.000000
1.987311 -0.622573 -0.940345 21.000000
1.984671 -0.647068 -0.941494 21.000000
1.973155 -0.668666 -0.938462 17.000000
1.965764 -0.691539 -0.937416 18.000000
1.971017 -0.719031 -0.942377 14.000000
1.954621 -0.738617 -0.937091 10.000000
1.989014 -0.777810 -0.956195 23.000000
1.959428 -0.792249 -0.944566 15.000000
1.963164 -0.820421 -0.949620 18.000000
1.966643 -0.848674 -0.954445 18.000000
1.970076 -0.876862 -0.958966 14.000000
1.972813 -0.905556 -0.963684 16.000000
1.962811 -0.928459 -0.962234 13.000000
1.952591 -0.951290 -0.960712 10.000000
1.954493 -0.980055 -0.965175 26.000000
1.960037 -1.011129 -0.971561 15.000000
1.964808 -1.042732 -0.978214 19.000000
1.957556 -1.067690 -0.978444 19.000000
1.945592 -1.090727 -0.976883 15.000000
1.953706 -1.124597 -0.984961 19.000000
1.929332 -1.140498 -0.977239 10.000000
1.924936 -1.167489 -0.979138 9.000000
1.927551 -1.199734 -0.985302 18.000000
1.910391 -1.219849 -0.981427 11.000000
1.920013 -1.257248 -0.991440 10.000000
1.921377 -1.289993 -0.997295 14.000000
1.907227 -1.312449 -0.995219 10.000000
1.915379 -1.350563 -1.004887 10.000000
1.900594 -1.372975 -1.002631 10.000000
1.889349 -1.397811 -1.002257 9.000000
1.888815 -1.430914 -1.007745 16.000000
1.895080 -1.469844 -1.017022 10.000000
1.900822 -1.509046 -1.026161 11.000000
1.894578 -1.540361 -1.029738 16.000000
1.867370 -1.553515 -1.021255 10.000000
1.875225 -1.596068 -1.031969 12.000000
1.867815 -1.627486 -1.035390 9.000000
1.846998 -1.645965 -1.030517 9.000000
1.855889 -1.692861 -1.043325 17.000000
1.851390 -1.726799 -1.047903 10.000000
1.848874 -1.764746 -1.054679 11.000000
1.835914 -1.793232 -1.055699 14.000000
1.823492 -1.820857 -1.056189 10.000000
1.819537 -1.858984 -1.062754 12.000000
1.818162 -1.900671 -1.071067 9.000000
1.814144 -1.938474 -1.076911 9.000000
1.805326 -1.973577 -1.081259 16.000000
1.792853 -2.005432 -1.083606 12.000000
1.792188 -2.051132 -1.093280 14.000000
1.787795 -2.093543 -1.101017 13.000000
1.775104 -2.124596 -1.102585 10.000000
1.781216 -2.181604 -1.117479 20.000000
1.766152 -2.213591 -1.119294 9.000000
1.753526 -2.249176 -1.122904 9.000000
1.757226 -2.306971 -1.137325 15.000000
1.743251 -2.342735 -1.140705 10.000000
1.728760 -2.378478 -1.143938 16.000000
1.721848 -2.425502 -1.152442 10.000000
1.716825 -2.476616 -1.162753 10.000000
1.703094 -2.516347 -1.167382 13.000000
1.704294 -2.579372 -1.182662 9.000000
1.692304 -2.627981 -1.191085 9.000000
1.673977 -2.663924 -1.193585 13.000000
1.669773 -2.723621 -1.206631 10.000000
1.654899 -2.767628 -1.212394 14.000000
1.634476 -2.803469 -1.214674 11.000000
1.629697 -2.867842 -1.228906 13.000000
0.769171 1.400653 -0.580017 18.000000
0.792130 1.403120 -0.587281 26.000000
0.809452 1.397657 -0.591355 24.000000
0.819618 1.379825 -0.590213 21.000000
0.839214 1.377974 -0.595974 32.000000
0.856393 1.371925 -0.600023 23.000000
0.882086 1.376914 -0.609110 24.000000
0.871139 1.327167 -0.593829 19.000000
0.898423 1.336191 -0.604845 22.000000
0.915353 1.329284 -0.608814 26.000000
0.932314 1.322155 -0.612744 25.000000
0.952040 1.318594 -0.618463 24.000000
0.974548 1.318499 -0.625990 28.000000
0.988741 1.306824 -0.628132 23.000000
1.011398 1.306110 -0.635608 25.000000
1.005218 1.268422 -0.625104 23.000000
1.021815 1.260077 -0.628976 26.000000
1.044388 1.258621 -0.636434 34.000000
1.058045 1.246142 -0.638416 29.000000
1.080700 1.244099 -0.645871 32.000000
1.106568 1.245101 -0.655190 33.000000
1.126318 1.238818 -0.660828 26.000000
1.136008 1.222449 -0.661128 32.000000
1.146118 1.205497 -0.661199 24.000000
1.168997 1.201828 -0.668612 29.000000
1.195206 1.200998 -0.677859 60.000000
1.211046 1.190494 -0.681838 33.000000
1.244182 1.195309 -0.694832 34.000000
1.264053 1.186783 -0.700394 36.000000
1.283378 1.178385 -0.706147 36.000000
1.313583 1.178533 -0.717340 35.000000
1.312045 1.151088 -0.711765 22.000000
1.324815 1.135383 -0.713433 31.000000
1.347418 1.128937 -0.721024 46.000000
1.381415 1.130388 -0.733998 35.000000
1.415090 1.131570 -0.747322 35.000000
1.438577 1.123173 -0.754608 38.000000
1.457916 1.112019 -0.760246 35.000000
1.473552 1.097755 -0.763922 31.000000
1.481541 1.077854 -0.763760 25.000000
1.504456 1.068542 -0.771240 34.000000
1.550038 1.074549 -0.790278 35.000000
1.565465 1.058971 -0.793900 42.000000
1.584606 1.045717 -0.799344 49.000000
1.611416 1.037080 -0.808691 56.000000
1.642219 1.030402 -0.819953 36.000000
1.673033 1.023138 -0.831251 34.000000
1.699962 1.012930 -0.840500 31.000000
1.726570 1.002552 -0.850040 49.000000
1.749574 0.989011 -0.857316 54.000000
1.776489 0.977271 -0.866509 42.000000
1.811163 0.969764 -0.879936 51.000000
1.862280 0.969981 -0.901225 62.000000
1.889343 0.956313 -0.910309 36.000000
1.911904 0.940518 -0.917790 33.000000
1.930313 0.922244 -0.923169 18.000000
1.940197 0.899775 -0.924520 23.000000
1.949939 0.877163 -0.925871 28.000000
1.967805 0.858148 -0.931058 24.000000
1.964415 0.829800 -0.926296 22.000000
1.981629 0.810708 -0.931705 28.000000
1.977678 0.782490 -0.926711 23.000000
1.977402 0.756347 -0.923986 21.000000
1.946761 0.719149 -0.907161 18.000000
1.967377 0.701228 -0.914282 25.000000
1.948906 0.669479 -0.903282 23.000000
1.960463 0.648326 -0.906253 25.000000
1.971776 0.626935 -0.909090 21.000000
1.969780 0.601364 -0.905891 25.000000
1.967383 0.576064 -0.902891 24.000000
1.969062 0.552134 -0.901762 24.000000
1.992738 0.533952 -0.910382 18.000000
1.989587 0.508633 -0.907098 23.000000
1.994863 0.485750 -0.908058 29.000000
1.991161 0.460532 -0.904627 26.000000
1.995935 0.437615 -0.905377 24.000000
1.991758 0.412570 -0.901801 23.000000
2.000589 0.390427 -0.904372 22.000000
1.995615 0.365777 -0.901130 19.000000
2.031069 0.348077 -0.915750 20.000000
2.030273 0.323822 -0.914062 24.000000
2.011042 0.297070 -0.904382 26.000000
2.018692 0.274531 -0.906822 28.000000
2.007885 0.249566 -0.901331 22.000000
2.024136 0.227914 -0.907639 28.000000
2.017363 0.203654 -0.903907 27.000000
2.014915 0.179942 -0.902142 27.000000
2.030397 0.157750 -0.908455 18.000000
2.009317 0.132833 -0.898338 25.000000
2.037951 0.111109 -0.910833 26.000000
2.016234 0.086665 -0.900780 26.000000
2.012480 0.063254 -0.898742 31.000000
2.008453 0.039948 -0.896906 35.000000
1.163873 -0.030505 -0.519642 98.000000
1.154359 -0.043585 -0.515528 95.000000
1.162939 -0.057353 -0.519486 98.000000
1.166836 -0.071016 -0.521367 80.000000
1.175086 -0.085152 -0.525401 91.000000
1.943252 -0.253920 -0.871864 24.000000
2.003761 -0.285325 -0.899844 25.000000
2.009616 -0.309835 -0.903363 26.000000
2.006017 -0.333057 -0.903023 10.000000
2.011282 -0.357813 -0.906605 18.000000
2.016376 -0.382571 -0.909839 22.000000
2.025572 -0.408577 -0.915297 21.000000
2.029824 -0.433938 -0.918862 24.000000
2.011731 -0.454262 -0.911965 23.000000
