x y z intensity
1.406780 -1.753593 -1.070530 26.000000
1.393967 -1.777573 -1.071091 32.000000
1.385200 -1.809327 -1.076199 29.000000
1.356926 -1.815758 -1.066276 33.000000
1.335297 -1.828384 -1.060257 31.000000
1.317632 -1.848706 -1.058861 34.000000
1.289377 -1.854050 -1.048873 36.000000
1.267602 -1.865798 -1.042823 32.000000
1.254578 -1.893005 -1.045380 33.000000
1.233749 -1.908646 -1.041641 33.000000
1.205416 -1.912664 -1.031600 23.000000
1.197704 -1.946460 -1.037765 25.000000
1.180942 -1.969365 -1.037977 27.000000
1.163778 -1.992159 -1.038159 33.000000
0.712900 1.258628 -0.635607 24.000000
0.732567 1.261816 -0.644318 19.000000
0.746391 1.252421 -0.646703 28.000000
0.757686 1.239033 -0.647102 21.000000
0.756672 1.206229 -0.637225 11.000000
0.772279 1.200496 -0.641560 24.000000
0.790384 1.198313 -0.647967 22.000000
0.808607 1.195860 -0.654354 30.000000
0.818256 1.182396 -0.654797 26.000000
0.831274 1.172029 -0.656967 27.000000
0.825449 1.135835 -0.644583 35.000000
0.740278 0.994341 -0.571360 20.000000
0.720324 0.945720 -0.550297 22.000000
0.736337 0.943795 -0.556230 30.000000
0.746125 0.934933 -0.558164 35.000000
0.750707 0.918535 -0.555655 46.000000
0.749285 0.895260 -0.548785 32.000000
0.764496 0.893076 -0.554864 61.000000
0.771435 0.880116 -0.554311 46.000000
0.777669 0.867427 -0.553943 34.000000
0.783753 0.854693 -0.553521 32.000000
0.784022 0.835027 -0.548532 35.000000
0.789698 0.822320 -0.548033 95.000000
0.776332 0.790258 -0.534446 85.000000
0.788383 0.783709 -0.537976 72.000000
0.793524 0.771040 -0.537299 87.000000
0.798486 0.758335 -0.536610 67.000000
0.803306 0.745597 -0.535872 95.000000
0.804660 0.729811 -0.532883 85.000000
0.812489 0.720062 -0.534249 30.000000
0.827059 0.716035 -0.540042 85.000000
0.831382 0.703089 -0.539127 60.000000
0.835531 0.690115 -0.538200 95.000000
0.829092 0.668721 -0.530539 95.000000
0.801249 0.630952 -0.509396 74.000000
0.804593 0.618486 -0.508270 98.000000
0.811348 0.608684 -0.509344 95.000000
0.814119 0.596381 -0.508341 38.000000
0.831565 0.594234 -0.516103 98.000000
0.848831 0.591965 -0.524067 95.000000
0.840597 0.571566 -0.515971 98.000000
0.846685 0.561546 -0.517119 95.000000
0.845190 0.546551 -0.513652 98.000000
0.847492 0.533867 -0.512203 98.000000
0.853191 0.523705 -0.513199 95.000000
0.847371 0.506627 -0.507305 74.000000
0.852825 0.496431 -0.508219 100.000000
0.858211 0.486167 -0.509100 100.000000
0.859572 0.473726 -0.507650 98.000000
0.864731 0.463373 -0.508459 100.000000
0.861718 0.449021 -0.504827 98.000000
0.862673 0.436625 -0.503220 100.000000
0.871241 0.428336 -0.506397 100.000000
0.851987 0.406363 -0.493173 62.000000
0.852289 0.394362 -0.491602 98.000000
0.852455 0.382392 -0.490024 95.000000
0.860603 0.373983 -0.493058 100.000000
0.860536 0.361980 -0.491376 98.000000
0.864464 0.351677 -0.491988 95.000000
0.868263 0.341342 -0.492535 100.000000
0.871998 0.330943 -0.493082 95.000000
0.887922 0.325167 -0.500746 61.000000
0.878984 0.310112 -0.494209 98.000000
0.878087 0.298228 -0.492444 100.000000
0.864473 0.282301 -0.483567 105.000000
0.888579 0.278625 -0.495819 105.000000
0.887347 0.266762 -0.493886 103.000000
0.864672 0.248961 -0.480366 105.000000
0.897143 0.246815 -0.497203 100.000000
0.891222 0.233951 -0.492969 91.000000
0.893678 0.223396 -0.493384 100.000000
0.891782 0.211758 -0.491404 100.000000
0.894036 0.201157 -0.491753 100.000000
0.891885 0.189609 -0.489673 100.000000
0.893970 0.178996 -0.489894 105.000000
0.891506 0.167601 -0.487873 103.000000
0.897571 0.157802 -0.490557 100.000000
0.886212 0.145025 -0.483697 85.000000
0.879065 0.133185 -0.479171 103.000000
0.884780 0.123406 -0.481821 103.000000
0.877381 0.111793 -0.477197 105.000000
0.891660 0.102909 -0.484506 103.000000
0.879590 0.090998 -0.477534 105.000000
0.880479 0.080601 -0.477811 103.000000
0.885723 0.070522 -0.480218 103.000000
0.864460 0.058557 -0.468482 84.000000
0.869422 0.048551 -0.470951 103.000000
0.856755 0.037699 -0.463875 100.000000
0.865933 0.027835 -0.468632 103.000000
0.861747 0.017496 -0.466343 103.000000
0.875058 0.007409 -0.473512 103.000000
0.936653 -0.003153 -0.506824 103.000000
1.002545 -0.015238 -0.542446 98.000000
1.059523 -0.028647 -0.573228 95.000000
1.063513 -0.041320 -0.575607 95.000000
1.071782 -0.054358 -0.580289 95.000000
1.071111 -0.067054 -0.580140 71.000000
1.052820 -0.078406 -0.570447 95.000000
1.056250 -0.091235 -0.572750 98.000000
1.059636 -0.104132 -0.574794 98.000000
1.058455 -0.116687 -0.574573 91.000000
1.057162 -0.129205 -0.574314 98.000000
1.059973 -0.142309 -0.576539 103.000000
1.062772 -0.155479 -0.578539 95.000000
1.065370 -0.168752 -0.580649 95.000000
1.050442 -0.179129 -0.573206 20.000000
1.334388 -0.243774 -0.729066 76.000000
1.626422 -0.337043 -0.891245 29.000000
1.639842 -0.360094 -0.900119 25.000000
1.640066 -0.380566 -0.901841 21.000000
1.648716 -0.403117 -0.908218 25.000000
1.635768 -0.420426 -0.902682 16.000000
1.631151 -0.439770 -0.901747 9.000000
1.617692 -0.456774 -0.896341 21.000000
1.638207 -0.483337 -0.909393 21.000000
1.636993 -0.504064 -0.910855 21.000000
1.627223 -0.522133 -0.907622 19.000000
1.621495 -0.541384 -0.906559 16.000000
1.628114 -0.564922 -0.912515 19.000000
1.617529 -0.582883 -0.909285 14.000000
1.615379 -0.603543 -0.910373 9.000000
1.621029 -0.627555 -0.916356 18.000000
1.622227 -0.650156 -0.919935 18.000000
1.619143 -0.671199 -0.921055 21.000000
1.611711 -0.690414 -0.919786 17.000000
1.608209 -0.711360 -0.920776 15.000000
1.612549 -0.735962 -0.926331 21.000000
1.608564 -0.756954 -0.927178 15.000000
1.588028 -0.770481 -0.919027 10.000000
1.603585 -0.801145 -0.931217 21.000000
1.586690 -0.816317 -0.925258 14.000000
1.593743 -0.843273 -0.932668 21.000000
1.596096 -0.868726 -0.938061 23.000000
1.578727 -0.883481 -0.931859 18.000000
1.588252 -0.913383 -0.941673 23.000000
1.562933 -0.923317 -0.930787 13.000000
1.598520 -0.969635 -0.956305 10.000000
1.580384 -0.983961 -0.949901 20.000000
1.573040 -1.005559 -0.950576 19.000000
1.562171 -1.024228 -0.948530 23.000000
1.573322 -1.057701 -0.959972 19.000000
1.572477 -1.084368 -0.964920 21.000000
1.553558 -1.097826 -0.958201 19.000000
1.544956 -1.119233 -0.958496 16.000000
1.551050 -1.150730 -0.967280 10.000000
1.538262 -1.169517 -0.965237 14.000000
1.553589 -1.210040 -0.980896 18.000000
1.543729 -1.231632 -0.980905 22.000000
1.530203 -1.250204 -0.978549 18.000000
1.523353 -1.274396 -0.980621 17.000000
1.519582 -1.301468 -0.984812 21.000000
1.512178 -1.325693 -0.986699 12.000000
1.514470 -1.358876 -0.995085 11.000000
1.496367 -1.374015 -0.990267 18.000000
1.491372 -1.401186 -0.994063 21.000000
1.489215 -1.431573 -1.000000 24.000000
1.499494 -1.474624 -1.014508 21.000000
1.482819 -1.493152 -1.011871 20.000000
1.476280 -1.520601 -1.015359 21.000000
1.460001 -1.538243 -1.012276 11.000000
1.458065 -1.572872 -1.020218 15.000000
1.459602 -1.610355 -1.029802 16.000000
1.469492 -1.658206 -1.045706 22.000000
1.447988 -1.672954 -1.040513 28.000000
1.445004 -1.707472 -1.047685 23.000000
1.437480 -1.739307 -1.052976 32.000000
1.412407 -1.750032 -1.045493 52.000000
1.377228 -1.745461 -1.029182 47.000000
1.360634 -1.766105 -1.027986 51.000000
1.355872 -1.800437 -1.034670 29.000000
1.338660 -1.820827 -1.033344 33.000000
1.313182 -1.830041 -1.025711 35.000000
1.292940 -1.846355 -1.022237 32.000000
1.276479 -1.865449 -1.020290 35.000000
1.253437 -1.877550 -1.014683 32.000000
1.232817 -1.893109 -1.010983 29.000000
1.216943 -1.916153 -1.011351 32.000000
1.207968 -1.950750 -1.017773 25.000000
1.186520 -1.965840 -1.013943 30.000000
1.160202 -1.972809 -1.006088 30.000000
1.144621 -1.994565 -1.005823 28.000000
0.719313 1.261280 -0.623022 19.000000
0.723776 1.236269 -0.617468 14.000000
0.746652 1.242861 -0.627747 13.000000
0.765013 1.241266 -0.634098 19.000000
0.758917 1.200673 -0.620416 10.000000
0.784424 1.210377 -0.632682 18.000000
0.786611 1.185706 -0.627116 22.000000
0.807279 1.187178 -0.635417 16.000000
0.825488 1.184566 -0.641634 18.000000
0.830451 1.163100 -0.637739 17.000000
0.821651 1.123273 -0.623487 18.000000
0.751240 1.003891 -0.564217 14.000000
0.737328 0.961985 -0.547537 9.000000
0.761939 0.970722 -0.559607 27.000000
0.769139 0.958035 -0.559479 18.000000
0.756584 0.920374 -0.544581 25.000000
0.763812 0.907462 -0.544135 29.000000
0.773291 0.898303 -0.545927 19.000000
0.780206 0.885300 -0.545383 32.000000
0.786453 0.872568 -0.545063 21.000000
0.789988 0.856144 -0.542345 19.000000
0.795898 0.843359 -0.541914 35.000000
0.798982 0.826965 -0.539076 26.000000
0.807703 0.817392 -0.540703 59.000000
0.809956 0.801304 -0.537984 32.000000
0.815666 0.788128 -0.537190 34.000000
0.807638 0.762782 -0.527953 63.000000
0.815783 0.753060 -0.529379 33.000000
0.827165 0.746246 -0.532963 34.000000
0.825049 0.727354 -0.527867 32.000000
0.832867 0.717376 -0.529208 31.000000
0.837166 0.704424 -0.528337 35.000000
0.848244 0.697159 -0.531777 36.000000
0.845280 0.678474 -0.526489 42.000000
0.838483 0.657160 -0.518944 36.000000
0.842075 0.644268 -0.517870 35.000000
0.831108 0.620643 -0.507991 78.000000
0.830621 0.605276 -0.504641 26.000000
0.833326 0.592857 -0.503655 54.000000
0.847198 0.587845 -0.509056 74.000000
0.849700 0.575295 -0.507961 61.000000
0.856059 0.564987 -0.508904 73.000000
0.854506 0.549939 -0.505534 62.000000
0.856811 0.537205 -0.504134 43.000000
0.866387 0.529330 -0.507369 73.000000
0.848983 0.505256 -0.494903 26.000000
0.869877 0.504101 -0.504753 95.000000
0.871411 0.491504 -0.503398 90.000000
0.872829 0.478931 -0.502002 83.000000
0.874064 0.466384 -0.500564 95.000000
0.879145 0.455917 -0.501343 95.000000
0.879940 0.443511 -0.499995 95.000000
0.892803 0.436874 -0.505200 95.000000
0.885526 0.420422 -0.499075 42.000000
0.857627 0.395041 -0.481671 95.000000
0.853670 0.381253 -0.477864 88.000000
0.857739 0.371095 -0.478537 85.000000
0.861745 0.360905 -0.479210 95.000000
0.869744 0.352321 -0.482104 91.000000
0.873543 0.341986 -0.482683 88.000000
0.873088 0.330016 -0.480908 94.000000
0.880852 0.321123 -0.483713 35.000000
0.888423 0.312197 -0.486620 100.000000
0.891722 0.301683 -0.487203 100.000000
0.882420 0.286922 -0.480659 95.000000
0.898160 0.280430 -0.488076 103.000000
0.905419 0.271060 -0.490833 100.000000
0.903983 0.259177 -0.489111 98.000000
0.898242 0.246094 -0.484850 100.000000
0.905095 0.236641 -0.487641 95.000000
0.894797 0.222676 -0.480994 100.000000
0.901459 0.213095 -0.483689 100.000000
0.903723 0.202443 -0.484040 98.000000
0.901462 0.190906 -0.482168 103.000000
0.903525 0.180210 -0.482422 98.000000
0.905398 0.169578 -0.482771 100.000000
0.902814 0.158118 -0.480766 98.000000
0.908857 0.148186 -0.483342 95.000000
0.892905 0.134784 -0.474265 100.000000
0.898752 0.124841 -0.476746 103.000000
0.895613 0.113710 -0.474670 105.000000
0.905588 0.104138 -0.479543 103.000000
0.897854 0.092574 -0.475043 108.000000
0.898819 0.081960 -0.475137 105.000000
0.899722 0.071345 -0.475199 103.000000
0.895993 0.060464 -0.473024 100.000000
0.870081 0.048426 -0.459134 100.000000
0.870562 0.038176 -0.459194 103.000000
0.870953 0.027896 -0.459194 103.000000
0.888883 0.018003 -0.468609 110.000000
0.995155 0.008411 -0.524597 105.000000
1.017305 -0.003369 -0.536255 100.000000
1.034926 -0.015639 -0.545510 98.000000
1.074508 -0.028884 -0.566379 98.000000
1.078558 -0.041736 -0.568673 95.000000
1.077999 -0.054432 -0.568599 95.000000
1.077366 -0.067128 -0.568450 74.000000
1.067797 -0.079170 -0.563606 62.000000
1.071245 -0.092141 -0.565823 100.000000
1.065766 -0.104354 -0.563347 98.000000
1.068946 -0.117392 -0.565453 98.000000
1.072042 -0.130496 -0.567519 98.000000
1.066203 -0.142531 -0.564859 98.000000
1.073333 -0.156377 -0.569321 95.000000
1.084659 -0.171121 -0.576028 33.000000
1.604803 -0.311535 -0.855328 27.000000
1.635972 -0.337675 -0.873412 17.000000
1.649667 -0.360618 -0.881807 19.000000
1.654294 -0.382088 -0.885793 22.000000
1.667260 -0.405802 -0.894276 18.000000
1.658358 -0.424426 -0.891376 19.000000
1.657989 -0.445071 -0.892800 14.000000
1.640215 -0.461133 -0.885176 10.000000
1.643751 -0.482853 -0.888726 18.000000
1.642636 -0.503591 -0.890143 12.000000
1.637085 -0.522960 -0.889198 13.000000
1.639550 -0.545251 -0.893081 16.000000
1.637814 -0.565993 -0.894246 15.000000
1.640052 -0.588275 -0.897635 12.000000
1.645974 -0.612366 -0.903541 10.000000
1.626714 -0.627095 -0.895662 10.000000
1.648639 -0.657897 -0.910560 21.000000
1.633167 -0.674045 -0.904784 15.000000
1.638062 -0.698608 -0.910339 16.000000
1.630432 -0.717957 -0.908997 17.000000
1.614506 -0.733497 -0.903055 10.000000
1.618660 -0.758177 -0.908393 13.000000
1.618186 -0.781390 -0.911694 11.000000
1.609454 -0.800699 -0.910403 10.000000
1.616796 -0.827712 -0.917700 16.000000
1.603655 -0.844883 -0.914020 10.000000
1.610008 -0.872476 -0.921461 15.000000
1.604277 -0.893795 -0.922141 13.000000
1.578976 -0.903975 -0.911552 10.000000
1.572957 -0.924935 -0.912048 10.000000
1.589685 -0.959801 -0.925923 10.000000
1.571689 -0.973893 -0.919570 9.000000
1.598449 -1.016901 -0.940287 11.000000
1.583788 -1.033300 -0.936003 10.000000
1.583374 -1.059841 -0.940907 10.000000
1.575724 -1.081056 -0.940975 14.000000
1.559963 -1.097389 -0.936886 10.000000
1.559219 -1.123618 -0.941213 10.000000
1.579337 -1.166316 -0.959005 10.000000
1.544895 -1.169045 -0.943733 9.000000
1.560441 -1.209635 -0.959107 10.000000
1.547178 -1.228324 -0.956896 10.000000
1.544127 -1.255400 -0.961142 10.000000
1.537361 -1.279644 -0.963120 13.000000
1.523405 -1.298004 -0.960681 10.000000
1.533039 -1.336979 -0.973350 10.000000
1.531987 -1.367305 -0.979344 10.000000
1.493926 -1.364248 -0.961680 9.000000
1.525384 -1.425210 -0.988983 14.000000
1.506747 -1.440273 -0.984029 10.000000
1.500198 -1.468196 -0.987954 10.000000
1.494078 -1.495646 -0.991420 10.000000
1.474951 -1.510148 -0.986311 10.000000
1.483058 -1.554517 -1.000567 10.000000
1.481965 -1.588675 -1.007979 10.000000
1.476431 -1.620293 -1.013522 9.000000
1.492568 -1.675059 -1.033212 23.000000
1.473874 -1.693376 -1.030197 24.000000
1.453062 -1.707325 -1.024651 35.000000
1.425378 -1.714656 -1.015276 36.000000
1.400647 -1.725082 -1.008004 29.000000
1.382553 -1.741613 -1.004430 34.000000
1.363341 -1.758590 -1.001228 27.000000
1.352168 -1.786258 -1.004087 10.000000
1.339020 -1.809557 -1.004415 31.000000
1.324436 -1.833440 -1.005091 24.000000
1.291095 -1.830995 -0.991499 27.000000
1.273501 -1.850690 -0.990076 27.000000
1.255750 -1.870225 -0.988564 25.000000
1.234093 -1.881108 -0.982659 28.000000
1.216036 -1.900179 -0.980982 24.000000
1.200024 -1.922979 -0.981352 10.000000
1.186154 -1.949597 -0.983595 25.000000
1.162500 -1.960356 -0.977832 21.000000
1.145607 -1.982775 -0.977975 24.000000
0.698276 1.248637 -0.596434 28.000000
0.714148 1.243839 -0.600683 21.000000
0.730012 1.238840 -0.604948 31.000000
0.738719 1.221770 -0.603340 29.000000
0.768895 1.239926 -0.619237 24.000000
0.760131 1.195417 -0.603912 20.000000
0.768082 1.178270 -0.602185 15.000000
0.788531 1.180156 -0.610258 26.000000
0.796169 1.162774 -0.608416 32.000000
0.814133 1.160400 -0.614501 22.000000
0.816067 1.135419 -0.608641 34.000000
0.773426 1.051920 -0.570861 23.000000
0.760120 1.009437 -0.554645 29.000000
0.748843 0.971017 -0.540326 20.000000
0.770811 0.976089 -0.550134 21.000000
0.760759 0.942073 -0.537877 46.000000
0.768201 0.929132 -0.537458 34.000000
0.778433 0.919665 -0.539110 32.000000
0.784995 0.906952 -0.538874 65.000000
0.785959 0.887045 -0.534235 37.000000
0.795758 0.877325 -0.535782 89.000000
0.789443 0.851154 -0.527151 30.000000
0.801992 0.844727 -0.530664 30.000000
0.817234 0.841681 -0.536424 93.000000
0.816486 0.822283 -0.531782 37.000000
0.815916 0.802650 -0.526871 95.000000
0.814638 0.783444 -0.522081 68.000000
0.816763 0.767202 -0.519131 90.000000
0.818224 0.751307 -0.516348 95.000000
0.822889 0.738486 -0.515618 35.000000
0.837592 0.734592 -0.521196 36.000000
0.838601 0.718679 -0.518299 59.000000
0.842839 0.705722 -0.517473 46.000000
0.839941 0.687012 -0.512329 95.000000
0.815599 0.651520 -0.494280 84.000000
0.822648 0.641721 -0.495408 88.000000
0.826036 0.629082 -0.494351 95.000000
0.850986 0.632610 -0.506210 37.000000
0.850569 0.617058 -0.502932 59.000000
0.853610 0.604214 -0.501801 62.000000
0.856240 0.591599 -0.500836 81.000000
0.859026 0.578755 -0.499580 95.000000
0.857853 0.563459 -0.496176 75.000000
0.863837 0.553301 -0.497219 95.000000
0.854424 0.533579 -0.489521 95.000000
0.864178 0.525558 -0.492496 62.000000
0.869808 0.515327 -0.493458 82.000000
0.867521 0.500505 -0.489956 76.000000
0.872897 0.490194 -0.490841 95.000000
0.874233 0.477665 -0.489487 95.000000
0.879416 0.467265 -0.490266 95.000000
0.884463 0.456798 -0.491045 100.000000
0.889443 0.446229 -0.491790 95.000000
0.874145 0.425815 -0.481376 95.000000
0.886747 0.419380 -0.486648 64.000000
0.883185 0.405021 -0.482800 59.000000
0.891579 0.396442 -0.485790 82.000000
0.895804 0.385931 -0.486488 95.000000
0.883416 0.368433 -0.478248 95.000000
0.891514 0.359657 -0.481106 95.000000
0.882891 0.344222 -0.474975 95.000000
0.886611 0.333773 -0.475493 98.000000
0.907031 0.329359 -0.484991 98.000000
0.906277 0.317205 -0.483369 98.000000
0.913986 0.307870 -0.486046 98.000000
0.891737 0.288872 -0.473090 95.000000
0.894813 0.278361 -0.473570 98.000000
0.889243 0.265237 -0.469536 98.000000
0.887811 0.253507 -0.467689 103.000000
0.890559 0.243020 -0.468037 95.000000
0.901714 0.234812 -0.473037 95.000000
0.869683 0.215550 -0.455207 95.000000
0.880629 0.207380 -0.460139 98.000000
0.874130 0.195062 -0.455943 100.000000
0.871857 0.183838 -0.453949 95.000000
0.899961 0.178823 -0.467976 100.000000
0.879988 0.164147 -0.456801 95.000000
0.881706 0.153811 -0.457108 98.000000
0.918489 0.149154 -0.475557 95.000000
0.915649 0.137681 -0.473503 95.000000
0.917109 0.126890 -0.473662 98.000000
0.922826 0.116689 -0.476226 98.000000
0.924038 0.105846 -0.476418 98.000000
0.920696 0.094548 -0.474297 100.000000
0.926111 0.084128 -0.476705 98.000000
0.922568 0.072903 -0.474487 98.000000
0.896634 0.060289 -0.460954 83.000000
0.888367 0.049255 -0.456482 95.000000
0.893299 0.039012 -0.458826 100.000000
1.067468 -0.016040 -0.547925 108.000000
1.053944 -0.028207 -0.540967 95.000000
1.057992 -0.040746 -0.543213 95.000000
1.061926 -0.053390 -0.545423 95.000000
1.061306 -0.065862 -0.545277 36.000000
1.069415 -0.078953 -0.549656 95.000000
1.068459 -0.091530 -0.549546 98.000000
1.071822 -0.104501 -0.551678 98.000000
1.070640 -0.117093 -0.551457 98.000000
1.069348 -0.129648 -0.551198 95.000000
1.067908 -0.142166 -0.550866 100.000000
1.105938 -0.160475 -0.571123 73.000000
1.659864 -0.280720 -0.859175 10.000000
1.683047 -0.304922 -0.872227 24.000000
1.683905 -0.325631 -0.874087 22.000000
1.671651 -0.343517 -0.868728 22.000000
1.680858 -0.365998 -0.874943 24.000000
1.676793 -0.385729 -0.874296 25.000000
1.676886 -0.406452 -0.875793 26.000000
1.680922 -0.428437 -0.879785 22.000000
1.654746 -0.442383 -0.867539 10.000000
1.666951 -0.466647 -0.875865 17.000000
1.666023 -0.487556 -0.877292 17.000000
1.664891 -0.508447 -0.878654 19.000000
1.667806 -0.530734 -0.882203 22.000000
1.653525 -0.547485 -0.876691 16.000000
1.664232 -0.572820 -0.884841 19.000000
1.662247 -0.593802 -0.885881 19.000000
1.626337 -0.602579 -0.869235 9.000000
1.652981 -0.634581 -0.886130 16.000000
1.650128 -0.655750 -0.887277 17.000000
1.647058 -0.676896 -0.888297 17.000000
1.647888 -0.699768 -0.891479 21.000000
1.632058 -0.715521 -0.885686 11.000000
1.640670 -0.742034 -0.893177 16.000000
1.636388 -0.763435 -0.894230 14.000000
1.611988 -0.774792 -0.883832 9.000000
1.635552 -0.809889 -0.900249 20.000000
1.622550 -0.827227 -0.896674 13.000000
1.625303 -0.852687 -0.901802 15.000000
1.627795 -0.878304 -0.906908 18.000000
1.614249 -0.895362 -0.903139 12.000000
1.627825 -0.927777 -0.914669 12.000000
1.613892 -0.944722 -0.910698 13.000000
1.580479 -0.949802 -0.895811 9.000000
1.627213 -1.004200 -0.927029 17.000000
1.612579 -1.020923 -0.922906 13.000000
1.612913 -1.047237 -0.927417 12.000000
1.616250 -1.076514 -0.934329 18.000000
1.600493 -1.093306 -0.930389 10.000000
1.596269 -1.117178 -0.932476 11.000000
1.587543 -1.138858 -0.932718 10.000000
1.556738 -1.144451 -0.919988 8.000000
1.583819 -1.192955 -0.941489 13.000000
1.570690 -1.211845 -0.939346 12.000000
1.578712 -1.247353 -0.950011 13.000000
1.572098 -1.271852 -0.951962 16.000000
1.554698 -1.287654 -0.947519 10.000000
1.554497 -1.317810 -0.953545 16.000000
1.540215 -1.336281 -0.951073 10.000000
1.532576 -1.360566 -0.952748 8.000000
1.544751 -1.403107 -0.967014 15.000000
1.546287 -1.436877 -0.974757 10.000000
1.546490 -1.471332 -0.982800 13.000000
1.527528 -1.486450 -0.977918 14.000000
1.530109 -1.524311 -0.987820 13.000000
1.536184 -1.565088 -0.999362 23.000000
1.506952 -1.570042 -0.988005 12.000000
1.536111 -1.638268 -1.016150 10.000000
1.512723 -1.649603 -1.008807 32.000000
1.491249 -1.664636 -1.003836 30.000000
1.475712 -1.686239 -1.002963 34.000000
1.446227 -1.689668 -0.991374 35.000000
1.433289 -1.714291 -0.992386 35.000000
1.408552 -1.724668 -0.985280 42.000000
1.387713 -1.737589 -0.979772 31.000000
1.388293 -1.779768 -0.990649 23.000000
1.349225 -1.771183 -0.973394 28.000000
1.340666 -1.802359 -0.978116 24.000000
1.316653 -1.810640 -0.970400 31.000000
1.304743 -1.837953 -0.972995 26.000000
1.274124 -1.838734 -0.961724 26.000000
1.246261 -1.842916 -0.952402 28.000000
1.243833 -1.885004 -0.962655 27.000000
1.235762 -1.919563 -0.968901 16.000000
1.207450 -1.922998 -0.959430 20.000000
1.186537 -1.937817 -0.955744 20.000000
1.160596 -1.944491 -0.948271 25.000000
1.141714 -1.962790 -0.946523 18.000000
1.129351 -1.992900 -0.950435 21.000000
0.700867 1.242555 -0.579991 32.000000
0.711989 1.229808 -0.580356 35.000000
0.727656 1.224932 -0.584456 29.000000
0.740909 1.215908 -0.586711 33.000000
0.761365 1.218498 -0.594609 32.000000
0.757078 1.181887 -0.583406 17.000000
0.767302 1.168660 -0.583613 32.000000
0.782544 1.163008 -0.587627 27.000000
0.800392 1.160947 -0.593594 32.000000
0.809551 1.147799 -0.593935 30.000000
0.824766 1.141523 -0.597936 29.000000
0.771524 1.042655 -0.552890 36.000000
0.766227 1.011205 -0.542937 30.000000
0.763180 0.983624 -0.534838 24.000000
0.782457 0.985064 -0.542473 30.000000
0.772367 0.950894 -0.530488 32.000000
0.774001 0.930824 -0.526139 59.000000
0.790134 0.928337 -0.531748 35.000000
0.793781 0.912092 -0.529523 47.000000
0.794637 0.892130 -0.525019 64.000000
0.804474 0.882372 -0.526532 48.000000
0.804321 0.862821 -0.522133 39.000000
0.813848 0.852979 -0.523551 35.000000
0.822824 0.843334 -0.525165 95.000000
0.825703 0.826797 -0.522461 95.000000
0.840933 0.823375 -0.528117 86.000000
0.827002 0.791039 -0.515052 95.000000
0.825405 0.771897 -0.510334 92.000000
0.833617 0.762058 -0.511772 79.000000
0.835340 0.745778 -0.508809 73.000000
0.839832 0.732877 -0.508086 35.000000
0.844223 0.719907 -0.507316 60.000000
0.848438 0.706945 -0.506497 86.000000
0.848994 0.691088 -0.503579 82.000000
0.852905 0.678113 -0.502661 98.000000
0.835139 0.648451 -0.489138 93.000000
0.842143 0.638460 -0.490240 95.000000
0.849076 0.628399 -0.491307 81.000000
0.859576 0.620884 -0.494486 35.000000
0.862622 0.607991 -0.493369 95.000000
0.858078 0.589951 -0.487999 91.000000
0.860497 0.577357 -0.486995 93.000000
0.874427 0.572001 -0.492165 95.000000
0.873076 0.556636 -0.488777 98.000000
0.878947 0.546363 -0.489791 95.000000
0.888856 0.538150 -0.492737 95.000000
0.875130 0.516220 -0.482986 50.000000
0.880657 0.505886 -0.483879 98.000000
0.882109 0.493281 -0.482617 95.000000
0.891369 0.484978 -0.485596 98.000000
0.896622 0.474438 -0.486420 98.000000
0.905745 0.465890 -0.489340 98.000000
0.906750 0.453117 -0.487930 103.000000
0.907607 0.440405 -0.486445 98.000000
0.883913 0.416179 -0.471906 80.000000
0.900565 0.411459 -0.479202 95.000000
0.896868 0.397108 -0.475445 57.000000
0.901060 0.386563 -0.476143 98.000000
0.892728 0.370778 -0.470247 98.000000
0.896697 0.360280 -0.470903 98.000000
0.904757 0.351343 -0.473654 98.000000
0.908514 0.340664 -0.474214 95.000000
0.916429 0.331480 -0.476939 76.000000
0.915798 0.319175 -0.475203 98.000000
0.919160 0.308463 -0.475796 100.000000
0.918251 0.296209 -0.473987 100.000000
0.899972 0.278810 -0.463477 100.000000
0.894321 0.265681 -0.459507 105.000000
0.901491 0.256403 -0.462162 103.000000
0.899939 0.244607 -0.460300 98.000000
0.928511 0.240854 -0.474068 95.000000
0.909368 0.224544 -0.463311 98.000000
0.907366 0.212869 -0.461475 100.000000
0.883380 0.196403 -0.448502 100.000000
0.885476 0.186046 -0.448810 100.000000
0.883055 0.174759 -0.446834 100.000000
0.884865 0.164453 -0.447171 105.000000
0.890993 0.154854 -0.449704 98.000000
0.923623 0.149377 -0.465415 92.000000
0.925122 0.138598 -0.465766 100.000000
0.931023 0.128366 -0.468187 98.000000
0.927960 0.116912 -0.466085 105.000000
0.933618 0.106544 -0.468507 103.000000
0.939159 0.096073 -0.470932 100.000000
0.935701 0.084691 -0.468796 105.000000
0.936598 0.073732 -0.468860 100.000000
0.928376 0.062175 -0.464553 89.000000
0.915581 0.050581 -0.457978 105.000000
1.498084 0.030159 -0.748659 40.000000
1.601156 0.013493 -0.800114 29.000000
1.511758 -0.004951 -0.755415 35.000000
1.077248 -0.041334 -0.538403 105.000000
1.063330 -0.053239 -0.531592 100.000000
1.062713 -0.065695 -0.531447 94.000000
1.070874 -0.078735 -0.535730 91.000000
1.078838 -0.092020 -0.540084 95.000000
1.077767 -0.104649 -0.539936 98.000000
1.081034 -0.117725 -0.541945 98.000000
1.070850 -0.129296 -0.537227 98.000000
1.109276 -0.147133 -0.557098 95.000000
1.642542 -0.276775 -0.827714 21.000000
1.701178 -0.307099 -0.858275 24.000000
1.684625 -0.324348 -0.850845 21.000000
1.698499 -0.347695 -0.859259 23.000000
1.690281 -0.366646 -0.856449 23.000000
1.699323 -0.389380 -0.862393 26.000000
1.708121 -0.412361 -0.868267 25.000000
1.699051 -0.431355 -0.865515 20.000000
1.711731 -0.455778 -0.873405 15.000000
1.706668 -0.475849 -0.872621 20.000000
1.697057 -0.494544 -0.869630 17.000000
1.682999 -0.511832 -0.864319 23.000000
1.685995 -0.534223 -0.867767 22.000000
1.675659 -0.552656 -0.864785 24.000000
1.678159 -0.575117 -0.868101 20.000000
1.676003 -0.596332 -0.869332 21.000000
1.677787 -0.619203 -0.872751 14.000000
1.666726 -0.637274 -0.869528 17.000000
1.668061 -0.660150 -0.872813 20.000000
1.665039 -0.681396 -0.873779 20.000000
1.661737 -0.702619 -0.874679 16.000000
1.662338 -0.725616 -0.877688 19.000000
1.662369 -0.748993 -0.880932 18.000000
1.646165 -0.764603 -0.875106 13.000000
1.666063 -0.797653 -0.889055 16.000000
1.645115 -0.811317 -0.881245 16.000000
1.640131 -0.832797 -0.882041 16.000000
1.638974 -0.856273 -0.884926 15.000000
1.645488 -0.884084 -0.892043 18.000000
1.631872 -0.901232 -0.888313 16.000000
1.641678 -0.931532 -0.897345 18.000000
1.647150 -0.959893 -0.904194 18.000000
1.656176 -0.990813 -0.913083 10.000000
1.641182 -1.008188 -0.909449 17.000000
1.634153 -1.029775 -0.909629 18.000000
1.630286 -1.054106 -0.912188 22.000000
1.626049 -1.078552 -0.914731 18.000000
1.629524 -1.107678 -0.921030 16.000000
1.613593 -1.124403 -0.917058 14.000000
1.615900 -1.154148 -0.923572 13.000000
1.606862 -1.176008 -0.923671 10.000000
1.586672 -1.189587 -0.917396 10.000000
1.613213 -1.238809 -0.938369 21.000000
1.603248 -1.260757 -0.938203 18.000000
1.596557 -1.285435 -0.940111 16.000000
1.593115 -1.312967 -0.944009 20.000000
1.592755 -1.343474 -0.949880 19.000000
1.578219 -1.362273 -0.947434 13.000000
1.577198 -1.392923 -0.953101 19.000000
1.561478 -1.412027 -0.950845 10.000000
1.569750 -1.452099 -0.962532 14.000000
1.567404 -1.483033 -0.967999 18.000000
1.560640 -1.511541 -0.971669 17.000000
1.563985 -1.549128 -0.980975 29.000000
1.549836 -1.571357 -0.980357 27.000000
1.549052 -1.605941 -0.987452 32.000000
1.531181 -1.624706 -0.984697 35.000000
1.514054 -1.642577 -0.981495 31.000000
1.486615 -1.650684 -0.972649 39.000000
1.465308 -1.665227 -0.967764 39.000000
1.447805 -1.682287 -0.964440 36.000000
1.435174 -1.706814 -0.965459 62.000000
1.410510 -1.717071 -0.958458 37.000000
1.384005 -1.722722 -0.949141 35.000000
1.373583 -1.750305 -0.951959 36.000000
1.343115 -1.752319 -0.940942 23.000000
1.329442 -1.775948 -0.941700 31.000000
1.318105 -1.803209 -0.944305 31.000000
1.295669 -1.815443 -0.939109 30.000000
1.271781 -1.822871 -0.931551 34.000000
1.246728 -1.830688 -0.924390 29.000000
1.231845 -1.853467 -0.924858 30.000000
1.214207 -1.872274 -0.923387 26.000000
1.201281 -1.898734 -0.925637 21.000000
1.183094 -1.917280 -0.923974 26.000000
1.162213 -1.931622 -0.920482 26.000000
1.150631 -1.961797 -0.924371 29.000000
1.117779 -1.955761 -0.911398 29.000000
0.682138 1.233157 -0.556058 32.000000
0.695454 1.224696 -0.558277 27.000000
0.715693 1.228137 -0.565999 32.000000
0.724189 1.211296 -0.564480 32.000000
0.744452 1.214303 -0.572205 26.000000
0.757522 1.205168 -0.574360 33.000000
0.755485 1.172474 -0.565248 21.000000
0.765564 1.159378 -0.565430 25.000000
0.765138 1.130827 -0.557986 35.000000
0.793193 1.144274 -0.571356 29.000000
0.813623 1.145891 -0.579092 33.000000
0.809705 1.113544 -0.569618 33.000000
0.777677 1.044376 -0.540841 24.000000
0.775047 1.016560 -0.533027 35.000000
0.774727 0.992549 -0.527038 11.000000
0.787767 0.987112 -0.530892 38.000000
0.783981 0.959659 -0.522846 42.000000
0.788541 0.943072 -0.520588 35.000000
0.798849 0.933457 -0.522177 48.000000
0.799420 0.913704 -0.518042 37.000000
0.809451 0.903995 -0.519573 72.000000
0.819360 0.894126 -0.521063 42.000000
0.819289 0.874487 -0.516775 26.000000
0.819359 0.854554 -0.512252 83.000000
0.828808 0.844594 -0.513630 73.000000
0.840912 0.838067 -0.517202 71.000000
0.846877 0.824635 -0.516543 90.000000
0.855578 0.814675 -0.518039 67.000000
0.834433 0.776187 -0.501184 95.000000
0.839293 0.763269 -0.500571 95.000000
0.843974 0.750317 -0.499910 42.000000
0.852341 0.740028 -0.501040 40.000000
0.853253 0.724054 -0.498292 55.000000
0.864506 0.716874 -0.501564 81.000000
0.861564 0.698009 -0.496708 77.000000
0.869054 0.687776 -0.497895 75.000000
0.869256 0.671892 -0.494937 95.000000
0.880138 0.664304 -0.498135 75.000000
0.854302 0.629501 -0.480676 95.000000
0.868520 0.624649 -0.485842 95.000000
0.867848 0.609094 -0.482703 81.000000
0.874497 0.598748 -0.483663 95.000000
0.881038 0.588331 -0.484623 95.000000
0.879820 0.572883 -0.481344 84.000000
0.889718 0.565026 -0.484490 98.000000
0.895913 0.554406 -0.485339 95.000000
0.893980 0.539238 -0.482138 98.000000
0.888208 0.521640 -0.476611 82.000000
0.885876 0.506710 -0.473339 95.000000
0.899223 0.500719 -0.478412 98.000000
0.908542 0.492314 -0.481390 98.000000
0.914039 0.481425 -0.482016 98.000000
0.915191 0.468610 -0.480664 100.000000
0.916194 0.455786 -0.479305 95.000000
0.916878 0.443161 -0.478043 100.000000
0.905299 0.424660 -0.470219 34.000000
0.909919 0.413970 -0.470826 93.000000
0.910132 0.401523 -0.469467 98.000000
0.906216 0.387195 -0.465732 93.000000
0.906164 0.374856 -0.464257 98.000000
0.918560 0.367618 -0.469171 98.000000
0.926682 0.358453 -0.471918 95.000000
0.922083 0.344417 -0.468193 95.000000
0.925775 0.333606 -0.468725 29.000000
0.929401 0.322729 -0.469191 98.000000
0.928614 0.310355 -0.467502 100.000000
0.923303 0.296767 -0.463751 100.000000
0.926420 0.285973 -0.464276 100.000000
0.929569 0.275049 -0.464571 100.000000
0.932522 0.264190 -0.464998 98.000000
0.917845 0.248650 -0.456894 100.000000
0.920517 0.237864 -0.457216 30.000000
0.918718 0.226002 -0.455370 98.000000
0.921089 0.215300 -0.455754 98.000000
0.914570 0.202585 -0.451763 91.000000
0.916728 0.191921 -0.452080 95.000000
0.923177 0.182065 -0.454541 98.000000
0.920632 0.170498 -0.452715 95.000000
0.895863 0.155100 -0.439841 98.000000
0.928566 0.149664 -0.455338 36.000000
0.943512 0.140846 -0.462100 98.000000
0.940543 0.129203 -0.460114 98.000000
0.941863 0.118256 -0.460371 100.000000
0.947588 0.107753 -0.462650 100.000000
0.948688 0.096722 -0.462812 103.000000
0.949691 0.085659 -0.462941 98.000000
0.950532 0.074596 -0.463135 103.000000
0.951341 0.063500 -0.463168 95.000000
1.623002 0.032555 -0.789137 29.000000
1.681676 0.014153 -0.817668 22.000000
1.627774 -0.005303 -0.791378 27.000000
1.537737 -0.022909 -0.747603 29.000000
1.081882 -0.066597 -0.526415 100.000000
1.085521 -0.079539 -0.528563 65.000000
1.089154 -0.092549 -0.530487 98.000000
1.083601 -0.104797 -0.528119 95.000000
1.091365 -0.118396 -0.532261 98.000000
1.116753 -0.134354 -0.545235 66.000000
1.365131 -0.180324 -0.666947 95.000000
1.554567 -0.223823 -0.760349 45.000000
1.649902 -0.257180 -0.807883 32.000000
1.678148 -0.281585 -0.822607 16.000000
1.710366 -0.307570 -0.839604 18.000000
1.724698 -0.330872 -0.847650 29.000000
1.703298 -0.347386 -0.838426 18.000000
1.717081 -0.371040 -0.846460 20.000000
1.712974 -0.391035 -0.845805 22.000000
1.734977 -0.417233 -0.858032 19.000000
1.725895 -0.436431 -0.855263 20.000000
1.716656 -0.455466 -0.852436 10.000000
1.711726 -0.475366 -0.851354 10.000000
1.732483 -0.502869 -0.863525 24.000000
1.713795 -0.519269 -0.856383 17.000000
1.699556 -0.536483 -0.851104 21.000000
1.697997 -0.557661 -0.852231 24.000000
1.696046 -0.578999 -0.853535 17.000000
1.702332 -0.603394 -0.859070 21.000000
1.687200 -0.620175 -0.853742 10.000000
1.701447 -0.647951 -0.863422 18.000000
1.698519 -0.669470 -0.864393 21.000000
1.686997 -0.687552 -0.861085 15.000000
1.683724 -0.708985 -0.861928 20.000000
1.688215 -0.734185 -0.867272 21.000000
1.684394 -0.755662 -0.867971 17.000000
1.675990 -0.775459 -0.866788 17.000000
1.687833 -0.804876 -0.876150 10.000000
1.667001 -0.818423 -0.868159 12.000000
1.674231 -0.846118 -0.875240 22.000000
1.664882 -0.865764 -0.873787 16.000000
1.667084 -0.891953 -0.878909 17.000000
1.657349 -0.911488 -0.877319 19.000000
1.667176 -0.941992 -0.886164 18.000000
1.660928 -0.963652 -0.886521 17.000000
1.646184 -0.981078 -0.883009 10.000000
1.662755 -1.016793 -0.895757 13.000000
1.659129 -1.041329 -0.898289 21.000000
1.636478 -1.053216 -0.890077 13.000000
1.636243 -1.080065 -0.894606 17.000000
1.643116 -1.112221 -0.903189 16.000000
1.634549 -1.134242 -0.903393 15.000000
1.644351 -1.169351 -0.913836 18.000000
1.627757 -1.186068 -0.909750 9.000000
1.622047 -1.210743 -0.911834 10.000000
1.612460 -1.232618 -0.911783 15.000000
1.609795 -1.260000 -0.915742 12.000000
1.613868 -1.293209 -0.923681 16.000000
1.617564 -1.326632 -0.931501 18.000000
1.592667 -1.336826 -0.923038 13.000000
1.602506 -1.376286 -0.934772 20.000000
1.583562 -1.392581 -0.930568 10.000000
1.595871 -1.435640 -0.944140 10.000000
1.597334 -1.469750 -0.951457 18.000000
1.590849 -1.498413 -0.955077 15.000000
1.594720 -1.536054 -0.964290 24.000000
1.584080 -1.561656 -0.965693 32.000000
1.567577 -1.580083 -0.962733 36.000000
1.543572 -1.592361 -0.956183 50.000000
1.528969 -1.614269 -0.955430 29.000000
1.515181 -1.635365 -0.954296 37.000000
1.487790 -1.643342 -0.945598 41.000000
1.463525 -1.654321 -0.938892 35.000000
1.434188 -1.657313 -0.927872 65.000000
1.412983 -1.671009 -0.923096 35.000000
1.406244 -1.702184 -0.927946 50.000000
1.367256 -1.693945 -0.911432 51.000000
1.372632 -1.738696 -0.923511 30.000000
1.347949 -1.747862 -0.916599 26.000000
1.328839 -1.764054 -0.913536 30.000000
1.312324 -1.783752 -0.912304 26.000000
1.287484 -1.792025 -0.905293 29.000000
1.270563 -1.811318 -0.903981 29.000000
1.253414 -1.830383 -0.902583 29.000000
1.220657 -1.826248 -0.889907 30.000000
1.221107 -1.872001 -0.901617 23.000000
1.203299 -1.890625 -0.900097 19.000000
1.182811 -1.905070 -0.896634 24.000000
1.164581 -1.923342 -0.895019 23.000000
1.143754 -1.937374 -0.891548 29.000000
1.125026 -1.955289 -0.889838 21.000000
1.103860 -1.968980 -0.886285 26.000000
0.690374 1.239407 -0.545508 18.000000
0.699057 1.222820 -0.544085 24.000000
0.716907 1.222336 -0.549822 16.000000
0.732436 1.217561 -0.553771 24.000000
0.745513 1.208579 -0.555912 27.000000
0.758498 1.199551 -0.558006 14.000000
0.748627 1.155211 -0.543573 24.000000
0.773903 1.165447 -0.554776 19.000000
0.791713 1.163713 -0.560496 19.000000
0.796280 1.142670 -0.556915 25.000000
0.816726 1.144341 -0.564426 15.000000
0.815435 1.115681 -0.557068 25.000000
0.780322 1.042731 -0.527047 13.000000
0.797233 1.040652 -0.532568 21.000000
0.797076 1.016407 -0.526786 23.000000
0.802352 0.999526 -0.524701 17.000000
0.804407 0.979127 -0.520648 23.000000
0.821017 0.976461 -0.526091 32.000000
0.825604 0.959560 -0.523910 24.000000
0.814167 0.925675 -0.512236 31.000000
0.818137 0.908956 -0.509895 23.000000
0.828085 0.899090 -0.511391 31.000000
0.824785 0.876000 -0.505305 23.000000
0.834383 0.866044 -0.506699 26.000000
0.837434 0.849369 -0.504160 35.000000
0.849634 0.842850 -0.507654 35.000000
0.858917 0.832574 -0.509003 38.000000
0.864348 0.819334 -0.508507 61.000000
0.859909 0.796408 -0.501899 36.000000
0.858098 0.777041 -0.497379 37.000000
0.883908 0.781870 -0.508463 18.000000
0.857505 0.741460 -0.489960 23.000000
0.868886 0.734358 -0.493230 36.000000
0.866487 0.715082 -0.488348 31.000000
0.870546 0.701999 -0.487546 59.000000
0.878066 0.691723 -0.488737 36.000000
0.892733 0.686958 -0.493907 36.000000
0.892810 0.670911 -0.491008 87.000000
0.892693 0.654961 -0.488091 24.000000
0.877438 0.628423 -0.477034 37.000000
0.873003 0.610160 -0.471930 51.000000
0.879652 0.599814 -0.472926 34.000000
0.889961 0.591927 -0.475884 70.000000
0.896424 0.581358 -0.476776 91.000000
0.898886 0.568314 -0.475628 70.000000
0.904894 0.557862 -0.476623 85.000000
0.899280 0.540045 -0.471294 35.000000
0.897131 0.524982 -0.468135 72.000000
0.906866 0.516557 -0.470922 72.000000
0.908368 0.503760 -0.469735 71.000000
0.913760 0.493114 -0.470605 90.000000
0.915191 0.480110 -0.469164 69.000000
0.928426 0.473542 -0.474067 95.000000
0.917221 0.454559 -0.466541 95.000000
0.930327 0.447758 -0.471381 71.000000
0.914578 0.427191 -0.461676 53.000000
0.910770 0.412836 -0.458289 47.000000
0.919428 0.403955 -0.460979 67.000000
0.923677 0.393265 -0.461687 74.000000
0.927994 0.382373 -0.462193 88.000000
0.932040 0.371548 -0.462833 84.000000
0.927549 0.357426 -0.459246 91.000000
0.935611 0.348181 -0.461914 48.000000
0.935067 0.335705 -0.460349 80.000000
0.934424 0.323261 -0.458746 95.000000
0.937916 0.312350 -0.459178 95.000000
0.936991 0.299958 -0.457503 100.000000
0.931472 0.286400 -0.453778 98.000000
0.938837 0.276855 -0.456383 98.000000
0.937443 0.264682 -0.454697 98.000000
0.944637 0.254938 -0.457207 94.000000
0.938601 0.241671 -0.453333 95.000000
0.923621 0.226387 -0.445148 85.000000
0.934811 0.217706 -0.449808 95.000000
0.928235 0.204886 -0.445917 95.000000
0.930414 0.194087 -0.446237 98.000000
0.932465 0.183257 -0.446526 98.000000
0.938901 0.173215 -0.448877 98.000000
0.900548 0.155408 -0.430039 98.000000
0.946909 0.152071 -0.451458 95.000000
0.957442 0.142403 -0.455945 98.000000
0.949918 0.130074 -0.452007 100.000000
0.951309 0.119011 -0.452137 98.000000
0.952570 0.107947 -0.452234 98.000000
0.958168 0.097341 -0.454562 98.000000
0.950170 0.085384 -0.450423 100.000000
0.951007 0.074373 -0.450616 56.000000
1.617490 0.051130 -0.764934 29.000000
1.685717 0.033694 -0.797099 20.000000
1.704024 0.014324 -0.805762 25.000000
1.708602 -0.005479 -0.807841 22.000000
1.681368 -0.024919 -0.794962 31.000000
1.644932 -0.043489 -0.777643 32.000000
1.118263 -0.081625 -0.529520 100.000000
1.099370 -0.093079 -0.520719 98.000000
1.098290 -0.105812 -0.520533 100.000000
1.115084 -0.120488 -0.528839 35.000000
1.638947 -0.235061 -0.779459 29.000000
1.703384 -0.264461 -0.810939 27.000000
1.718154 -0.287328 -0.819159 10.000000
1.755072 -0.314366 -0.837647 20.000000
1.742634 -0.333107 -0.832976 16.000000
1.747798 -0.355127 -0.836625 18.000000
1.748256 -0.376400 -0.838145 18.000000
1.748513 -0.397656 -0.839542 19.000000
1.753032 -0.420009 -0.842993 23.000000
1.739509 -0.438201 -0.838152 17.000000
1.717093 -0.453812 -0.829028 9.000000
1.738274 -0.481042 -0.840928 16.000000
1.732930 -0.501205 -0.840078 12.000000
1.736145 -0.523926 -0.843384 16.000000
1.734734 -0.545428 -0.844513 18.000000
1.702750 -0.557156 -0.831094 10.000000
1.722313 -0.585811 -0.842861 20.000000
1.698711 -0.599837 -0.833545 10.000000
1.692108 -0.619646 -0.832515 9.000000
1.714978 -0.650545 -0.846146 13.000000
1.699434 -0.667137 -0.840792 10.000000
1.717390 -0.697141 -0.852158 18.000000
1.701228 -0.713734 -0.846990 13.000000
1.701826 -0.737047 -0.849792 10.000000
1.710212 -0.764390 -0.856992 14.000000
1.697909 -0.782227 -0.853407 10.000000
1.664593 -0.790336 -0.839712 9.000000
1.700854 -0.831797 -0.861187 15.000000
1.691714 -0.851602 -0.859790 10.000000
1.678339 -0.869248 -0.856267 10.000000
1.668523 -0.889069 -0.855064 10.000000
1.658835 -0.908509 -0.853481 10.000000
1.692729 -0.952351 -0.874478 12.000000
1.674106 -0.967806 -0.868949 10.000000
1.651919 -0.980166 -0.861002 9.000000
1.672181 -1.018692 -0.875858 10.000000
1.665187 -1.040422 -0.875996 10.000000
1.661330 -1.064905 -0.878423 10.000000
1.653350 -1.086993 -0.878738 10.000000
1.648906 -1.111528 -0.881005 10.000000
1.655505 -1.143909 -0.889252 10.000000
1.657819 -1.173955 -0.895439 10.000000
1.637604 -1.188023 -0.889449 9.000000
1.639290 -1.218170 -0.895457 10.000000
1.622373 -1.234587 -0.891344 9.000000
1.637853 -1.276067 -0.905157 10.000000
1.627614 -1.298073 -0.904938 10.000000
1.634875 -1.334460 -0.914581 10.000000
1.619784 -1.354044 -0.912546 14.000000
1.636662 -1.399786 -0.927895 10.000000
1.628549 -1.424873 -0.929337 9.000000
1.615946 -1.447488 -0.929077 10.000000
1.600533 -1.466213 -0.926412 10.000000
1.614318 -1.513694 -0.941728 14.000000
1.601567 -1.535595 -0.940891 18.000000
1.584431 -1.554718 -0.938391 28.000000
1.561450 -1.566504 -0.931567 32.000000
1.537658 -1.578576 -0.925133 26.000000
1.523333 -1.600297 -0.924437 24.000000
1.509668 -1.621216 -0.923364 28.000000
1.482473 -1.628988 -0.914900 27.000000
1.467566 -1.650127 -0.914047 32.000000
1.441250 -1.656513 -0.905193 30.000000
1.432045 -1.684261 -0.908066 31.000000
1.398806 -1.683532 -0.895752 30.000000
1.380329 -1.700205 -0.892865 26.000000
1.378981 -1.738509 -0.901195 26.000000
1.342943 -1.732972 -0.886947 18.000000
1.332431 -1.760087 -0.889595 19.000000
1.321533 -1.787114 -0.892059 26.000000
1.285709 -1.780318 -0.877853 20.000000
1.271721 -1.803284 -0.878376 21.000000
1.257424 -1.826161 -0.878945 25.000000
1.232365 -1.833435 -0.871998 21.000000
1.215058 -1.852112 -0.870638 18.000000
1.205054 -1.882251 -0.874585 20.000000
1.184766 -1.896680 -0.871289 15.000000
1.161832 -1.906835 -0.866039 18.000000
1.143603 -1.924805 -0.864478 20.000000
1.118124 -1.930497 -0.857447 17.000000
1.104151 -1.956118 -0.859379 18.000000
0.696218 1.241541 -0.533076 26.000000
0.714246 1.241164 -0.538684 19.000000
0.734639 1.244609 -0.546134 26.000000
0.745561 1.231699 -0.546482 20.000000
0.766111 1.234585 -0.553893 26.000000
0.759303 1.193812 -0.541725 26.000000
0.783099 1.199828 -0.550704 11.000000
0.762275 1.140004 -0.529358 27.000000
0.761350 1.111576 -0.522207 19.000000
0.781373 1.113847 -0.529544 23.000000
0.793358 1.104446 -0.531371 30.000000
0.821801 1.117364 -0.544199 16.000000
0.850640 1.129795 -0.557058 13.000000
0.831618 1.079034 -0.538690 16.000000
0.834653 1.058118 -0.534944 10.000000
0.808184 1.001132 -0.512612 32.000000
0.813133 0.984253 -0.510548 29.000000
0.808278 0.957129 -0.503036 42.000000
0.806532 0.933411 -0.497086 36.000000
0.819790 0.927183 -0.500462 31.000000
0.826785 0.913888 -0.500089 36.000000
0.827293 0.893789 -0.495894 25.000000
0.849286 0.897646 -0.505066 30.000000
0.849492 0.877449 -0.500760 37.000000
0.855825 0.863972 -0.500228 33.000000
0.868143 0.857307 -0.503701 89.000000
0.867637 0.837210 -0.499252 52.000000
0.870118 0.820480 -0.496691 72.000000
0.854984 0.788423 -0.484689 95.000000
0.877422 0.790508 -0.493555 49.000000
0.865021 0.761986 -0.483322 80.000000
0.873451 0.751572 -0.484467 24.000000
0.877898 0.738421 -0.483783 33.000000
0.882206 0.725200 -0.483088 73.000000
0.886676 0.711723 -0.482158 47.000000
0.890631 0.698481 -0.481370 77.000000
0.894488 0.685249 -0.480572 76.000000
0.901815 0.674744 -0.481693 56.000000
0.909068 0.664127 -0.482777 95.000000
0.908766 0.648101 -0.479875 24.000000
0.878087 0.611191 -0.461122 58.000000
0.880903 0.598267 -0.460099 95.000000
0.887382 0.587894 -0.460984 61.000000
0.897606 0.579905 -0.463895 95.000000
0.900055 0.566866 -0.462754 95.000000
0.902308 0.553849 -0.461570 91.000000
0.908160 0.543415 -0.462557 95.000000
0.902245 0.525747 -0.457315 34.000000
0.931701 0.528835 -0.470278 95.000000
0.933515 0.515589 -0.468979 95.000000
0.938990 0.504746 -0.469833 95.000000
0.940518 0.491499 -0.468453 95.000000
0.945757 0.480525 -0.469232 98.000000
0.942728 0.465433 -0.465959 95.000000
0.935350 0.448520 -0.460574 100.000000
0.936057 0.435647 -0.459235 80.000000
0.919934 0.415319 -0.449682 95.000000
0.920135 0.402832 -0.448386 95.000000
0.928702 0.393838 -0.450997 95.000000
0.937206 0.384679 -0.453546 100.000000
0.941305 0.373805 -0.454189 93.000000
0.945268 0.362898 -0.454799 98.000000
0.944855 0.350303 -0.453324 98.000000
0.940013 0.336239 -0.449756 45.000000
0.935005 0.322341 -0.446145 105.000000
0.934156 0.310012 -0.444518 98.000000
0.933178 0.297718 -0.442886 103.000000
0.940649 0.288259 -0.445474 105.000000
0.943813 0.277284 -0.445803 100.000000
0.942364 0.265076 -0.444166 100.000000
0.949581 0.255333 -0.446627 100.000000
0.956693 0.245423 -0.449092 95.000000
0.941593 0.230076 -0.441237 98.000000
0.948495 0.220119 -0.443602 100.000000
0.950814 0.209148 -0.443961 98.000000
0.948548 0.197217 -0.442212 105.000000
0.955091 0.187074 -0.444582 100.000000
0.948138 0.174359 -0.440653 100.000000
0.954496 0.164099 -0.442927 98.000000
0.956218 0.153048 -0.443219 95.000000
0.921837 0.136665 -0.426791 98.000000
0.923276 0.125967 -0.426979 100.000000
0.920079 0.114706 -0.425021 103.000000
0.925778 0.104571 -0.427323 103.000000
0.926842 0.093873 -0.427511 105.000000
0.964019 0.086388 -0.444324 123.000000
1.777267 0.117834 -0.817963 25.000000
1.787477 0.097755 -0.822316 28.000000
1.783899 0.076878 -0.820349 30.000000
1.784679 0.056249 -0.820349 31.000000
1.780557 0.035530 -0.818441 28.000000
1.785399 0.014932 -0.820589 25.000000
1.780915 -0.005682 -0.818501 24.000000
1.780736 -0.026259 -0.818381 18.000000
1.771353 -0.046655 -0.814027 18.000000
1.784319 -0.067643 -0.820229 22.000000
1.778942 -0.088047 -0.817963 21.000000
1.768854 -0.108069 -0.813611 19.000000
1.776609 -0.129199 -0.817664 14.000000
1.322234 -0.111567 -0.608942 95.000000
1.737717 -0.207492 -0.801829 25.000000
1.757844 -0.230539 -0.811945 22.000000
1.755226 -0.250891 -0.811528 22.000000
1.765909 -0.273270 -0.817291 19.000000
1.758425 -0.292911 -0.814673 18.000000
1.759553 -0.314107 -0.816391 17.000000
1.742610 -0.331943 -0.809683 22.000000
1.761214 -0.356570 -0.819461 21.000000
1.757236 -0.376942 -0.818858 21.000000
1.757576 -0.398260 -0.820206 24.000000
1.748617 -0.417626 -0.817593 20.000000
1.752928 -0.439974 -0.820884 20.000000
1.756888 -0.462586 -0.824289 20.000000
1.747323 -0.481710 -0.821434 14.000000
1.759547 -0.506978 -0.828831 22.000000
1.762568 -0.530028 -0.832338 20.000000
1.756835 -0.550371 -0.831290 21.000000
1.746337 -0.569363 -0.828433 23.000000
1.735686 -0.588192 -0.825518 21.000000
1.737787 -0.611338 -0.828701 21.000000
1.743922 -0.636186 -0.833798 19.000000
1.732699 -0.654757 -0.830697 11.000000
1.742512 -0.681415 -0.837692 23.000000
1.726666 -0.698137 -0.832361 17.000000
1.727248 -0.721829 -0.835503 20.000000
1.740206 -0.750959 -0.844552 20.000000
1.740512 -0.774685 -0.847222 15.000000
1.731922 -0.794983 -0.846013 13.000000
1.735538 -0.820953 -0.850818 15.000000
1.722391 -0.839138 -0.847449 10.000000
1.709159 -0.857035 -0.844024 18.000000
1.699783 -0.876871 -0.842557 13.000000
1.726282 -0.916145 -0.859460 14.000000
1.724418 -0.940532 -0.861915 17.000000
1.709884 -0.958585 -0.858534 11.000000
1.715449 -0.987451 -0.864844 14.000000
1.700495 -1.005224 -0.861329 10.000000
1.685789 -1.022444 -0.857494 10.000000
1.701697 -1.059160 -0.869852 18.000000
1.682227 -1.074158 -0.864212 15.000000
1.701132 -1.113922 -0.878416 13.000000
1.688829 -1.133863 -0.876591 18.000000
1.683960 -1.158809 -0.878715 10.000000
1.693796 -1.194321 -0.888636 10.000000
1.684448 -1.216833 -0.888606 10.000000
1.645324 -1.217272 -0.872807 10.000000
1.661424 -1.258648 -0.886424 19.000000
1.647738 -1.278002 -0.884282 12.000000
1.662768 -1.320057 -0.897647 15.000000
1.655075 -1.345636 -0.899563 18.000000
1.654766 -1.376644 -0.904984 13.000000
1.657502 -1.410757 -0.912152 16.000000
1.631295 -1.421399 -0.904279 10.000000
1.633353 -1.455574 -0.911316 10.000000
