x y z intensity
1.333928 -1.933192 0.539911 13.000000
1.328790 -1.972671 0.544696 31.000000
1.313451 -1.995111 0.544685 26.000000
1.283413 -1.997758 0.539344 26.000000
1.279398 -2.041323 0.545061 28.000000
1.263159 -2.063437 0.544998 26.000000
1.247728 -2.090385 0.546162 25.000000
1.231944 -2.117276 0.547301 23.000000
1.226832 -2.160236 0.552525 9.000000
0.756223 1.357950 0.357911 8.000000
0.783303 1.370237 0.365004 14.000000
0.792569 1.353180 0.364323 24.000000
0.807506 1.343894 0.365748 20.000000
0.822393 1.334460 0.367173 27.000000
0.841443 1.333652 0.371036 26.000000
0.856176 1.323814 0.372469 24.000000
0.867284 1.310315 0.372848 28.000000
0.881774 1.300211 0.374228 26.000000
0.898890 1.293953 0.376721 20.000000
0.903988 1.272127 0.374751 29.000000
0.923765 1.269506 0.378417 29.000000
0.942875 1.267052 0.382198 31.000000
0.953915 1.252277 0.382357 29.000000
0.976669 1.252695 0.387195 30.000000
0.995896 1.249463 0.391019 31.000000
0.972873 1.192813 0.377966 26.000000
1.010319 1.211807 0.388943 24.000000
1.020509 1.196461 0.388982 31.000000
1.042732 1.196113 0.393931 32.000000
1.062413 1.191280 0.397545 34.000000
1.075013 1.179432 0.398900 30.000000
1.091373 1.170580 0.401321 44.000000
1.110449 1.165465 0.405071 34.000000
1.126243 1.156527 0.407612 31.000000
1.139047 1.143519 0.408730 18.000000
1.154648 1.134212 0.411231 49.000000
1.170731 1.124215 0.413587 40.000000
1.189754 1.117763 0.417290 65.000000
1.208867 1.110999 0.421008 34.000000
1.228382 1.103505 0.424585 58.000000
1.240194 1.089716 0.425782 39.000000
1.262862 1.085288 0.430735 59.000000
1.274515 1.071116 0.431890 29.000000
1.305129 1.071773 0.439179 34.000000
1.316631 1.057129 0.440351 36.000000
1.339390 1.051284 0.445264 43.000000
1.354560 1.039189 0.447660 35.000000
1.369633 1.026846 0.450008 49.000000
1.377129 1.008164 0.449653 33.000000
1.391941 0.995517 0.452007 30.000000
1.430372 0.999228 0.461991 34.000000
1.441169 0.983088 0.462983 35.000000
1.459843 0.972195 0.466600 53.000000
1.470367 0.955744 0.467597 42.000000
1.484804 0.941770 0.469830 36.000000
1.507289 0.932620 0.474654 58.000000
1.546311 0.933117 0.484677 56.000000
1.556184 0.915996 0.485762 33.000000
1.574489 0.903224 0.489220 32.000000
1.605367 0.897213 0.496656 36.000000
1.640510 0.892918 0.505304 37.000000
1.667072 0.883712 0.511600 64.000000
1.676677 0.864918 0.512376 36.000000
1.698800 0.852737 0.517329 58.000000
1.708059 0.833498 0.518111 47.000000
1.730030 0.820702 0.522965 32.000000
1.760836 0.811226 0.530287 29.000000
1.782751 0.797443 0.535110 35.000000
1.817817 0.789063 0.543915 32.000000
1.835107 0.772484 0.547381 36.000000
1.883533 0.768326 0.560147 32.000000
1.918672 0.757895 0.568895 34.000000
1.935840 0.739784 0.572275 40.000000
1.957340 0.723142 0.576994 29.000000
1.978685 0.705999 0.581724 32.000000
1.995381 0.686981 0.585060 37.000000
2.020955 0.670797 0.591213 33.000000
2.051046 0.655672 0.598651 45.000000
2.099579 0.645355 0.611261 57.000000
2.124875 0.627362 0.617325 33.000000
2.145444 0.607574 0.621987 35.000000
2.165887 0.587335 0.626586 29.000000
2.228007 0.577734 0.643450 31.000000
2.257577 0.558572 0.650771 40.000000
2.286830 0.538962 0.658103 34.000000
2.320751 0.519734 0.666798 37.000000
2.349798 0.498802 0.674079 48.000000
2.383369 0.478215 0.682647 36.000000
2.435751 0.460574 0.696636 36.000000
2.469058 0.438433 0.705309 29.000000
2.530563 0.420391 0.721961 36.000000
2.554060 0.395031 0.727870 48.000000
2.572449 0.368564 0.732266 26.000000
2.604947 0.343666 0.740819 10.000000
2.675415 0.322656 0.760156 9.000000
2.716929 0.297018 0.771449 10.000000
2.777514 0.272317 0.787924 45.000000
2.919271 0.253409 0.827692 33.000000
2.907480 0.219797 0.823985 68.000000
2.924103 0.188268 0.828157 95.000000
2.906744 0.154629 0.822902 98.000000
2.884186 0.121216 0.816284 37.000000
2.851623 0.088042 0.806942 10.000000
2.833196 0.055812 0.801589 10.000000
2.843268 0.024348 0.804401 33.000000
2.833736 -0.007370 0.801678 62.000000
2.838277 -0.038982 0.803040 93.000000
2.808789 -0.069952 0.794784 71.000000
2.764626 -0.099670 0.782448 78.000000
2.748979 -0.129786 0.778191 77.000000
2.732999 -0.159580 0.773936 76.000000
2.721489 -0.189473 0.771215 71.000000
2.704852 -0.218591 0.766791 57.000000
2.664025 -0.245184 0.755745 20.000000
2.627637 -0.271417 0.746062 10.000000
2.600635 -0.297915 0.738853 10.000000
2.592457 -0.326284 0.737163 10.000000
2.569741 -0.352584 0.731404 10.000000
2.570471 -0.381912 0.732431 10.000000
2.570939 -0.411347 0.733375 10.000000
2.518879 -0.431859 0.719414 10.000000
2.490426 -0.455482 0.712158 10.000000
2.513638 -0.488765 0.719875 21.000000
2.508118 -0.516852 0.719388 79.000000
2.507058 -0.545801 0.720171 95.000000
2.515117 -0.576926 0.723652 94.000000
2.508738 -0.604897 0.722998 85.000000
2.478610 -0.626965 0.715687 67.000000
2.481033 -0.656897 0.717650 36.000000
2.445867 -0.676843 0.708928 36.000000
2.470777 -0.713456 0.717611 32.000000
2.499770 -0.752015 0.727535 13.000000
2.615528 -0.818823 0.763170 13.000000
2.743924 -0.892614 0.802402 10.000000
2.770660 -0.935378 0.812100 10.000000
2.792119 -0.977457 0.820528 10.000000
2.826548 -1.025083 0.832939 9.000000
2.855821 -1.071838 0.843987 14.000000
2.835052 -1.100225 0.840261 21.000000
2.805025 -1.124632 0.833787 23.000000
2.819311 -1.166881 0.840607 36.000000
2.788826 -1.190700 0.834047 41.000000
2.758121 -1.213932 0.827503 36.000000
2.762336 -1.252510 0.831456 60.000000
2.722203 -1.271363 0.822479 38.000000
2.712671 -1.303586 0.822371 71.000000
2.706846 -1.338331 0.823860 79.000000
2.687931 -1.366138 0.821018 53.000000
2.685597 -1.402977 0.823618 76.000000
2.683117 -1.439527 0.826011 37.000000
2.675684 -1.474321 0.827181 34.000000
2.667763 -1.509016 0.828438 24.000000
2.663623 -1.546227 0.830794 14.000000
2.680167 -1.595286 0.839437 37.000000
2.662522 -1.625252 0.837860 35.000000
2.632399 -1.647432 0.832301 33.000000
2.634576 -1.689906 0.837092 34.000000
2.591765 -1.703451 0.827676 34.000000
2.589086 -1.743143 0.831059 30.000000
2.601789 -1.794069 0.839554 34.000000
2.542648 -1.795233 0.824850 24.000000
2.542583 -1.837790 0.829372 35.000000
2.521787 -1.866806 0.827788 35.000000
2.493679 -1.889091 0.823262 34.000000
2.488335 -1.928782 0.826365 36.000000
2.471165 -1.959402 0.825546 34.000000
2.438602 -1.977719 0.819667 30.000000
2.453552 -2.036549 0.830387 33.000000
2.405603 -2.041878 0.819377 27.000000
2.398040 -2.081230 0.822202 35.000000
2.375518 -2.107857 0.819900 35.000000
2.376890 -2.157765 0.826625 31.000000
2.367821 -2.197245 0.829272 36.000000
2.340593 -2.220068 0.825590 32.000000
2.319173 -2.250168 0.824692 29.000000
2.294950 -2.275816 0.822148 31.000000
2.255895 -2.288269 0.814991 11.000000
2.207754 -2.288633 0.803884 24.000000
2.096699 -2.221284 0.769524 24.000000
2.015989 -2.184635 0.746607 24.000000
1.930935 -2.138313 0.721110 26.000000
1.852429 -2.098598 0.698359 27.000000
1.779319 -2.060093 0.676682 28.000000
1.706285 -2.021047 0.655387 25.000000
1.613727 -1.953677 0.625498 10.000000
1.570634 -1.945631 0.615146 24.000000
1.510841 -1.913216 0.597397 23.000000
1.462917 -1.895841 0.584806 26.000000
1.418382 -1.881506 0.573392 34.000000
1.392782 -1.889151 0.568890 35.000000
1.368863 -1.901126 0.565726 36.000000
1.343262 -1.908032 0.561182 34.000000
1.327603 -1.931427 0.561534 21.000000
1.314257 -1.958694 0.563031 34.000000
1.304353 -1.989249 0.565361 32.000000
1.282192 -2.004172 0.563272 32.000000
1.268963 -2.030506 0.564401 32.000000
1.251433 -2.053308 0.564509 28.000000
1.233643 -2.076001 0.564600 29.000000
1.224215 -2.110459 0.567845 26.000000
1.222316 -2.162613 0.575789 10.000000
0.758864 1.369394 0.375231 7.000000
0.771642 1.356227 0.375584 18.000000
0.789130 1.351362 0.378228 17.000000
0.810616 1.355125 0.383438 27.000000
0.815480 1.329043 0.380188 21.000000
0.831925 1.324093 0.382994 27.000000
0.849196 1.318447 0.385613 30.000000
0.863784 1.308491 0.387042 22.000000
0.882870 1.306923 0.391026 29.000000
0.889067 1.284639 0.388841 16.000000
0.905333 1.278722 0.391576 23.000000
0.916631 1.264249 0.391740 29.000000
0.938560 1.265713 0.396927 23.000000
0.952545 1.254803 0.398315 32.000000
0.971679 1.251847 0.402263 28.000000
0.988564 1.244314 0.404795 26.000000
0.998623 1.229543 0.405058 31.000000
1.002909 1.206793 0.402627 11.000000
1.021934 1.202951 0.406555 32.000000
1.035265 1.191062 0.407798 35.000000
1.060757 1.193994 0.414212 30.000000
1.073950 1.181657 0.415471 32.000000
1.083196 1.166129 0.415618 32.000000
1.106143 1.164047 0.420572 31.000000
1.125242 1.158624 0.424482 34.000000
1.130764 1.139122 0.423308 11.000000
1.153761 1.136176 0.428258 36.000000
1.165875 1.123244 0.429587 42.000000
1.181404 1.113472 0.432151 35.000000
1.204418 1.109550 0.437096 62.000000
1.227079 1.105749 0.442268 35.000000
1.238925 1.091920 0.443521 35.000000
1.250667 1.077987 0.444721 43.000000
1.262617 1.063479 0.445765 20.000000
1.296398 1.067693 0.454807 35.000000
1.315437 1.059090 0.458595 41.000000
1.330604 1.047226 0.461084 32.000000
1.341904 1.032230 0.462209 53.000000
1.356899 1.019971 0.464653 31.000000
1.371796 1.007517 0.467104 36.000000
1.382677 0.991951 0.468182 44.000000
1.421027 0.995691 0.478564 17.000000
1.435825 0.982372 0.480940 45.000000
1.446457 0.966122 0.481987 43.000000
1.460958 0.952338 0.484316 41.000000
1.487545 0.946163 0.490673 55.000000
1.493729 0.926758 0.490279 50.000000
1.540833 0.932261 0.503339 39.000000
1.555138 0.917244 0.505657 42.000000
1.560635 0.897563 0.505393 16.000000
1.608242 0.901046 0.518432 54.000000
1.639125 0.894337 0.526088 70.000000
1.657155 0.880559 0.529871 38.000000
1.683830 0.870652 0.536147 78.000000
1.688792 0.849613 0.535805 50.000000
1.702407 0.832597 0.537950 38.000000
1.719932 0.817668 0.541648 67.000000
1.750520 0.808474 0.549405 16.000000
1.785469 0.800697 0.558495 35.000000
1.816079 0.790291 0.566236 39.000000
1.833423 0.773597 0.569806 33.000000
1.859557 0.760278 0.576140 41.000000
1.912403 0.757111 0.590773 61.000000
1.933963 0.740716 0.595637 35.000000
1.955437 0.724018 0.600511 35.000000
1.954072 0.698928 0.598601 25.000000
1.993439 0.687947 0.608970 37.000000
2.023528 0.673222 0.616719 59.000000
2.049072 0.656318 0.622891 35.000000
2.092760 0.644659 0.634779 37.000000
2.113462 0.625298 0.639586 42.000000
2.143210 0.608179 0.647261 41.000000
2.172746 0.590615 0.654951 42.000000
2.220932 0.577078 0.668103 26.000000
2.250281 0.558056 0.675829 34.000000
2.279532 0.538441 0.683420 35.000000
2.308681 0.518156 0.691024 36.000000
2.342336 0.498345 0.699967 36.000000
2.404045 0.483429 0.717268 48.000000
2.427972 0.460102 0.723512 32.000000
2.470636 0.439717 0.735229 33.000000
2.517859 0.419197 0.748369 38.000000
2.545948 0.394622 0.755812 52.000000
2.583286 0.370962 0.766162 50.000000
2.625234 0.347106 0.777682 52.000000
2.676480 0.323551 0.792285 31.000000
2.713203 0.297193 0.802414 27.000000
2.763979 0.271583 0.816869 53.000000
2.824150 0.245649 0.834070 30.000000
2.912673 0.220606 0.859659 91.000000
2.910117 0.187773 0.858525 98.000000
2.892815 0.154189 0.853061 95.000000
2.870330 0.120922 0.846274 36.000000
2.823580 0.087358 0.832326 10.000000
2.814709 0.055533 0.829499 10.000000
2.829544 0.024217 0.833829 41.000000
2.776878 -0.007245 0.818371 53.000000
2.776613 -0.038255 0.818283 77.000000
2.785584 -0.069504 0.821109 86.000000
2.746354 -0.099236 0.809716 66.000000
2.735548 -0.129472 0.806628 91.000000
2.724404 -0.159493 0.803716 94.000000
2.712924 -0.189213 0.800631 72.000000
2.658087 -0.215236 0.785014 33.000000
2.636521 -0.243168 0.779114 24.000000
2.609885 -0.270178 0.771806 16.000000
2.611479 -0.299855 0.772966 21.000000
2.603375 -0.328354 0.771055 21.000000
2.575856 -0.354215 0.763842 24.000000
2.571887 -0.382996 0.763345 26.000000
2.591189 -0.415492 0.770053 27.000000
2.539229 -0.436329 0.755484 22.000000
2.557993 -0.468924 0.762022 47.000000
2.538652 -0.494703 0.757229 71.000000
2.533060 -0.523077 0.756817 95.000000
2.517843 -0.549324 0.753435 95.000000
2.478956 -0.569902 0.743048 95.000000
2.467983 -0.596433 0.741000 85.000000
2.475404 -0.627415 0.744472 76.000000
2.454422 -0.651402 0.739709 41.000000
2.451945 -0.679968 0.740218 32.000000
2.485934 -0.719396 0.752047 25.000000
2.491748 -0.751271 0.755489 32.000000
2.488060 -0.780496 0.756054 28.000000
2.492975 -0.812885 0.759565 52.000000
2.470411 -0.836009 0.754397 95.000000
2.456599 -0.862092 0.752263 73.000000
2.821234 -1.097328 0.871037 60.000000
2.809122 -1.128859 0.869980 71.000000
2.805503 -1.163977 0.871488 59.000000
2.783839 -1.191536 0.867480 44.000000
2.775164 -1.224527 0.867606 41.000000
2.770534 -1.259413 0.869003 31.000000
2.761077 -1.292263 0.868925 26.000000
2.759951 -1.329286 0.871579 33.000000
2.758105 -1.366797 0.874512 36.000000
2.751736 -1.401828 0.875677 50.000000
2.719113 -1.423857 0.868858 32.000000
2.707872 -1.456315 0.868563 35.000000
2.695898 -1.489160 0.868457 34.000000
2.691954 -1.526654 0.871056 16.000000
2.683793 -1.561224 0.871896 13.000000
2.658301 -1.586405 0.867622 35.000000
2.640739 -1.616330 0.866052 36.000000
2.618803 -1.643499 0.863040 36.000000
2.624985 -1.688522 0.869425 34.000000
2.578241 -1.699429 0.858273 35.000000
2.583419 -1.744558 0.864529 35.000000
2.568230 -1.776325 0.863987 27.000000
2.525152 -1.788384 0.854126 25.000000
2.517169 -1.825184 0.856148 32.000000
2.512676 -1.864924 0.859477 35.000000
2.484596 -1.887116 0.854756 35.000000
2.471579 -1.920876 0.855318 32.000000
2.450585 -1.948505 0.853239 33.000000
2.440523 -1.984971 0.854994 32.000000
2.422644 -2.015316 0.854113 26.000000
2.385226 -2.030601 0.847000 25.000000
2.374066 -2.066650 0.848627 30.000000
2.358895 -2.099534 0.848835 30.000000
2.346858 -2.135531 0.850323 35.000000
2.344011 -2.182146 0.855964 30.000000
2.323939 -2.211577 0.854823 32.000000
2.306956 -2.244051 0.854857 32.000000
2.278429 -2.267165 0.851240 26.000000
2.253974 -2.292330 0.848601 16.000000
2.195893 -2.282445 0.833242 21.000000
2.097411 -2.230124 0.803034 25.000000
2.017772 -2.192695 0.778929 26.000000
1.931760 -2.147473 0.752718 23.000000
1.841660 -2.092500 0.723779 26.000000
1.761460 -2.047629 0.699033 28.000000
1.696016 -2.015098 0.679170 17.000000
1.627376 -1.978423 0.658344 13.000000
1.572906 -1.954830 0.642362 17.000000
1.512164 -1.923340 0.624238 21.000000
1.459326 -1.897652 0.608379 30.000000
1.403210 -1.867882 0.591615 27.000000
1.389240 -1.891068 0.591854 48.000000
1.353985 -1.887320 0.583767 34.000000
1.339675 -1.910099 0.583929 31.000000
1.329354 -1.941450 0.586713 26.000000
1.287338 -1.923692 0.574706 28.000000
1.303095 -1.995437 0.589401 29.000000
1.273018 -1.998137 0.583640 33.000000
1.262282 -2.028479 0.586022 27.000000
1.247243 -2.055501 0.587329 31.000000
1.225793 -2.069021 0.584912 29.000000
1.212475 -2.099978 0.587278 24.000000
1.210469 -2.152117 0.595545 10.000000
0.760018 1.376021 0.391404 6.000000
0.760063 1.342193 0.385854 9.000000
0.794456 1.366707 0.397104 21.000000
0.796230 1.337026 0.392727 18.000000
0.818652 1.340079 0.397930 20.000000
0.836056 1.334496 0.400696 25.000000
0.847425 1.321095 0.401094 19.000000
0.864719 1.315155 0.403870 19.000000
0.875753 1.301517 0.404258 21.000000
0.909422 1.319131 0.414457 10.000000
0.909314 1.289156 0.409838 20.000000
0.915091 1.266746 0.407496 15.000000
0.937021 1.268214 0.412872 17.000000
0.948181 1.253365 0.412994 24.000000
0.961372 1.242752 0.414532 19.000000
0.984160 1.242863 0.419709 24.000000
0.994232 1.228096 0.419977 22.000000
1.023265 1.235071 0.427766 12.000000
1.014435 1.197823 0.420235 27.000000
1.027775 1.185970 0.421524 23.000000
1.046723 1.181693 0.425565 22.000000
1.068965 1.180650 0.430930 28.000000
1.085387 1.171753 0.433498 22.000000
1.094545 1.156027 0.433598 29.000000
1.110185 1.147207 0.436276 26.000000
1.139927 1.151360 0.444097 19.000000
1.145322 1.131765 0.442829 32.000000
1.167848 1.128870 0.448144 26.000000
1.180395 1.115294 0.449326 35.000000
1.195863 1.105246 0.451949 34.000000
1.211298 1.094963 0.454579 29.000000
1.233916 1.090824 0.459907 35.000000
1.253362 1.082768 0.463699 32.000000
1.261285 1.065490 0.463607 25.000000
1.283932 1.060396 0.468876 29.000000
1.295335 1.045877 0.470090 23.000000
1.321739 1.043121 0.476753 29.000000
1.344434 1.036981 0.482025 31.000000
1.355637 1.021683 0.483156 27.000000
1.370551 1.009183 0.485659 31.000000
1.389267 0.999240 0.489543 29.000000
1.400131 0.983487 0.490630 23.000000
1.430592 0.981160 0.498622 34.000000
1.441224 0.964910 0.499669 32.000000
1.459732 0.953806 0.503490 36.000000
1.473862 0.940104 0.506043 37.000000
1.512622 0.941086 0.516794 31.000000
1.526973 0.926367 0.519208 34.000000
1.545341 0.913885 0.522913 31.000000
1.567516 0.903843 0.528258 27.000000
1.585721 0.890710 0.531986 30.000000
1.620459 0.886776 0.541465 29.000000
1.642855 0.875096 0.546572 32.000000
1.664924 0.863307 0.551872 35.000000
1.674351 0.844335 0.552707 29.000000
1.700580 0.833987 0.559326 35.000000
1.718217 0.819006 0.563127 30.000000
1.753040 0.811768 0.572561 24.000000
1.766144 0.793994 0.574906 31.000000
1.801007 0.785641 0.584320 32.000000
1.844759 0.780306 0.596551 32.000000
1.870912 0.766781 0.603096 32.000000
1.896966 0.752728 0.609658 28.000000
1.931924 0.741643 0.619036 34.000000
1.935278 0.718355 0.618458 24.000000
1.952055 0.699753 0.622054 16.000000
1.995657 0.690408 0.634422 36.000000
2.007534 0.669515 0.636670 28.000000
2.042168 0.655635 0.645859 32.000000
2.081158 0.642551 0.656715 32.000000
2.097070 0.622085 0.660438 26.000000
2.135989 0.607683 0.671191 32.000000
2.156355 0.587384 0.676172 29.000000
2.153293 0.560886 0.673986 10.000000
2.247406 0.558694 0.702190 35.000000
2.262626 0.535641 0.705759 26.000000
2.296340 0.516579 0.714998 28.000000
2.329892 0.496739 0.724249 28.000000
2.377413 0.479103 0.737802 26.000000
2.410637 0.457846 0.747160 24.000000
2.448370 0.436639 0.757831 27.000000
2.471841 0.412333 0.764140 10.000000
2.542316 0.394946 0.785131 31.000000
2.584285 0.371992 0.797305 35.000000
2.630864 0.348653 0.810871 29.000000
2.667733 0.323123 0.821441 35.000000
2.709100 0.297368 0.833395 30.000000
2.783517 0.274129 0.855684 32.000000
2.824387 0.246299 0.867838 34.000000
2.922263 0.221868 0.897294 35.000000
2.886342 0.186662 0.885861 69.000000
2.888188 0.154259 0.886046 85.000000
2.875336 0.121344 0.881836 24.000000
2.819101 0.087416 0.864438 10.000000
2.815132 0.055722 0.862973 10.000000
2.801151 0.024053 0.858756 27.000000
2.786899 -0.007295 0.854360 64.000000
2.781941 -0.038453 0.852805 48.000000
2.752646 -0.068818 0.844014 56.000000
2.732571 -0.098976 0.838065 60.000000
2.721799 -0.129071 0.834961 54.000000
2.701144 -0.158479 0.828929 56.000000
2.685023 -0.187707 0.824363 47.000000
2.668494 -0.216614 0.819800 26.000000
2.646973 -0.244675 0.813605 60.000000
2.634661 -0.273297 0.810340 39.000000
2.626699 -0.302253 0.808708 61.000000
2.609009 -0.329903 0.803986 58.000000
2.591105 -0.357149 0.799266 36.000000
2.582286 -0.385406 0.797305 52.000000
2.578037 -0.414232 0.796805 60.000000
2.530953 -0.435755 0.783262 17.000000
2.535445 -0.465835 0.785685 74.000000
2.530263 -0.494127 0.785110 77.000000
2.491883 -0.515716 0.774426 81.000000
2.481446 -0.542619 0.772484 77.000000
2.484774 -0.572559 0.774743 42.000000
2.478349 -0.600292 0.774093 54.000000
2.457849 -0.624490 0.769008 57.000000
2.409355 -0.640836 0.755234 12.000000
2.448307 -0.680684 0.769081 34.000000
2.426902 -0.704070 0.764011 29.000000
2.414666 -0.729675 0.761599 27.000000
2.415677 -0.759566 0.763682 28.000000
2.393550 -0.782306 0.758709 21.000000
2.403099 -0.815185 0.763589 21.000000
2.380571 -0.837269 0.758222 16.000000
2.851787 -1.111737 0.916047 26.000000
2.835058 -1.142025 0.913445 28.000000
2.857793 -1.188480 0.923618 31.000000
2.822665 -1.211069 0.915197 28.000000
2.826894 -1.250416 0.919530 29.000000
2.800031 -1.276144 0.913882 25.000000
2.755646 -1.293138 0.902464 10.000000
2.754451 -1.330205 0.905268 30.000000
2.735554 -1.358835 0.902294 28.000000
2.724662 -1.391926 0.902444 31.000000
2.705325 -1.420070 0.899378 32.000000
2.685260 -1.448410 0.896607 26.000000
2.686328 -1.487598 0.900391 30.000000
2.673898 -1.520243 0.900330 16.000000
2.657466 -1.549977 0.898472 8.000000
2.640252 -1.580004 0.896907 32.000000
2.614658 -1.604715 0.892451 28.000000
2.596815 -1.634259 0.890696 30.000000
2.607519 -1.681142 0.898383 32.000000
2.580972 -1.705319 0.893833 27.000000
2.566083 -1.737000 0.893351 29.000000
2.523297 -1.749508 0.883188 21.000000
2.507910 -1.780762 0.882617 10.000000
2.500043 -1.817366 0.884792 32.000000
2.464698 -1.834044 0.877338 23.000000
2.478944 -1.887957 0.887520 31.000000
2.450691 -1.909927 0.882710 29.000000
2.441078 -1.946326 0.884631 24.000000
2.434701 -1.985923 0.887791 29.000000
2.387211 -1.991643 0.876106 19.000000
2.365525 -2.018356 0.873740 9.000000
2.360888 -2.061394 0.878516 27.000000
2.349215 -2.097438 0.880170 22.000000
2.347806 -2.143167 0.885727 27.000000
2.331586 -2.175925 0.885886 29.000000
2.296686 -2.192812 0.879659 20.000000
2.286751 -2.231919 0.882368 27.000000
2.245610 -2.240288 0.873103 15.000000
2.237281 -2.283412 0.877411 9.000000
2.185998 -2.280447 0.864025 15.000000
2.085612 -2.223804 0.831082 10.000000
2.018248 -2.201580 0.811625 16.000000
1.920521 -2.141238 0.778921 17.000000
1.849934 -2.108093 0.756747 11.000000
1.772827 -2.067065 0.732453 19.000000
1.688711 -2.012691 0.704072 10.000000
1.608021 -1.961140 0.677319 9.000000
1.578043 -1.967616 0.671059 15.000000
1.487497 -1.898280 0.639435 11.000000
1.452618 -1.895466 0.630691 18.000000
1.399562 -1.869620 0.614658 25.000000
1.371240 -1.873315 0.608496 26.000000
1.350366 -1.889136 0.606445 32.000000
1.333143 -1.907971 0.605360 26.000000
1.309131 -1.919385 0.601978 17.000000
1.288916 -1.933740 0.599560 25.000000
1.277870 -1.964847 0.602415 24.000000
1.267582 -1.995233 0.604862 22.000000
1.258077 -2.030496 0.608803 24.000000
1.235434 -2.045014 0.606546 21.000000
1.218995 -2.066906 0.606363 24.000000
1.203130 -2.093642 0.607682 18.000000
1.204888 -2.149171 0.617249 9.000000
0.746143 1.357520 0.400293 8.000000
0.762679 1.353337 0.403307 22.000000
0.775293 1.340088 0.403662 20.000000
0.787716 1.326749 0.404007 21.000000
0.806565 1.326153 0.408254 28.000000
0.821309 1.316602 0.409822 24.000000
0.835072 1.307344 0.411536 25.000000
0.846973 1.293457 0.411768 24.000000
0.873993 1.303997 0.419888 22.000000
0.866603 1.261838 0.411003 18.000000
0.890959 1.267866 0.417854 26.000000
0.907836 1.261301 0.420630 28.000000
0.915381 1.243359 0.419580 29.000000
0.937910 1.244124 0.424992 23.000000
0.951021 1.233577 0.426569 27.000000
0.970695 1.229958 0.430599 27.000000
0.989742 1.226549 0.434846 26.000000
0.999648 1.211706 0.435058 27.000000
1.010021 1.196285 0.435062 28.000000
1.025863 1.188525 0.437943 35.000000
1.044819 1.184205 0.442131 33.000000
1.064484 1.179089 0.446136 29.000000
1.080285 1.170591 0.448953 34.000000
1.092761 1.158419 0.450418 29.000000
1.108980 1.149052 0.453045 31.000000
1.124668 1.139962 0.455832 31.000000
1.140276 1.130593 0.458577 32.000000
1.156316 1.120586 0.461177 39.000000
1.168329 1.107500 0.462557 34.000000
1.187234 1.100793 0.466656 35.000000
1.202671 1.090547 0.469381 65.000000
1.225157 1.086490 0.474848 41.000000
1.236864 1.072545 0.476149 42.000000
1.267143 1.073595 0.484240 30.000000
1.286149 1.065304 0.488313 30.000000
1.301348 1.053721 0.490941 31.000000
1.320267 1.044870 0.495040 37.000000
1.339155 1.035688 0.499046 32.000000
1.350359 1.020445 0.500231 34.000000
1.365257 1.007941 0.502836 34.000000
1.383998 0.997991 0.506818 34.000000
1.410150 0.993603 0.513831 32.000000
1.432813 0.985654 0.519220 34.000000
1.447480 0.971985 0.521761 35.000000
1.462094 0.958114 0.524253 39.000000
1.480577 0.946564 0.528190 35.000000
1.498725 0.935056 0.532307 41.000000
1.513005 0.920427 0.534709 35.000000
1.535404 0.910474 0.540012 34.000000
1.549222 0.895623 0.542658 32.000000
1.583990 0.892017 0.552292 33.000000
1.610332 0.883418 0.559160 33.000000
1.636579 0.874326 0.566110 36.000000
1.658898 0.862233 0.571322 31.000000
1.680945 0.850031 0.576788 42.000000
1.698602 0.835312 0.580682 40.000000
1.707544 0.816158 0.581649 31.000000
1.737977 0.806944 0.589972 28.000000
1.764088 0.795156 0.596784 34.000000
1.798940 0.786680 0.606503 32.000000
1.820599 0.771954 0.611815 33.000000
1.837710 0.754990 0.615596 32.000000
1.885834 0.750053 0.629692 34.000000
1.871466 0.720337 0.623245 31.000000
1.928504 0.717435 0.640292 27.000000
1.954102 0.702255 0.647163 31.000000
1.979573 0.686540 0.653918 35.000000
2.005045 0.670354 0.660688 34.000000
2.025769 0.652163 0.665978 37.000000
2.051010 0.634941 0.672638 32.000000
2.098964 0.624037 0.686791 36.000000
2.128555 0.606904 0.694910 36.000000
2.153403 0.588071 0.701686 28.000000
2.178074 0.568754 0.708403 29.000000
2.239652 0.558104 0.727078 31.000000
2.264119 0.537250 0.733757 35.000000
2.297760 0.518076 0.743382 37.000000
2.331238 0.498199 0.752869 34.000000
2.369213 0.478639 0.764105 35.000000
2.421071 0.460942 0.779728 33.000000
2.435267 0.435404 0.783299 24.000000
2.468147 0.412720 0.792755 32.000000
2.533614 0.394536 0.812960 36.000000
2.570737 0.370895 0.824036 35.000000
2.593542 0.344465 0.830419 39.000000
2.634990 0.319908 0.842860 49.000000
2.690321 0.296064 0.859939 36.000000
2.731377 0.269561 0.872402 42.000000
2.829036 0.247181 0.902967 28.000000
2.864747 0.217973 0.913940 71.000000
2.862200 0.185553 0.912700 84.000000
2.840250 0.152129 0.905302 77.000000
2.832188 0.119843 0.902451 92.000000
2.785748 0.086497 0.887462 90.000000
2.772173 0.054971 0.882911 86.000000
2.763089 0.023807 0.880054 58.000000
2.782234 -0.007307 0.886123 73.000000
2.748621 -0.038035 0.875414 95.000000
2.733804 -0.068579 0.870862 94.000000
2.713797 -0.098543 0.864706 95.000000
2.698303 -0.128305 0.859982 94.000000
2.701501 -0.158866 0.861412 95.000000
2.690089 -0.188534 0.858120 95.000000
2.640440 -0.214812 0.842704 77.000000
2.628406 -0.243542 0.839420 81.000000
2.625617 -0.273044 0.839166 93.000000
2.613021 -0.301370 0.835715 71.000000
2.595385 -0.328884 0.830922 64.000000
2.596420 -0.358688 0.832100 79.000000
2.573455 -0.384989 0.825548 63.000000
2.573911 -0.414573 0.826560 45.000000
2.555146 -0.441021 0.821611 33.000000
2.545478 -0.468795 0.819604 36.000000
2.544937 -0.498213 0.820532 35.000000
2.530039 -0.524831 0.816854 32.000000
2.538138 -0.556260 0.820876 35.000000
2.536547 -0.585857 0.821799 35.000000
2.525415 -0.613225 0.819629 28.000000
2.518596 -0.641499 0.818880 26.000000
2.511527 -0.669691 0.818049 21.000000
2.517910 -0.701640 0.821716 24.000000
2.533036 -0.736563 0.828454 28.000000
2.538548 -0.769234 0.832184 26.000000
2.543631 -0.801959 0.835822 27.000000
2.539294 -0.832019 0.836377 26.000000
2.539188 -0.863547 0.838335 24.000000
2.552175 -0.899867 0.844755 25.000000
2.528860 -0.923505 0.839167 19.000000
2.855086 -1.115683 0.952773 36.000000
2.847072 -1.149602 0.953080 31.000000
2.843232 -1.185361 0.954765 34.000000
2.812493 -1.209798 0.947572 33.000000
2.812292 -1.247200 0.950729 35.000000
2.798535 -1.278842 0.949255 29.000000
2.767187 -1.302051 0.941894 26.000000
2.761435 -1.337271 0.943271 29.000000
2.768231 -1.378883 0.949037 36.000000
2.719085 -1.392450 0.935743 31.000000
2.703484 -1.423358 0.934280 35.000000
2.687981 -1.453487 0.932622 34.000000
2.668003 -1.481197 0.929313 30.000000
2.668175 -1.520949 0.933572 22.000000
2.639229 -1.543385 0.927357 10.000000
2.630275 -1.578341 0.928597 30.000000
2.612767 -1.608075 0.926934 33.000000
2.591406 -1.634570 0.923437 29.000000
2.565201 -1.658765 0.918799 29.000000
2.550891 -1.690421 0.918387 34.000000
2.524245 -1.713901 0.913666 29.000000
2.536755 -1.764361 0.923172 30.000000
2.510149 -1.786754 0.917955 26.000000
2.498174 -1.820755 0.918842 28.000000
2.462826 -1.837535 0.910991 32.000000
2.450201 -1.871132 0.911774 29.000000
2.433474 -1.901754 0.911030 30.000000
2.420134 -1.935161 0.911592 33.000000
2.391514 -1.956292 0.906509 27.000000
2.392273 -2.001694 0.912674 29.000000
2.365915 -2.026243 0.909190 22.000000
2.343831 -2.052882 0.906814 24.000000
2.342912 -2.098347 0.912698 32.000000
2.313040 -2.118244 0.907321 28.000000
2.300545 -2.154001 0.908987 28.000000
2.284164 -2.186372 0.909047 30.000000
2.273201 -2.226229 0.912250 24.000000
2.276340 -2.278896 0.920514 26.000000
2.224815 -2.276837 0.906795 17.000000
2.179226 -2.281726 0.896074 12.000000
2.092295 -2.239161 0.867399 23.000000
1.987020 -2.173694 0.830649 13.000000
1.908129 -2.135739 0.805305 13.000000
1.831386 -2.095356 0.779651 20.000000
1.768298 -2.068057 0.759529 17.000000
1.701781 -2.036823 0.738439 13.000000
1.609958 -1.969849 0.705198 10.000000
1.549809 -1.938794 0.685399 11.000000
1.516251 -1.941513 0.677892 16.000000
1.431274 -1.873968 0.646319 16.000000
1.398697 -1.875068 0.638886 22.000000
1.378863 -1.890609 0.636518 27.000000
1.340902 -1.882934 0.626524 25.000000
1.334811 -1.917581 0.630627 29.000000
1.302466 -1.917114 0.623218 19.000000
1.290191 -1.943541 0.624607 21.000000
1.271150 -1.962557 0.623611 19.000000
1.253055 -1.980673 0.622383 21.000000
1.256232 -2.036391 0.632874 21.000000
1.237351 -2.054355 0.631504 23.000000
1.219316 -2.077077 0.631619 19.000000
1.205747 -2.108084 0.634241 16.000000
1.176536 -2.108735 0.627709 9.000000
0.743870 1.360194 0.415307 8.000000
0.754276 1.342861 0.414375 22.000000
0.773161 1.342659 0.418785 27.000000
0.783189 1.325143 0.417782 33.000000
0.799512 1.320410 0.420898 27.000000
0.816753 1.314985 0.423781 32.000000
0.830566 1.305777 0.425544 34.000000
0.847697 1.299920 0.428442 29.000000
0.864080 1.294346 0.431498 35.000000
0.862153 1.260241 0.425030 21.000000
0.889165 1.270243 0.433405 28.000000
0.896973 1.252344 0.432373 32.000000
0.919478 1.253340 0.437954 31.000000
0.938461 1.250687 0.442303 34.000000
0.946486 1.231950 0.441059 32.000000
0.965488 1.228817 0.445427 31.000000
0.979176 1.217411 0.446865 35.000000
0.992069 1.206352 0.448452 21.000000
1.011047 1.202449 0.452758 35.000000
1.021287 1.186884 0.452767 56.000000
1.040265 1.182554 0.457096 35.000000
1.059247 1.177881 0.461394 38.000000
1.075639 1.168925 0.464156 35.000000
1.088114 1.156752 0.465671 35.000000
1.103813 1.147836 0.468547 38.000000
1.116123 1.135272 0.470016 15.000000
1.135027 1.129370 0.474274 42.000000
1.154539 1.122700 0.478345 37.000000
1.166587 1.109575 0.479780 36.000000
1.185548 1.102770 0.484029 79.000000
1.204495 1.095755 0.488242 55.000000
1.212746 1.078824 0.488150 57.000000
1.231609 1.071244 0.492383 61.000000
1.243160 1.057196 0.493684 21.000000
1.276682 1.061343 0.503694 37.000000
1.295596 1.052815 0.507876 35.000000
1.314483 1.043906 0.512071 48.000000
1.329614 1.031841 0.514766 51.000000
1.348404 1.022417 0.518879 35.000000
1.367213 1.012657 0.523060 34.000000
1.374314 0.994212 0.522728 41.000000
1.392951 0.983962 0.526817 20.000000
1.423342 0.981558 0.535355 35.000000
1.437687 0.968318 0.538163 35.000000
1.448211 0.951811 0.539216 31.000000
1.470679 0.942924 0.544733 44.000000
1.496858 0.936517 0.551929 38.000000
1.511150 0.921839 0.554439 34.000000
1.520944 0.904856 0.555685 46.000000
1.543229 0.894539 0.561091 18.000000
1.586032 0.895895 0.574259 35.000000
1.604180 0.882305 0.578203 36.000000
1.626220 0.870951 0.583842 35.000000
1.652455 0.861398 0.590951 48.000000
1.670202 0.847034 0.594993 35.000000
1.687863 0.832299 0.599046 32.000000
1.709670 0.819369 0.604628 37.000000
1.722794 0.802006 0.607060 21.000000
1.753137 0.792268 0.615592 28.000000
1.783508 0.781978 0.624147 35.000000
1.809459 0.769144 0.631133 31.000000
1.830981 0.754038 0.636543 34.000000
1.847821 0.736998 0.640560 32.000000
1.900190 0.733143 0.656668 32.000000
1.925793 0.718374 0.663728 33.000000
1.924489 0.693462 0.661574 16.000000
1.967846 0.684241 0.674751 31.000000
1.993168 0.668031 0.681722 34.000000
2.018420 0.651347 0.688640 35.000000
2.039053 0.632776 0.694026 31.000000
2.077731 0.619193 0.705472 34.000000
2.125408 0.607645 0.720248 35.000000
2.145619 0.587499 0.725680 32.000000
2.188615 0.572920 0.738811 19.000000
2.231602 0.557439 0.751893 30.000000
2.260625 0.537754 0.760332 33.000000
2.284909 0.516425 0.767078 31.000000
2.327491 0.498661 0.780290 34.000000
2.351391 0.476212 0.787136 34.000000
2.398395 0.457797 0.801713 28.000000
2.450013 0.439119 0.817791 30.000000
2.468704 0.413810 0.822955 27.000000
2.505895 0.391195 0.834456 30.000000
2.547572 0.368358 0.847371 34.000000
2.584328 0.344046 0.858734 36.000000
2.649210 0.322437 0.879583 34.000000
2.685594 0.296238 0.890799 35.000000
2.712259 0.268362 0.899152 32.000000
2.781193 0.243594 0.921262 30.000000
2.849892 0.217428 0.943564 37.000000
2.852096 0.185277 0.943840 46.000000
2.834970 0.152201 0.937751 37.000000
2.817458 0.119460 0.931660 50.000000
2.809145 0.087441 0.928704 41.000000
2.771986 0.055071 0.916153 34.000000
2.758101 0.023759 0.911625 37.000000
2.758190 -0.007270 0.911625 34.000000
2.776911 -0.038562 0.917812 49.000000
2.766884 -0.069566 0.914674 41.000000
2.756417 -0.100356 0.911447 38.000000
2.740949 -0.130618 0.906565 36.000000
2.734622 -0.161207 0.904908 35.000000
2.723213 -0.191269 0.901508 32.000000
2.702091 -0.220346 0.894976 11.000000
2.680567 -0.248997 0.888533 31.000000
2.658907 -0.277136 0.881749 33.000000
2.679227 -0.309845 0.889407 34.000000
2.661628 -0.338124 0.884192 28.000000
2.662452 -0.368691 0.885411 30.000000
2.653610 -0.397955 0.883416 29.000000
2.658505 -0.429213 0.885938 25.000000
2.630259 -0.455099 0.877782 10.000000
2.639127 -0.487271 0.881950 24.000000
2.652341 -0.520588 0.887587 27.000000
2.646524 -0.550455 0.886892 29.000000
2.654368 -0.583207 0.890782 29.000000
2.652451 -0.614128 0.891728 29.000000
2.650248 -0.645067 0.892671 30.000000
2.647671 -0.676109 0.893436 21.000000
2.649396 -0.708308 0.895664 10.000000
2.678185 -0.748210 0.907189 31.000000
2.706485 -0.788845 0.918509 29.000000
2.725004 -0.827628 0.926980 35.000000
2.724840 -0.861205 0.929158 30.000000
2.755965 -0.905283 0.942049 35.000000
2.790927 -0.951627 0.956451 34.000000
2.784911 -0.984526 0.956762 26.000000
2.814313 -1.030518 0.969379 16.000000
2.829761 -1.072163 0.977252 33.000000
2.844408 -1.114605 0.985394 32.000000
2.849907 -1.153586 0.990055 35.000000
2.801959 -1.171036 0.976529 29.000000
2.797656 -1.206445 0.978320 30.000000
2.784375 -1.238086 0.976953 34.000000
2.757715 -1.263483 0.970916 26.000000
2.748026 -1.296619 0.970980 18.000000
2.742383 -1.331738 0.972461 28.000000
2.727734 -1.362598 0.970898 30.000000
2.717032 -1.395439 0.970753 37.000000
2.680699 -1.414832 0.961434 29.000000
2.673650 -1.449460 0.962705 32.000000
2.657392 -1.479931 0.961244 34.000000
2.641329 -1.509623 0.959297 20.000000
2.628601 -1.542215 0.959241 9.000000
2.620005 -1.576483 0.960189 30.000000
2.594377 -1.601303 0.955536 29.000000
2.585088 -1.635364 0.956375 36.000000
2.550974 -1.654318 0.948657 30.000000
2.532604 -1.683381 0.946713 31.000000
2.518472 -1.714158 0.945960 33.000000
2.491653 -1.737316 0.941054 26.000000
2.484101 -1.773884 0.943445 23.000000
2.460646 -1.799340 0.939925 31.000000
2.467566 -1.847328 0.948170 31.000000
2.447291 -1.875279 0.945907 35.000000
2.422861 -1.899985 0.942278 32.000000
2.405759 -1.930492 0.941478 32.000000
2.391894 -1.963726 0.942028 32.000000
2.370372 -1.990777 0.939658 26.000000
2.348653 -2.017630 0.937190 24.000000
2.333730 -2.050406 0.937612 30.000000
2.318572 -2.083148 0.937918 32.000000
2.309930 -2.122233 0.941083 34.000000
2.276369 -2.138380 0.934186 27.000000
2.277379 -2.187281 0.941500 30.000000
2.262897 -2.223805 0.943362 33.000000
2.245519 -2.256056 0.943375 24.000000
2.207822 -2.267541 0.934872 25.000000
2.173425 -2.281896 0.927716 19.000000
2.093164 -2.246582 0.900879 24.000000
2.009712 -2.207029 0.873074 26.000000
1.918934 -2.154250 0.840846 19.000000
1.839044 -2.110457 0.812994 25.000000
1.756132 -2.062418 0.784089 24.000000
1.694130 -2.033965 0.763409 16.000000
1.605582 -1.970916 0.730426 10.000000
1.556525 -1.955792 0.715698 17.000000
1.500219 -1.927557 0.696702 16.000000
1.426201 -1.876080 0.669847 20.000000
1.394832 -1.876487 0.661932 23.000000
1.368044 -1.885012 0.656992 29.000000
1.348104 -1.900226 0.654481 33.000000
1.325199 -1.911187 0.650623 30.000000
1.293028 -1.910708 0.642969 23.000000
1.278097 -1.933072 0.643158 24.000000
1.266894 -1.964244 0.646139 25.000000
1.243603 -1.974226 0.642222 26.000000
1.236664 -2.013355 0.647716 24.000000
1.230388 -2.051934 0.652922 27.000000
1.207380 -2.066314 0.650500 25.000000
1.195221 -2.096481 0.652924 19.000000
1.183362 -2.131624 0.656910 10.000000
0.739168 1.358529 0.428973 8.000000
0.762810 1.366879 0.436203 17.000000
0.773296 1.349300 0.435244 31.000000
0.783495 1.331737 0.434214 22.000000
0.794922 1.318701 0.434717 29.000000
0.808740 1.309668 0.436523 32.000000
0.828535 1.308125 0.440873 26.000000
0.844908 1.302725 0.444066 34.000000
0.856786 1.288619 0.444312 24.000000
0.867644 1.274919 0.444647 21.000000
0.879102 1.260644 0.444824 30.000000
0.892432 1.250635 0.446533 29.000000
0.912012 1.247740 0.450896 35.000000
0.928053 1.241265 0.453972 29.000000
0.952869 1.245959 0.461291 28.000000
0.957920 1.223306 0.458542 32.000000
0.973869 1.216122 0.461643 24.000000
0.980691 1.197647 0.460429 24.000000
1.000202 1.193359 0.464718 30.000000
1.019131 1.189227 0.469174 32.000000
1.028649 1.174050 0.469331 42.000000
1.057153 1.180137 0.478095 31.000000
1.070336 1.167611 0.479459 38.000000
1.082861 1.155439 0.481025 36.000000
1.098494 1.146519 0.483998 29.000000
1.110804 1.133955 0.485467 23.000000
1.126903 1.124210 0.488250 35.000000
1.145786 1.117979 0.492614 41.000000
1.161306 1.108191 0.495520 64.000000
1.173201 1.094912 0.496956 40.000000
1.192098 1.087917 0.501306 46.000000
1.210980 1.080606 0.505673 64.000000
1.222653 1.066754 0.507022 35.000000
1.252320 1.068228 0.515847 28.000000
1.274892 1.063021 0.521660 31.000000
1.293808 1.054390 0.525993 34.000000
1.308966 1.042513 0.528782 53.000000
1.324082 1.030391 0.531577 32.000000
1.339047 1.018075 0.534326 34.000000
1.357413 1.008730 0.538816 36.000000
1.376119 0.998724 0.543050 33.000000
1.394784 0.988378 0.547243 29.000000
1.413406 0.977745 0.551448 32.000000
1.431650 0.967210 0.555888 35.000000
1.454149 0.958561 0.561599 81.000000
1.464648 0.941807 0.562660 35.000000
1.482703 0.930332 0.567026 55.000000
1.505036 0.920707 0.572668 46.000000
1.527136 0.911031 0.578497 34.000000
1.549165 0.900909 0.584345 24.000000
1.583872 0.897072 0.594639 42.000000
1.593515 0.879130 0.595749 31.000000
1.632220 0.876810 0.607768 42.000000
1.645832 0.860503 0.610460 34.000000
1.667778 0.848228 0.616226 61.000000
1.685429 0.833500 0.620381 46.000000
1.690093 0.812289 0.619779 28.000000
1.716097 0.801032 0.627030 24.000000
1.755001 0.795261 0.638959 34.000000
1.772300 0.779070 0.643041 31.000000
1.802338 0.768388 0.651992 37.000000
1.836961 0.758709 0.662296 30.000000
1.845017 0.737994 0.663319 32.000000
1.870763 0.723804 0.670426 35.000000
1.909529 0.714261 0.682439 27.000000
1.921664 0.694285 0.684946 20.000000
1.969312 0.686560 0.700122 41.000000
1.985682 0.667222 0.704114 33.000000
2.010865 0.650598 0.711234 35.000000
2.035835 0.633568 0.718506 35.000000
2.056251 0.614497 0.723987 33.000000
2.117390 0.606935 0.744017 52.000000
2.137549 0.586785 0.749603 30.000000
2.166666 0.568660 0.758333 26.000000
2.214070 0.554474 0.773424 32.000000
2.247662 0.535984 0.783647 30.000000
2.276334 0.515899 0.792429 33.000000
2.318929 0.498049 0.805823 36.000000
2.342760 0.475595 0.812873 31.000000
2.408207 0.460727 0.834352 35.000000
2.422266 0.435291 0.838287 27.000000
2.468952 0.414896 0.853200 26.000000
2.510632 0.392901 0.866676 36.000000
2.547593 0.369302 0.878389 34.000000
2.574862 0.343628 0.886881 34.000000
2.625430 0.320289 0.903547 35.000000
2.675696 0.295891 0.920145 35.000000
2.707069 0.268478 0.930199 33.000000
2.756827 0.242084 0.946822 23.000000
2.844320 0.217421 0.976047 32.000000
2.874759 0.187246 0.986038 34.000000
2.914406 0.156848 0.999273 33.000000
2.920638 0.124192 1.001176 30.000000
2.912314 0.090892 0.998124 32.000000
2.880056 0.057428 0.986781 30.000000
2.875698 0.024863 0.985254 29.000000
2.885251 -0.007632 0.988588 29.000000
2.875605 -0.039985 0.985254 29.000000
2.870227 -0.072337 0.983633 31.000000
2.869209 -0.104662 0.983541 32.000000
2.872730 -0.137305 0.984976 32.000000
2.852171 -0.168566 0.978127 29.000000
2.869019 -0.201968 0.984419 29.000000
2.800599 -0.229040 0.961661 15.000000
2.821522 -0.262775 0.969390 31.000000
2.813801 -0.294091 0.967407 31.000000
2.791626 -0.323575 0.960573 27.000000
2.816162 -0.358612 0.969727 35.000000
2.821416 -0.391682 0.972592 33.000000
2.835724 -0.426279 0.978592 35.000000
2.844930 -0.460541 0.982879 32.000000
2.839726 -0.492601 0.982414 25.000000
2.857513 -0.528874 0.989730 43.000000
2.860900 -0.562931 0.992296 37.000000
2.863870 -0.597009 0.994763 37.000000
2.880196 -0.634541 1.002241 52.000000
2.914764 -0.676495 1.015852 42.000000
2.916346 -0.711721 1.018293 36.000000
2.977224 -0.762230 1.041494 60.000000
2.968807 -0.795801 1.040602 22.000000
2.946311 -0.825342 1.034708 34.000000
2.969069 -0.867764 1.044824 36.000000
2.954773 -0.899962 1.042328 32.000000
2.949440 -0.934622 1.042632 36.000000
2.925575 -0.963455 1.036751 32.000000
2.910478 -0.994950 1.033967 34.000000
2.903954 -1.029312 1.034370 34.000000
2.839147 -1.042435 1.014009 23.000000
2.858782 -1.086154 1.023756 34.000000
2.833338 -1.113430 1.017917 34.000000
2.838769 -1.152403 1.022682 36.000000
2.804081 -1.175467 1.013593 37.000000
2.791269 -1.206863 1.011930 36.000000
2.756200 -1.228795 1.002678 32.000000
2.759863 -1.267969 1.007519 34.000000
2.737317 -1.295159 1.002911 23.000000
2.714471 -1.321959 0.998214 35.000000
2.721140 -1.363260 1.004399 35.000000
2.685066 -1.383098 0.994914 33.000000
2.669830 -1.413376 0.993168 35.000000
2.658573 -1.445730 0.992883 35.000000
2.646976 -1.477984 0.992592 32.000000
2.634451 -1.510624 0.992587 29.000000
2.605779 -1.533034 0.985986 10.000000
2.605371 -1.572070 0.990137 32.000000
2.583847 -1.599352 0.986835 32.000000
2.554442 -1.620666 0.980066 30.000000
2.544368 -1.655066 0.981299 33.000000
2.506172 -1.670878 0.971677 28.000000
2.499999 -1.706940 0.974050 29.000000
2.500581 -1.749115 0.979653 35.000000
2.469602 -1.769258 0.973024 22.000000
2.453875 -1.800308 0.972404 32.000000
2.430856 -1.824651 0.968351 34.000000
2.422040 -1.861009 0.970753 30.000000
2.390261 -1.879752 0.963873 35.000000
2.388193 -1.921857 0.969170 31.000000
2.381725 -1.961159 0.972731 32.000000
2.374795 -2.000502 0.976361 33.000000
2.323928 -2.002507 0.961812 18.000000
2.319950 -2.044677 0.966819 29.000000
2.308241 -2.080565 0.968613 33.000000
2.292515 -2.113163 0.968998 30.000000
2.279924 -2.148896 0.970647 35.000000
2.256602 -2.174722 0.967944 28.000000
2.246594 -2.213562 0.970926 30.000000
2.228250 -2.246634 0.971444 31.000000
2.197247 -2.264923 0.965488 23.000000
2.162899 -2.279289 0.958192 21.000000
2.082910 -2.244043 0.930469 23.000000
2.009296 -2.215195 0.906086 21.000000
1.925097 -2.169768 0.875674 24.000000
1.820199 -2.097384 0.835361 21.000000
1.760526 -2.074011 0.815304 20.000000
1.691250 -2.039238 0.791410 22.000000
1.602982 -1.976341 0.757333 10.000000
1.549145 -1.952936 0.739026 17.000000
1.494861 -1.929409 0.721063 18.000000
1.427937 -1.884934 0.695839 17.000000
1.390717 -1.877747 0.684844 25.000000
1.363989 -1.886243 0.679811 29.000000
1.335620 -1.889799 0.673032 33.000000
1.298003 -1.881673 0.662402 32.000000
1.283473 -1.904166 0.662560 19.000000
1.267310 -1.927222 0.662988 26.000000
1.257339 -1.957609 0.665854 28.000000
1.235331 -1.972380 0.663417 22.000000
1.239598 -2.027227 0.674335 28.000000
1.213334 -2.032758 0.668828 24.000000
1.200190 -2.063665 0.671692 22.000000
1.186447 -2.094574 0.674515 22.000000
1.178294 -2.133143 0.679752 8.000000
0.743568 1.373623 0.448055 8.000000
0.751052 1.352443 0.445885 14.000000
0.756715 1.326617 0.442044 15.000000
0.787556 1.346992 0.453709 19.000000
0.790283 1.316894 0.448437 27.000000
0.816666 1.328297 0.457378 18.000000
0.826426 1.310364 0.456239 28.000000
0.840177 1.300901 0.458112 21.000000
0.857362 1.294794 0.461162 17.000000
0.871056 1.285005 0.462991 17.000000
0.873682 1.259277 0.459033 11.000000
0.896067 1.260536 0.464963 29.000000
0.906608 1.246414 0.465292 24.000000
0.922632 1.239885 0.468462 18.000000
0.936530 1.228845 0.469990 26.000000
0.955421 1.225693 0.474636 23.000000
0.977404 1.225996 0.480719 21.000000
0.976008 1.195824 0.474919 21.000000
1.000968 1.199306 0.482447 22.000000
1.013742 1.187880 0.484093 31.000000
1.029554 1.179851 0.487225 27.000000
1.039638 1.164029 0.487137 25.000000
1.061714 1.162674 0.493217 32.000000
1.074202 1.150539 0.494778 23.000000
1.093124 1.145100 0.499348 24.000000
1.102054 1.129125 0.499359 21.000000
1.114226 1.116448 0.500874 26.000000
1.143772 1.119880 0.509722 36.000000
1.152431 1.103461 0.509687 32.000000
1.167817 1.093477 0.512695 30.000000
1.183120 1.083258 0.515661 54.000000
1.198390 1.072805 0.518584 27.000000
1.220734 1.068435 0.524591 31.000000
1.243179 1.063610 0.530571 20.000000
1.258374 1.052330 0.533482 24.000000
1.284041 1.050312 0.541265 33.000000
1.295490 1.035455 0.542543 28.000000
1.318013 1.029263 0.548496 29.000000
1.333014 1.016943 0.551347 31.000000
1.347918 1.004376 0.554151 26.000000
1.362343 0.991991 0.557179 27.000000
1.384781 0.984478 0.563090 23.000000
1.403339 0.973883 0.567389 29.000000
1.425446 0.965991 0.573502 33.000000
1.451906 0.959948 0.580941 30.000000
1.454130 0.938398 0.579112 26.000000
1.476470 0.929153 0.584939 31.000000
1.490448 0.914842 0.587767 26.000000
1.504536 0.900046 0.590433 31.000000
1.542838 0.899643 0.602811 20.000000
1.564798 0.889117 0.608768 30.000000
1.590937 0.880488 0.616348 32.000000
1.612874 0.869120 0.622344 30.000000
1.634839 0.857291 0.628239 30.000000
1.652494 0.842965 0.632538 32.000000
1.674302 0.830370 0.638403 29.000000
1.704590 0.821533 0.647522 29.000000
1.722007 0.806073 0.651741 26.000000
1.735084 0.788339 0.654285 22.000000
1.756364 0.774445 0.660332 27.000000
1.790870 0.765522 0.670971 27.000000
1.829609 0.757878 0.683394 25.000000
1.859787 0.745765 0.692390 31.000000
1.889705 0.733220 0.701537 26.000000
1.897560 0.711749 0.702453 24.000000
1.927358 0.698257 0.711568 24.000000
1.952741 0.682571 0.718995 25.000000
1.973451 0.664905 0.724727 26.000000
1.998412 0.648392 0.732251 31.000000
2.023432 0.631269 0.739587 26.000000
2.066318 0.619226 0.753601 29.000000
2.095552 0.602385 0.762692 27.000000
2.106517 0.579880 0.765120 18.000000
2.158293 0.567938 0.782367 24.000000
2.205538 0.553812 0.797915 21.000000
2.225260 0.532023 0.803474 26.000000
2.263083 0.514177 0.815821 28.000000
2.291542 0.493542 0.824794 22.000000
2.352230 0.478818 0.845330 26.000000
2.380434 0.456620 0.854183 23.000000
2.380578 0.428883 0.853226 10.000000
2.459508 0.414411 0.880241 26.000000
2.491812 0.390948 0.890796 22.000000
2.519220 0.366092 0.899533 25.000000
2.565060 0.343293 0.915112 30.000000
2.610687 0.319375 0.930624 21.000000
2.646800 0.293466 0.942730 22.000000
2.696716 0.268215 0.959766 22.000000
2.807505 0.247190 0.998340 10.000000
2.819366 0.216156 1.002045 26.000000
2.901508 0.189423 1.030624 29.000000
2.912708 0.157168 1.034343 24.000000
2.980227 0.127013 1.057737 32.000000
3.042615 0.095220 1.079657 32.000000
3.005714 0.060066 1.066578 19.000000
3.020337 0.026213 1.071691 21.000000
3.011010 -0.007995 1.068348 21.000000
3.043699 -0.042484 1.079952 28.000000
3.057240 -0.077243 1.084770 24.000000
3.060959 -0.111977 1.086342 29.000000
3.115954 -0.149297 1.106397 35.000000
3.086011 -0.182778 1.096069 27.000000
3.116715 -0.220036 1.107563 31.000000
3.109388 -0.254856 1.105488 29.000000
3.087688 -0.288257 1.098608 25.000000
3.121773 -0.327126 1.111660 35.000000
3.118013 -0.362390 1.111253 34.000000
3.123300 -0.398847 1.114081 31.000000
3.109477 -0.432815 1.110034 33.000000
3.109261 -0.468577 1.111192 30.000000
3.108622 -0.504547 1.112246 29.000000
3.098269 -0.538905 1.110072 28.000000
3.059811 -0.567792 1.097617 24.000000
3.076599 -0.606999 1.105222 31.000000
3.051335 -0.637943 1.097867 29.000000
3.039569 -0.671320 1.095300 28.000000
3.032217 -0.705661 1.094394 33.000000
3.015097 -0.737760 1.090274 28.000000
3.002294 -0.770724 1.087715 27.000000
2.993673 -0.804608 1.086813 27.000000
2.966578 -0.833388 1.079100 25.000000
2.975527 -0.872177 1.084607 31.000000
2.952460 -0.901525 1.078457 30.000000
2.928884 -0.930766 1.072517 26.000000
