x y z intensity
0.876650 -0.764711 -0.742348 67.000000
0.877878 -0.784304 -0.748501 35.000000
0.869491 -0.795458 -0.746500 36.000000
0.863550 -0.809717 -0.747424 42.000000
0.858016 -0.823585 -0.748036 22.000000
0.855400 -0.840415 -0.751201 36.000000
0.848932 -0.854609 -0.751948 32.000000
0.845266 -0.871799 -0.755280 30.000000
0.839069 -0.885576 -0.755600 34.000000
0.858108 -0.927808 -0.779797 32.000000
0.877069 -0.970243 -0.803523 38.000000
1.081206 -1.285513 -1.019620 26.000000
1.134996 -1.382405 -1.081228 24.000000
1.170783 -1.460779 -1.126841 29.000000
1.194487 -1.526783 -1.161864 20.000000
1.242940 -1.627751 -1.222196 14.000000
1.238170 -1.661288 -1.230962 15.000000
1.270856 -1.747149 -1.277750 10.000000
1.279447 -1.802498 -1.301287 9.000000
1.294421 -1.868978 -1.332216 9.000000
1.293744 -1.914656 -1.347623 9.000000
1.277931 -1.938939 -1.347908 9.000000
1.259542 -1.959461 -1.345493 9.000000
1.262174 -2.017283 -1.368479 9.000000
0.491641 0.807657 -0.532136 24.000000
0.507098 0.812177 -0.541507 30.000000
0.503972 0.787091 -0.531135 26.000000
0.519486 0.791255 -0.540476 29.000000
0.521228 0.773280 -0.534744 35.000000
0.524505 0.759261 -0.531622 31.000000
0.540066 0.762935 -0.540956 37.000000
0.520289 0.717294 -0.515159 19.000000
0.512531 0.689619 -0.501721 35.000000
0.519940 0.682848 -0.503360 69.000000
0.532557 0.682810 -0.510045 33.000000
0.539948 0.675786 -0.511670 49.000000
0.533635 0.652037 -0.500467 61.000000
0.537934 0.641718 -0.499432 33.000000
0.544897 0.634637 -0.500890 86.000000
0.534850 0.608188 -0.486891 18.000000
0.555808 0.617084 -0.501192 71.000000
0.553858 0.600343 -0.494812 71.000000
0.560037 0.593319 -0.496327 71.000000
0.560632 0.579839 -0.492428 95.000000
0.546033 0.551282 -0.475412 55.000000
0.557817 0.550321 -0.482040 95.000000
0.560845 0.540070 -0.480593 98.000000
0.557227 0.524213 -0.474033 50.000000
0.562720 0.517099 -0.475323 110.000000
1.377663 1.148571 -1.130132 16.000000
1.396512 1.136308 -1.138128 16.000000
1.395505 1.107995 -1.130081 9.000000
1.434099 1.110824 -1.154063 13.000000
1.436082 1.084896 -1.148423 14.000000
1.447158 1.066914 -1.151289 13.000000
1.441739 1.036133 -1.140062 18.000000
1.449629 1.015241 -1.139609 16.000000
1.449823 0.989956 -1.134039 19.000000
1.457235 0.969072 -1.133299 15.000000
1.446302 0.937067 -1.119375 9.000000
1.460319 0.920801 -1.123922 13.000000
1.466495 0.900191 -1.123389 13.000000
1.483274 0.886044 -1.130935 16.000000
1.489112 0.865228 -1.130272 17.000000
1.498416 0.846431 -1.132158 16.000000
1.500276 0.823428 -1.128538 17.000000
1.501860 0.800548 -1.124777 18.000000
1.495767 0.773898 -1.115352 10.000000
1.511721 0.758710 -1.122484 16.000000
1.523393 0.741637 -1.127112 22.000000
1.516538 0.715224 -1.117449 14.000000
1.527884 0.698012 -1.121887 22.000000
1.531481 0.677221 -1.120770 21.000000
1.527283 0.653137 -1.113892 22.000000
1.534302 0.633972 -1.115356 25.000000
1.533432 0.611612 -1.111055 14.000000
1.543982 0.593849 -1.115064 25.000000
1.527181 0.565849 -1.099436 27.000000
1.544760 0.551014 -1.109279 28.000000
1.527068 0.523682 -1.093781 30.000000
1.505386 0.495406 -1.074967 32.000000
0.930053 0.280877 -0.660830 39.000000
0.873508 0.252072 -0.619186 98.000000
0.880075 0.242359 -0.622709 88.000000
0.918687 0.240753 -0.648489 95.000000
0.921179 0.229347 -0.649086 100.000000
0.919550 0.216959 -0.646788 98.000000
0.926057 0.206325 -0.649858 100.000000
0.924058 0.194001 -0.647662 100.000000
0.922110 0.181708 -0.645216 100.000000
0.932199 0.171721 -0.651157 95.000000
0.925833 0.158747 -0.645947 95.000000
0.915401 0.145260 -0.637585 100.000000
0.916912 0.133896 -0.637894 103.000000
0.922436 0.123042 -0.641005 103.000000
0.915400 0.110640 -0.635742 103.000000
0.916631 0.099258 -0.635879 100.000000
0.917588 0.087910 -0.636187 103.000000
0.914512 0.076153 -0.633312 100.000000
0.915261 0.064788 -0.633483 95.000000
0.911834 0.053217 -0.630743 105.000000
0.912241 0.041903 -0.630981 98.000000
0.925049 0.031002 -0.639473 105.000000
0.917064 0.019361 -0.633925 100.000000
0.921313 0.008032 -0.636802 100.000000
0.929574 -0.003448 -0.642487 98.000000
0.921279 -0.014834 -0.636733 98.000000
0.916996 -0.026133 -0.633755 98.000000
0.912478 -0.037330 -0.630913 95.000000
0.916248 -0.048863 -0.633483 98.000000
0.915669 -0.060228 -0.633380 93.000000
0.943675 -0.073805 -0.653087 95.000000
0.942693 -0.085562 -0.653052 100.000000
0.921307 -0.095100 -0.638546 98.000000
0.940622 -0.108900 -0.652596 98.000000
0.943584 -0.121076 -0.654975 98.000000
0.942209 -0.132778 -0.654693 100.000000
0.940729 -0.144445 -0.654340 98.000000
0.943031 -0.156859 -0.656996 95.000000
0.945425 -0.169232 -0.659366 98.000000
0.951568 -0.182554 -0.664703 100.000000
0.961609 -0.196869 -0.672789 98.000000
0.959575 -0.208744 -0.672099 98.000000
0.953048 -0.219801 -0.669022 103.000000
0.958684 -0.233581 -0.674084 98.000000
0.964169 -0.247487 -0.679063 98.000000
0.953360 -0.257358 -0.672990 95.000000
0.926759 -0.262417 -0.655348 95.000000
0.919879 -0.272760 -0.651934 100.000000
0.912883 -0.282969 -0.648524 98.000000
0.913719 -0.295593 -0.650624 100.000000
0.922057 -0.311034 -0.658535 100.000000
0.918722 -0.322472 -0.657710 98.000000
0.915279 -0.333839 -0.656850 100.000000
0.911514 -0.345314 -0.656168 71.000000
0.919228 -0.361271 -0.663782 67.000000
0.922888 -0.375879 -0.668555 98.000000
0.922578 -0.389029 -0.670458 100.000000
0.918349 -0.400502 -0.669538 95.000000
0.925350 -0.417067 -0.676868 98.000000
0.917071 -0.426852 -0.673055 94.000000
0.908497 -0.436579 -0.669436 98.000000
0.907579 -0.449729 -0.671053 89.000000
0.913679 -0.466843 -0.678362 64.000000
0.912154 -0.480274 -0.680102 98.000000
0.910511 -0.493722 -0.681758 98.000000
0.905100 -0.505150 -0.680623 98.000000
0.903165 -0.518585 -0.682189 95.000000
0.901146 -0.532036 -0.683670 100.000000
0.891804 -0.541116 -0.679644 95.000000
0.889511 -0.554504 -0.681038 89.000000
0.900920 -0.577151 -0.693491 58.000000
0.901751 -0.593011 -0.697440 95.000000
0.898607 -0.606813 -0.698855 79.000000
0.895648 -0.620389 -0.699983 95.000000
0.892203 -0.634210 -0.701297 94.000000
0.888545 -0.648000 -0.702561 71.000000
0.885193 -0.661516 -0.703493 95.000000
0.877957 -0.672750 -0.701974 38.000000
0.873924 -0.686474 -0.703048 32.000000
0.859871 -0.692206 -0.696069 84.000000
0.865407 -0.713853 -0.705038 84.000000
0.863708 -0.730567 -0.708893 95.000000
0.887900 -0.769214 -0.733583 71.000000
0.876524 -0.777598 -0.729040 82.000000
0.870824 -0.791827 -0.730033 92.000000
0.865526 -0.805715 -0.730632 40.000000
0.857000 -0.816574 -0.728596 45.000000
0.841738 -0.821733 -0.721544 95.000000
0.860314 -0.859444 -0.742898 85.000000
1.367725 -1.538672 -1.233691 16.000000
1.384576 -1.595306 -1.260780 9.000000
1.392091 -1.642759 -1.280021 10.000000
1.401632 -1.693951 -1.301593 18.000000
1.385859 -1.715469 -1.300078 11.000000
1.385880 -1.757216 -1.313655 20.000000
1.369427 -1.778613 -1.311981 17.000000
1.363209 -1.813660 -1.320190 11.000000
1.361578 -1.855863 -1.333328 15.000000
1.351695 -1.887646 -1.338773 9.000000
1.331494 -1.905231 -1.334111 9.000000
1.323360 -1.940504 -1.341769 10.000000
1.308369 -1.969277 -1.344893 9.000000
1.308582 -2.019240 -1.362164 10.000000
1.289392 -2.040136 -1.359640 10.000000
1.290549 -2.094173 -1.378932 9.000000
0.499751 0.834973 -0.533998 20.000000
0.506234 0.824636 -0.533582 33.000000
0.507977 0.806822 -0.528301 23.000000
0.521835 0.807175 -0.534894 34.000000
0.515898 0.778467 -0.522200 30.000000
0.531474 0.782526 -0.531408 36.000000
0.537858 0.771702 -0.530640 36.000000
0.533392 0.746948 -0.520159 29.000000
0.533647 0.729441 -0.514477 31.000000
0.525805 0.701649 -0.501301 37.000000
0.535935 0.698215 -0.505456 41.000000
0.532723 0.677564 -0.497075 55.000000
0.537297 0.667271 -0.496148 37.000000
0.541738 0.656927 -0.495175 88.000000
0.548832 0.649863 -0.496678 41.000000
0.558688 0.645971 -0.500680 36.000000
0.557126 0.629013 -0.494522 49.000000
0.555293 0.612188 -0.488320 57.000000
0.564870 0.608131 -0.492218 90.000000
0.568564 0.597686 -0.491016 98.000000
0.577710 0.593583 -0.495075 87.000000
0.560030 0.561781 -0.475796 98.000000
0.563152 0.551500 -0.474403 91.000000
0.571971 0.547384 -0.478365 95.000000
0.565542 0.528285 -0.469126 69.000000
1.373382 1.166322 -1.107522 29.000000
1.402220 1.162541 -1.123356 19.000000
1.425267 1.152341 -1.133466 14.000000
1.447572 1.142151 -1.144005 10.000000
1.446434 1.113449 -1.136020 13.000000
1.468616 1.102784 -1.146456 21.000000
1.470317 1.076575 -1.140875 17.000000
1.474450 1.053412 -1.138312 16.000000
1.465113 1.020164 -1.124543 20.000000
1.462324 0.992061 -1.115989 15.000000
1.469706 0.971108 -1.115355 20.000000
1.476338 0.950498 -1.115029 10.000000
1.497598 0.938428 -1.124925 16.000000
1.507507 0.919695 -1.127162 23.000000
1.506426 0.894448 -1.121186 16.000000
1.501371 0.867114 -1.112418 22.000000
1.510675 0.848317 -1.114366 24.000000
1.519791 0.829331 -1.116190 21.000000
1.517648 0.804382 -1.109809 20.000000
1.526386 0.785285 -1.111494 10.000000
1.531245 0.764253 -1.110333 19.000000
1.539587 0.744954 -1.111827 23.000000
1.543639 0.724062 -1.110903 24.000000
1.543593 0.701470 -1.107175 24.000000
1.547610 0.680320 -1.105612 23.000000
1.543277 0.656116 -1.098932 21.000000
1.561912 0.641668 -1.108571 28.000000
1.557167 0.617568 -1.101685 18.000000
1.563897 0.598171 -1.102909 26.000000
1.550500 0.571619 -1.090668 32.000000
1.560716 0.553617 -1.094512 27.000000
1.554633 0.530255 -1.087564 28.000000
1.548643 0.506947 -1.080118 33.000000
0.928163 0.266459 -0.642694 31.000000
0.923039 0.252721 -0.637680 91.000000
0.929661 0.242399 -0.641087 98.000000
0.932340 0.230803 -0.641475 103.000000
0.934736 0.219277 -0.642003 100.000000
0.937028 0.207715 -0.642497 100.000000
0.906720 0.189327 -0.620654 100.000000
0.933213 0.182890 -0.637703 98.000000
0.939288 0.172072 -0.640768 100.000000
0.928769 0.158397 -0.632896 95.000000
0.918066 0.144990 -0.624907 100.000000
0.927781 0.134836 -0.630797 103.000000
0.929195 0.123387 -0.631073 105.000000
0.922305 0.110879 -0.625659 103.000000
0.927624 0.099941 -0.628590 103.000000
0.928585 0.088509 -0.628899 103.000000
0.925483 0.076665 -0.626104 100.000000
0.938640 0.066123 -0.634662 95.000000
0.935195 0.054314 -0.631935 103.000000
0.931469 0.042572 -0.629414 103.000000
0.931950 0.031071 -0.629379 105.000000
0.940476 0.019778 -0.635078 103.000000
0.936471 0.008138 -0.632349 103.000000
0.940649 -0.003429 -0.635147 100.000000
0.936436 -0.014966 -0.632245 100.000000
0.919693 -0.026050 -0.620920 100.000000
0.919286 -0.037397 -0.620954 98.000000
0.918948 -0.048745 -0.620683 100.000000
0.926646 -0.060601 -0.626138 70.000000
0.954863 -0.074267 -0.645528 100.000000
0.929134 -0.083839 -0.628761 100.000000
0.924116 -0.094883 -0.625625 100.000000
0.955917 -0.110060 -0.647827 98.000000
0.950527 -0.121358 -0.644823 100.000000
0.949153 -0.133096 -0.644541 95.000000
0.951775 -0.145425 -0.646978 98.000000
0.950182 -0.157142 -0.646553 77.000000
0.960783 -0.171008 -0.654411 95.000000
0.954731 -0.182134 -0.651305 100.000000
0.960803 -0.195574 -0.656512 100.000000
0.958606 -0.207458 -0.656044 98.000000
0.964442 -0.221128 -0.661095 100.000000
0.966087 -0.234018 -0.663289 98.000000
0.963388 -0.245980 -0.662888 98.000000
0.932623 -0.250281 -0.642800 54.000000
0.937807 -0.264114 -0.647806 98.000000
0.934879 -0.275718 -0.647235 98.000000
0.931808 -0.287287 -0.646592 98.000000
0.928666 -0.298784 -0.645878 105.000000
0.925238 -0.310353 -0.645378 100.000000
0.925822 -0.323154 -0.647311 100.000000
0.926088 -0.336088 -0.649454 98.000000
0.934287 -0.351921 -0.656761 78.000000
0.938133 -0.366560 -0.661485 95.000000
0.945716 -0.382925 -0.668900 100.000000
0.933791 -0.391418 -0.662531 98.000000
0.929545 -0.402976 -0.661571 100.000000
0.924892 -0.414645 -0.660869 98.000000
0.924265 -0.427816 -0.662525 98.000000
0.923489 -0.441044 -0.664135 98.000000
0.922302 -0.454440 -0.665959 95.000000
0.928448 -0.471660 -0.673130 98.000000
0.926949 -0.485226 -0.674818 98.000000
0.921592 -0.496777 -0.673754 98.000000
0.919800 -0.510330 -0.675316 100.000000
0.914230 -0.521774 -0.674095 98.000000
0.912219 -0.535275 -0.675566 100.000000
0.910047 -0.548789 -0.676950 98.000000
0.904164 -0.560094 -0.675566 76.000000
0.919196 -0.585122 -0.690509 95.000000
0.923592 -0.603435 -0.697025 95.000000
0.913348 -0.612747 -0.693085 95.000000
0.913498 -0.629054 -0.697057 98.000000
0.906502 -0.640608 -0.695698 88.000000
0.892996 -0.646786 -0.688681 98.000000
0.889262 -0.660545 -0.689856 89.000000
0.888813 -0.676883 -0.693618 66.000000
0.891483 -0.695888 -0.699947 79.000000
0.890580 -0.712407 -0.703533 95.000000
0.879149 -0.721156 -0.699482 95.000000
0.890949 -0.748609 -0.713451 95.000000
0.886185 -0.762556 -0.714225 95.000000
0.887646 -0.782106 -0.720142 95.000000
0.891546 -0.804976 -0.728869 88.000000
0.908152 -0.839359 -0.747548 95.000000
0.945361 -0.895217 -0.784446 39.000000
1.367909 -1.422749 -1.171173 30.000000
1.378735 -1.468498 -1.190852 18.000000
1.412092 -1.540195 -1.230631 21.000000
1.426787 -1.593669 -1.254910 18.000000
1.415063 -1.618561 -1.256246 9.000000
1.433835 -1.679448 -1.285219 13.000000
1.418281 -1.701172 -1.283750 16.000000
1.418982 -1.742961 -1.297262 20.000000
1.408227 -1.771356 -1.300539 21.000000
1.394354 -1.796373 -1.301285 17.000000
1.385500 -1.828132 -1.306868 24.000000
1.371097 -1.852930 -1.307451 15.000000
1.376697 -1.905936 -1.327505 10.000000
1.343786 -1.905840 -1.310642 9.000000
1.351725 -1.966950 -1.335783 10.000000
1.340507 -1.998989 -1.340675 11.000000
1.335995 -2.041924 -1.352769 13.000000
1.315103 -2.063581 -1.350672 10.000000
1.304749 -2.099337 -1.357590 11.000000
1.305198 -2.153814 -1.376405 13.000000
0.498444 0.825694 -0.518394 20.000000
0.514046 0.830400 -0.527494 22.000000
0.518713 0.815970 -0.524521 29.000000
0.522513 0.801833 -0.521682 22.000000
0.536438 0.802039 -0.528180 33.000000
0.534924 0.780601 -0.520455 29.000000
0.545679 0.777261 -0.524686 30.000000
0.551931 0.766329 -0.523883 24.000000
0.531519 0.720515 -0.498924 21.000000
0.536552 0.710153 -0.498140 52.000000
0.536145 0.692870 -0.492440 36.000000
0.538128 0.679113 -0.489119 45.000000
0.542645 0.668782 -0.488202 54.000000
0.560943 0.675142 -0.499606 37.000000
0.565374 0.664592 -0.498666 55.000000
0.572551 0.657292 -0.500138 35.000000
0.550827 0.617567 -0.476655 27.000000
0.566287 0.620045 -0.485533 95.000000
0.570053 0.609574 -0.484385 57.000000
0.579697 0.605362 -0.488227 98.000000
0.586298 0.597902 -0.489559 80.000000
0.589402 0.587517 -0.488478 85.000000
0.574240 0.558886 -0.471982 100.000000
0.599121 0.569297 -0.488408 79.000000
1.269514 1.123956 -1.012694 35.000000
1.363193 1.177725 -1.079224 29.000000
1.408378 1.188248 -1.107675 21.000000
1.430890 1.178699 -1.118178 26.000000
1.444104 1.160265 -1.120425 11.000000
1.449798 1.136820 -1.117880 10.000000
1.482316 1.134176 -1.136043 18.000000
1.474000 1.100189 -1.122878 11.000000
1.492732 1.086662 -1.130467 20.000000
1.487185 1.055502 -1.119699 13.000000
1.491611 1.031914 -1.116677 18.000000
1.491757 1.006381 -1.111395 21.000000
1.517004 0.996872 -1.123924 13.000000
1.495746 0.957045 -1.102148 10.000000
1.509362 0.940794 -1.107087 14.000000
1.519847 0.921677 -1.108877 18.000000
1.522264 0.898507 -1.105684 22.000000
1.528135 0.877437 -1.105063 22.000000
1.522745 0.850203 -1.096387 21.000000
1.535579 0.833235 -1.100875 27.000000
1.533308 0.808163 -1.094630 13.000000
1.542067 0.789020 -1.096320 10.000000
1.554483 0.771628 -1.100561 18.000000
1.551478 0.746697 -1.094022 18.000000
1.555438 0.725801 -1.093142 26.000000
1.563450 0.706300 -1.094446 21.000000
1.567042 0.685298 -1.093368 21.000000
1.566967 0.662381 -1.089091 24.000000
1.570160 0.641433 -1.087871 16.000000
1.565308 0.617310 -1.081055 10.000000
1.591610 0.605374 -1.095866 28.000000
1.597790 0.585846 -1.097411 29.000000
1.584412 0.559021 -1.084900 27.000000
1.570332 0.532806 -1.072725 24.000000
1.568318 0.510619 -1.068073 27.000000
1.565706 0.488810 -1.063831 33.000000
1.474473 0.440662 -0.999484 30.000000
0.942012 0.256621 -0.635616 24.000000
0.940730 0.243909 -0.633313 98.000000
0.951375 0.234371 -0.639380 98.000000
0.949762 0.221708 -0.637216 100.000000
0.939990 0.207237 -0.629257 98.000000
0.950359 0.197393 -0.635154 100.000000
0.944096 0.184145 -0.630275 103.000000
0.950210 0.173243 -0.633297 95.000000
0.935627 0.158743 -0.622574 98.000000
0.937255 0.147244 -0.622955 103.000000
0.942914 0.136342 -0.626047 100.000000
0.944341 0.124757 -0.626325 103.000000
0.941515 0.112641 -0.623751 103.000000
0.938574 0.100592 -0.621141 100.000000
0.939540 0.089074 -0.621452 105.000000
0.948898 0.078208 -0.626951 103.000000
0.945499 0.066261 -0.624375 95.000000
0.946191 0.054658 -0.624479 100.000000
0.942437 0.042865 -0.621969 103.000000
0.947092 0.031451 -0.624686 100.000000
0.947334 0.019813 -0.624825 103.000000
0.951647 0.008245 -0.627612 100.000000
0.951681 -0.003444 -0.627612 103.000000
0.951612 -0.015134 -0.627543 98.000000
0.934746 -0.026318 -0.616396 98.000000
0.934336 -0.037803 -0.616396 103.000000
0.925655 -0.048813 -0.610622 95.000000
0.937580 -0.060974 -0.618771 65.000000
0.966006 -0.074730 -0.637809 100.000000
0.944252 -0.084758 -0.624063 103.000000
0.964130 -0.098448 -0.637455 98.000000
0.967112 -0.110748 -0.640060 100.000000
0.965797 -0.122622 -0.639847 98.000000
0.964410 -0.134497 -0.639562 103.000000
0.958820 -0.145708 -0.636428 98.000000
0.969604 -0.159497 -0.644228 95.000000
0.963622 -0.170673 -0.641236 91.000000
0.965768 -0.183307 -0.643654 98.000000
0.967969 -0.195934 -0.645781 98.000000
0.965808 -0.207854 -0.645312 98.000000
0.971487 -0.221636 -0.650491 98.000000
0.969090 -0.233548 -0.649946 100.000000
0.974707 -0.247485 -0.654748 98.000000
0.963824 -0.257335 -0.648820 71.000000
0.952844 -0.266948 -0.642828 95.000000
0.953916 -0.279832 -0.644973 95.000000
0.946794 -0.290355 -0.641603 98.000000
0.947660 -0.303266 -0.643599 98.000000
0.940168 -0.313654 -0.640379 103.000000
0.936819 -0.325177 -0.639551 100.000000
0.941054 -0.339626 -0.644317 95.000000
0.957191 -0.358515 -0.656889 85.000000
0.961031 -0.373392 -0.661510 100.000000
0.953013 -0.383670 -0.657991 100.000000
0.944955 -0.393777 -0.654405 98.000000
0.948171 -0.408907 -0.659081 95.000000
0.936056 -0.417137 -0.652736 98.000000
0.942845 -0.434074 -0.659969 95.000000
0.938190 -0.445635 -0.658843 95.000000
0.933235 -0.457309 -0.657942 90.000000
0.946995 -0.478438 -0.670319 98.000000
0.937958 -0.488205 -0.666618 95.000000
0.936309 -0.501839 -0.668174 100.000000
0.934541 -0.515490 -0.669683 100.000000
0.925241 -0.524972 -0.665838 103.000000
0.919572 -0.536385 -0.664612 100.000000
0.921070 -0.552086 -0.668595 95.000000
0.918471 -0.565896 -0.670153 98.000000
0.937570 -0.593120 -0.687148 75.000000
0.930959 -0.604869 -0.685914 98.000000
0.934812 -0.623624 -0.692509 98.000000
0.924770 -0.632659 -0.688280 95.000000
0.921277 -0.646707 -0.689528 100.000000
0.914147 -0.658228 -0.688077 95.000000
0.906976 -0.669628 -0.686587 95.000000
0.899645 -0.680947 -0.685096 95.000000
0.922691 -0.715784 -0.706786 62.000000
0.904889 -0.719289 -0.697371 95.000000
0.919938 -0.749772 -0.714014 98.000000
0.925076 -0.772218 -0.722481 98.000000
0.929851 -0.794865 -0.730895 100.000000
0.969360 -0.849152 -0.767624 95.000000
1.005206 -0.901380 -0.801242 98.000000
1.429234 -1.442071 -1.183391 24.000000
1.446391 -1.494464 -1.207784 19.000000
1.447788 -1.531684 -1.219432 16.000000
1.451562 -1.572469 -1.233492 18.000000
1.443087 -1.600598 -1.237343 12.000000
1.457198 -1.654783 -1.261008 16.000000
1.450469 -1.686562 -1.267109 10.000000
1.446174 -1.721650 -1.275460 20.000000
1.433079 -1.746763 -1.276356 20.000000
1.419601 -1.771858 -1.277220 16.000000
1.427484 -1.824340 -1.297440 21.000000
1.410527 -1.845959 -1.295581 19.000000
1.409019 -1.888507 -1.308187 18.000000
1.399176 -1.920584 -1.313338 18.000000
1.382375 -1.946286 -1.314101 9.000000
1.374161 -1.982018 -1.321373 11.000000
1.363106 -2.014015 -1.326164 11.000000
1.359550 -2.061536 -1.340856 10.000000
1.335388 -2.075244 -1.333505 10.000000
1.332806 -2.126715 -1.350288 10.000000
1.317263 -2.155220 -1.352149 10.000000
0.506475 0.853159 -0.519634 9.000000
0.515361 0.846563 -0.521616 18.000000
0.515524 0.824597 -0.514081 15.000000
0.528917 0.825352 -0.520685 23.000000
0.533316 0.810867 -0.517740 18.000000
0.539346 0.800331 -0.517258 15.000000
0.552736 0.800660 -0.523870 21.000000
0.551573 0.778883 -0.516011 15.000000
0.549466 0.757571 -0.508287 18.000000
0.544407 0.732900 -0.498037 23.000000
0.555348 0.729153 -0.501930 22.000000
0.555014 0.711645 -0.496360 28.000000
0.562590 0.704542 -0.497995 21.000000
0.578405 0.707499 -0.506842 29.000000
0.563534 0.673302 -0.488974 32.000000
0.570772 0.666095 -0.490477 17.000000
0.580793 0.662073 -0.494397 27.000000
0.552988 0.615726 -0.466418 13.000000
0.565547 0.615059 -0.472676 27.000000
0.581138 0.617349 -0.481430 37.000000
0.590877 0.613038 -0.485215 29.000000
0.594498 0.602383 -0.484048 54.000000
0.594879 0.588695 -0.480350 35.000000
0.601329 0.581097 -0.481587 33.000000
0.629364 0.594452 -0.500519 24.000000
1.397317 1.228958 -1.086707 26.000000
1.423361 1.222840 -1.099713 24.000000
1.456788 1.221269 -1.117304 13.000000
1.452979 1.189460 -1.107364 11.000000
1.473077 1.176203 -1.114716 12.000000
1.475400 1.149960 -1.109669 9.000000
1.480839 1.126305 -1.107078 10.000000
1.485969 1.102688 -1.104464 10.000000
1.483971 1.074015 -1.096559 10.000000
1.516584 1.070277 -1.114280 14.000000
1.510565 1.039175 -1.103568 10.000000
1.521863 1.020236 -1.105723 10.000000
1.529384 0.998827 -1.105160 10.000000
1.507354 0.959341 -1.084226 9.000000
1.510615 0.935962 -1.080879 10.000000
1.531419 0.923915 -1.090847 16.000000
1.523315 0.893875 -1.079536 10.000000
1.532727 0.875050 -1.081557 15.000000
1.545802 0.858167 -1.086069 16.000000
1.543743 0.832977 -1.080042 14.000000
1.560207 0.817817 -1.087116 18.000000
1.542521 0.784985 -1.070350 9.000000
1.573895 0.777085 -1.087705 16.000000
1.570845 0.752046 -1.081305 17.000000
1.579103 0.732527 -1.082744 14.000000
1.578995 0.709655 -1.079143 17.000000
1.586840 0.690044 -1.080388 16.000000
1.582464 0.665627 -1.073989 16.000000
1.601283 0.650885 -1.083376 26.000000
1.580663 0.620382 -1.066135 10.000000
1.603166 0.606857 -1.078006 23.000000
1.605742 0.585632 -1.076515 27.000000
1.612153 0.565782 -1.077564 22.000000
1.610000 0.543353 -1.073640 24.000000
1.620031 0.524781 -1.077171 25.000000
1.593296 0.494895 -1.056934 22.000000
1.586399 0.471757 -1.049983 29.000000
1.514288 0.430336 -1.000002 19.000000
0.951611 0.245529 -0.625590 32.000000
0.950040 0.232899 -0.623542 98.000000
0.956731 0.222135 -0.626550 98.000000
0.959042 0.210438 -0.627012 100.000000
0.965371 0.199558 -0.630168 98.000000
0.959244 0.186135 -0.625135 98.000000
0.965406 0.175098 -0.628150 98.000000
0.958846 0.161928 -0.623216 84.000000
0.960644 0.150156 -0.623393 103.000000
0.966360 0.139017 -0.626445 103.000000
0.967811 0.127194 -0.626693 103.000000
0.969156 0.115370 -0.626906 100.000000
0.966213 0.103065 -0.624344 103.000000
0.967200 0.091257 -0.624662 105.000000
0.963925 0.079105 -0.622168 100.000000
0.964838 0.067313 -0.622133 98.000000
0.961307 0.055279 -0.619533 100.000000
0.957561 0.043348 -0.617071 100.000000
0.958048 0.031659 -0.617036 103.000000
0.962495 0.020057 -0.619882 100.000000
0.962599 0.008316 -0.619917 103.000000
0.966873 -0.003474 -0.622624 100.000000
0.966803 -0.015266 -0.622554 103.000000
0.966627 -0.027094 -0.622414 98.000000
0.962005 -0.038716 -0.619707 98.000000
0.961656 -0.050457 -0.619428 98.000000
0.952634 -0.061655 -0.613914 98.000000
0.955996 -0.073616 -0.616653 98.000000
0.980332 -0.087514 -0.632595 100.000000
0.979404 -0.099476 -0.632274 98.000000
0.982370 -0.111913 -0.634833 100.000000
0.981079 -0.123926 -0.634582 98.000000
0.979716 -0.135902 -0.634295 98.000000
0.982373 -0.148472 -0.636634 100.000000
0.980608 -0.160500 -0.636418 95.000000
0.983028 -0.173186 -0.638644 87.000000
0.976935 -0.184447 -0.635590 94.000000
0.978977 -0.197199 -0.637921 95.000000
0.985051 -0.210934 -0.642830 98.000000
0.974493 -0.221103 -0.636909 98.000000
0.976063 -0.234056 -0.639269 98.000000
0.973557 -0.245931 -0.638615 98.000000
0.982997 -0.261130 -0.646187 90.000000
0.963825 -0.268621 -0.634920 56.000000
0.964914 -0.281594 -0.636981 98.000000
0.965868 -0.294629 -0.639001 95.000000
0.954603 -0.303880 -0.632967 98.000000
0.955145 -0.316965 -0.635093 95.000000
0.975762 -0.336870 -0.650247 95.000000
0.952047 -0.341746 -0.636266 98.000000
0.972060 -0.362289 -0.651529 69.000000
0.960120 -0.371196 -0.645432 49.000000
0.967882 -0.387678 -0.652574 98.000000
0.955806 -0.396292 -0.646375 84.000000
0.951524 -0.407982 -0.645407 81.000000
0.946907 -0.419785 -0.644662 90.000000
0.977163 -0.447236 -0.667360 95.000000
0.968302 -0.457504 -0.663838 95.000000
0.959404 -0.467599 -0.660246 77.000000
0.969440 -0.487074 -0.669756 34.000000
0.952729 -0.493149 -0.660839 98.000000
0.947307 -0.504877 -0.659762 95.000000
0.941808 -0.516566 -0.658608 95.000000
0.962239 -0.542771 -0.675678 95.000000
0.963776 -0.558870 -0.679621 92.000000
0.950107 -0.566523 -0.673307 95.000000
0.944060 -0.578181 -0.671963 59.000000
0.941199 -0.592197 -0.673367 30.000000
0.945758 -0.610668 -0.679652 74.000000
0.938976 -0.622426 -0.678368 56.000000
0.935618 -0.636515 -0.679618 71.000000
0.928608 -0.648157 -0.678208 44.000000
0.918028 -0.657179 -0.674234 70.000000
0.914308 -0.671118 -0.675308 61.000000
0.913888 -0.687608 -0.678881 29.000000
0.926907 -0.714656 -0.692617 40.000000
0.976680 -0.771493 -0.734142 52.000000
0.998047 -0.808296 -0.755413 94.000000
1.025929 -0.850910 -0.781317 75.000000
1.026226 -0.872311 -0.787189 51.000000
1.435373 -1.372407 -1.140318 9.000000
1.469822 -1.439083 -1.177116 13.000000
1.475455 -1.479198 -1.191344 10.000000
1.477363 -1.516525 -1.202861 10.000000
1.475715 -1.550938 -1.211832 10.000000
1.473573 -1.585507 -1.220659 10.000000
1.476793 -1.626757 -1.234237 10.000000
1.470685 -1.658426 -1.240312 10.000000
1.469860 -1.696837 -1.251118 8.000000
1.459979 -1.725358 -1.254476 10.000000
1.449725 -1.753937 -1.257788 10.000000
1.444679 -1.789227 -1.265797 10.000000
1.441744 -1.828148 -1.276050 10.000000
1.432931 -1.860287 -1.281335 10.000000
1.419622 -1.889600 -1.284662 11.000000
1.412433 -1.925307 -1.292127 9.000000
1.404869 -1.961013 -1.299426 8.000000
1.387672 -1.986801 -1.299973 9.000000
1.376631 -2.018918 -1.304608 9.000000
1.384686 -2.080440 -1.327944 9.000000
1.358790 -2.094955 -1.321115 9.000000
1.360466 -2.149670 -1.339409 9.000000
1.347693 -2.186594 -1.346365 9.000000
1.331623 -2.215162 -1.348081 8.000000
0.525656 0.878012 -0.524638 29.000000
0.520864 0.848511 -0.512900 15.000000
0.518494 0.822754 -0.503223 36.000000
0.522269 0.808651 -0.500481 28.000000
0.528860 0.798003 -0.499856 31.000000
0.539652 0.794943 -0.504024 41.000000
0.540976 0.776867 -0.498689 27.000000
0.546573 0.766379 -0.498114 63.000000
0.539547 0.737747 -0.485598 28.000000
0.547317 0.730893 -0.487272 21.000000
0.541648 0.706457 -0.477105 34.000000
0.552321 0.702769 -0.480892 32.000000
0.557029 0.692341 -0.480064 67.000000
0.564395 0.685251 -0.481606 36.000000
0.571700 0.678101 -0.483147 46.000000
0.578944 0.670857 -0.484626 61.000000
0.568716 0.643813 -0.471667 40.000000
0.563877 0.623613 -0.463418 37.000000
0.567614 0.613225 -0.462345 34.000000
0.586285 0.618718 -0.473367 71.000000
0.571665 0.589365 -0.457636 95.000000
0.574987 0.579011 -0.456429 74.000000
0.581293 0.571706 -0.457656 98.000000
0.615790 0.591505 -0.480908 100.000000
1.473251 1.318706 -1.125142 16.000000
1.478021 1.291458 -1.120275 15.000000
1.484940 1.267616 -1.118340 11.000000
1.478961 1.232084 -1.105800 16.000000
1.478528 1.202856 -1.098590 13.000000
1.477661 1.173826 -1.091331 10.000000
1.494252 1.157714 -1.095967 10.000000
1.499627 1.133963 -1.093474 10.000000
1.508298 1.112814 -1.093410 10.000000
1.520218 1.094072 -1.095794 13.000000
1.524946 1.070244 -1.092986 10.000000
1.540105 1.053693 -1.097762 15.000000
1.540720 1.027365 -1.092256 14.000000
1.530284 0.994073 -1.079086 10.000000
1.530249 0.968089 -1.073378 10.000000
1.536676 0.947140 -1.073071 11.000000
1.536008 0.921350 -1.067188 16.000000
1.549450 0.904680 -1.071852 16.000000
1.540810 0.874764 -1.060606 11.000000
1.553827 0.857867 -1.065070 16.000000
1.570537 0.842842 -1.072056 16.000000
1.568160 0.817543 -1.066089 13.000000
1.596074 0.807923 -1.080718 10.000000
1.585553 0.778786 -1.069366 12.000000
1.590201 0.757412 -1.068285 18.000000
1.590677 0.734154 -1.064539 18.000000
1.587049 0.709281 -1.058053 14.000000
1.598357 0.691600 -1.062272 19.000000
1.609951 0.673450 -1.065999 20.000000
1.609220 0.650594 -1.062276 16.000000
1.620084 0.632457 -1.066256 19.000000
1.618895 0.609595 -1.062268 18.000000
1.625462 0.589709 -1.063445 23.000000
1.635862 0.571164 -1.067183 25.000000
1.609492 0.540455 -1.047545 24.000000
1.627604 0.524583 -1.056280 21.000000
1.625000 0.502258 -1.052185 26.000000
1.634386 0.483628 -1.055917 20.000000
1.594551 0.450961 -1.027904 18.000000
1.533756 0.413742 -0.986532 26.000000
0.965121 0.235335 -0.618099 35.000000
0.951010 0.219801 -0.608095 95.000000
0.940996 0.205435 -0.600406 100.000000
0.947333 0.194824 -0.603503 95.000000
0.945221 0.182470 -0.601202 95.000000
0.955401 0.172512 -0.607023 84.000000
0.973974 0.163650 -0.617875 95.000000
0.971599 0.151124 -0.615400 98.000000
0.981546 0.140501 -0.621063 98.000000
0.974608 0.127477 -0.616038 100.000000
0.980160 0.116116 -0.618906 98.000000
0.972980 0.103276 -0.613735 98.000000
0.978184 0.091864 -0.616710 98.000000
0.983289 0.080314 -0.619582 95.000000
0.967317 0.067160 -0.608910 93.000000
0.968016 0.055419 -0.609015 98.000000
0.968470 0.043678 -0.609260 95.000000
0.973155 0.032042 -0.611885 95.000000
1.007258 0.020918 -0.633313 98.000000
0.986240 0.008497 -0.620044 99.000000
0.965110 -0.003444 -0.606738 95.000000
0.990437 -0.015568 -0.622634 103.000000
0.994490 -0.027718 -0.625151 103.000000
0.998326 -0.039972 -0.627811 100.000000
1.002158 -0.052292 -0.630182 103.000000
0.988866 -0.063663 -0.622098 84.000000
0.987973 -0.075696 -0.622134 100.000000
0.991370 -0.088068 -0.624541 100.000000
0.990438 -0.100080 -0.624219 100.000000
0.985045 -0.111651 -0.621384 105.000000
0.983760 -0.123613 -0.621134 100.000000
0.986565 -0.136153 -0.623502 105.000000
0.985095 -0.148130 -0.623107 103.000000
0.983338 -0.160107 -0.622928 55.000000
0.977297 -0.171387 -0.619991 103.000000
0.975512 -0.183205 -0.619456 98.000000
0.977637 -0.195893 -0.621673 98.000000
0.979600 -0.208646 -0.623886 100.000000
0.981328 -0.221573 -0.626204 98.000000
0.974811 -0.232485 -0.622986 100.000000
0.972146 -0.244369 -0.622554 98.000000
0.973517 -0.257302 -0.624721 64.000000
0.974756 -0.270299 -0.626813 98.000000
0.979944 -0.284546 -0.631494 98.000000
0.976794 -0.296484 -0.630835 98.000000
0.973608 -0.308313 -0.630103 98.000000
0.970093 -0.320251 -0.629553 98.000000
0.966687 -0.332007 -0.628711 95.000000
0.962988 -0.343835 -0.628052 92.000000
0.975166 -0.361517 -0.637812 47.000000
0.967202 -0.371864 -0.634419 98.000000
0.975014 -0.388391 -0.641388 95.000000
0.970810 -0.400253 -0.640487 100.000000
0.966268 -0.412227 -0.639774 95.000000
0.965748 -0.425700 -0.641395 95.000000
0.960962 -0.437572 -0.640566 98.000000
0.956100 -0.449368 -0.639699 98.000000
0.962639 -0.466690 -0.646515 58.000000
0.961319 -0.480430 -0.648105 95.000000
0.959881 -0.494149 -0.649649 95.000000
0.962073 -0.509930 -0.653720 98.000000
0.956531 -0.521674 -0.652557 95.000000
0.954616 -0.535439 -0.653920 98.000000
0.944865 -0.545161 -0.650348 95.000000
0.942709 -0.558863 -0.651624 98.000000
0.940117 -0.572773 -0.653086 76.000000
0.945009 -0.591026 -0.659317 81.000000
0.938448 -0.602724 -0.658091 63.000000
0.935367 -0.616675 -0.659363 95.000000
0.939297 -0.635468 -0.665646 75.000000
0.942949 -0.654447 -0.671859 84.000000
0.949878 -0.676112 -0.680521 95.000000
0.984435 -0.718382 -0.709217 85.000000
1.042449 -0.779690 -0.755256 62.000000
1.058092 -0.810934 -0.771034 32.000000
1.059097 -0.832263 -0.776978 71.000000
1.063731 -0.856137 -0.785001 61.000000
1.530067 -1.355080 -1.159796 14.000000
1.537571 -1.394768 -1.174231 12.000000
1.538978 -1.428290 -1.183083 8.000000
1.535806 -1.459646 -1.189860 10.000000
1.522915 -1.481896 -1.189188 10.000000
1.531316 -1.525651 -1.205475 12.000000
1.511563 -1.541715 -1.199723 10.000000
1.497780 -1.563794 -1.198753 10.000000
1.507632 -1.611376 -1.217010 13.000000
1.487141 -1.626983 -1.211065 10.000000
1.525075 -1.707794 -1.252988 9.000000
1.495052 -1.713678 -1.239593 14.000000
1.485108 -1.742364 -1.242876 10.000000
1.477684 -1.774487 -1.248413 13.000000
1.466953 -1.803237 -1.251518 12.000000
1.447698 -1.821526 -1.247329 10.000000
1.451316 -1.871748 -1.264821 13.000000
1.444650 -1.907536 -1.272215 10.000000
1.461265 -1.975303 -1.300580 9.000000
1.410400 -1.954935 -1.270774 10.000000
1.412642 -2.005139 -1.287110 9.000000
1.410145 -2.052789 -1.301409 10.000000
1.391092 -2.074138 -1.298913 9.000000
1.392019 -2.129515 -1.317526 9.000000
1.384066 -2.169483 -1.326198 10.000000
1.366727 -2.199018 -1.328362 9.000000
1.371341 -2.262033 -1.350494 9.000000
0.523677 0.890782 -0.516028 42.000000
0.528961 0.876151 -0.513412 34.000000
0.519250 0.839035 -0.497398 29.000000
0.530983 0.835887 -0.501377 27.000000
0.532997 0.817674 -0.496306 43.000000
0.541452 0.810958 -0.498177 35.000000
0.545480 0.796466 -0.495250 49.000000
0.546135 0.778663 -0.490166 74.000000
0.552228 0.767906 -0.489436 36.000000
0.562919 0.764491 -0.493464 52.000000
0.554944 0.736169 -0.481311 27.000000
0.555104 0.718388 -0.475808 53.000000
0.554440 0.701002 -0.470386 86.000000
0.570213 0.704312 -0.478936 66.000000
0.578158 0.696899 -0.480312 66.000000
0.576971 0.679518 -0.474794 52.000000
0.587107 0.675603 -0.478631 60.000000
0.585541 0.658325 -0.472992 87.000000
0.568887 0.624932 -0.455420 24.000000
0.590585 0.633871 -0.468632 95.000000
0.570087 0.597827 -0.448514 92.000000
0.585742 0.600081 -0.456953 98.000000
0.582939 0.583398 -0.451010 98.000000
0.623727 0.609759 -0.478674 108.000000
1.467866 1.336867 -1.100432 24.000000
1.498109 1.333380 -1.115633 21.000000
1.502790 1.305948 -1.110985 18.000000
1.493903 1.267266 -1.096397 22.000000
1.493767 1.237846 -1.089481 17.000000
1.524422 1.232735 -1.104057 22.000000
1.510068 1.192407 -1.087127 10.000000
1.508900 1.163237 -1.079896 9.000000
1.532357 1.152026 -1.089378 17.000000
1.537598 1.127979 -1.086916 15.000000
1.539066 1.101443 -1.081817 15.000000
1.561580 1.089864 -1.091605 18.000000
1.530296 1.041373 -1.063916 11.000000
1.541568 1.022413 -1.066001 15.000000
1.563553 1.010437 -1.075525 10.000000
1.563590 0.984102 -1.069976 10.000000
1.555906 0.953454 -1.059314 17.000000
1.558401 0.930093 -1.056473 18.000000
1.572390 0.912972 -1.060658 23.000000
1.578204 0.891641 -1.060190 24.000000
1.580575 0.867878 -1.056672 18.000000
1.597366 0.852676 -1.063586 22.000000
1.606467 0.833130 -1.065381 18.000000
1.596207 0.803771 -1.054344 10.000000
1.612554 0.787983 -1.061080 17.000000
1.617192 0.766353 -1.060059 16.000000
1.609878 0.739307 -1.051249 18.000000
1.625842 0.723060 -1.057678 19.000000
1.625469 0.699952 -1.054266 21.000000
1.629237 0.678248 -1.052836 24.000000
1.624442 0.653687 -1.046646 16.000000
1.631726 0.633640 -1.047579 10.000000
1.642528 0.615285 -1.051457 25.000000
1.645111 0.593796 -1.050070 24.000000
1.647103 0.572530 -1.048986 29.000000
1.649313 0.551051 -1.047400 25.000000
1.655322 0.530855 -1.048267 24.000000
1.644534 0.505812 -1.039105 26.000000
1.666226 0.490649 -1.050560 22.000000
1.589387 0.447102 -0.999397 10.000000
1.556989 0.417809 -0.976958 29.000000
0.982625 0.225967 -0.612975 51.000000
0.955751 0.207699 -0.595283 98.000000
0.953769 0.195276 -0.593135 95.000000
0.960014 0.184497 -0.596086 98.000000
0.957770 0.172106 -0.593796 82.000000
0.976484 0.163302 -0.604497 52.000000
0.978148 0.151478 -0.604886 100.000000
0.988259 0.140787 -0.610244 98.000000
0.981263 0.127725 -0.605311 100.000000
0.982609 0.115865 -0.605524 103.000000
0.983706 0.103971 -0.605878 98.000000
0.984839 0.092076 -0.605984 100.000000
0.989973 0.080492 -0.608809 98.000000
0.978139 0.067628 -0.600935 48.000000
0.978700 0.055801 -0.601251 100.000000
0.979297 0.043974 -0.601286 95.000000
0.975493 0.031973 -0.598672 95.000000
0.975738 0.020162 -0.598777 100.000000
0.997185 0.008569 -0.611886 97.000000
1.014267 -0.003559 -0.622346 105.000000
1.009933 -0.015767 -0.619659 100.000000
1.009753 -0.027990 -0.619514 103.000000
1.009355 -0.040177 -0.619514 100.000000
1.013069 -0.052622 -0.622092 100.000000
1.008342 -0.064588 -0.619116 98.000000
1.003223 -0.076451 -0.616540 100.000000
1.002359 -0.088586 -0.616252 103.000000
0.997072 -0.100295 -0.613533 100.000000
0.991758 -0.111830 -0.610565 100.000000
0.998974 -0.124885 -0.615532 100.000000
0.997570 -0.136985 -0.615207 103.000000
0.991693 -0.148453 -0.612457 100.000000
0.994329 -0.161076 -0.614631 100.000000
0.992456 -0.173140 -0.614343 98.000000
0.990511 -0.185167 -0.614019 100.000000
0.988459 -0.197159 -0.613587 100.000000
0.990441 -0.209964 -0.615753 100.000000
0.983993 -0.220998 -0.612615 100.000000
0.989790 -0.234928 -0.617443 100.000000
0.987139 -0.246948 -0.617007 100.000000
0.984524 -0.258824 -0.616317 98.000000
0.998154 -0.275322 -0.626085 95.000000
0.982607 -0.283944 -0.617959 98.000000
0.991803 -0.299509 -0.625051 100.000000
0.984505 -0.310223 -0.621733 98.000000
0.985082 -0.323548 -0.623758 103.000000
0.977371 -0.334126 -0.620556 98.000000
0.977881 -0.347328 -0.622245 100.000000
0.982091 -0.362188 -0.626642 95.000000
0.986162 -0.377168 -0.630991 95.000000
0.981845 -0.389255 -0.630390 98.000000
0.977604 -0.401116 -0.629489 98.000000
0.977055 -0.414770 -0.631332 98.000000
0.984421 -0.431747 -0.637970 100.000000
0.971777 -0.440251 -0.632034 98.000000
0.966858 -0.452096 -0.631163 98.000000
0.965741 -0.465773 -0.632796 95.000000
0.976044 -0.485223 -0.641958 85.000000
0.970755 -0.497075 -0.640916 98.000000
0.969166 -0.510899 -0.642325 100.000000
0.971211 -0.526797 -0.646250 100.000000
0.961503 -0.536684 -0.642753 98.000000
0.959492 -0.550469 -0.644023 98.000000
0.953320 -0.562305 -0.642969 98.000000
0.947344 -0.573789 -0.641641 95.000000
0.959355 -0.596904 -0.652978 51.000000
0.960045 -0.613356 -0.656778 98.000000
0.964177 -0.632245 -0.662971 91.000000
0.993223 -0.668311 -0.686505 95.000000
1.043048 -0.719930 -0.724787 95.000000
1.074204 -0.760320 -0.750519 79.000000
1.076528 -0.781109 -0.756222 78.000000
1.082039 -0.804611 -0.764357 63.000000
1.093675 -0.833975 -0.777608 26.000000
1.518298 -1.274243 -1.106320 20.000000
1.560418 -1.341577 -1.145159 21.000000
1.575073 -1.387061 -1.164184 19.000000
1.557247 -1.403174 -1.158470 11.000000
1.554627 -1.434422 -1.165196 14.000000
1.564343 -1.477885 -1.181499 10.000000
1.557544 -1.506513 -1.185552 13.000000
1.550395 -1.535152 -1.189490 14.000000
1.527463 -1.548159 -1.181456 10.000000
1.538086 -1.595610 -1.199476 17.000000
1.526740 -1.621167 -1.200762 10.000000
1.542023 -1.675738 -1.223236 15.000000
1.517983 -1.688351 -1.214811 10.000000
1.511480 -1.720470 -1.220445 10.000000
1.507411 -1.755995 -1.228365 18.000000
1.497064 -1.784785 -1.231457 16.000000
1.490811 -1.821200 -1.239569 14.000000
1.479707 -1.850083 -1.242396 21.000000
1.481866 -1.896390 -1.256748 14.000000
1.473854 -1.933085 -1.264390 14.000000
1.453367 -1.951397 -1.259959 10.000000
1.448485 -1.991022 -1.269273 9.000000
1.449165 -2.042352 -1.285684 14.000000
1.422616 -2.052988 -1.276408 10.000000
1.417053 -2.097325 -1.288002 10.000000
1.407494 -2.133449 -1.294443 13.000000
1.405357 -2.185519 -1.310246 10.000000
1.397455 -2.230410 -1.321332 10.000000
1.381177 -2.259295 -1.322822 10.000000
1.369626 -2.300442 -1.331393 9.000000
0.546209 0.946327 -0.531340 35.000000
0.538410 0.908144 -0.515748 42.000000
0.548486 0.901044 -0.517577 16.000000
0.525219 0.840553 -0.488462 36.000000
0.531470 0.830203 -0.488132 26.000000
0.548040 0.834447 -0.496523 27.000000
0.549194 0.816473 -0.491657 39.000000
0.553183 0.801932 -0.488817 27.000000
0.556381 0.787720 -0.486112 54.000000
0.567797 0.784082 -0.489919 37.000000
0.565359 0.762674 -0.482611 24.000000
0.555014 0.730505 -0.468196 51.000000
0.562684 0.723559 -0.469768 29.000000
0.570794 0.716266 -0.471182 49.000000
0.578338 0.709162 -0.472722 66.000000
0.583006 0.698525 -0.471960 40.000000
0.587975 0.687616 -0.470966 61.000000
0.592341 0.676966 -0.470144 44.000000
0.593652 0.662997 -0.466923 56.000000
0.585793 0.639267 -0.456683 72.000000
0.592612 0.631970 -0.458029 71.000000
0.605517 0.630956 -0.464032 95.000000
0.606100 0.617106 -0.460661 95.000000
0.615896 0.612649 -0.464274 103.000000
1.498987 1.357553 -1.095392 22.000000
1.517088 1.341723 -1.100446 22.000000
1.521821 1.314122 -1.095871 20.000000
1.515403 1.278699 -1.084480 24.000000
1.532856 1.262519 -1.089298 23.000000
1.528994 1.230127 -1.080010 14.000000
1.546041 1.213689 -1.084681 21.000000
1.534550 1.176153 -1.070401 10.000000
1.544132 1.154314 -1.070066 14.000000
1.574094 1.148347 -1.084648 25.000000
1.568559 1.116362 -1.074843 17.000000
1.576886 1.094696 -1.074756 17.000000
1.585025 1.072849 -1.074524 17.000000
1.581999 1.043825 -1.066857 13.000000
1.586024 1.019667 -1.064000 22.000000
1.578616 0.988627 -1.053673 9.000000
1.570824 0.957843 -1.043171 15.000000
1.581280 0.938480 -1.044978 21.000000
1.580255 0.912469 -1.039233 17.000000
1.605010 0.901880 -1.051136 24.000000
1.618782 0.884163 -1.055172 23.000000
1.616628 0.858411 -1.049591 17.000000
1.618066 0.834796 -1.046411 20.000000
1.619227 0.811240 -1.043087 9.000000
1.639585 0.797148 -1.052243 16.000000
1.632533 0.769785 -1.043773 17.000000
1.632999 0.746273 -1.040160 14.000000
1.637150 0.724576 -1.038980 16.000000
1.641073 0.702849 -1.037794 17.000000
1.652437 0.684715 -1.041822 18.000000
1.651935 0.661290 -1.037921 22.000000
1.642870 0.635072 -1.029214 10.000000
1.649593 0.615150 -1.030459 20.000000
1.668371 0.599542 -1.039227 29.000000
1.662605 0.575057 -1.032762 20.000000
1.672921 0.556246 -1.036292 26.000000
1.674869 0.534591 -1.034692 26.000000
1.684529 0.515619 -1.038414 22.000000
1.682005 0.492727 -1.034081 22.000000
1.633270 0.457330 -1.002014 9.000000
1.613193 0.430887 -0.987643 25.000000
1.563606 0.397625 -0.955296 34.000000
1.169411 0.267693 -0.711889 98.000000
0.995721 0.215425 -0.605229 50.000000
0.960205 0.195624 -0.582490 95.000000
0.958072 0.183232 -0.580281 75.000000
0.964241 0.172419 -0.583151 95.000000
0.991401 0.165067 -0.598997 76.000000
0.984697 0.151797 -0.594054 88.000000
0.990506 0.140541 -0.596970 100.000000
0.991928 0.128595 -0.597254 98.000000
0.989016 0.116113 -0.594904 95.000000
0.998792 0.105117 -0.600211 100.000000
0.999934 0.093049 -0.600318 98.000000
0.996550 0.080670 -0.597966 95.000000
0.993087 0.068394 -0.595576 57.000000
0.985193 0.055942 -0.590547 98.000000
0.994326 0.044427 -0.595718 98.000000
0.990534 0.032322 -0.593150 95.000000
0.986491 0.020320 -0.590688 98.000000
0.990921 0.008459 -0.593326 100.000000
0.990957 -0.003454 -0.593326 95.000000
1.029492 -0.015967 -0.616333 105.000000
1.029309 -0.028381 -0.616223 103.000000
1.033193 -0.040929 -0.618791 100.000000
1.028357 -0.053137 -0.616150 105.000000
1.027734 -0.065515 -0.616003 95.000000
1.014164 -0.076919 -0.608123 100.000000
1.026123 -0.090234 -0.615527 103.000000
1.016519 -0.101757 -0.610289 100.000000
1.006788 -0.113038 -0.604980 100.000000
1.009753 -0.125704 -0.607291 100.000000
1.008342 -0.137855 -0.607001 100.000000
1.011108 -0.150602 -0.609199 103.000000
1.000847 -0.161436 -0.603828 89.000000
1.003388 -0.174163 -0.605880 95.000000
1.005660 -0.187027 -0.608110 103.000000
1.003554 -0.199156 -0.607711 98.000000
0.997023 -0.210398 -0.604868 98.000000
0.990547 -0.221466 -0.601811 98.000000
1.004773 -0.237378 -0.611609 103.000000
0.993894 -0.247348 -0.605858 100.000000
0.995298 -0.260422 -0.607930 83.000000
1.000722 -0.274699 -0.612466 93.000000
0.997707 -0.286761 -0.611840 98.000000
0.994434 -0.298860 -0.611399 100.000000
0.999461 -0.313390 -0.615731 98.000000
0.995938 -0.325478 -0.615175 98.000000
0.996388 -0.338918 -0.617074 95.000000
0.996696 -0.352419 -0.618893 100.000000
1.021174 -0.374870 -0.635845 57.000000
0.992844 -0.377956 -0.619917 92.000000
0.984733 -0.388345 -0.616538 100.000000
0.992363 -0.405248 -0.623406 80.000000
0.983990 -0.415486 -0.619950 95.000000
0.983319 -0.429164 -0.621665 95.000000
0.990388 -0.446458 -0.628381 95.000000
0.985448 -0.458484 -0.627462 100.000000
1.003828 -0.481679 -0.641520 53.000000
0.986916 -0.488071 -0.633023 95.000000
0.985432 -0.501977 -0.634465 98.000000
0.980024 -0.513883 -0.633376 95.000000
0.974460 -0.525712 -0.632208 103.000000
0.976142 -0.541874 -0.636226 98.000000
0.970338 -0.553599 -0.634971 98.000000
0.971685 -0.569882 -0.638845 98.000000
0.998866 -0.601994 -0.659899 83.000000
1.036670 -0.641681 -0.688208 69.000000
1.081056 -0.687089 -0.721228 95.000000
1.095428 -0.714569 -0.734528 93.000000
1.091226 -0.730316 -0.735460 95.000000
1.086833 -0.746106 -0.736337 70.000000
1.093057 -0.769342 -0.744502 95.000000
1.102471 -0.795438 -0.754959 95.000000
1.547261 -1.260734 -1.091886 21.000000
1.587153 -1.324903 -1.127695 25.000000
1.599931 -1.366849 -1.143706 19.000000
1.604653 -1.404025 -1.155220 17.000000
1.598942 -1.432666 -1.159536 19.000000
1.586400 -1.455375 -1.158928 9.000000
1.586490 -1.490081 -1.167763 10.000000
1.586101 -1.524959 -1.176460 19.000000
1.566280 -1.541432 -1.170835 12.000000
1.558821 -1.570135 -1.174601 16.000000
1.551006 -1.598917 -1.178251 15.000000
1.558047 -1.643672 -1.193516 12.000000
1.558363 -1.682378 -1.203866 17.000000
1.543236 -1.704869 -1.202547 9.000000
1.524943 -1.723876 -1.198825 10.000000
1.526809 -1.766068 -1.211142 15.000000
1.523931 -1.805939 -1.221467 15.000000
1.513178 -1.834981 -1.224355 15.000000
1.507626 -1.870917 -1.231677 15.000000
1.505802 -1.914617 -1.243804 16.000000
1.490952 -1.940214 -1.244079 17.000000
1.469088 -1.959314 -1.240226 10.000000
1.474864 -2.013427 -1.258296 10.000000
1.462566 -2.046820 -1.263176 10.000000
1.451415 -2.079531 -1.267479 10.000000
1.445773 -2.124035 -1.278748 10.000000
1.436103 -2.160471 -1.285027 10.000000
1.431493 -2.209043 -1.298214 10.000000
1.425361 -2.253241 -1.308529 10.000000
1.419113 -2.302235 -1.321468 9.000000
1.397930 -2.328316 -1.320974 9.000000
1.387840 -2.373760 -1.331435 10.000000
0.554376 0.952157 -0.523884 19.000000
0.567191 0.948769 -0.527975 23.000000
0.544649 0.887540 -0.499602 15.000000
0.549682 0.872832 -0.497024 13.000000
0.544025 0.843294 -0.485873 24.000000
0.550833 0.832500 -0.485388 16.000000
0.556884 0.821938 -0.485022 19.000000
0.568584 0.818408 -0.488843 20.000000
0.575060 0.807438 -0.488260 18.000000
0.578177 0.793046 -0.485579 26.000000
0.560195 0.749722 -0.464873 9.000000
0.578879 0.757018 -0.475428 17.000000
0.579057 0.739018 -0.470142 28.000000
0.589606 0.735325 -0.473990 17.000000
0.586483 0.713963 -0.466363 29.000000
0.594001 0.706730 -0.467879 29.000000
0.595644 0.692613 -0.464860 22.000000
0.600489 0.681639 -0.463868 31.000000
0.598774 0.664285 -0.458458 10.000000
0.593802 0.643821 -0.450687 34.000000
0.591508 0.626794 -0.445126 32.000000
0.598198 0.619452 -0.446429 28.000000
0.617330 0.624672 -0.456932 58.000000
1.487581 1.339798 -1.059299 25.000000
1.518746 1.335857 -1.073647 18.000000
1.526657 1.311306 -1.071533 14.000000
1.537611 1.289546 -1.071613 11.000000
1.547601 1.268146 -1.072098 10.000000
1.568474 1.254390 -1.079187 13.000000
1.557345 1.216430 -1.065292 9.000000
1.553282 1.183779 -1.055598 12.000000
1.562289 1.162253 -1.055721 10.000000
1.560977 1.132534 -1.048198 10.000000
1.590883 1.126192 -1.062508 17.000000
1.592111 1.099337 -1.057617 10.000000
1.581999 1.065264 -1.045418 10.000000
1.601342 1.050358 -1.051958 12.000000
1.583155 1.011949 -1.034664 9.000000
1.597803 0.994952 -1.039044 10.000000
1.596885 0.968986 -1.034075 10.000000
1.618667 0.956110 -1.043112 14.000000
1.621588 0.931940 -1.039958 18.000000
1.608901 0.899300 -1.027054 10.000000
1.626036 0.884023 -1.033862 11.000000
1.647380 0.870211 -1.042611 19.000000
1.625530 0.834407 -1.024867 10.000000
1.646119 0.820548 -1.033879 10.000000
1.650955 0.798754 -1.033100 10.000000
1.647737 0.773162 -1.027269 10.000000
1.671876 0.760406 -1.038516 18.000000
1.676137 0.738369 -1.037468 12.000000
1.676166 0.714594 -1.033754 15.000000
1.675928 0.690885 -1.030029 18.000000
1.667036 0.664281 -1.021661 10.000000
