x y z intensity
0.935654 1.351020 -0.072541 19.000000
0.958877 1.353005 -0.073456 19.000000
0.964721 1.330388 -0.073043 9.000000
0.988006 1.331880 -0.073962 17.000000
1.005412 1.325018 -0.074388 16.000000
1.019741 1.314043 -0.074642 15.000000
1.033969 1.302865 -0.074897 25.000000
1.048043 1.291533 -0.075100 16.000000
1.071533 1.291633 -0.076033 19.000000
1.085530 1.279893 -0.076238 21.000000
1.119004 1.290641 -0.077860 10.000000
1.113113 1.255950 -0.076699 30.000000
1.123346 1.240046 -0.076675 25.000000
1.143525 1.235108 -0.077390 27.000000
1.163761 1.229816 -0.078056 30.000000
1.180579 1.220630 -0.078494 24.000000
1.197319 1.211264 -0.078933 31.000000
1.221080 1.208693 -0.079838 26.000000
1.234150 1.195308 -0.080048 13.000000
1.254366 1.188636 -0.080724 33.000000
1.270911 1.178305 -0.081169 29.000000
1.291070 1.171037 -0.081797 29.000000
1.314951 1.166816 -0.082715 37.000000
1.323802 1.149148 -0.082694 28.000000
1.351509 1.147564 -0.083799 34.000000
1.367756 1.135912 -0.084252 30.000000
1.399470 1.136663 -0.085656 17.000000
1.396165 1.108925 -0.084870 31.000000
1.416039 1.099744 -0.085510 26.000000
1.435881 1.090282 -0.086207 28.000000
1.467719 1.089411 -0.087568 33.000000
1.479559 1.073327 -0.087736 27.000000
1.503398 1.065796 -0.088624 32.000000
1.523095 1.055043 -0.089274 32.000000
1.542803 1.043940 -0.089926 17.000000
1.554072 1.027036 -0.090097 33.000000
1.598740 1.031739 -0.092204 32.000000
1.605618 1.011578 -0.092136 29.000000
1.633359 1.004824 -0.093281 57.000000
1.652763 0.992094 -0.093944 29.000000
1.667792 0.976535 -0.094364 31.000000
1.704323 0.973205 -0.095947 34.000000
1.714817 0.954555 -0.096127 22.000000
1.733911 0.940608 -0.096797 36.000000
1.748452 0.924016 -0.097163 35.000000
1.767242 0.909492 -0.097775 32.000000
1.803809 0.903600 -0.099434 61.000000
1.844972 0.899251 -0.101283 35.000000
1.863655 0.883398 -0.101901 35.000000
1.913990 0.881914 -0.104315 32.000000
1.918898 0.859011 -0.104196 22.000000
1.941824 0.844105 -0.105068 31.000000
1.973887 0.832654 -0.106438 32.000000
2.010521 0.822462 -0.108060 28.000000
2.037918 0.807986 -0.109187 33.000000
2.065139 0.793109 -0.110317 27.000000
2.087699 0.775886 -0.111201 29.000000
2.152396 0.773420 -0.114262 32.000000
2.118184 0.735202 -0.112154 10.000000
2.192355 0.734388 -0.115792 32.000000
2.233461 0.721251 -0.117615 35.000000
2.255440 0.701460 -0.118510 30.000000
2.291651 0.685507 -0.120086 37.000000
2.351680 0.675754 -0.122993 32.000000
2.373300 0.654239 -0.123822 34.000000
2.414093 0.637360 -0.125732 36.000000
2.420883 0.611115 -0.125809 10.000000
2.461351 0.592903 -0.127647 36.000000
2.540624 0.582885 -0.131504 46.000000
2.507726 0.546815 -0.129567 9.000000
2.567322 0.530720 -0.132420 8.000000
2.607235 0.509465 -0.134266 7.000000
2.676434 0.492892 -0.137630 7.000000
2.701355 0.467189 -0.138724 8.000000
2.814747 0.455329 -0.144371 23.000000
2.854016 0.429954 -0.146140 32.000000
2.907969 0.405811 -0.148759 10.000000
2.971710 0.381866 -0.151794 26.000000
3.030200 0.355957 -0.154671 77.000000
3.058757 0.325690 -0.155936 94.000000
3.047134 0.290992 -0.155270 34.000000
3.050128 0.257786 -0.155270 37.000000
3.037807 0.223575 -0.154510 16.000000
3.069942 0.192406 -0.156030 29.000000
3.046982 0.157747 -0.154764 19.000000
3.033506 0.124038 -0.154097 8.000000
3.029721 0.090861 -0.153751 14.000000
3.060416 0.058460 -0.155270 25.000000
3.030925 0.025008 -0.153751 25.000000
3.050991 -0.008018 -0.154764 35.000000
3.010767 -0.040669 -0.152737 26.000000
2.980263 -0.072694 -0.151127 31.000000
3.019184 -0.106440 -0.153152 33.000000
2.992950 -0.138153 -0.151794 26.000000
3.016138 -0.172076 -0.153059 32.000000
3.024071 -0.205526 -0.153473 27.000000
2.991794 -0.236049 -0.151864 16.000000
3.033804 -0.272534 -0.154045 36.000000
3.030733 -0.305484 -0.153952 34.000000
3.032158 -0.338989 -0.154111 53.000000
3.008510 -0.369465 -0.153010 85.000000
3.024140 -0.404717 -0.153925 71.000000
2.989920 -0.433330 -0.152321 82.000000
2.980093 -0.464963 -0.151977 57.000000
2.950214 -0.493195 -0.150627 28.000000
2.939814 -0.524400 -0.150193 95.000000
2.929068 -0.555315 -0.149851 62.000000
2.913081 -0.585140 -0.149258 84.000000
2.901659 -0.615699 -0.148826 95.000000
2.880151 -0.643791 -0.147894 63.000000
2.873027 -0.675083 -0.147804 95.000000
2.846147 -0.701416 -0.146625 37.000000
2.968910 -0.766001 -0.153181 9.000000
2.974942 -0.802130 -0.153836 15.000000
2.966093 -0.834234 -0.153553 10.000000
2.942489 -0.862126 -0.152619 10.000000
2.975924 -0.907179 -0.154666 10.000000
2.956421 -0.936389 -0.153980 10.000000
2.988789 -0.982452 -0.156020 16.000000
2.963746 -1.010016 -0.155085 10.000000
2.947939 -1.040500 -0.154647 9.000000
2.978694 -1.087918 -0.156676 16.000000
2.971351 -1.121948 -0.156632 10.000000
2.959123 -1.153876 -0.156438 13.000000
2.969574 -1.195224 -0.157374 17.000000
2.979529 -1.236977 -0.158405 18.000000
2.993474 -1.281098 -0.159578 31.000000
2.993055 -1.319575 -0.160112 30.000000
2.955826 -1.341736 -0.158592 24.000000
2.963771 -1.384339 -0.159512 91.000000
2.948479 -1.416421 -0.159212 70.000000
2.937466 -1.450715 -0.159255 98.000000
2.908090 -1.475766 -0.158228 83.000000
2.887520 -1.505044 -0.157687 60.000000
2.871005 -1.536283 -0.157389 66.000000
2.854092 -1.567522 -0.157090 35.000000
2.823827 -1.591108 -0.156071 28.000000
2.823595 -1.631802 -0.156634 94.000000
2.784177 -1.649762 -0.155138 42.000000
2.783157 -1.690289 -0.155797 91.000000
2.756470 -1.714661 -0.154922 65.000000
2.741936 -1.747298 -0.154863 43.000000
2.731030 -1.782558 -0.154940 70.000000
2.736414 -1.828801 -0.156062 36.000000
2.666841 -1.824722 -0.152825 21.000000
2.679627 -1.876569 -0.154415 73.000000
2.662998 -1.908662 -0.154250 41.000000
2.638050 -1.934637 -0.153616 46.000000
2.616762 -1.963221 -0.153316 45.000000
2.615085 -2.006909 -0.154083 45.000000
2.600887 -2.041476 -0.154146 67.000000
2.562983 -2.057154 -0.152813 30.000000
2.540392 -2.085066 -0.152411 13.000000
2.532804 -2.125519 -0.152934 32.000000
2.543587 -2.182265 -0.154604 27.000000
2.542159 -2.229670 -0.155470 31.000000
2.491746 -2.233913 -0.153453 23.000000
2.419339 -2.217034 -0.150075 16.000000
2.285714 -2.140866 -0.142839 15.000000
2.186505 -2.093112 -0.137593 10.000000
2.063605 -2.018978 -0.130883 8.000000
2.016832 -2.016657 -0.128862 16.000000
1.924918 -1.967124 -0.124012 11.000000
1.868850 -1.951896 -0.121349 18.000000
1.789416 -1.910150 -0.117136 17.000000
1.728047 -1.885312 -0.114062 15.000000
1.674150 -1.866797 -0.111528 29.000000
1.640598 -1.869856 -0.110260 28.000000
1.616903 -1.883847 -0.109659 13.000000
1.580292 -1.882161 -0.108181 33.000000
1.562967 -1.903063 -0.108024 25.000000
1.548461 -1.927702 -0.108085 28.000000
1.527539 -1.944395 -0.107632 27.000000
1.530659 -1.992628 -0.108987 24.000000
1.511938 -2.013124 -0.108820 30.000000
1.490021 -2.029428 -0.108435 21.000000
1.465037 -2.041365 -0.107759 12.000000
1.451461 -2.069445 -0.108016 26.000000
1.437387 -2.097404 -0.108268 22.000000
1.431228 -2.137844 -0.109073 29.000000
1.416169 -2.165789 -0.109313 25.000000
1.403369 -2.197886 -0.109679 24.000000
1.390044 -2.229898 -0.110038 26.000000
1.370999 -2.253442 -0.110054 18.000000
1.379576 -2.324031 -0.112268 9.000000
0.836591 1.426862 -0.056315 7.000000
0.844274 1.404821 -0.056005 19.000000
0.854248 1.387052 -0.055812 22.000000
0.874553 1.386152 -0.056355 25.000000
0.889568 1.376593 -0.056555 32.000000
0.904432 1.366833 -0.056755 23.000000
0.919197 1.356974 -0.056956 28.000000
0.942402 1.359233 -0.057679 29.000000
0.962832 1.357081 -0.058179 24.000000
0.962839 1.326344 -0.057506 26.000000
0.968216 1.303799 -0.057178 24.000000
0.994390 1.309102 -0.058033 23.000000
1.008496 1.298259 -0.058234 31.000000
1.025661 1.291127 -0.058562 27.000000
1.039609 1.279898 -0.058763 31.000000
1.066174 1.283945 -0.059628 30.000000
1.089738 1.283702 -0.060370 26.000000
1.090522 1.256677 -0.059805 25.000000
1.100824 1.240998 -0.059828 28.000000
1.124317 1.240097 -0.060522 31.000000
1.144502 1.235108 -0.061038 36.000000
1.161308 1.226240 -0.061374 35.000000
1.174562 1.213501 -0.061529 37.000000
1.194742 1.207764 -0.062100 32.000000
1.218473 1.205179 -0.062805 34.000000
1.227914 1.188410 -0.062779 29.000000
1.248008 1.181818 -0.063303 31.000000
1.264480 1.171513 -0.063645 35.000000
1.284571 1.164379 -0.064120 47.000000
1.293488 1.146980 -0.064094 31.000000
1.324766 1.149202 -0.065181 53.000000
1.348620 1.144385 -0.065900 36.000000
1.368679 1.136021 -0.066435 48.000000
1.373252 1.114730 -0.066170 28.000000
1.393124 1.105873 -0.066707 27.000000
1.420587 1.103302 -0.067621 35.000000
1.444445 1.096821 -0.068295 37.000000
1.460366 1.083957 -0.068650 31.000000
1.476129 1.070895 -0.068950 50.000000
1.495865 1.060467 -0.069496 35.000000
1.515560 1.049805 -0.069987 32.000000
1.526877 1.033252 -0.070100 34.000000
1.567260 1.035813 -0.071602 32.000000
1.582645 1.021368 -0.071907 34.000000
1.593690 1.004052 -0.072022 40.000000
1.625785 0.999707 -0.073094 32.000000
1.636568 0.981988 -0.073210 50.000000
1.668737 0.976712 -0.074287 40.000000
1.679248 0.958465 -0.074405 28.000000
1.715777 0.954735 -0.075678 36.000000
1.739207 0.943110 -0.076377 37.000000
1.753776 0.926471 -0.076691 36.000000
1.777100 0.914246 -0.077393 55.000000
1.809263 0.906022 -0.078484 36.000000
1.823518 0.888497 -0.078739 34.000000
1.864663 0.883587 -0.080223 42.000000
1.874116 0.863295 -0.080349 32.000000
1.915301 0.857162 -0.081775 29.000000
1.942859 0.844299 -0.082683 32.000000
1.984076 0.836733 -0.084114 32.000000
2.011583 0.822661 -0.085027 39.000000
2.029634 0.804505 -0.085485 32.000000
2.052295 0.787805 -0.086206 32.000000
2.088788 0.775886 -0.087450 36.000000
2.111196 0.758222 -0.088106 26.000000
2.142811 0.743597 -0.089226 29.000000
2.164990 0.725080 -0.089885 33.000000
2.220274 0.716861 -0.091924 32.000000
2.261293 0.703160 -0.093374 41.000000
2.292748 0.685727 -0.094505 43.000000
2.309660 0.663562 -0.094973 36.000000
2.350421 0.647678 -0.096429 58.000000
2.362177 0.623412 -0.096627 29.000000
2.417259 0.609968 -0.098679 35.000000
2.448018 0.589548 -0.099745 35.000000
2.488333 0.570758 -0.101208 31.000000
2.494337 0.543780 -0.101286 9.000000
2.534355 0.523723 -0.102753 8.000000
2.569308 0.501964 -0.103943 8.000000
2.608978 0.480311 -0.105412 8.000000
2.663312 0.460464 -0.107398 6.000000
2.751940 0.445133 -0.110858 8.000000
2.801085 0.421859 -0.112732 16.000000
2.864873 0.399688 -0.115118 9.000000
2.933533 0.376865 -0.117703 9.000000
2.972150 0.349057 -0.119186 10.000000
3.045357 0.324197 -0.121971 35.000000
3.098364 0.295834 -0.123961 89.000000
3.106384 0.262507 -0.124160 34.000000
3.123998 0.229901 -0.124757 35.000000
3.106349 0.194688 -0.124056 16.000000
3.118324 0.161362 -0.124454 9.000000
3.104875 0.126894 -0.123762 23.000000
3.111102 0.093256 -0.123961 75.000000
3.141929 0.060082 -0.125155 55.000000
3.097351 0.025543 -0.123364 72.000000
3.117429 -0.008188 -0.124160 69.000000
3.122234 -0.042152 -0.124264 95.000000
3.126561 -0.076225 -0.124463 93.000000
3.120518 -0.109959 -0.124264 95.000000
3.119183 -0.143909 -0.124168 98.000000
3.117466 -0.177765 -0.124168 98.000000
3.115273 -0.211620 -0.124073 98.000000
3.072949 -0.242334 -0.122391 95.000000
3.070219 -0.275662 -0.122391 81.000000
3.062047 -0.308583 -0.122098 91.000000
3.038615 -0.339543 -0.121212 70.000000
3.005033 -0.368948 -0.119931 36.000000
2.986017 -0.399510 -0.119246 28.000000
2.932064 -0.424735 -0.117178 13.000000
2.912459 -0.454276 -0.116585 9.000000
2.887616 -0.482581 -0.115616 9.000000
2.887170 -0.514754 -0.115723 27.000000
2.910890 -0.551685 -0.116816 95.000000
2.894850 -0.581297 -0.116331 81.000000
2.873785 -0.609569 -0.115651 79.000000
2.866966 -0.640613 -0.115472 95.000000
2.840423 -0.667176 -0.114597 71.000000
2.828176 -0.696725 -0.114312 40.000000
2.883328 -0.743636 -0.116679 19.000000
3.048810 -0.821631 -0.123630 20.000000
3.058887 -0.860118 -0.124219 27.000000
3.049376 -0.893307 -0.124122 21.000000
3.068250 -0.935042 -0.125097 25.000000
3.067392 -0.971365 -0.125290 25.000000
3.056681 -1.004579 -0.125192 23.000000
3.097697 -1.055420 -0.127130 29.000000
3.053123 -1.077067 -0.125574 25.000000
3.060030 -1.117043 -0.126150 33.000000
3.047794 -1.150173 -0.125951 36.000000
3.044369 -1.186732 -0.126138 47.000000
3.040667 -1.223494 -0.126323 93.000000
3.017924 -1.252595 -0.125739 92.000000
2.994966 -1.281297 -0.125155 66.000000
3.017514 -1.329950 -0.126489 95.000000
2.971062 -1.348128 -0.124948 95.000000
2.969797 -1.386653 -0.125322 95.000000
2.923055 -1.403744 -0.123787 100.000000
2.916567 -1.439857 -0.123870 86.000000
2.900772 -1.471445 -0.123672 95.000000
2.884581 -1.502934 -0.123473 95.000000
2.850468 -1.524699 -0.122418 52.000000
2.860063 -1.570125 -0.123354 80.000000
2.834019 -1.596210 -0.122678 48.000000
2.816536 -1.627003 -0.122480 64.000000
2.790058 -1.652407 -0.121806 92.000000
2.767665 -1.680117 -0.121421 62.000000
2.753417 -1.712815 -0.121311 71.000000
2.738815 -1.745407 -0.121201 92.000000
2.711305 -1.769700 -0.120630 52.000000
2.708542 -1.810171 -0.121076 61.000000
2.659779 -1.819869 -0.119481 52.000000
2.639799 -1.848706 -0.119186 38.000000
2.611403 -1.871623 -0.118522 50.000000
2.586769 -1.897023 -0.118044 37.000000
2.585887 -1.940131 -0.118667 36.000000
2.596373 -1.992505 -0.119834 35.000000
2.590810 -2.032326 -0.120264 28.000000
2.568487 -2.060380 -0.119963 25.000000
2.584596 -2.120024 -0.121375 22.000000
2.580465 -2.164048 -0.121973 27.000000
2.583261 -2.214788 -0.122928 31.000000
2.559050 -2.242844 -0.122617 26.000000
2.523257 -2.260586 -0.121663 24.000000
2.410088 -2.207011 -0.117057 18.000000
2.316622 -2.168182 -0.113268 16.000000
2.231499 -2.134559 -0.109953 16.000000
2.090204 -2.043430 -0.103725 10.000000
2.011330 -2.009594 -0.100627 12.000000
1.947409 -1.988545 -0.098165 21.000000
1.853050 -1.933856 -0.094137 18.000000
1.801189 -1.921086 -0.092315 18.000000
1.746421 -1.903724 -0.090248 26.000000
1.672268 -1.863078 -0.087149 24.000000
1.661825 -1.892384 -0.087363 27.000000
1.615164 -1.879980 -0.085674 24.000000
1.591438 -1.893638 -0.085199 27.000000
1.567645 -1.906923 -0.084725 29.000000
1.550047 -1.927702 -0.084595 26.000000
1.529050 -1.944395 -0.084293 24.000000
1.510872 -1.964822 -0.084160 26.000000
1.492532 -1.985088 -0.084026 24.000000
1.494595 -2.033377 -0.085071 24.000000
1.463733 -2.037230 -0.084259 19.000000
1.461697 -2.081637 -0.085123 24.000000
1.427787 -2.080921 -0.084069 25.000000
1.430174 -2.133615 -0.085254 24.000000
1.417908 -2.165710 -0.085601 22.000000
1.383665 -2.164124 -0.084548 24.000000
1.391890 -2.229817 -0.086201 24.000000
1.367571 -2.244826 -0.085799 18.000000
1.340618 -2.255299 -0.085316 8.000000
0.836793 1.427215 -0.041365 7.000000
0.829026 1.379516 -0.040388 22.000000
0.851826 1.383194 -0.040913 26.000000
0.866802 1.373871 -0.041061 32.000000
0.887055 1.372795 -0.041414 28.000000
0.901875 1.363065 -0.041564 33.000000
0.910988 1.344959 -0.041458 34.000000
0.939757 1.355530 -0.042197 32.000000
0.951518 1.341181 -0.042219 33.000000
0.954231 1.314610 -0.041805 24.000000
0.968464 1.304195 -0.041954 30.000000
1.000687 1.317464 -0.042880 35.000000
1.008797 1.298610 -0.042721 30.000000
1.029021 1.295444 -0.043082 35.000000
1.049314 1.291940 -0.043495 29.000000
1.063287 1.280507 -0.043596 37.000000
1.080342 1.272682 -0.043880 37.000000
1.087551 1.253308 -0.043719 22.000000
1.104445 1.245142 -0.043952 33.000000
1.131338 1.247861 -0.044634 48.000000
1.144811 1.235519 -0.044737 36.000000
1.158180 1.222972 -0.044840 59.000000
1.178399 1.217505 -0.045210 35.000000
1.195105 1.208127 -0.045447 47.000000
1.215286 1.202083 -0.045871 43.000000
1.224688 1.185300 -0.045841 19.000000
1.241169 1.175312 -0.046079 42.000000
1.261235 1.168537 -0.046454 79.000000
1.277589 1.158089 -0.046694 61.000000
1.301336 1.154035 -0.047206 67.000000
1.317590 1.143026 -0.047449 43.000000
1.345242 1.141530 -0.048046 53.000000
1.365268 1.133209 -0.048427 58.000000
1.365923 1.108809 -0.048125 24.000000
1.405302 1.115575 -0.049192 37.000000
1.425304 1.106312 -0.049576 63.000000
1.441239 1.093744 -0.049768 36.000000
1.465102 1.086935 -0.050292 58.000000
1.472807 1.067961 -0.050266 35.000000
1.496593 1.060467 -0.050736 39.000000
1.508073 1.044115 -0.050848 42.000000
1.523525 1.030452 -0.051099 21.000000
1.555495 1.027549 -0.051850 35.000000
1.566593 1.010531 -0.051964 38.000000
1.585922 0.998726 -0.052299 36.000000
1.609511 0.989297 -0.052833 51.000000
1.633040 0.979417 -0.053311 49.000000
1.652190 0.966617 -0.053649 40.000000
1.688698 0.963478 -0.054608 45.000000
1.707761 0.949877 -0.054949 22.000000
1.731205 0.938407 -0.055430 41.000000
1.754564 0.926531 -0.055974 49.000000
1.768943 0.909735 -0.056175 34.000000
1.810004 0.906084 -0.057225 50.000000
1.824262 0.888559 -0.057428 35.000000
1.860903 0.881510 -0.058340 35.000000
1.879412 0.865448 -0.058749 37.000000
1.925195 0.861373 -0.059949 18.000000
1.929883 0.838390 -0.059871 30.000000
1.966444 0.829033 -0.060790 34.000000
1.993875 0.815228 -0.061425 32.000000
2.030434 0.804572 -0.062347 35.000000
2.053101 0.787872 -0.062842 35.000000
2.080234 0.772542 -0.063413 29.000000
2.116722 0.760048 -0.064339 31.000000
2.115313 0.733906 -0.064121 19.000000
2.170566 0.726807 -0.065622 34.000000
2.197348 0.709327 -0.066266 37.000000
2.243071 0.697369 -0.067485 32.000000
2.279259 0.681577 -0.068347 37.000000
2.305737 0.662256 -0.068994 41.000000
2.332042 0.642517 -0.069643 35.000000
2.372737 0.626112 -0.070650 62.000000
2.393943 0.604007 -0.071157 21.000000
2.434363 0.586192 -0.072166 32.000000
2.484398 0.569797 -0.073540 31.000000
2.480701 0.540665 -0.073251 8.000000
2.525515 0.521779 -0.074484 8.000000
2.560457 0.500128 -0.075350 8.000000
2.619862 0.482202 -0.077019 8.000000
2.684002 0.464035 -0.078753 8.000000
2.757981 0.446016 -0.080776 8.000000
2.782441 0.419054 -0.081440 18.000000
2.841272 0.396324 -0.083031 23.000000
2.894959 0.371862 -0.084478 9.000000
2.968283 0.348566 -0.086503 9.000000
3.031570 0.322610 -0.088239 10.000000
3.109550 0.296783 -0.090408 52.000000
3.162307 0.267232 -0.091855 52.000000
3.194926 0.235035 -0.092723 48.000000
3.167442 0.198437 -0.091855 24.000000
3.199327 0.165590 -0.092723 17.000000
3.180918 0.129954 -0.092144 28.000000
3.187177 0.095599 -0.092289 39.000000
3.183056 0.060846 -0.092144 59.000000
3.193537 0.026326 -0.092433 73.000000
3.168645 -0.008320 -0.091613 95.000000
3.168355 -0.042759 -0.091613 95.000000
3.157685 -0.076956 -0.091324 95.000000
3.151726 -0.111014 -0.091084 98.000000
3.140297 -0.144830 -0.090795 98.000000
3.113621 -0.177480 -0.090073 95.000000
3.126485 -0.212298 -0.090411 95.000000
3.079155 -0.242726 -0.089113 34.000000
3.031526 -0.272180 -0.087722 25.000000
2.998530 -0.302070 -0.086766 16.000000
2.965323 -0.331312 -0.085903 9.000000
2.946616 -0.361642 -0.085380 9.000000
2.912814 -0.389661 -0.084428 9.000000
2.908418 -0.421243 -0.084428 9.000000
2.908601 -0.453595 -0.084482 9.000000
2.859113 -0.477728 -0.083102 7.000000
2.878404 -0.513089 -0.083730 27.000000
2.882513 -0.546103 -0.083926 55.000000
2.866621 -0.575395 -0.083551 36.000000
2.845527 -0.603349 -0.083034 51.000000
2.838777 -0.634254 -0.082945 75.000000
2.826896 -0.663838 -0.082714 74.000000
2.824391 -0.695707 -0.082767 48.000000
2.976372 -0.767436 -0.087366 10.000000
3.049870 -0.821824 -0.089685 20.000000
3.117788 -0.876544 -0.091857 20.000000
3.127284 -0.915880 -0.092324 29.000000
3.117136 -0.949805 -0.092125 29.000000
3.120985 -0.988057 -0.092449 33.000000
3.124335 -1.026519 -0.092772 49.000000
3.131914 -1.066800 -0.093235 56.000000
3.120297 -1.100438 -0.093033 30.000000
3.098785 -1.130850 -0.092651 95.000000
3.067593 -1.157329 -0.091890 91.000000
3.045567 -1.186932 -0.091510 95.000000
3.023320 -1.216133 -0.091031 91.000000
3.000656 -1.245033 -0.090652 70.000000
2.991564 -1.279530 -0.090593 95.000000
2.982132 -1.313929 -0.090633 69.000000
2.963155 -1.344098 -0.090295 33.000000
2.925709 -1.365613 -0.089405 98.000000
2.906220 -1.395190 -0.089168 98.000000
2.877421 -1.419951 -0.088557 95.000000
2.866303 -1.453461 -0.088499 98.000000
2.859274 -1.489082 -0.088577 77.000000
2.812083 -1.503587 -0.087519 81.000000
2.826205 -1.550889 -0.088282 62.000000
2.800468 -1.576594 -0.087812 32.000000
2.796186 -1.614507 -0.088025 75.000000
2.765540 -1.637130 -0.087420 52.000000
2.756131 -1.672339 -0.087495 85.000000
2.737726 -1.702258 -0.087298 85.000000
2.710596 -1.726512 -0.086831 71.000000
2.687474 -1.753216 -0.086500 70.000000
2.680742 -1.790737 -0.086707 36.000000
2.648681 -1.811307 -0.086108 24.000000
2.653363 -1.857305 -0.086715 35.000000
2.665500 -1.909363 -0.087585 32.000000
2.648611 -1.941246 -0.087518 32.000000
2.631257 -1.973016 -0.087350 30.000000
2.629501 -2.016740 -0.087812 30.000000
2.630941 -2.063778 -0.088402 31.000000
2.639469 -2.117381 -0.089253 24.000000
2.620091 -2.149166 -0.089074 13.000000
2.611926 -2.190463 -0.089392 20.000000
2.591681 -2.222022 -0.089210 13.000000
2.593606 -2.273222 -0.089914 11.000000
2.524085 -2.261310 -0.088143 17.000000
2.414473 -2.210985 -0.084853 18.000000
2.317300 -2.168860 -0.082069 16.000000
2.221323 -2.124854 -0.079202 15.000000
2.112273 -2.065109 -0.075841 10.000000
2.026082 -2.024333 -0.073356 22.000000
1.958496 -1.999853 -0.071436 22.000000
1.874373 -1.956083 -0.068891 25.000000
1.808509 -1.928942 -0.067077 21.000000
1.753652 -1.911643 -0.065572 20.000000
1.682743 -1.874773 -0.063446 29.000000
1.639199 -1.866632 -0.062337 30.000000
1.622056 -1.888169 -0.062235 25.000000
1.585460 -1.886513 -0.061384 32.000000
1.564848 -1.903590 -0.061234 29.000000
1.547293 -1.924336 -0.061132 31.000000
1.526338 -1.940994 -0.060906 28.000000
1.508279 -1.961389 -0.060802 29.000000
1.489907 -1.981624 -0.060698 29.000000
1.480179 -2.013779 -0.060883 28.000000
1.467032 -2.041902 -0.061018 20.000000
1.450596 -2.065818 -0.061029 26.000000
1.430923 -2.085582 -0.060918 26.000000
1.416650 -2.113403 -0.061046 27.000000
1.401875 -2.141172 -0.061172 26.000000
1.375901 -2.152038 -0.060818 30.000000
1.363097 -2.183815 -0.060980 24.000000
1.357490 -2.228313 -0.061570 22.000000
1.310289 -2.204297 -0.060274 9.000000
0.841951 1.436144 -0.026625 7.000000
0.826599 1.375476 -0.025764 24.000000
0.849353 1.379185 -0.026054 27.000000
0.869569 1.378397 -0.026314 28.000000
0.887205 1.373045 -0.026445 29.000000
0.902024 1.363365 -0.026545 32.000000
0.916744 1.353485 -0.026595 32.000000
0.937110 1.351673 -0.026858 28.000000
0.954561 1.345509 -0.026990 32.000000
0.954430 1.314857 -0.026680 24.000000
0.971593 1.308457 -0.026812 29.000000
0.991768 1.305824 -0.027026 35.000000
1.012015 1.302859 -0.027292 31.000000
1.023004 1.287867 -0.027259 30.000000
1.046365 1.288364 -0.027609 32.000000
1.063490 1.280761 -0.027743 33.000000
1.080546 1.272937 -0.027878 29.000000
1.084478 1.249836 -0.027728 23.000000
1.098013 1.237967 -0.027779 32.000000
1.128186 1.244465 -0.028250 37.000000
1.141619 1.232109 -0.028301 36.000000
1.158386 1.223281 -0.028488 36.000000
1.171653 1.210580 -0.028539 32.000000
1.195312 1.208438 -0.028845 35.000000
1.215494 1.202344 -0.029067 35.000000
1.239317 1.199467 -0.029375 21.000000
1.248638 1.182500 -0.029342 56.000000
1.261445 1.168800 -0.029447 58.000000
1.270444 1.151638 -0.029414 37.000000
1.301602 1.154301 -0.029896 86.000000
1.310304 1.136793 -0.029863 46.000000
1.341699 1.138618 -0.030347 59.000000
1.357899 1.127094 -0.030487 62.000000
1.366191 1.109077 -0.030454 21.000000
1.405630 1.115849 -0.031115 35.000000
1.421631 1.103522 -0.031256 41.000000
1.441570 1.094020 -0.031485 52.000000
1.453391 1.078223 -0.031540 47.000000
1.473140 1.068184 -0.031714 41.000000
1.480614 1.049186 -0.031683 36.000000
1.500189 1.038704 -0.031913 33.000000
1.515580 1.025075 -0.032056 26.000000
1.547494 1.022322 -0.032551 34.000000
1.562734 1.008106 -0.032695 44.000000
1.582093 0.996348 -0.032871 48.000000
1.597080 0.981674 -0.033016 47.000000
1.620527 0.971936 -0.033338 54.000000
1.639655 0.959335 -0.033572 35.000000
1.663002 0.948851 -0.033837 54.000000
1.725654 0.959895 -0.034958 29.000000
1.722836 0.933883 -0.034752 47.000000
1.754927 0.926774 -0.035195 62.000000
1.778259 0.914551 -0.035522 45.000000
1.801497 0.901855 -0.035850 42.000000
1.829190 0.890996 -0.036206 48.000000
1.852307 0.877481 -0.036536 40.000000
1.875314 0.863610 -0.036803 49.000000
1.898267 0.849316 -0.037134 28.000000
1.925748 0.836655 -0.037555 35.000000
1.943933 0.819582 -0.037734 35.000000
1.980453 0.809749 -0.038336 35.000000
2.026320 0.802997 -0.039052 34.000000
2.048903 0.786350 -0.039321 36.000000
2.080708 0.772745 -0.039836 37.000000
2.112498 0.758564 -0.040285 33.000000
2.134820 0.740528 -0.040623 32.000000
2.147423 0.718941 -0.040713 35.000000
2.188397 0.706326 -0.041342 39.000000
2.243716 0.697369 -0.042313 44.000000
2.275051 0.680145 -0.042763 44.000000
2.291909 0.658190 -0.042943 39.000000
2.318174 0.638608 -0.043376 36.000000
2.334667 0.615984 -0.043557 31.000000
2.404241 0.606528 -0.044729 31.000000
2.430115 0.585098 -0.045090 36.000000
2.460657 0.564288 -0.045618 24.000000
2.442245 0.532227 -0.045166 8.000000
2.516432 0.519835 -0.046431 8.000000
2.561174 0.500207 -0.047153 8.000000
2.625429 0.483188 -0.048237 8.000000
2.635407 0.455521 -0.048328 7.000000
2.773468 0.448410 -0.050767 8.000000
2.797959 0.421287 -0.051214 28.000000
2.856826 0.398484 -0.052210 36.000000
2.895673 0.371862 -0.052843 29.000000
2.914489 0.342243 -0.053114 9.000000
3.002489 0.319529 -0.054653 8.000000
3.080454 0.294029 -0.055916 12.000000
3.193067 0.269757 -0.057903 32.000000
3.235691 0.238067 -0.058625 45.000000
3.253036 0.203849 -0.058896 95.000000
3.255026 0.168432 -0.058896 78.000000
3.246727 0.132706 -0.058716 81.000000
3.242920 0.097247 -0.058625 93.000000
3.233815 0.061801 -0.058346 83.000000
3.234309 0.026656 -0.058346 98.000000
3.174419 -0.008333 -0.057264 98.000000
3.164131 -0.042692 -0.057084 98.000000
3.148462 -0.076616 -0.056717 95.000000
3.142504 -0.110662 -0.056627 98.000000
3.116096 -0.143679 -0.056177 95.000000
3.104400 -0.176912 -0.055902 95.000000
3.087349 -0.209589 -0.055632 95.000000
3.015122 -0.237621 -0.054374 21.000000
2.962562 -0.265923 -0.053384 9.000000
2.959475 -0.298063 -0.053384 9.000000
2.941211 -0.328538 -0.053025 9.000000
2.927493 -0.359207 -0.052846 9.000000
2.908577 -0.388999 -0.052487 10.000000
2.919031 -0.422676 -0.052756 15.000000
2.899441 -0.452055 -0.052398 17.000000
2.854978 -0.476905 -0.051595 21.000000
2.854510 -0.508704 -0.051685 27.000000
2.809552 -0.532235 -0.050884 10.000000
2.813420 -0.564663 -0.050975 10.000000
2.802223 -0.594106 -0.050886 24.000000
2.819973 -0.629894 -0.051242 70.000000
2.778938 -0.652499 -0.050534 64.000000
2.791122 -0.687340 -0.050888 54.000000
2.899670 -0.747562 -0.052921 27.000000
3.060393 -0.824424 -0.055916 33.000000
3.195581 -0.898187 -0.058461 39.000000
3.190449 -0.934243 -0.058447 87.000000
3.165854 -0.964373 -0.058184 95.000000
3.145615 -0.995599 -0.057907 95.000000
3.106141 -1.020278 -0.057281 95.000000
3.123358 -1.063577 -0.057706 93.000000
3.088003 -1.089101 -0.057169 35.000000
3.094794 -1.129438 -0.057417 98.000000
3.063716 -1.155865 -0.056969 95.000000
3.037049 -1.183501 -0.056608 95.000000
3.005464 -1.208969 -0.056162 95.000000
2.992115 -1.241499 -0.056063 95.000000
2.969278 -1.269999 -0.055792 82.000000
2.964529 -1.306165 -0.055865 91.000000
2.968403 -1.346461 -0.056111 61.000000
2.921869 -1.363795 -0.055410 98.000000
2.893389 -1.388995 -0.055054 100.000000
2.873624 -1.418130 -0.054871 98.000000
2.853613 -1.446973 -0.054687 98.000000
2.824394 -1.471002 -0.054237 92.000000
2.803850 -1.499165 -0.054055 79.000000
2.809363 -1.541663 -0.054382 74.000000
2.792442 -1.572081 -0.054284 45.000000
2.766471 -1.597402 -0.054017 80.000000
2.766128 -1.637523 -0.054159 82.000000
2.739625 -1.662359 -0.053893 46.000000
2.717187 -1.689453 -0.053711 35.000000
2.719716 -1.732375 -0.053934 36.000000
2.713184 -1.769996 -0.054086 35.000000
2.747846 -1.835562 -0.055070 32.000000
2.711168 -1.854128 -0.054536 25.000000
2.723582 -1.906436 -0.055099 33.000000
2.710807 -1.941787 -0.055163 34.000000
2.677338 -1.962334 -0.054712 29.000000
2.671857 -2.003409 -0.054940 21.000000
2.657774 -2.038544 -0.054900 16.000000
2.659089 -2.085887 -0.055288 10.000000
2.682986 -2.152205 -0.056060 9.000000
2.678692 -2.197242 -0.056361 9.000000
2.673735 -2.242385 -0.056555 9.000000
2.671904 -2.290879 -0.056934 10.000000
2.646768 -2.319775 -0.056719 9.000000
2.546944 -2.281844 -0.055003 10.000000
2.444468 -2.238495 -0.053112 19.000000
2.328735 -2.179593 -0.050915 18.000000
2.232630 -2.135691 -0.049224 15.000000
2.116299 -2.068965 -0.046973 10.000000
2.051187 -2.049505 -0.045844 18.000000
1.958838 -2.000281 -0.044177 23.000000
1.874703 -1.956496 -0.042592 22.000000
1.819171 -1.940287 -0.041644 23.000000
1.747289 -1.904670 -0.040312 23.000000
1.683051 -1.875157 -0.039221 25.000000
1.636204 -1.863254 -0.038447 26.000000
1.612587 -1.877172 -0.038219 24.000000
1.585685 -1.886889 -0.037914 30.000000
1.549275 -1.884656 -0.037380 32.000000
1.538196 -1.913024 -0.037460 34.000000
1.520458 -1.933511 -0.037462 29.000000
1.499363 -1.949877 -0.037311 27.000000
1.487130 -1.978006 -0.037388 29.000000
1.477523 -2.010132 -0.037538 25.000000
1.461505 -2.034166 -0.037535 21.000000
1.447954 -2.062112 -0.037606 26.000000
1.428326 -2.081846 -0.037527 27.000000
1.414100 -2.109639 -0.037595 25.000000
1.393894 -2.129014 -0.037513 28.000000
1.370749 -2.144004 -0.037358 23.000000
1.352743 -2.167243 -0.037349 24.000000
1.347325 -2.211712 -0.037702 20.000000
1.300227 -2.187498 -0.036892 9.000000
0.834416 1.423357 -0.011531 7.000000
0.842099 1.401386 -0.011426 17.000000
0.852024 1.383640 -0.011356 21.000000
0.869668 1.378546 -0.011441 18.000000
0.884542 1.369045 -0.011441 28.000000
0.902074 1.363515 -0.011476 15.000000
0.922451 1.361964 -0.011597 21.000000
0.931463 1.343656 -0.011526 24.000000
0.951769 1.341633 -0.011597 17.000000
0.954479 1.315056 -0.011505 24.000000
0.965731 1.300578 -0.011470 18.000000
0.985820 1.298011 -0.011541 22.000000
1.005981 1.295114 -0.011661 25.000000
1.023105 1.288068 -0.011697 16.000000
1.037011 1.276873 -0.011697 27.000000
1.063541 1.280914 -0.011839 25.000000
1.087119 1.280764 -0.011997 26.000000
1.087855 1.253764 -0.011854 25.000000
1.101432 1.241859 -0.011854 18.000000
1.118214 1.233506 -0.011890 29.000000
1.141772 1.232314 -0.012048 26.000000
1.158540 1.223435 -0.012084 24.000000
1.171756 1.210734 -0.012084 32.000000
1.188384 1.201484 -0.012120 26.000000
1.204987 1.192004 -0.012208 24.000000
1.225052 1.185768 -0.012280 24.000000
1.241535 1.175781 -0.012316 24.000000
1.254268 1.162161 -0.012316 33.000000
1.259436 1.141721 -0.012244 29.000000
1.294279 1.147825 -0.012513 31.000000
1.318016 1.143505 -0.012621 37.000000
1.338048 1.135544 -0.012693 29.000000
1.361854 1.130449 -0.012802 33.000000
1.366353 1.109238 -0.012729 25.000000
1.382300 1.097362 -0.012766 23.000000
1.417846 1.100621 -0.013037 33.000000
1.429788 1.085118 -0.013037 28.000000
1.441511 1.069451 -0.013037 24.000000
1.469259 1.065415 -0.013183 35.000000
1.476701 1.046461 -0.013146 26.000000
1.500356 1.038871 -0.013255 28.000000
1.519889 1.028044 -0.013328 29.000000
1.535149 1.014167 -0.013364 22.000000
1.571307 1.013697 -0.013582 29.000000
1.578033 0.993855 -0.013603 32.000000
1.597252 0.981846 -0.013676 29.000000
1.620700 0.972109 -0.013785 35.000000
1.661405 0.972076 -0.014040 32.000000
1.671921 0.953982 -0.014040 26.000000
1.699619 0.945433 -0.014186 32.000000
1.723015 0.934062 -0.014296 31.000000
1.741906 0.919951 -0.014369 29.000000
1.765165 0.907813 -0.014478 32.000000
1.792801 0.897563 -0.014624 26.000000
1.820386 0.886741 -0.014770 32.000000
1.847976 0.875528 -0.014916 31.000000
1.884648 0.867918 -0.015134 24.000000
1.884829 0.843318 -0.015061 29.000000
1.921418 0.834791 -0.015280 25.000000
1.939583 0.817769 -0.015353 27.000000
1.971459 0.806095 -0.015536 31.000000
2.017289 0.799446 -0.015827 29.000000
2.044503 0.784692 -0.015973 32.000000
2.071605 0.769399 -0.016119 33.000000
2.089244 0.750253 -0.016192 21.000000
2.125648 0.737389 -0.016411 34.000000
2.147699 0.719010 -0.016520 27.000000
2.169646 0.700323 -0.016630 29.000000
2.220131 0.690093 -0.016958 34.000000
2.260970 0.675994 -0.017213 31.000000
2.297005 0.659715 -0.017432 36.000000
2.318541 0.638755 -0.017541 32.000000
2.339796 0.617407 -0.017651 16.000000
2.394848 0.604158 -0.018015 23.000000
2.420698 0.582834 -0.018085 26.000000
2.436600 0.558777 -0.018158 10.000000
2.457206 0.535497 -0.018267 8.000000
2.516746 0.519914 -0.018666 7.000000
2.536957 0.495495 -0.018775 7.000000
2.596252 0.477839 -0.019175 7.000000
2.606255 0.450493 -0.019211 5.000000
2.739262 0.442909 -0.020155 8.000000
2.788416 0.419885 -0.020396 22.000000
2.842323 0.396499 -0.020758 29.000000
2.901077 0.372588 -0.021156 35.000000
2.954572 0.346908 -0.021517 24.000000
2.963176 0.315297 -0.021553 8.000000
3.041015 0.290229 -0.022096 9.000000
3.198441 0.270276 -0.023119 32.000000
3.236087 0.238067 -0.023371 59.000000
3.318303 0.207914 -0.023947 95.000000
3.310447 0.171375 -0.023875 93.000000
3.282093 0.134135 -0.023559 95.000000
3.263406 0.097846 -0.023415 85.000000
3.234309 0.061801 -0.023200 64.000000
3.209804 0.026548 -0.023021 42.000000
3.174903 -0.008236 -0.022673 64.000000
3.149615 -0.042393 -0.022495 95.000000
3.138946 -0.076373 -0.022423 95.000000
3.117905 -0.109783 -0.022280 69.000000
3.106583 -0.143219 -0.022114 98.000000
3.079916 -0.175490 -0.021936 71.000000
3.062786 -0.207896 -0.021830 77.000000
3.000539 -0.236442 -0.021311 35.000000
2.972975 -0.266817 -0.021134 8.000000
2.959929 -0.298063 -0.021063 10.000000
2.941572 -0.328538 -0.020867 13.000000
2.913055 -0.357470 -0.020690 26.000000
2.928848 -0.391649 -0.020831 66.000000
2.909584 -0.421333 -0.020636 35.000000
2.899889 -0.452055 -0.020601 35.000000
2.889852 -0.482760 -0.020566 42.000000
2.815574 -0.501774 -0.019987 15.000000
2.829551 -0.536045 -0.020127 9.000000
2.799064 -0.561799 -0.019952 9.000000
2.768336 -0.586935 -0.019691 11.000000
2.791136 -0.623443 -0.019900 79.000000
2.745214 -0.644586 -0.019536 32.000000
2.757490 -0.679059 -0.019674 35.000000
2.861304 -0.737668 -0.020381 80.000000
3.089746 -0.832324 -0.022070 35.000000
3.147954 -0.884760 -0.022553 40.000000
3.171763 -0.928724 -0.022694 65.000000
3.123212 -0.951362 -0.022419 75.000000
3.117517 -0.986748 -0.022354 70.000000
3.111290 -1.022038 -0.022388 46.000000
3.095363 -1.054108 -0.022254 47.000000
3.078972 -1.085975 -0.022220 52.000000
3.071712 -1.120969 -0.022154 74.000000
3.036047 -1.145376 -0.021985 78.000000
3.014153 -1.174622 -0.021818 62.000000
2.978027 -1.197872 -0.021649 59.000000
2.964803 -1.230200 -0.021552 78.000000
2.942090 -1.258301 -0.021484 37.000000
2.964924 -1.306263 -0.021654 77.000000
2.904956 -1.317744 -0.021320 60.000000
2.895079 -1.351303 -0.021256 90.000000
2.884765 -1.384863 -0.021289 98.000000
2.869531 -1.416113 -0.021191 95.000000
2.836166 -1.438123 -0.021059 74.000000
2.811479 -1.464267 -0.020896 67.000000
2.817466 -1.506432 -0.020963 36.000000
2.814040 -1.544264 -0.021062 32.000000
2.792736 -1.572277 -0.020931 27.000000
2.775424 -1.602598 -0.020931 21.000000
2.770823 -1.640266 -0.020931 29.000000
2.774114 -1.683304 -0.021093 24.000000
2.772679 -1.723969 -0.021124 25.000000
2.783267 -1.772864 -0.021249 30.000000
2.742892 -1.789416 -0.021088 20.000000
2.752306 -1.838541 -0.021213 16.000000
2.744485 -1.876908 -0.021207 12.000000
2.740270 -1.918108 -0.021335 10.000000
2.715177 -1.945004 -0.021201 9.000000
2.726033 -1.998107 -0.021455 9.000000
2.720166 -2.039709 -0.021478 9.000000
2.717590 -2.084392 -0.021532 9.000000
2.730105 -2.141641 -0.021815 8.000000
2.729996 -2.190063 -0.021896 8.000000
2.744620 -2.251359 -0.022101 8.000000
2.750566 -2.306855 -0.022350 8.000000
2.748142 -2.356182 -0.022426 9.000000
2.684690 -2.353054 -0.022007 8.000000
2.569496 -2.302070 -0.021162 8.000000
2.437397 -2.232045 -0.020273 10.000000
2.328930 -2.179885 -0.019470 9.000000
2.261723 -2.163624 -0.019008 9.000000
2.141505 -2.093703 -0.018189 10.000000
2.037305 -2.035635 -0.017402 9.000000
1.976500 -2.018313 -0.016984 14.000000
1.888705 -1.971102 -0.016329 10.000000
1.829593 -1.951392 -0.016000 13.000000
1.760967 -1.919645 -0.015502 14.000000
1.676525 -1.867946 -0.014860 10.000000
1.659449 -1.889781 -0.014813 10.000000
1.612738 -1.877323 -0.014577 20.000000
1.582619 -1.883287 -0.014414 18.000000
1.562124 -1.900329 -0.014339 28.000000
1.525739 -1.897662 -0.014119 24.000000
1.508171 -1.918015 -0.014073 22.000000
1.496465 -1.946139 -0.014160 24.000000
1.481272 -1.970240 -0.014142 18.000000
1.468716 -1.998274 -0.014153 20.000000
1.432408 -1.993788 -0.013935 15.000000
1.439488 -2.050066 -0.014143 17.000000
1.422823 -2.073831 -0.014122 24.000000
1.397474 -2.084951 -0.014094 16.000000
1.391233 -2.125064 -0.014185 21.000000
1.368134 -2.140024 -0.014108 21.000000
1.352821 -2.167477 -0.014113 17.000000
1.344803 -2.207600 -0.014200 18.000000
1.336070 -2.247904 -0.014285 7.000000
0.819245 1.397527 0.003312 6.000000
0.844674 1.405721 0.003403 12.000000
0.865132 1.404977 0.003424 17.000000
0.877621 1.391282 0.003464 24.000000
0.892682 1.381694 0.003514 17.000000
0.918626 1.388584 0.003608 24.000000
0.922451 1.362015 0.003615 22.000000
0.948554 1.368361 0.003709 21.000000
0.963340 1.357995 0.003760 24.000000
0.954479 1.315105 0.003670 10.000000
0.974673 1.312670 0.003742 26.000000
0.991868 1.306024 0.003804 24.000000
1.015182 1.307010 0.003889 24.000000
1.023055 1.288118 0.003916 26.000000
1.043315 1.284686 0.003940 22.000000
1.066735 1.284811 0.004026 28.000000
1.077413 1.269379 0.004065 27.000000
1.087855 1.253815 0.004103 10.000000
1.101432 1.241910 0.004154 30.000000
1.121572 1.237262 0.004179 31.000000
1.138374 1.228698 0.004243 24.000000
1.155102 1.219856 0.004307 32.000000
1.171756 1.210785 0.004371 26.000000
1.195416 1.208646 0.004410 34.000000
1.215651 1.202605 0.004488 32.000000
1.217867 1.178865 0.004500 16.000000
1.241535 1.175834 0.004540 37.000000
1.265270 1.172408 0.004633 37.000000
1.277957 1.158563 0.004685 33.000000
1.305502 1.157830 0.004793 70.000000
1.318016 1.143559 0.004793 43.000000
1.338048 1.135598 0.004874 44.000000
1.358007 1.127310 0.004955 38.000000
1.385761 1.125049 0.005012 23.000000
1.390131 1.103633 0.005038 35.000000
1.409947 1.094544 0.005121 31.000000
1.429788 1.085173 0.005149 35.000000
1.453557 1.078444 0.005247 35.000000
1.461219 1.059600 0.005288 30.000000
1.472677 1.043626 0.005288 34.000000
1.496301 1.036025 0.005388 34.000000
1.507465 1.019695 0.005443 21.000000
1.551835 1.025248 0.005563 38.000000
1.562904 1.008276 0.005620 36.000000
1.582264 0.996519 0.005650 32.000000
1.605828 0.987140 0.005753 60.000000
1.629333 0.977310 0.005856 35.000000
1.639886 0.959509 0.005856 46.000000
1.676263 0.956519 0.006008 37.000000
1.690940 0.940632 0.006023 23.000000
1.723015 0.934122 0.006161 50.000000
1.750748 0.924681 0.006224 57.000000
1.778503 0.914734 0.006348 36.000000
1.810684 0.906516 0.006489 45.000000
1.824943 0.888992 0.006505 37.000000
1.839002 0.871247 0.006583 35.000000
1.866546 0.859616 0.006648 67.000000
1.871201 0.837254 0.006694 23.000000
1.916832 0.832862 0.006825 42.000000
1.958012 0.825603 0.007004 57.000000
1.994598 0.815622 0.007103 34.000000
2.031234 0.804972 0.007268 48.000000
2.049171 0.786484 0.007301 33.000000
2.081047 0.772949 0.007452 32.000000
2.112840 0.758770 0.007536 35.000000
2.125648 0.737389 0.007622 12.000000
2.157251 0.722254 0.007706 50.000000
2.183990 0.704931 0.007844 51.000000
2.234454 0.694616 0.007998 36.000000
2.275414 0.680363 0.008190 74.000000
2.297078 0.659788 0.008242 64.000000
2.308900 0.636099 0.008259 39.000000
2.344704 0.618683 0.008437 32.000000
2.351291 0.593225 0.008437 7.000000
2.396469 0.577057 0.008651 13.000000
2.431803 0.557735 0.008756 10.000000
2.471938 0.538768 0.008956 8.000000
2.511850 0.518980 0.009080 8.000000
2.537036 0.495495 0.009151 8.000000
2.591416 0.477015 0.009408 8.000000
2.650596 0.458239 0.009605 8.000000
2.734411 0.442196 0.009890 8.000000
2.788502 0.419885 0.010155 52.000000
2.867170 0.399953 0.010425 91.000000
2.901077 0.372677 0.010622 45.000000
2.949697 0.346325 0.010786 68.000000
3.027808 0.322267 0.011058 56.000000
3.046086 0.290797 0.011206 24.000000
3.133770 0.264803 0.011517 58.000000
3.246159 0.238801 0.011920 57.000000
3.308424 0.207289 0.012140 95.000000
3.285482 0.170082 0.012149 98.000000
3.257214 0.133114 0.012038 95.000000
3.233519 0.097046 0.011946 23.000000
3.179321 0.060848 0.011840 10.000000
3.154807 0.026093 0.011747 19.000000
3.159904 -0.008197 0.011765 92.000000
3.134617 -0.042192 0.011672 58.000000
3.094055 -0.075278 0.011618 66.000000
3.073029 -0.108199 0.011543 69.000000
3.061726 -0.141146 0.011505 40.000000
3.044974 -0.173499 0.011449 65.000000
3.012995 -0.204510 0.011428 22.000000
2.945802 -0.232122 0.011182 9.000000
2.997875 -0.269052 0.011390 95.000000
2.959929 -0.298063 0.011258 62.000000
2.951601 -0.329648 0.011239 84.000000
2.942831 -0.361034 0.011220 91.000000
2.923892 -0.390987 0.011253 72.000000
2.929378 -0.424199 0.011292 95.000000
2.899889 -0.452055 0.011196 67.000000
2.855420 -0.476993 0.011044 28.000000
2.800807 -0.499143 0.010853 35.000000
2.736300 -0.518363 0.010624 9.000000
2.730520 -0.548025 0.010624 9.000000
2.753748 -0.583824 0.010824 22.000000
2.761858 -0.616903 0.010882 76.000000
2.750168 -0.645729 0.010863 72.000000
2.728447 -0.671886 0.010805 40.000000
2.720987 -0.701471 0.010805 20.000000
2.993191 -0.806409 0.011920 42.000000
3.128700 -0.879349 0.012497 84.000000
3.142972 -0.920294 0.012593 100.000000
3.132778 -0.954275 0.012593 98.000000
3.093683 -0.979204 0.012478 89.000000
3.082889 -1.012676 0.012478 95.000000
3.066965 -1.044437 0.012458 59.000000
3.055496 -1.077660 0.012458 35.000000
3.062418 -1.117541 0.012635 98.000000
3.036047 -1.145376 0.012577 95.000000
2.986202 -1.163730 0.012422 98.000000
2.973389 -1.196104 0.012422 78.000000
2.960282 -1.228283 0.012422 91.000000
2.951382 -1.262331 0.012441 95.000000
2.923745 -1.288218 0.012383 61.000000
2.891393 -1.311548 0.012305 30.000000
2.872425 -1.340730 0.012286 95.000000
2.866736 -1.376208 0.012325 74.000000
2.860564 -1.411688 0.012266 92.000000
2.871841 -1.456213 0.012382 53.000000
2.851389 -1.485054 0.012362 34.000000
2.861557 -1.530105 0.012478 36.000000
2.840339 -1.558696 0.012458 29.000000
2.814520 -1.584640 0.012420 10.000000
2.840471 -1.640100 0.012612 32.000000
2.831059 -1.676024 0.012651 23.000000
2.821234 -1.711835 0.012689 27.000000
2.806648 -1.745090 0.012708 15.000000
2.812787 -1.791667 0.012824 10.000000
2.814082 -1.835859 0.012920 10.000000
2.822985 -1.885858 0.013055 8.000000
2.827130 -1.933356 0.013170 7.000000
2.818095 -1.972688 0.013123 9.000000
2.792405 -2.000326 0.013103 9.000000
2.794693 -2.048356 0.013218 9.000000
2.824172 -2.117698 0.013466 9.000000
2.824707 -2.166550 0.013580 9.000000
2.812825 -2.206445 0.013638 9.000000
2.827606 -2.268280 0.013828 8.000000
2.825910 -2.318061 0.013831 8.000000
2.773661 -2.326243 0.013699 8.000000
2.786100 -2.388838 0.013888 6.000000
2.726051 -2.389305 0.013718 8.000000
2.614183 -2.342214 0.013282 8.000000
2.444772 -2.238798 0.012545 10.000000
2.350832 -2.200386 0.012087 14.000000
2.240045 -2.142886 0.011636 10.000000
2.130780 -2.083217 0.011186 9.000000
2.062063 -2.060373 0.010942 18.000000
1.976500 -2.018399 0.010604 16.000000
1.923297 -2.007288 0.010350 22.000000
1.839852 -1.962416 0.010015 22.000000
1.777866 -1.938068 0.009792 20.000000
1.706582 -1.901435 0.009513 27.000000
1.639654 -1.867238 0.009176 21.000000
1.596448 -1.858435 0.009047 18.000000
1.579402 -1.879460 0.009065 35.000000
1.549424 -1.884879 0.008936 29.000000
1.532005 -1.905455 0.008954 32.000000
1.498900 -1.906224 0.008881 31.000000
1.484274 -1.930359 0.008917 26.000000
1.469253 -1.954329 0.008879 31.000000
1.453910 -1.978130 0.008916 24.000000
1.449912 -2.018152 0.009025 18.000000
1.436615 -2.046051 0.009003 29.000000
1.414337 -2.061462 0.009003 26.000000
1.400258 -2.089105 0.009057 30.000000
1.380278 -2.108408 0.008998 24.000000
1.360054 -2.127386 0.009016 25.000000
1.352821 -2.167477 0.009123 30.000000
1.323993 -2.173517 0.009009 21.000000
1.290086 -2.170538 0.008939 9.000000
0.831787 1.419043 0.018173 7.000000
0.841999 1.401336 0.018162 15.000000
0.841440 1.366562 0.017927 24.000000
0.872236 1.382725 0.018362 22.000000
0.881729 1.364796 0.018349 26.000000
0.904783 1.367684 0.018618 23.000000
0.927958 1.370193 0.018889 27.000000
0.922819 1.331279 0.018589 29.000000
0.963239 1.357894 0.019207 24.000000
0.954380 1.315006 0.018845 18.000000
0.953711 1.284521 0.018652 29.000000
0.991768 1.305974 0.019219 26.000000
0.993614 1.279319 0.019083 34.000000
1.023004 1.288018 0.019478 27.000000
1.049517 1.292397 0.019817 32.000000
1.063439 1.280914 0.019918 32.000000
1.074076 1.265466 0.019960 27.000000
1.074648 1.238608 0.019769 25.000000
1.091379 1.230587 0.019930 29.000000
1.118113 1.233506 0.020274 35.000000
1.134874 1.224928 0.020437 35.000000
1.155000 1.219805 0.020610 33.000000
1.168176 1.207141 0.020713 40.000000
1.188281 1.201433 0.020939 32.000000
1.219048 1.206016 0.021354 34.000000
1.217764 1.178762 0.021156 24.000000
1.234170 1.168906 0.021323 34.000000
1.257831 1.165559 0.021615 67.000000
1.281556 1.161869 0.021857 60.000000
1.305395 1.157777 0.022153 51.000000
1.317910 1.143452 0.022207 71.000000
1.334076 1.132256 0.022377 68.000000
1.350206 1.120869 0.022495 35.000000
1.358482 1.102936 0.022537 29.000000
1.393939 1.106688 0.022978 35.000000
1.413787 1.097555 0.023216 46.000000
1.425641 1.082096 0.023271 36.000000
1.441401 1.069451 0.023445 33.000000
1.457007 1.056610 0.023566 35.000000
1.472512 1.043571 0.023741 35.000000
1.492024 1.033123 0.023928 35.000000
1.511439 1.022441 0.024116 29.000000
1.539208 1.016923 0.024493 43.000000
1.558589 1.005509 0.024682 35.000000
1.577919 0.993798 0.024872 53.000000
1.588619 0.976552 0.024986 37.000000
1.616298 0.969537 0.025311 62.000000
1.631082 0.954402 0.025436 55.000000
1.671744 0.953982 0.025966 35.000000
1.695132 0.943003 0.026287 35.000000
1.709710 0.926914 0.026414 39.000000
1.741786 0.919951 0.026813 41.000000
1.782766 0.916959 0.027351 64.000000
1.801558 0.901978 0.027549 37.000000
1.829252 0.891120 0.027884 63.000000
1.843334 0.873325 0.028015 81.000000
1.857275 0.855370 0.028146 37.000000
1.889267 0.845359 0.028617 32.000000
1.916641 0.832798 0.028957 40.000000
1.934784 0.815826 0.029160 34.000000
1.980519 0.809880 0.029780 51.000000
2.007795 0.795762 0.030125 36.000000
2.053638 0.788208 0.030750 35.000000
2.076157 0.771140 0.031027 36.000000
2.098519 0.753632 0.031237 29.000000
2.125443 0.737389 0.031586 35.000000
2.147561 0.719010 0.031865 45.000000
2.169507 0.700323 0.032146 36.000000
2.205596 0.685640 0.032639 64.000000
2.260826 0.675994 0.033418 66.000000
2.282444 0.655575 0.033703 65.000000
2.318321 0.638755 0.034202 61.000000
2.329980 0.614856 0.034273 18.000000
2.346147 0.592002 0.034489 8.000000
2.391383 0.575812 0.035134 9.000000
2.446193 0.561012 0.035925 30.000000
2.466745 0.537626 0.036140 10.000000
2.526302 0.522015 0.037006 9.000000
2.531814 0.494537 0.037084 8.000000
2.586257 0.476110 0.037803 8.000000
2.625718 0.453899 0.038387 6.000000
2.729222 0.441398 0.039828 9.000000
2.778357 0.418396 0.040562 52.000000
2.837196 0.395809 0.041443 46.000000
2.905768 0.373314 0.042383 80.000000
2.954300 0.346999 0.043125 42.000000
3.002673 0.319622 0.043777 37.000000
3.045806 0.290797 0.044451 28.000000
3.188281 0.269434 0.046484 18.000000
3.230903 0.237799 0.047065 89.000000
3.263214 0.204475 0.047601 95.000000
3.265210 0.169048 0.047601 98.000000
3.246925 0.132706 0.047409 95.000000
3.213136 0.096446 0.046898 20.000000
3.184028 0.060943 0.046461 10.000000
3.154519 0.026093 0.046023 23.000000
3.114620 -0.008080 0.045535 32.000000
3.099338 -0.041721 0.045316 30.000000
3.073686 -0.074792 0.044950 21.000000
3.037773 -0.106968 0.044438 14.000000
2.996429 -0.138062 0.043854 10.000000
2.999773 -0.170939 0.044019 9.000000
2.982791 -0.202478 0.043799 9.000000
2.920611 -0.230158 0.042920 10.000000
2.967723 -0.266370 0.043652 83.000000
2.939759 -0.296059 0.043286 85.000000
2.931454 -0.327428 0.043213 62.000000
2.927673 -0.359207 0.043213 77.000000
2.893890 -0.387010 0.042773 88.000000
2.879628 -0.416945 0.042627 50.000000
2.869982 -0.447435 0.042554 83.000000
2.800825 -0.467844 0.041602 38.000000
2.771015 -0.493793 0.041235 29.000000
