x y z intensity
3.158685 -1.041867 1.620895 30.000000
3.121762 -1.069931 1.605737 33.000000
3.109778 -1.106779 1.604057 32.000000
3.046709 -1.124600 1.576070 26.000000
2.996436 -1.146048 1.554574 18.000000
3.008925 -1.191129 1.565681 30.000000
2.945761 -1.205986 1.537501 31.000000
2.932600 -1.240508 1.535343 34.000000
2.894235 -1.263995 1.519960 31.000000
2.867683 -1.292668 1.511645 33.000000
2.845554 -1.322311 1.504764 32.000000
2.810456 -1.346235 1.491845 26.000000
2.779302 -1.371463 1.481113 22.000000
2.760078 -1.402230 1.476654 33.000000
2.732584 -1.428510 1.467800 33.000000
2.704913 -1.454297 1.458862 37.000000
2.673117 -1.477409 1.447805 33.000000
2.645132 -1.502071 1.438710 34.000000
2.617085 -1.526352 1.429536 32.000000
2.588879 -1.550050 1.420388 28.000000
2.552098 -1.569038 1.407316 25.000000
2.538957 -1.601353 1.406508 32.000000
2.490631 -1.611914 1.387038 32.000000
2.472641 -1.641598 1.384439 35.000000
2.443806 -1.662731 1.374915 31.000000
2.417961 -1.686592 1.367920 33.000000
2.406598 -1.720633 1.369244 33.000000
2.380272 -1.743919 1.362167 25.000000
2.335604 -1.753003 1.344456 11.000000
2.312771 -1.778000 1.339329 13.000000
2.293277 -1.805429 1.336194 31.000000
2.262865 -1.824001 1.326732 34.000000
2.218403 -1.830443 1.309016 30.000000
2.205495 -1.862549 1.309773 34.000000
2.174936 -1.879636 1.300205 34.000000
2.168278 -1.917325 1.304959 24.000000
2.136433 -1.934497 1.295708 26.000000
2.105561 -1.950269 1.286006 30.000000
2.084637 -1.975031 1.282359 32.000000
2.052630 -1.990733 1.272995 32.000000
2.034574 -2.018022 1.271202 30.000000
2.018317 -2.049222 1.271898 37.000000
1.977580 -2.053060 1.255867 29.000000
1.960945 -2.083683 1.256371 26.000000
1.926506 -2.093184 1.244350 26.000000
1.903196 -2.116494 1.240749 29.000000
1.894831 -2.156651 1.247014 33.000000
1.869202 -2.175331 1.240826 36.000000
1.836217 -2.187383 1.231073 27.000000
1.820755 -2.220249 1.233196 34.000000
1.791924 -2.234248 1.224877 32.000000
1.764466 -2.252301 1.218925 25.000000
1.619426 -2.116474 1.130948 32.000000
1.254277 -1.678618 0.885756 98.000000
1.154392 -1.582142 0.824566 29.000000
1.112934 -1.562349 0.804312 34.000000
1.089028 -1.563875 0.795360 31.000000
1.071887 -1.577045 0.792524 36.000000
1.057173 -1.593940 0.791601 34.000000
1.044824 -1.614526 0.792505 30.000000
1.034713 -1.638893 0.795215 29.000000
1.012022 -1.643605 0.788429 33.000000
0.998910 -1.663827 0.789205 33.000000
0.976135 -1.668038 0.782384 31.000000
0.962531 -1.687994 0.783004 27.000000
1.277515 2.294413 1.081207 20.000000
1.284131 2.246204 1.070166 25.000000
1.306233 2.226071 1.072520 23.000000
1.320852 2.193798 1.068910 17.000000
1.342226 2.173361 1.071126 26.000000
1.370742 2.164409 1.079066 10.000000
1.384211 2.131908 1.075261 24.000000
1.392077 2.091656 1.067489 29.000000
1.420004 2.081925 1.075330 21.000000
1.445380 2.068048 1.081061 27.000000
1.465325 2.046304 1.082855 26.000000
1.480805 2.021506 1.083069 21.000000
1.500214 1.999509 1.084744 32.000000
1.513706 1.969977 1.082412 10.000000
1.535292 1.951203 1.085886 28.000000
1.546862 1.922309 1.083823 28.000000
1.567998 1.903146 1.087195 27.000000
1.588971 1.883736 1.090567 34.000000
1.611530 1.868280 1.096381 32.000000
1.632129 1.848340 1.099676 31.000000
1.634283 1.807840 1.090554 34.000000
1.659379 1.795145 1.098237 13.000000
1.669854 1.764684 1.095181 35.000000
1.688478 1.744758 1.098597 35.000000
1.697252 1.714882 1.095729 33.000000
1.726053 1.703524 1.104859 45.000000
1.740835 1.679709 1.106033 35.000000
1.766284 1.664431 1.112962 37.000000
1.780625 1.640169 1.113968 37.000000
1.788071 1.609749 1.110771 21.000000
1.808702 1.591315 1.115865 32.000000
1.829156 1.572556 1.120889 34.000000
1.853062 1.556386 1.127954 35.000000
1.862844 1.528396 1.126571 40.000000
1.875791 1.503079 1.127208 33.000000
1.899284 1.486131 1.134138 35.000000
1.918981 1.465941 1.138873 36.000000
1.920457 1.431993 1.132849 22.000000
1.947024 1.416839 1.141701 41.000000
1.962477 1.393334 1.144141 34.000000
1.980826 1.372726 1.149058 36.000000
1.995981 1.348852 1.151258 40.000000
2.014577 1.327214 1.155618 34.000000
2.024826 1.300941 1.155984 35.000000
2.057684 1.288859 1.169275 44.000000
2.068151 1.261594 1.169076 25.000000
2.100960 1.248545 1.182261 37.000000
2.110489 1.221270 1.182400 59.000000
2.123638 1.196211 1.184550 40.000000
2.140399 1.173064 1.188890 37.000000
2.153159 1.147545 1.190878 36.000000
2.161599 1.119794 1.190587 34.000000
2.177767 1.095926 1.194607 34.000000
2.205828 1.077791 1.205159 28.000000
2.233393 1.059525 1.216158 34.000000
2.249070 1.034663 1.219966 36.000000
2.260104 1.008131 1.221903 32.000000
2.274915 0.983124 1.225973 35.000000
2.293728 0.959665 1.232185 32.000000
2.320580 0.939201 1.242687 35.000000
2.326561 0.910020 1.242081 31.000000
2.344727 0.885596 1.247986 15.000000
2.379608 0.866929 1.262739 36.000000
2.392896 0.840343 1.266700 34.000000
2.406304 0.813311 1.270148 33.000000
2.427726 0.789115 1.278337 36.000000
2.440356 0.761782 1.281973 32.000000
2.461315 0.736736 1.290012 32.000000
2.495066 0.714991 1.304714 32.000000
2.476933 0.678391 1.292294 10.000000
2.535790 0.662811 1.320607 32.000000
2.547378 0.633794 1.323754 30.000000
2.567138 0.606908 1.331680 32.000000
2.595314 0.581486 1.343947 33.000000
2.592768 0.548990 1.340343 28.000000
2.637757 0.526392 1.361847 28.000000
2.656613 0.497757 1.369362 28.000000
2.666184 0.467272 1.372548 13.000000
2.679893 0.437310 1.377907 31.000000
2.706580 0.409046 1.389876 29.000000
2.724136 0.378941 1.397232 31.000000
2.758945 0.350867 1.413940 31.000000
2.780272 0.320439 1.423675 29.000000
2.801260 0.289596 1.433225 29.000000
2.826435 0.258645 1.445050 30.000000
2.833598 0.225660 1.447513 16.000000
2.884730 0.195682 1.473064 30.000000
2.899956 0.162562 1.480272 30.000000
2.914898 0.129029 1.487283 24.000000
2.942910 0.095616 1.500906 28.000000
2.965883 0.061482 1.512666 29.000000
3.001920 0.026945 1.531042 26.000000
2.979753 -0.008371 1.519684 30.000000
3.010725 -0.043839 1.535482 29.000000
3.041380 -0.080039 1.550965 30.000000
3.075844 -0.117142 1.569132 32.000000
3.105406 -0.154860 1.584921 32.000000
3.134720 -0.193311 1.600385 31.000000
3.137012 -0.230428 1.602117 27.000000
3.165178 -0.269921 1.617784 20.000000
3.232980 -0.314132 1.653643 33.000000
3.238280 -0.353030 1.657622 29.000000
3.282933 -0.396950 1.681773 32.000000
3.327121 -0.441900 1.705786 32.000000
3.348420 -0.484914 1.718799 31.000000
3.378212 -0.529817 1.736096 33.000000
3.429400 -0.579144 1.764450 27.000000
3.436139 -0.621874 1.770042 23.000000
3.490280 -0.674220 1.800960 32.000000
3.517822 -0.722260 1.817441 30.000000
3.505355 -0.762706 1.813956 29.000000
3.453396 -0.793927 1.790062 28.000000
3.409846 -0.826106 1.770587 24.000000
3.391719 -0.864199 1.765005 27.000000
3.347755 -0.894692 1.745218 23.000000
3.290378 -0.920998 1.719079 13.000000
3.232941 -0.945952 1.692864 24.000000
3.196828 -0.976203 1.677681 23.000000
3.173207 -1.009688 1.669247 27.000000
3.140958 -1.039948 1.656125 24.000000
3.107959 -1.069931 1.643477 21.000000
3.092194 -1.104875 1.639001 27.000000
3.062979 -1.135167 1.628398 23.000000
2.983425 -1.145695 1.590855 10.000000
2.991591 -1.189154 1.600021 27.000000
2.928716 -1.204045 1.571267 26.000000
2.940189 -1.249077 1.582317 27.000000
2.901962 -1.272872 1.566736 27.000000
2.851281 -1.290324 1.544342 26.000000
2.836797 -1.324193 1.542318 28.000000
2.798262 -1.345755 1.526421 24.000000
2.750988 -1.363074 1.506687 10.000000
2.755853 -1.405944 1.515388 31.000000
2.716430 -1.426008 1.499794 26.000000
2.680819 -1.447537 1.486332 28.000000
2.664990 -1.479297 1.483746 32.000000
2.625308 -1.497378 1.468052 26.000000
2.605019 -1.526173 1.463103 29.000000
2.569144 -1.545287 1.449355 23.000000
2.517183 -1.554781 1.427463 10.000000
2.523175 -1.598824 1.437464 28.000000
2.498317 -1.623553 1.430001 26.000000
2.476410 -1.651007 1.425220 27.000000
2.446808 -1.673076 1.416035 28.000000
2.417872 -1.693878 1.406176 26.000000
2.391675 -1.717549 1.398991 27.000000
2.372673 -1.746102 1.396006 25.000000
2.338934 -1.763569 1.384475 9.000000
2.319456 -1.791453 1.381311 10.000000
2.267838 -1.793872 1.359006 25.000000
2.248142 -1.820881 1.355691 29.000000
2.224764 -1.844803 1.350259 32.000000
2.187335 -1.856617 1.336297 25.000000
2.173995 -1.888451 1.337128 28.000000
2.146768 -1.908292 1.329342 25.000000
2.102587 -1.912311 1.311108 10.000000
2.105235 -1.958904 1.322098 33.000000
2.069953 -1.972056 1.310481 24.000000
2.055256 -2.002878 1.310892 28.000000
2.026283 -2.021484 1.303378 28.000000
1.988752 -2.029124 1.289114 24.000000
1.967139 -2.052546 1.285115 27.000000
1.931729 -2.063229 1.273376 19.000000
1.925278 -2.102757 1.279545 10.000000
1.901817 -2.126217 1.275826 30.000000
1.866051 -2.135635 1.263965 24.000000
1.846657 -2.160998 1.261729 27.000000
1.819620 -2.180076 1.255910 27.000000
1.795457 -2.202249 1.252025 22.000000
1.778235 -2.230446 1.251590 27.000000
1.753518 -2.252120 1.247502 19.000000
1.603752 -2.109291 1.153601 14.000000
1.257883 -1.694257 0.915073 95.000000
1.145962 -1.578899 0.842270 18.000000
1.112649 -1.570419 0.827502 27.000000
1.084930 -1.568915 0.816753 31.000000
1.075488 -1.593587 0.819723 28.000000
1.050418 -1.595194 0.810927 29.000000
1.037982 -1.615799 0.811844 21.000000
1.025187 -1.636335 0.812669 21.000000
1.004945 -1.644931 0.807668 32.000000
0.989320 -1.661270 0.806532 27.000000
0.978116 -1.685463 0.809151 28.000000
0.961909 -1.701527 0.807906 26.000000
1.284216 2.261776 1.102481 27.000000
1.299607 2.229584 1.098956 24.000000
1.314393 2.197369 1.095370 32.000000
1.350374 2.200286 1.109405 10.000000
1.342510 2.132803 1.087847 27.000000
1.363227 2.112111 1.089879 30.000000
1.387244 2.099630 1.096308 26.000000
1.407628 2.078330 1.098241 32.000000
1.425152 2.053165 1.098148 29.000000
1.452949 2.042792 1.106017 29.000000
1.467199 2.013563 1.103705 35.000000
1.468877 1.970297 1.093633 13.000000
1.504402 1.970132 1.107443 35.000000
1.523217 1.947730 1.108960 33.000000
1.543397 1.929453 1.112929 32.000000
1.550299 1.892561 1.106186 42.000000
1.579889 1.883771 1.115744 34.000000
1.587733 1.851006 1.111323 40.000000
1.608262 1.831213 1.114595 37.000000
1.642581 1.828814 1.128707 25.000000
1.638298 1.781601 1.115188 52.000000
1.663303 1.768530 1.122883 44.000000
1.676686 1.741343 1.121776 35.000000
1.695148 1.721173 1.125191 79.000000
1.707017 1.694377 1.124291 47.000000
1.732396 1.679451 1.131373 55.000000
1.750289 1.658549 1.134626 59.000000
1.768100 1.637485 1.137797 31.000000
1.795636 1.625192 1.147310 46.000000
1.816439 1.606510 1.152564 36.000000
1.833810 1.584550 1.155514 44.000000
1.843961 1.556607 1.154149 62.000000
1.860777 1.534239 1.157006 35.000000
1.873921 1.508882 1.157614 61.000000
1.893839 1.489014 1.162557 62.000000
1.895803 1.455032 1.156458 30.000000
1.922485 1.440112 1.165517 55.000000
1.931033 1.411501 1.163669 41.000000
1.945807 1.388610 1.166510 48.000000
1.964754 1.367553 1.171061 66.000000
1.982944 1.346733 1.176029 43.000000
1.990292 1.317661 1.173735 63.000000
2.023173 1.306119 1.187388 84.000000
2.049060 1.288614 1.196082 32.000000
2.070461 1.268824 1.202910 42.000000
2.087869 1.246391 1.207532 54.000000
2.097422 1.219202 1.207541 53.000000
2.126148 1.202873 1.218702 83.000000
2.131309 1.173066 1.216313 55.000000
2.147950 1.149693 1.220628 72.000000
2.172316 1.130016 1.229271 71.000000
2.172233 1.098299 1.224869 36.000000
2.196315 1.078089 1.233368 35.000000
2.216164 1.055588 1.239548 37.000000
2.227409 1.029236 1.241562 52.000000
2.238319 1.002800 1.243492 46.000000
2.269507 0.985071 1.256660 54.000000
2.296526 0.964961 1.267508 60.000000
2.302721 0.935903 1.266943 38.000000
2.308708 0.906859 1.266203 33.000000
2.360193 0.895022 1.290406 43.000000
2.357430 0.862231 1.284955 68.000000
2.383250 0.840265 1.295802 52.000000
2.409023 0.817816 1.306586 62.000000
2.422240 0.790306 1.309919 70.000000
2.434875 0.762957 1.313607 56.000000
2.455877 0.737890 1.321793 67.000000
2.459267 0.707695 1.321084 35.000000
2.514025 0.691384 1.347388 41.000000
2.529871 0.663991 1.353417 71.000000
2.532843 0.632717 1.351926 47.000000
2.548120 0.604800 1.357695 41.000000
2.554602 0.574641 1.358685 71.000000
2.590832 0.550942 1.376172 64.000000
2.618502 0.524601 1.388432 72.000000
2.619562 0.492824 1.387226 30.000000
2.655268 0.467300 1.404312 35.000000
2.686437 0.440151 1.419013 51.000000
2.704271 0.410386 1.426605 62.000000
2.721866 0.380215 1.434109 46.000000
2.743330 0.350295 1.444124 65.000000
2.760059 0.319451 1.451832 75.000000
2.785444 0.289114 1.463892 53.000000
2.806082 0.257754 1.473545 29.000000
2.835298 0.226683 1.487740 40.000000
2.864070 0.195084 1.502139 44.000000
2.865948 0.161268 1.502534 54.000000
2.907357 0.129122 1.523603 60.000000
2.944078 0.095992 1.542257 60.000000
2.966929 0.061647 1.554160 56.000000
2.976196 0.026763 1.559004 43.000000
3.007302 -0.008496 1.575243 57.000000
3.024810 -0.044188 1.584419 54.000000
3.042000 -0.080403 1.593384 70.000000
3.080684 -0.117777 1.614258 66.000000
3.110058 -0.155755 1.630279 68.000000
3.143606 -0.194631 1.648505 81.000000
3.154582 -0.232712 1.654916 39.000000
3.182649 -0.272619 1.670921 32.000000
3.227966 -0.314866 1.695967 62.000000
3.263923 -0.357294 1.716254 54.000000
3.281849 -0.398521 1.727037 58.000000
3.312671 -0.441797 1.744637 57.000000
3.346973 -0.486771 1.764880 42.000000
3.389557 -0.533826 1.789497 49.000000
3.418505 -0.579794 1.807039 38.000000
3.451331 -0.627262 1.826629 34.000000
3.492229 -0.677226 1.850684 62.000000
3.497554 -0.721277 1.856625 37.000000
3.476810 -0.759462 1.847870 34.000000
3.446621 -0.795589 1.835133 36.000000
3.398923 -0.826765 1.812847 32.000000
3.359315 -0.859462 1.795671 32.000000
3.319876 -0.890969 1.777805 30.000000
3.262798 -0.917076 1.751258 22.000000
3.218796 -0.945363 1.730823 28.000000
3.204063 -0.982193 1.726920 31.000000
3.163488 -1.010575 1.709063 30.000000
3.139204 -1.044093 1.700837 32.000000
3.098423 -1.070931 1.682811 33.000000
3.057410 -1.096849 1.664600 28.000000
3.036814 -1.130057 1.658373 31.000000
2.982610 -1.150141 1.633730 23.000000
2.961519 -1.182226 1.627213 29.000000
2.936055 -1.212304 1.618328 34.000000
2.906277 -1.240014 1.607085 30.000000
2.880406 -1.269025 1.597915 32.000000
2.846208 -1.293838 1.584138 32.000000
2.811995 -1.317850 1.570291 27.000000
2.785070 -1.345691 1.561513 27.000000
2.742074 -1.365070 1.543542 26.000000
2.723444 -1.395169 1.538470 31.000000
2.707870 -1.427676 1.536066 36.000000
2.672436 -1.449213 1.522363 32.000000
2.656354 -1.481067 1.519769 32.000000
2.624534 -1.503712 1.508147 31.000000
2.608030 -1.534863 1.505363 30.000000
2.579820 -1.558859 1.495807 31.000000
2.532410 -1.570567 1.475083 26.000000
2.518333 -1.603518 1.474761 29.000000
2.497301 -1.630841 1.469401 32.000000
2.456569 -1.645992 1.453529 29.000000
2.442572 -1.677493 1.452411 32.000000
2.412823 -1.699141 1.443002 33.000000
2.372808 -1.711736 1.426347 30.000000
2.371914 -1.753611 1.434299 28.000000
2.298703 -1.741389 1.398471 10.000000
2.282991 -1.771730 1.397518 10.000000
2.273975 -1.807468 1.400800 30.000000
2.240116 -1.823352 1.388788 27.000000
2.209772 -1.841590 1.378978 30.000000
2.189620 -1.867972 1.375473 32.000000
2.155577 -1.882284 1.363367 27.000000
2.155371 -1.926172 1.372656 26.000000
2.097786 -1.918308 1.345417 19.000000
2.083659 -1.949537 1.346036 25.000000
2.065842 -1.977411 1.344311 32.000000
2.033769 -1.993267 1.334667 27.000000
2.009167 -2.014246 1.328616 26.000000
1.987702 -2.038106 1.324592 30.000000
1.958447 -2.055973 1.316839 25.000000
1.942760 -2.085827 1.316926 26.000000
1.901041 -2.089531 1.300737 17.000000
1.891010 -2.125607 1.304803 25.000000
1.876174 -2.159116 1.307313 30.000000
1.832801 -2.157107 1.288399 23.000000
1.814604 -2.186609 1.288638 25.000000
1.790229 -2.208889 1.284639 29.000000
1.769924 -2.233601 1.282215 26.000000
1.748016 -2.258953 1.280159 23.000000
1.607390 -2.127355 1.190349 17.000000
1.281262 -1.734709 0.958462 63.000000
1.136364 -1.576176 0.860168 26.000000
1.113783 -1.582700 0.853152 25.000000
1.083333 -1.577514 0.840133 21.000000
1.071084 -1.598520 0.841205 25.000000
1.057189 -1.614917 0.839803 23.000000
1.034585 -1.620224 0.832745 18.000000
1.021665 -1.640805 0.833636 13.000000
1.015598 -1.673098 0.840416 18.000000
0.994926 -1.681686 0.835201 18.000000
0.971914 -1.686101 0.828108 17.000000
1.263654 2.241141 1.117103 31.000000
1.279545 2.213830 1.115898 32.000000
1.301474 2.193544 1.118147 29.000000
1.323147 2.173063 1.120382 26.000000
1.337128 2.140752 1.116533 32.000000
1.360459 2.123738 1.120660 32.000000
1.371172 2.087474 1.114599 35.000000
1.399139 2.077682 1.122696 33.000000
1.420417 2.060760 1.127052 36.000000
1.429976 2.024229 1.120688 42.000000
1.452222 2.006133 1.124507 35.000000
1.477012 1.991525 1.130316 33.000000
1.486561 1.959160 1.126148 35.000000
1.511060 1.944091 1.131868 36.000000
1.536807 1.932920 1.140112 67.000000
1.543901 1.895991 1.133170 37.000000
1.547535 1.855773 1.123972 43.000000
1.575710 1.847407 1.134142 57.000000
1.593261 1.824205 1.135373 47.000000
1.612445 1.804939 1.139128 40.000000
1.628416 1.782091 1.140584 49.000000
1.651385 1.765020 1.145904 51.000000
1.670079 1.745020 1.149414 69.000000
1.688528 1.724774 1.152924 58.000000
1.695107 1.690893 1.147302 74.000000
1.722854 1.679750 1.157125 68.000000
1.737520 1.655703 1.158211 63.000000
1.761836 1.640772 1.165823 73.000000
1.776143 1.616276 1.166740 34.000000
1.800298 1.600655 1.174217 51.000000
1.817555 1.578736 1.177325 75.000000
1.834648 1.556654 1.180270 45.000000
1.858405 1.539969 1.187547 56.000000
1.847269 1.494830 1.172719 71.000000
1.860088 1.469489 1.173170 37.000000
1.904524 1.468687 1.193616 47.000000
1.920585 1.445416 1.196238 34.000000
1.921324 1.411959 1.190255 40.000000
1.947760 1.396269 1.199408 78.000000
1.958820 1.370480 1.200027 54.000000
1.970315 1.343963 1.200066 47.000000
1.992007 1.325360 1.207259 73.000000
2.002413 1.299050 1.207538 57.000000
2.024402 1.279243 1.214100 45.000000
2.057063 1.266591 1.227886 35.000000
2.070709 1.241863 1.230284 43.000000
2.072571 1.210233 1.225778 71.000000
2.112734 1.200707 1.243863 68.000000
2.129624 1.177365 1.248311 73.000000
2.118977 1.139026 1.236600 60.000000
2.150558 1.124225 1.250445 50.000000
2.170811 1.102255 1.256865 51.000000
2.206329 1.088202 1.272908 34.000000
2.222337 1.063406 1.276900 36.000000
2.217587 1.029426 1.269799 54.000000
2.224556 1.001122 1.269424 35.000000
2.271790 0.990464 1.292073 46.000000
2.274286 0.959808 1.289235 54.000000
2.305164 0.940983 1.302438 42.000000
2.311249 0.911659 1.301747 34.000000
2.329453 0.887075 1.307848 34.000000
2.359589 0.867046 1.321283 37.000000
2.373293 0.840181 1.324911 52.000000
2.398896 0.817672 1.335799 65.000000
2.411840 0.790459 1.339619 50.000000
2.428769 0.764385 1.345693 59.000000
2.436943 0.735381 1.347012 38.000000
2.453078 0.708918 1.353276 35.000000
2.490642 0.687868 1.370737 34.000000
2.514951 0.662823 1.381547 46.000000
2.521872 0.632895 1.382805 36.000000
2.537199 0.604924 1.388583 44.000000
2.552299 0.576658 1.394277 38.000000
2.575710 0.549940 1.404593 61.000000
2.599020 0.522720 1.414738 36.000000
2.613098 0.493544 1.420550 32.000000
2.657329 0.469440 1.442686 35.000000
2.675329 0.440023 1.450603 41.000000
2.684379 0.408875 1.453619 37.000000
2.705972 0.379553 1.464005 44.000000
2.727620 0.349629 1.473830 36.000000
2.744273 0.318781 1.481586 45.000000
2.765150 0.288079 1.491519 47.000000
2.794165 0.257770 1.506577 32.000000
2.814547 0.225938 1.516233 32.000000
2.847459 0.194689 1.533384 39.000000
2.871323 0.162214 1.545614 45.000000
2.903815 0.129510 1.562384 36.000000
2.913927 0.095356 1.567119 35.000000
2.945454 0.061453 1.584098 34.000000
2.959072 0.026660 1.591304 37.000000
2.976789 -0.008458 1.600879 34.000000
3.011808 -0.044253 1.619615 53.000000
3.041998 -0.080766 1.635874 51.000000
3.040838 -0.116826 1.635874 35.000000
3.100941 -0.155875 1.668910 59.000000
3.112192 -0.193486 1.675580 34.000000
3.158351 -0.233903 1.701064 63.000000
3.172944 -0.272934 1.710418 30.000000
3.191998 -0.312590 1.721246 33.000000
3.245267 -0.356615 1.751418 42.000000
3.267441 -0.398257 1.764801 47.000000
3.293343 -0.441107 1.780994 37.000000
3.332124 -0.486476 1.803448 45.000000
3.357008 -0.530815 1.819266 34.000000
3.390005 -0.577240 1.839432 34.000000
3.409606 -0.622218 1.852502 28.000000
3.463379 -0.674316 1.884033 35.000000
3.490122 -0.722609 1.902010 58.000000
3.460438 -0.759306 1.889015 35.000000
3.408874 -0.790507 1.864281 29.000000
3.395753 -0.829874 1.860480 35.000000
3.339533 -0.858032 1.832971 29.000000
3.313063 -0.892881 1.821805 27.000000
3.281612 -0.926362 1.808786 24.000000
3.199672 -0.943865 1.766766 25.000000
3.193297 -0.983183 1.767607 29.000000
3.152872 -1.011680 1.749411 31.000000
3.116505 -1.040649 1.733470 27.000000
3.109233 -1.079059 1.733760 33.000000
3.055459 -1.101291 1.708889 32.000000
3.026889 -1.131157 1.697237 24.000000
2.972900 -1.151257 1.672119 20.000000
2.968269 -1.190040 1.674891 27.000000
2.910027 -1.206734 1.647203 28.000000
2.896574 -1.241451 1.645034 32.000000
2.850467 -1.261487 1.624164 26.000000
2.848734 -1.300912 1.628725 33.000000
2.802501 -1.319507 1.607713 30.000000
2.783597 -1.351331 1.603283 26.000000
2.725221 -1.362349 1.575258 20.000000
2.705988 -1.393079 1.570663 31.000000
2.687217 -1.422878 1.565343 29.000000
2.667448 -1.453001 1.560658 34.000000
2.647516 -1.482717 1.555667 34.000000
2.619500 -1.507692 1.546130 33.000000
2.602923 -1.538981 1.543332 38.000000
2.551758 -1.549252 1.520013 26.000000
2.512189 -1.565470 1.503362 18.000000
2.483188 -1.588857 1.494149 30.000000
2.465940 -1.618308 1.491022 30.000000
2.440983 -1.642673 1.483192 34.000000
2.422581 -1.672237 1.480477 30.000000
2.393635 -1.693152 1.470334 33.000000
2.360237 -1.711679 1.458384 34.000000
2.338439 -1.736867 1.452572 26.000000
2.301257 -1.751621 1.438359 10.000000
2.281838 -1.779418 1.435107 13.000000
2.262124 -1.806919 1.431854 32.000000
2.235271 -1.828545 1.424080 34.000000
2.198025 -1.841064 1.409610 32.000000
2.177744 -1.867585 1.406198 31.000000
2.143861 -1.881959 1.393810 32.000000
2.133351 -1.916745 1.396696 25.000000
2.089340 -1.921134 1.377713 21.000000
2.075003 -1.952336 1.378313 30.000000
2.047457 -1.971008 1.370106 30.000000
2.022967 -1.992302 1.363994 32.000000
1.997202 -2.014190 1.358374 29.000000
1.985029 -2.047809 1.360802 32.000000
1.956830 -2.064976 1.352362 32.000000
1.927428 -2.082569 1.344427 24.000000
1.893157 -2.092156 1.331675 20.000000
1.879967 -2.124889 1.333772 32.000000
1.859105 -2.151563 1.331970 30.000000
1.839318 -2.177160 1.329676 35.000000
1.803398 -2.185917 1.317215 29.000000
1.787523 -2.218832 1.319513 31.000000
1.750286 -2.222270 1.304349 29.000000
1.733784 -2.254750 1.306523 24.000000
1.601002 -2.129990 1.218568 24.000000
1.257072 -1.713198 0.967905 98.000000
1.129352 -1.577024 0.879938 24.000000
1.104101 -1.579860 0.870772 32.000000
1.074914 -1.574133 0.857163 29.000000
1.062561 -1.595059 0.858252 29.000000
1.047489 -1.612090 0.857212 30.000000
1.032270 -1.628991 0.856093 21.000000
1.023983 -1.657432 0.861022 24.000000
1.010439 -1.678079 0.861865 25.000000
0.987257 -1.682783 0.854587 23.000000
0.972374 -1.698592 0.853010 27.000000
1.274953 2.221024 1.144239 29.000000
1.292401 2.192800 1.142463 33.000000
1.309335 2.164412 1.140639 28.000000
1.345832 2.171632 1.157679 19.000000
1.345299 2.116023 1.141247 34.000000
1.363453 2.091169 1.141209 30.000000
1.383881 2.070051 1.143228 28.000000
1.402639 2.049414 1.145565 38.000000
1.420047 2.024124 1.145368 29.000000
1.444981 2.009676 1.151302 35.000000
1.460439 1.984800 1.151401 29.000000
1.493337 1.980663 1.163630 22.000000
1.501419 1.943866 1.156742 40.000000
1.524439 1.929102 1.163023 35.000000
1.523121 1.881676 1.149436 36.000000
1.537075 1.856240 1.149058 61.000000
1.581026 1.864283 1.169829 34.000000
1.582989 1.824589 1.160641 61.000000
1.600281 1.801266 1.161822 33.000000
1.625356 1.788416 1.169935 20.000000
1.644366 1.768586 1.173540 75.000000
1.661014 1.744519 1.174545 61.000000
1.679580 1.724318 1.178061 58.000000
1.691646 1.697432 1.177088 77.000000
1.706615 1.673595 1.178300 62.000000
1.727743 1.655876 1.183851 68.000000
1.742319 1.631629 1.184887 35.000000
1.756584 1.607300 1.185830 25.000000
1.790628 1.600692 1.200171 67.000000
1.807999 1.578732 1.203202 61.000000
1.811530 1.545014 1.197249 55.000000
1.828284 1.522729 1.200177 78.000000
1.851879 1.505912 1.207456 35.000000
1.850827 1.469356 1.198921 68.000000
1.876756 1.455389 1.208879 31.000000
1.906983 1.443040 1.220574 28.000000
1.919298 1.416962 1.220918 81.000000
1.941483 1.399099 1.228347 36.000000
1.942366 1.365067 1.221659 68.000000
1.964199 1.346707 1.229015 52.000000
1.967438 1.315583 1.224820 35.000000
1.993315 1.298616 1.233840 66.000000
2.025943 1.286460 1.247909 35.000000
2.035959 1.259692 1.248074 29.000000
2.068532 1.246491 1.262042 59.000000
2.085824 1.223701 1.266691 54.000000
2.099154 1.198374 1.268857 74.000000
2.112151 1.172964 1.271023 65.000000
2.128289 1.149905 1.275855 45.000000
2.144890 1.126086 1.280194 72.000000
2.144873 1.094391 1.275514 29.000000
2.184719 1.082000 1.293666 30.000000
2.188217 1.052063 1.291161 46.000000
2.219458 1.035120 1.304931 35.000000
2.230552 1.008444 1.306879 34.000000
2.257546 0.988673 1.318174 60.000000
2.272266 0.963269 1.322327 36.000000
2.286767 0.937511 1.326314 53.000000
2.292944 0.908325 1.325574 29.000000
2.327098 0.890420 1.341676 31.000000
2.349243 0.866923 1.350177 57.000000
2.358447 0.838879 1.351913 36.000000
2.379871 0.814936 1.360612 39.000000
2.401127 0.790520 1.369328 61.000000
2.409637 0.761742 1.370644 41.000000
2.426207 0.735337 1.376732 48.000000
2.442303 0.708907 1.383094 32.000000
2.462772 0.683097 1.391326 29.000000
2.495429 0.660441 1.407015 38.000000
2.510939 0.632799 1.413061 39.000000
2.526226 0.604863 1.419026 42.000000
2.549843 0.578484 1.429614 70.000000
2.564604 0.549858 1.435233 34.000000
2.587545 0.522763 1.446027 41.000000
2.592965 0.491899 1.447129 29.000000
2.628320 0.466396 1.464886 32.000000
2.667836 0.440701 1.484882 60.000000
2.676969 0.409542 1.487949 45.000000
2.689700 0.378891 1.493710 38.000000
2.702553 0.347844 1.498908 48.000000
2.727913 0.318207 1.511627 37.000000
2.753042 0.287957 1.524260 42.000000
2.764463 0.256073 1.529858 31.000000
2.793457 0.225195 1.544531 32.000000
2.821814 0.193792 1.559603 35.000000
2.841171 0.161171 1.569557 42.000000
2.882119 0.129113 1.591591 34.000000
2.909781 0.095586 1.606082 37.000000
2.927998 0.061351 1.616151 37.000000
2.945915 0.026700 1.625917 37.000000
2.981038 -0.008521 1.645348 50.000000
2.993961 -0.044149 1.652388 40.000000
3.015216 -0.080427 1.664151 58.000000
3.062180 -0.118134 1.690720 48.000000
3.069429 -0.154998 1.695336 35.000000
3.106828 -0.193980 1.716745 47.000000
3.148324 -0.234224 1.740341 34.000000
3.162804 -0.273247 1.749886 27.000000
3.199154 -0.314607 1.770600 36.000000
3.221579 -0.355569 1.784509 39.000000
3.252298 -0.398105 1.803116 52.000000
3.277895 -0.441000 1.819530 57.000000
3.303403 -0.484389 1.835353 32.000000
3.354084 -0.532742 1.865837 49.000000
3.404214 -0.582319 1.896173 35.000000
3.410536 -0.625211 1.902306 26.000000
3.442383 -0.673218 1.922485 51.000000
3.464992 -0.720360 1.937829 35.000000
3.461149 -0.762678 1.939121 36.000000
3.405516 -0.793035 1.911384 33.000000
3.362544 -0.825286 1.890754 29.000000
3.344894 -0.863063 1.884400 35.000000
3.305740 -0.894781 1.865735 31.000000
3.227905 -0.915247 1.826298 16.000000
3.201147 -0.948492 1.814648 31.000000
3.165291 -0.978971 1.798712 29.000000
3.137627 -1.011429 1.787338 29.000000
3.118074 -1.046054 1.780632 32.000000
3.085781 -1.075908 1.766688 30.000000
3.045029 -1.102158 1.747910 31.000000
3.015970 -1.132581 1.736735 31.000000
2.970967 -1.155554 1.715324 19.000000
2.945675 -1.186301 1.706236 32.000000
2.936540 -1.223310 1.706509 32.000000
2.874408 -1.237538 1.675871 31.000000
2.872736 -1.277255 1.680668 35.000000
2.818715 -1.293131 1.654629 30.000000
2.796470 -1.323039 1.647354 32.000000
2.766261 -1.348566 1.635295 29.000000
2.707531 -1.360255 1.607289 18.000000
2.708578 -1.400510 1.613713 34.000000
2.677280 -1.424840 1.602055 35.000000
2.650460 -1.450187 1.591923 31.000000
2.638163 -1.484247 1.591540 35.000000
2.606341 -1.507110 1.579535 33.000000
2.574506 -1.529396 1.567458 34.000000
2.553909 -1.558033 1.562153 33.000000
2.495573 -1.562734 1.533757 20.000000
2.482182 -1.595022 1.532922 32.000000
2.453004 -1.618029 1.523481 31.000000
2.420712 -1.637369 1.510962 28.000000
2.406693 -1.668818 1.509840 35.000000
2.362525 -1.680042 1.491016 29.000000
2.351710 -1.713437 1.491997 30.000000
2.332549 -1.742077 1.489004 31.000000
2.274185 -1.740739 1.460819 10.000000
2.280296 -1.786865 1.472954 13.000000
2.232639 -1.792302 1.451494 30.000000
2.205957 -1.813769 1.443652 29.000000
2.192769 -1.846279 1.444637 33.000000
2.152187 -1.855323 1.427642 30.000000
2.138511 -1.887345 1.428530 29.000000
2.117872 -1.913241 1.424830 29.000000
2.067361 -1.911494 1.400988 17.000000
2.062802 -1.951937 1.408351 30.000000
2.032052 -1.967446 1.397740 29.000000
2.010773 -1.991998 1.393792 29.000000
1.995511 -2.022652 1.394153 34.000000
1.964424 -2.037003 1.383412 29.000000
1.932108 -2.051603 1.373189 28.000000
1.913246 -2.078257 1.371163 28.000000
1.884992 -2.094563 1.362497 15.000000
1.879239 -2.138265 1.371699 32.000000
1.844827 -2.147251 1.358514 30.000000
1.820679 -2.170249 1.354585 28.000000
1.797776 -2.192001 1.349985 31.000000
1.770422 -2.210994 1.343722 28.000000
1.744387 -2.228673 1.336898 28.000000
1.722203 -2.253951 1.334729 26.000000
1.596896 -2.141199 1.252004 20.000000
1.273000 -1.746608 1.008501 103.000000
1.119537 -1.574099 0.897619 27.000000
1.091768 -1.573163 0.886164 25.000000
1.072864 -1.582476 0.880724 28.000000
1.055391 -1.595966 0.877640 29.000000
1.035324 -1.605313 0.872351 28.000000
1.024840 -1.629882 0.875419 26.000000
1.017591 -1.657739 0.880114 18.000000
0.999283 -1.670510 0.876856 25.000000
0.976250 -1.675266 0.869442 25.000000
1.266011 2.224819 1.170912 23.000000
1.276827 2.184790 1.162853 28.000000
1.307971 2.179810 1.173560 15.000000
1.327225 2.155166 1.173711 19.000000
1.337187 2.119653 1.167919 27.000000
1.353096 2.090950 1.165779 23.000000
1.371171 2.066038 1.165637 30.000000
1.391371 2.044656 1.167600 25.000000
1.422817 2.042372 1.180594 29.000000
1.427070 1.998413 1.169580 32.000000
1.453145 1.988098 1.178212 21.000000
1.472521 1.965912 1.179880 27.000000
1.486166 1.936317 1.177189 29.000000
1.506346 1.918122 1.181324 30.000000
1.533320 1.905859 1.189336 36.000000
1.550470 1.883548 1.191210 29.000000
1.567380 1.861057 1.192986 35.000000
1.582361 1.834332 1.192044 32.000000
1.601724 1.814886 1.195917 25.000000
1.615002 1.788545 1.195264 34.000000
1.625915 1.758163 1.191864 35.000000
1.644691 1.738162 1.195456 31.000000
1.663222 1.717917 1.199048 49.000000
1.675303 1.691162 1.198063 33.000000
1.696617 1.673639 1.203732 37.000000
1.714624 1.652698 1.207155 42.000000
1.732387 1.631594 1.210414 34.000000
1.746792 1.607231 1.211401 31.000000
1.760886 1.582703 1.212294 27.000000
1.788123 1.569750 1.222232 34.000000
1.811932 1.553495 1.229833 37.000000
1.822083 1.525423 1.228191 31.000000
1.838736 1.502892 1.231049 34.000000
1.861424 1.486304 1.238928 36.000000
1.870737 1.457829 1.237090 30.000000
1.886819 1.434727 1.239702 32.000000
1.916141 1.422425 1.252014 35.000000
1.939101 1.403929 1.259218 38.000000
1.925066 1.360071 1.243444 41.000000
1.954098 1.346761 1.255562 32.000000
1.972185 1.325544 1.260691 35.000000
1.998124 1.308336 1.269867 34.000000
1.993561 1.272198 1.260666 29.000000
2.018536 1.254892 1.270190 31.000000
2.039647 1.234949 1.277297 32.000000
2.068199 1.219048 1.289069 34.000000
2.084741 1.196458 1.294184 33.000000
2.097821 1.171047 1.296350 33.000000
2.114517 1.147568 1.300727 36.000000
2.130424 1.124163 1.305614 35.000000
2.135062 1.094149 1.302682 30.000000
2.170232 1.080146 1.319271 27.000000
2.193629 1.059679 1.328643 30.000000
2.201004 1.031396 1.328278 30.000000
2.220063 1.008395 1.335024 30.000000
2.242960 0.986882 1.344104 30.000000
2.253707 0.959672 1.345895 31.000000
2.268164 0.934045 1.350012 31.000000
2.278418 0.906616 1.351550 25.000000
2.296074 0.882413 1.358264 29.000000
2.317728 0.859449 1.367411 28.000000
2.343774 0.837143 1.378307 32.000000
2.369256 0.814612 1.389570 32.000000
2.382149 0.787481 1.393484 29.000000
2.398535 0.761748 1.400273 31.000000
2.415154 0.735377 1.406370 30.000000
2.423268 0.706184 1.407429 23.000000
2.464229 0.686540 1.428518 27.000000
2.467255 0.655911 1.427419 25.000000
2.486995 0.629487 1.435995 27.000000
2.506447 0.602669 1.444404 26.000000
2.521354 0.574487 1.450287 25.000000
2.548635 0.548945 1.463885 26.000000
2.558930 0.519153 1.466972 26.000000
2.560041 0.487718 1.465618 10.000000
2.599468 0.463174 1.486150 24.000000
2.621652 0.434863 1.496704 24.000000
2.634637 0.404819 1.502732 23.000000
2.677835 0.378744 1.525305 28.000000
2.698898 0.348949 1.535988 22.000000
2.724142 0.319153 1.548949 25.000000
2.731836 0.287019 1.551889 28.000000
2.734917 0.254283 1.552178 9.000000
2.759015 0.223400 1.565156 21.000000
2.808906 0.193697 1.592819 22.000000
2.823914 0.160873 1.600601 19.000000
2.855929 0.128421 1.618039 26.000000
2.874628 0.094809 1.627890 24.000000
2.888384 0.060791 1.635684 23.000000
2.932295 0.026637 1.660523 28.000000
2.962853 -0.008521 1.677769 31.000000
2.980047 -0.044213 1.687415 32.000000
3.027371 -0.081031 1.714193 32.000000
3.030550 -0.117415 1.716656 29.000000
3.068066 -0.155666 1.738715 34.000000
3.083607 -0.193382 1.748132 28.000000
3.129071 -0.233784 1.774666 29.000000
3.152559 -0.273446 1.788769 27.000000
3.183886 -0.314474 1.808116 28.000000
3.214799 -0.356444 1.827229 32.000000
3.219360 -0.395940 1.831352 30.000000
3.266711 -0.441360 1.859926 27.000000
3.295981 -0.485479 1.878999 30.000000
3.320839 -0.529619 1.894896 31.000000
3.370651 -0.578904 1.925847 28.000000
3.394061 -0.624792 1.941932 26.000000
3.408556 -0.669477 1.952733 29.000000
3.447710 -0.720143 1.978821 30.000000
3.427048 -0.758495 1.969754 27.000000
3.388724 -0.792569 1.951408 26.000000
3.345952 -0.824765 1.930398 27.000000
3.315671 -0.859312 1.916504 24.000000
3.280938 -0.892089 1.900072 18.000000
3.229199 -0.919242 1.873804 22.000000
3.189340 -0.949361 1.855352 21.000000
3.145272 -0.977361 1.834262 23.000000
3.122329 -1.010715 1.824558 22.000000
3.094529 -1.042490 1.812902 24.000000
3.074762 -1.076644 1.806002 26.000000
3.033597 -1.103351 1.787569 24.000000
2.997094 -1.130347 1.770690 17.000000
2.960342 -1.156531 1.753628 24.000000
2.931032 -1.185633 1.742094 25.000000
2.917811 -1.220997 1.740001 28.000000
2.884039 -1.247442 1.725763 26.000000
2.826219 -1.262453 1.696916 25.000000
2.804248 -1.292715 1.689639 26.000000
2.782142 -1.322570 1.682268 23.000000
2.740083 -1.342469 1.662842 14.000000
2.709868 -1.367323 1.650425 25.000000
2.686570 -1.396167 1.643335 27.000000
2.671536 -1.428233 1.640286 28.000000
2.632431 -1.447894 1.623501 27.000000
2.600955 -1.471118 1.611402 25.000000
2.577695 -1.497569 1.603350 28.000000
2.545931 -1.519734 1.591002 26.000000
2.525434 -1.548135 1.585767 16.000000
2.497215 -1.571542 1.575625 24.000000
2.472651 -1.596867 1.567759 23.000000
2.461793 -1.632178 1.569908 29.000000
2.429417 -1.651845 1.557173 27.000000
2.400679 -1.673384 1.546714 24.000000
2.368201 -1.691988 1.533854 30.000000
2.345655 -1.718389 1.528515 25.000000
2.330751 -1.749118 1.527127 14.000000
2.283073 -1.756020 1.505386 12.000000
2.263435 -1.783989 1.502113 10.000000
2.227325 -1.797036 1.486720 25.000000
2.193657 -1.812985 1.474077 23.000000
2.166824 -1.834044 1.465968 25.000000
2.153261 -1.866290 1.467035 27.000000
2.126165 -1.886696 1.458752 24.000000
2.108691 -1.915625 1.457324 15.000000
2.058337 -1.914009 1.433076 19.000000
2.047227 -1.948261 1.435923 21.000000
2.029140 -1.976333 1.434215 27.000000
1.998241 -1.991587 1.423485 23.000000
1.970480 -2.009413 1.414847 23.000000
1.945662 -2.030122 1.408474 26.000000
1.911640 -2.040672 1.395321 20.000000
1.909617 -2.087830 1.407091 12.000000
1.875299 -2.097613 1.393873 22.000000
1.858777 -2.127077 1.393794 20.000000
1.829015 -2.143610 1.385441 25.000000
1.797581 -2.155399 1.374245 21.000000
1.786147 -2.191077 1.378433 24.000000
1.753079 -2.202883 1.367656 27.000000
1.732631 -2.227641 1.365057 20.000000
1.734896 -2.285331 1.382454 16.000000
1.593946 -2.151455 1.285054 24.000000
1.291038 -1.783386 1.051863 68.000000
1.112262 -1.574667 0.917318 19.000000
1.080444 -1.565838 0.901023 22.000000
1.065560 -1.583208 0.900073 21.000000
1.045498 -1.592883 0.894792 25.000000
1.032779 -1.613746 0.895816 21.000000
1.013725 -1.622359 0.890156 11.000000
1.009852 -1.658487 0.899482 19.000000
0.989119 -1.667447 0.894057 17.000000
0.975161 -1.687957 0.894906 25.000000
1.286167 2.219689 1.206484 20.000000
1.315361 2.210588 1.215255 12.000000
1.309149 2.143199 1.191901 23.000000
1.340095 2.137619 1.202682 25.000000
1.354792 2.109519 1.200979 26.000000
1.375559 2.088194 1.203053 28.000000
1.387085 2.056245 1.199007 27.000000
1.409953 2.038168 1.203126 29.000000
1.432570 2.019924 1.207162 25.000000
1.450951 1.998550 1.209419 24.000000
1.470512 1.976236 1.211157 27.000000
1.483055 1.947274 1.208788 32.000000
1.501960 1.924664 1.210400 43.000000
1.522251 1.906036 1.214558 30.000000
1.540708 1.882949 1.215981 35.000000
1.543335 1.843382 1.206592 35.000000
1.574493 1.837818 1.219533 29.000000
1.595086 1.817556 1.223007 30.000000
1.605502 1.787921 1.220103 30.000000
1.624501 1.768018 1.223804 46.000000
1.640368 1.744625 1.225309 56.000000
1.662087 1.727471 1.231206 37.000000
1.677474 1.703743 1.232534 46.000000
1.702167 1.689148 1.240576 55.000000
1.710819 1.658787 1.237126 34.000000
1.731983 1.640532 1.242795 44.000000
1.752967 1.622033 1.248395 28.000000
1.760795 1.591413 1.244718 35.000000
1.781451 1.572423 1.250154 66.000000
1.805275 1.556073 1.257853 41.000000
1.829061 1.539311 1.265575 65.000000
1.838337 1.511578 1.264268 49.000000
1.854951 1.488632 1.267147 52.000000
1.863636 1.460739 1.265723 52.000000
1.886780 1.442822 1.273068 32.000000
1.905606 1.422510 1.278561 63.000000
1.924985 1.401370 1.283406 75.000000
1.939926 1.377925 1.286377 60.000000
1.951007 1.351730 1.286884 65.000000
1.965427 1.327917 1.289603 83.000000
1.980423 1.303363 1.291827 64.000000
2.005511 1.286245 1.301573 62.000000
2.030587 1.268690 1.311263 33.000000
2.036265 1.239805 1.309448 85.000000
2.061099 1.221519 1.319006 82.000000
2.078246 1.198416 1.323676 58.000000
2.099007 1.177193 1.330605 78.000000
2.111343 1.151848 1.333206 77.000000
2.124100 1.125916 1.335220 59.000000
2.136017 1.100151 1.337570 47.000000
2.171196 1.086022 1.354452 32.000000
2.186745 1.061628 1.359098 52.000000
2.206027 1.038742 1.366025 62.000000
2.221167 1.013770 1.370435 52.000000
2.232190 0.986768 1.372314 66.000000
2.254972 0.964649 1.381470 81.000000
2.269477 0.938910 1.385559 58.000000
2.275332 0.909927 1.385164 54.000000
2.273206 0.877478 1.379236 35.000000
2.315127 0.862192 1.400759 77.000000
2.336590 0.838604 1.409900 80.000000
2.349672 0.811794 1.414028 74.000000
2.370770 0.787449 1.422848 92.000000
2.391694 0.762717 1.431682 83.000000
2.403783 0.735235 1.435926 72.000000
2.415988 0.707300 1.439468 51.000000
2.473562 0.692305 1.470786 35.000000
2.480969 0.662495 1.472141 71.000000
2.509029 0.637847 1.485850 89.000000
2.511647 0.606586 1.484452 47.000000
2.530504 0.579386 1.493478 70.000000
2.562221 0.554263 1.509269 77.000000
2.572282 0.524295 1.512966 83.000000
2.590499 0.495853 1.521478 54.000000
2.612845 0.467682 1.532406 40.000000
2.630614 0.438295 1.540658 68.000000
2.643870 0.407939 1.546320 86.000000
2.665158 0.378595 1.557278 78.000000
2.686214 0.348839 1.568057 62.000000
2.724219 0.320599 1.588773 71.000000
2.727605 0.287804 1.589257 77.000000
2.765157 0.258226 1.609702 47.000000
2.780539 0.226069 1.617913 43.000000
2.787019 0.193004 1.620914 50.000000
2.836480 0.162205 1.648916 64.000000
2.864003 0.129290 1.664177 71.000000
2.878283 0.095323 1.671707 71.000000
2.900609 0.061227 1.684667 67.000000
2.918312 0.026573 1.694916 58.000000
2.931386 -0.008483 1.702449 47.000000
2.978735 -0.044366 1.729859 57.000000
2.991177 -0.080460 1.737075 47.000000
2.998657 -0.116697 1.742095 37.000000
3.031617 -0.154462 1.762070 56.000000
3.072955 -0.193601 1.786844 45.000000
3.096550 -0.232373 1.801354 34.000000
3.098340 -0.269888 1.803095 29.000000
3.133790 -0.311035 1.825332 36.000000
3.177420 -0.353849 1.852349 36.000000
3.207714 -0.396319 1.871717 49.000000
3.228997 -0.438224 1.885832 39.000000
3.275553 -0.484545 1.914718 36.000000
3.299753 -0.528795 1.931531 35.000000
3.336411 -0.575737 1.955597 36.000000
3.376687 -0.624492 1.982016 30.000000
3.399536 -0.670898 1.998169 37.000000
3.442971 -0.722345 2.026531 51.000000
3.434670 -0.763852 2.025540 36.000000
3.375732 -0.793091 1.993652 33.000000
3.328944 -0.824240 1.969775 32.000000
3.294590 -0.857755 1.953277 31.000000
3.268388 -0.892711 1.941536 30.000000
3.220947 -0.921179 1.917278 21.000000
3.168876 -0.947733 1.890931 31.000000
3.146209 -0.981757 1.881286 32.000000
3.122814 -1.015598 1.872120 34.000000
3.090816 -1.046353 1.857790 30.000000
3.071042 -1.080596 1.850785 33.000000
3.018312 -1.102591 1.823933 32.000000
2.985907 -1.131195 1.809240 25.000000
2.952775 -1.159419 1.795136 20.000000
2.936172 -1.193264 1.790118 34.000000
2.894628 -1.216996 1.770815 30.000000
2.865002 -1.245035 1.758694 34.000000
2.839287 -1.274362 1.749047 35.000000
2.809297 -1.301349 1.736757 32.000000
2.767440 -1.322094 1.717059 33.000000
2.729463 -1.343886 1.699746 25.000000
2.718681 -1.378725 1.699309 20.000000
2.688276 -1.403334 1.686606 32.000000
2.653138 -1.425815 1.672036 32.000000
2.622475 -1.449103 1.659193 34.000000
2.583445 -1.468114 1.642070 30.000000
2.570856 -1.501819 1.641687 33.000000
2.550394 -1.530796 1.636475 35.000000
2.511838 -1.547460 1.618420 28.000000
2.476256 -1.566236 1.603339 15.000000
2.473755 -1.605762 1.609761 33.000000
2.440683 -1.626680 1.597529 30.000000
2.415795 -1.651281 1.589392 32.000000
2.376205 -1.665308 1.571649 31.000000
2.358279 -1.694009 1.568024 29.000000
2.328412 -1.715282 1.557889 32.000000
2.295902 -1.732738 1.544717 27.000000
2.262528 -1.750248 1.532086 10.000000
2.236995 -1.772004 1.523514 13.000000
2.227432 -1.807892 1.527206 27.000000
2.191303 -1.820460 1.511325 32.000000
2.171127 -1.847427 1.507880 31.000000
2.144085 -1.868287 1.499476 29.000000
2.123384 -1.894680 1.495846 32.000000
2.082866 -1.902855 1.478097 26.000000
2.071777 -1.937500 1.481152 13.000000
2.050488 -1.962891 1.477246 31.000000
2.019590 -1.978767 1.466239 27.000000
1.994972 -2.000310 1.459861 30.000000
1.960824 -2.012031 1.446533 28.000000
1.942098 -2.039265 1.444572 28.000000
1.920076 -2.063026 1.440226 30.000000
1.894958 -2.083201 1.433611 24.000000
1.881474 -2.116247 1.435959 12.000000
1.839894 -2.119861 1.418360 28.000000
1.811465 -2.135508 1.409353 24.000000
1.797349 -2.167932 1.411386 30.000000
1.764394 -2.180283 1.400551 27.000000
1.744018 -2.205321 1.397994 26.000000
1.724675 -2.234550 1.398120 31.000000
1.701123 -2.255507 1.393217 25.000000
1.681161 -2.284365 1.393204 13.000000
1.284814 -1.787032 1.076212 95.000000
1.117716 -1.593556 0.947848 26.000000
1.087176 -1.589261 0.933768 27.000000
1.048139 -1.568820 0.910681 30.000000
1.035605 -1.589671 0.911816 25.000000
1.019095 -1.602326 0.908218 29.000000
1.001301 -1.615367 0.905006 26.000000
0.990321 -1.639817 0.908091 10.000000
0.974369 -1.656460 0.906860 24.000000
1.263434 2.199648 1.220309 29.000000
1.285630 2.179019 1.222686 21.000000
1.305237 2.154260 1.222778 22.000000
1.321957 2.125636 1.220647 31.000000
1.346298 2.112764 1.227692 30.000000
1.367342 2.091385 1.229826 31.000000
1.371559 2.048149 1.219070 30.000000
1.396837 2.033881 1.225407 28.000000
1.415451 2.012733 1.227798 35.000000
1.435328 1.990644 1.229587 24.000000
1.450799 1.965531 1.229531 27.000000
1.470141 1.943025 1.231116 47.000000
1.496013 1.931747 1.239974 36.000000
1.506592 1.898306 1.234658 39.000000
1.521067 1.872636 1.234337 39.000000
1.532304 1.843354 1.231535 35.000000
1.547349 1.816767 1.230488 53.000000
1.575357 1.807471 1.241318 30.000000
1.591685 1.784467 1.242885 34.000000
1.613754 1.767838 1.249063 64.000000
1.623553 1.738023 1.245893 36.000000
1.651410 1.727298 1.256561 69.000000
1.663846 1.700295 1.255519 63.000000
1.682153 1.679526 1.259049 43.000000
1.703538 1.661593 1.264844 67.000000
1.708774 1.628119 1.258886 35.000000
1.736170 1.615740 1.269229 31.000000
1.753738 1.593986 1.272513 50.000000
1.771141 1.572067 1.275714 44.000000
1.788381 1.549820 1.278752 75.000000
1.811261 1.533746 1.287048 42.000000
1.831538 1.513885 1.292404 52.000000
1.830395 1.477729 1.283812 67.000000
1.860535 1.465604 1.296194 32.000000
1.872469 1.440190 1.297002 32.000000
1.888589 1.416668 1.299634 75.000000
1.910703 1.398728 1.307510 61.000000
1.907848 1.362573 1.298370 59.000000
1.940339 1.351592 1.313371 58.000000
1.958481 1.330189 1.318611 75.000000
1.972789 1.306123 1.321257 77.000000
1.983265 1.279443 1.321461 32.000000
2.004516 1.259648 1.328832 43.000000
2.025704 1.239506 1.336221 89.000000
2.046743 1.218931 1.343462 84.000000
2.071396 1.200188 1.353096 87.000000
2.084068 1.175095 1.355782 62.000000
2.108431 1.155599 1.365202 71.000000
2.120666 1.129947 1.367733 77.000000
2.117306 1.096140 1.360186 32.000000
2.148424 1.080087 1.374856 33.000000
2.171701 1.059588 1.384511 68.000000
2.194849 1.038635 1.394104 48.000000
2.210067 1.013611 1.398562 47.000000
2.229028 0.990078 1.405438 51.000000
2.239767 0.962759 1.407242 45.000000
2.257896 0.939023 1.414397 54.000000
2.264227 0.909650 1.413442 30.000000
2.289993 0.888453 1.425460 52.000000
2.295391 0.859204 1.424767 66.000000
2.308627 0.832725 1.428927 52.000000
2.342122 0.813143 1.445685 74.000000
2.354977 0.786045 1.449696 74.000000
2.367598 0.758672 1.453535 71.000000
2.392004 0.735089 1.465399 56.000000
2.400146 0.705972 1.466461 32.000000
2.436638 0.685114 1.485682 36.000000
2.460546 0.660023 1.497159 53.000000
2.471846 0.631240 1.500957 60.000000
2.499190 0.606601 1.515183 42.000000
2.518433 0.579163 1.523804 74.000000
2.537005 0.551511 1.532803 42.000000
2.551513 0.522322 1.538533 51.000000
2.565505 0.493113 1.544638 32.000000
2.604572 0.468176 1.565934 48.000000
2.621992 0.438963 1.574799 68.000000
2.631052 0.407843 1.578008 65.000000
2.652237 0.378538 1.589156 48.000000
2.677356 0.349283 1.602676 73.000000
2.710881 0.320523 1.621219 56.000000
2.739919 0.290492 1.637026 56.000000
2.734490 0.256532 1.632211 30.000000
2.758442 0.225325 1.645769 36.000000
2.769177 0.192609 1.651373 52.000000
2.801077 0.160918 1.669666 69.000000
2.837108 0.128698 1.690222 52.000000
2.855595 0.094977 1.700450 47.000000
2.877782 0.061034 1.713644 55.000000
2.891078 0.026392 1.721523 37.000000
2.934140 -0.008546 1.747103 37.000000
2.951114 -0.044237 1.757230 36.000000
2.967770 -0.080238 1.767039 37.000000
2.987970 -0.116927 1.779932 35.000000
3.033683 -0.155347 1.807847 35.000000
3.061759 -0.193818 1.825420 37.000000
3.093861 -0.233337 1.845322 32.000000
3.082654 -0.269824 1.839551 29.000000
3.134957 -0.312612 1.872429 46.000000
3.169713 -0.354719 1.894853 35.000000
3.182703 -0.395106 1.904385 35.000000
3.220867 -0.439277 1.928990 51.000000
3.250054 -0.483096 1.948237 33.000000
3.282561 -0.528536 1.970480 35.000000
3.310813 -0.573809 1.989324 33.000000
3.363611 -0.624854 2.023892 29.000000
3.403018 -0.674577 2.050543 47.000000
3.411996 -0.719330 2.059854 36.000000
3.387276 -0.756732 2.047960 33.000000
3.353394 -0.791748 2.031494 33.000000
3.315702 -0.824751 2.011540 31.000000
3.273149 -0.856078 1.989690 29.000000
3.263566 -0.895606 1.987894 30.000000
3.187426 -0.915957 1.945499 19.000000
3.160341 -0.949713 1.933978 29.000000
3.137715 -0.983777 1.924185 31.000000
3.093729 -1.011186 1.902258 28.000000
3.078365 -1.047186 1.897781 32.000000
3.042210 -1.075887 1.880722 30.000000
3.022243 -1.109724 1.873413 31.000000
2.969675 -1.130830 1.846024 29.000000
2.909056 -1.147560 1.813457 21.000000
2.915955 -1.191265 1.823999 31.000000
2.879252 -1.216260 1.806212 32.000000
2.841778 -1.240895 1.789017 30.000000
2.812104 -1.268402 1.776741 32.000000
2.790121 -1.298857 1.769258 31.000000
2.748454 -1.319627 1.749240 30.000000
2.729976 -1.351063 1.743967 28.000000
