x y z intensity
2.582645 -0.606628 -0.104197 36.000000
2.619580 -0.645337 -0.105881 24.000000
2.684978 -0.692480 -0.108652 32.000000
2.754542 -0.742328 -0.111698 29.000000
2.813599 -0.791146 -0.114258 30.000000
2.900743 -0.849766 -0.118072 30.000000
2.915315 -0.888435 -0.118861 95.000000
2.900686 -0.918574 -0.118481 89.000000
2.876318 -0.945303 -0.117805 84.000000
2.884878 -0.982910 -0.118396 95.000000
2.822254 -0.995622 -0.116078 77.000000
2.787819 -1.017675 -0.114928 76.000000
2.767322 -1.044329 -0.114360 95.000000
2.746449 -1.070599 -0.113794 82.000000
2.716205 -1.092938 -0.112844 95.000000
2.690290 -1.116610 -0.112088 95.000000
2.664233 -1.139804 -0.111334 68.000000
2.670043 -1.176804 -0.111924 79.000000
2.607073 -1.182967 -0.109641 71.000000
2.589518 -1.209094 -0.109275 85.000000
2.558236 -1.228546 -0.108337 98.000000
2.535755 -1.251857 -0.107697 91.000000
2.517567 -1.277061 -0.107334 73.000000
2.512377 -1.309007 -0.107541 64.000000
2.493609 -1.333817 -0.107092 31.000000
2.527192 -1.387385 -0.108997 31.000000
2.494460 -1.404959 -0.107980 27.000000
2.500704 -1.444559 -0.108745 30.000000
2.484828 -1.471635 -0.108481 35.000000
2.455875 -1.490845 -0.107742 21.000000
2.460681 -1.530713 -0.108414 10.000000
2.473361 -1.576237 -0.109453 10.000000
2.489547 -1.624956 -0.110764 9.000000
2.504986 -1.674131 -0.111977 9.000000
2.490707 -1.704188 -0.111886 9.000000
2.484276 -1.739790 -0.112164 9.000000
2.477380 -1.775568 -0.112439 10.000000
2.473951 -1.814287 -0.112895 13.000000
2.477975 -1.859167 -0.113715 20.000000
2.457635 -1.886035 -0.113431 10.000000
2.441416 -1.915135 -0.113329 7.000000
2.424278 -1.944699 -0.113227 4.000000
2.399154 -1.967915 -0.112666 2.000000
2.396693 -2.009932 -0.113287 1.000000
2.355661 -2.019652 -0.112098 1.000000
2.329825 -2.041943 -0.111633 1.000000
2.277631 -2.040529 -0.109819 2.000000
2.306904 -2.112521 -0.112045 2.000000
2.298381 -2.151109 -0.112376 1.000000
2.368711 -2.265810 -0.116714 1.000000
2.175956 -2.127262 -0.107980 1.000000
2.188073 -2.186184 -0.109470 1.000000
2.111733 -2.156340 -0.106448 1.000000
2.032824 -2.121469 -0.103270 2.000000
2.043854 -2.179904 -0.104752 6.000000
1.895053 -2.065743 -0.097928 8.000000
1.759052 -1.959765 -0.091672 8.000000
1.661825 -1.892384 -0.087363 8.000000
1.530498 -1.781433 -0.081183 8.000000
1.456407 -1.732965 -0.077970 9.000000
1.370896 -1.667593 -0.074092 9.000000
1.290140 -1.604471 -0.070410 9.000000
1.220151 -1.551588 -0.067264 9.000000
1.163615 -1.513230 -0.064817 10.000000
1.117147 -1.485820 -0.062893 10.000000
1.103929 -1.501881 -0.062834 12.000000
1.090510 -1.517777 -0.062775 21.000000
1.074017 -1.529533 -0.062546 21.000000
1.037619 -1.512273 -0.061096 23.000000
1.026720 -1.531719 -0.061203 21.000000
1.015529 -1.551117 -0.061309 17.000000
0.987948 -1.545201 -0.060368 24.000000
0.979086 -1.568503 -0.060635 18.000000
0.964580 -1.583328 -0.060516 15.000000
0.955031 -1.606632 -0.060777 7.000000
1.145218 1.953258 -0.056611 8.000000
1.140555 1.897905 -0.055564 29.000000
1.163725 1.889656 -0.055893 29.000000
1.184185 1.876919 -0.056096 32.000000
1.204442 1.863979 -0.056232 30.000000
1.221806 1.846599 -0.056308 31.000000
1.241746 1.833283 -0.056511 37.000000
1.270096 1.832019 -0.057029 33.000000
1.275439 1.797753 -0.056592 33.000000
1.291882 1.779779 -0.056598 32.000000
1.314131 1.769693 -0.056928 32.000000
1.327195 1.747332 -0.056871 33.000000
1.339953 1.724902 -0.056745 32.000000
1.364774 1.718126 -0.057139 33.000000
1.383330 1.703188 -0.057340 35.000000
1.408137 1.695807 -0.057736 35.000000
1.416736 1.668966 -0.057544 34.000000
1.431506 1.649686 -0.057546 36.000000
1.446060 1.630277 -0.057547 35.000000
1.473761 1.625551 -0.058144 57.000000
1.494708 1.613141 -0.058411 38.000000
1.505291 1.589501 -0.058279 52.000000
1.526010 1.576651 -0.058546 50.000000
1.550121 1.567011 -0.058947 48.000000
1.577739 1.560599 -0.059551 63.000000
1.576651 1.525943 -0.059015 32.000000
1.600455 1.515534 -0.059418 44.000000
1.616874 1.498038 -0.059553 79.000000
1.633092 1.480340 -0.059687 46.000000
1.652846 1.465757 -0.059958 59.000000
1.680022 1.457440 -0.060500 63.000000
1.692032 1.435805 -0.060432 37.000000
1.719084 1.426886 -0.060977 57.000000
1.726806 1.401761 -0.060840 26.000000
1.761520 1.398354 -0.061661 36.000000
1.780643 1.382123 -0.061935 70.000000
1.799558 1.365670 -0.062142 41.000000
1.826359 1.354947 -0.062693 59.000000
1.836963 1.332018 -0.062694 49.000000
1.855450 1.314748 -0.062901 35.000000
1.873791 1.297320 -0.063179 65.000000
1.883707 1.274064 -0.063179 26.000000
1.918304 1.267218 -0.063943 36.000000
1.944592 1.254359 -0.064502 64.000000
1.958085 1.233094 -0.064572 43.000000
1.975696 1.214375 -0.064854 50.000000
1.993080 1.195351 -0.065064 62.000000
2.010237 1.176093 -0.065275 41.000000
2.031647 1.159145 -0.065698 50.000000
2.083381 1.158801 -0.067034 28.000000
2.087112 1.131329 -0.066826 43.000000
2.108128 1.113238 -0.067253 61.000000
2.128954 1.094882 -0.067608 37.000000
2.176474 1.089538 -0.068811 55.000000
2.183722 1.063644 -0.068744 49.000000
2.204176 1.044119 -0.069102 35.000000
2.228964 1.026413 -0.069676 38.000000
2.258226 1.010378 -0.070319 24.000000
2.269102 0.985755 -0.070395 34.000000
2.288812 0.964940 -0.070755 36.000000
2.303828 0.941957 -0.070974 35.000000
2.346382 0.929768 -0.072048 37.000000
2.365732 0.907844 -0.072411 39.000000
2.403513 0.892599 -0.073268 33.000000
2.413063 0.866455 -0.073346 32.000000
2.431665 0.843665 -0.073711 32.000000
2.478616 0.829956 -0.074935 59.000000
2.487474 0.802983 -0.075015 72.000000
2.529420 0.786395 -0.076100 52.000000
2.556984 0.764626 -0.076674 63.000000
2.584347 0.742278 -0.077331 64.000000
2.606683 0.718185 -0.077845 61.000000
2.628857 0.693696 -0.078276 50.000000
2.626553 0.662696 -0.078071 9.000000
2.677314 0.644694 -0.079368 29.000000
2.713352 0.622307 -0.080317 55.000000
2.749281 0.599201 -0.081182 43.000000
2.784919 0.575373 -0.082134 49.000000
2.805712 0.548033 -0.082567 41.000000
2.845967 0.523818 -0.083666 48.000000
2.880993 0.498093 -0.084533 62.000000
2.955332 0.477931 -0.086556 85.000000
2.965302 0.446594 -0.086792 91.000000
2.984820 0.416347 -0.087226 95.000000
3.018888 0.387780 -0.088094 95.000000
2.988138 0.350897 -0.087081 91.000000
2.971933 0.316264 -0.086503 50.000000
2.980193 0.284437 -0.086647 76.000000
2.973067 0.251240 -0.086358 35.000000
2.985586 0.219635 -0.086647 10.000000
2.962930 0.185625 -0.085924 9.000000
2.964743 0.153449 -0.085924 9.000000
2.956206 0.120774 -0.085635 10.000000
2.967371 0.089006 -0.085924 27.000000
2.988175 0.057121 -0.086503 34.000000
2.988631 0.024637 -0.086503 35.000000
2.978727 -0.007821 -0.086122 68.000000
2.983451 -0.040264 -0.086267 58.000000
2.987810 -0.072816 -0.086411 69.000000
2.981903 -0.105032 -0.086176 79.000000
2.990521 -0.137923 -0.086465 95.000000
2.983886 -0.170085 -0.086320 95.000000
2.991852 -0.203156 -0.086517 95.000000
2.934664 -0.231336 -0.084931 33.000000
2.897123 -0.260113 -0.083833 41.000000
2.849349 -0.287042 -0.082449 20.000000
2.791477 -0.311889 -0.080866 9.000000
2.768033 -0.339725 -0.080206 9.000000
2.734479 -0.365804 -0.079259 9.000000
2.710567 -0.392587 -0.078685 9.000000
2.691320 -0.419711 -0.078171 9.000000
2.647144 -0.442310 -0.076941 10.000000
2.652068 -0.472744 -0.077146 19.000000
2.617341 -0.495865 -0.076206 10.000000
2.621611 -0.526216 -0.076410 53.000000
2.601066 -0.551515 -0.075900 81.000000
2.580263 -0.576495 -0.075392 64.000000
2.569021 -0.603281 -0.075168 52.000000
2.581745 -0.635939 -0.075657 25.000000
2.695674 -0.695060 -0.079127 12.000000
2.726546 -0.734700 -0.080177 34.000000
2.805047 -0.788619 -0.082643 35.000000
2.882665 -0.844239 -0.085103 60.000000
2.911558 -0.887165 -0.086049 91.000000
2.882741 -0.912633 -0.085392 88.000000
2.867931 -0.942275 -0.085159 95.000000
2.852785 -0.971723 -0.084926 87.000000
2.823350 -0.995713 -0.084180 27.000000
2.788907 -1.017765 -0.083386 93.000000
2.758963 -1.040891 -0.082645 90.000000
2.733559 -1.065335 -0.082135 95.000000
2.708004 -1.089297 -0.081537 94.000000
2.677508 -1.110953 -0.080890 85.000000
2.628533 -1.124257 -0.079600 95.000000
2.643669 -1.164802 -0.080346 73.000000
2.589916 -1.174795 -0.078922 32.000000
2.576979 -1.202839 -0.078748 85.000000
2.559276 -1.228633 -0.078523 62.000000
2.550238 -1.258492 -0.078488 37.000000
2.545348 -1.290709 -0.078589 49.000000
2.548965 -1.327477 -0.078964 47.000000
2.556439 -1.366897 -0.079562 76.000000
2.554539 -1.401812 -0.079796 32.000000
2.495596 -1.404959 -0.078252 13.000000
2.532150 -1.462054 -0.079713 21.000000
2.511781 -1.486912 -0.079398 10.000000
2.512566 -1.524551 -0.079763 10.000000
2.508522 -1.559744 -0.079989 9.000000
2.525112 -1.608368 -0.080889 9.000000
2.532588 -1.652174 -0.081515 10.000000
2.543588 -1.699118 -0.082271 9.000000
2.545539 -1.740773 -0.082755 8.000000
2.530522 -1.771318 -0.082700 10.000000
2.523286 -1.807491 -0.082912 9.000000
2.487357 -1.823057 -0.082190 9.000000
2.459306 -1.844080 -0.081642 10.000000
2.435163 -1.867689 -0.081322 8.000000
2.493299 -1.955807 -0.083777 5.000000
2.452328 -1.967257 -0.082925 2.000000
2.399818 -1.968484 -0.081586 1.000000
2.416606 -2.026660 -0.082707 2.000000
2.409543 -2.065862 -0.082941 2.000000
2.371834 -2.078845 -0.082226 2.000000
2.308160 -2.067865 -0.080603 2.000000
2.248593 -2.059085 -0.079024 2.000000
2.288106 -2.141536 -0.081035 1.000000
2.257442 -2.159405 -0.080490 1.000000
2.087255 -2.040649 -0.074943 1.000000
2.156911 -2.155049 -0.078093 1.000000
2.056421 -2.099846 -0.075007 1.000000
2.061118 -2.150969 -0.075755 2.000000
2.078589 -2.217007 -0.077095 6.000000
1.922598 -2.095809 -0.071889 7.000000
1.789584 -1.993806 -0.067474 9.000000
1.682076 -1.915457 -0.063968 8.000000
1.569942 -1.827505 -0.060235 8.000000
1.472902 -1.752582 -0.057026 9.000000
1.380748 -1.679638 -0.054030 9.000000
1.302983 -1.620493 -0.051479 9.000000
1.229721 -1.563797 -0.049070 9.000000
1.170059 -1.521562 -0.047168 10.000000
1.129446 -1.502198 -0.046013 14.000000
1.104213 -1.502279 -0.045418 20.000000
1.084962 -1.510115 -0.045126 15.000000
1.062813 -1.513570 -0.044714 26.000000
1.037843 -1.512665 -0.044184 23.000000
1.024219 -1.527961 -0.044136 28.000000
1.004860 -1.534785 -0.043848 24.000000
0.982787 -1.537170 -0.043442 28.000000
0.974019 -1.560474 -0.043574 23.000000
0.972608 -1.596531 -0.044113 18.000000
0.911838 -1.533984 -0.041945 8.000000
1.137772 1.940735 -0.035980 8.000000
1.138182 1.893958 -0.035475 28.000000
1.163928 1.889995 -0.035704 29.000000
1.178986 1.868869 -0.035678 28.000000
1.204645 1.864318 -0.035907 30.000000
1.210974 1.830328 -0.035637 32.000000
1.222325 1.804647 -0.035460 33.000000
1.253278 1.807709 -0.035919 32.000000
1.266963 1.785858 -0.035823 30.000000
1.283341 1.767978 -0.035874 29.000000
1.296451 1.745947 -0.035777 31.000000
1.327396 1.747734 -0.036172 35.000000
1.346286 1.733198 -0.036306 34.000000
1.352605 1.702803 -0.036042 32.000000
1.377294 1.695829 -0.036341 34.000000
1.392438 1.676913 -0.036324 34.000000
1.413769 1.665489 -0.036474 30.000000
1.435049 1.653862 -0.036692 32.000000
1.439691 1.623195 -0.036423 35.000000
1.470671 1.622249 -0.036825 48.000000
1.484784 1.602476 -0.036808 36.000000
1.512433 1.597162 -0.037195 46.000000
1.515848 1.566210 -0.036923 35.000000
1.539844 1.556753 -0.037159 36.000000
1.570902 1.553906 -0.037566 34.000000
1.576986 1.526278 -0.037378 36.000000
1.593465 1.509062 -0.037445 52.000000
1.609810 1.491579 -0.037579 55.000000
1.622316 1.470604 -0.037560 50.000000
1.656924 1.469411 -0.038057 81.000000
1.665257 1.444743 -0.037952 47.000000
1.699994 1.442681 -0.038451 63.000000
1.711800 1.420841 -0.038432 60.000000
1.727145 1.402100 -0.038500 31.000000
1.754102 1.392480 -0.038828 34.000000
1.773090 1.376337 -0.038983 35.000000
1.792007 1.359970 -0.039139 55.000000
1.806702 1.340332 -0.039207 37.000000
1.829284 1.326426 -0.039382 37.000000
1.843630 1.306424 -0.039451 43.000000
1.861879 1.289131 -0.039607 35.000000
1.888264 1.277142 -0.039939 35.000000
1.918725 1.267569 -0.040359 49.000000
1.932413 1.246582 -0.040430 60.000000
1.950119 1.228119 -0.040518 55.000000
1.963344 1.206805 -0.040588 50.000000
1.997793 1.198206 -0.041099 64.000000
2.006419 1.173923 -0.041082 39.000000
2.027733 1.156954 -0.041259 51.000000
2.066416 1.149444 -0.041861 36.000000
2.052460 1.112560 -0.041401 55.000000
2.095303 1.106526 -0.042022 47.000000
2.129466 1.095175 -0.042538 57.000000
2.154644 1.078646 -0.042878 54.000000
2.179747 1.061751 -0.043145 52.000000
2.204697 1.044417 -0.043486 55.000000
2.220407 1.022530 -0.043575 49.000000
2.249628 1.006522 -0.044007 32.000000
2.265046 0.984065 -0.044172 40.000000
2.294025 0.967185 -0.044529 61.000000
2.304359 0.942185 -0.044605 49.000000
2.328408 0.922710 -0.044874 37.000000
2.361606 0.906362 -0.045322 43.000000
2.385316 0.885872 -0.045668 42.000000
2.413611 0.866689 -0.046027 32.000000
2.422926 0.840466 -0.046106 34.000000
2.450812 0.820513 -0.046465 62.000000
2.473840 0.798456 -0.046735 73.000000
2.501505 0.777493 -0.047174 81.000000
2.524109 0.754603 -0.047444 74.000000
2.580199 0.740981 -0.048344 77.000000
2.588065 0.712957 -0.048426 50.000000
2.605353 0.687403 -0.048607 33.000000
2.627215 0.662779 -0.048877 9.000000
2.648825 0.637757 -0.049148 9.000000
2.670179 0.612336 -0.049502 13.000000
2.725546 0.593965 -0.050405 29.000000
2.771013 0.572426 -0.051128 52.000000
2.791778 0.545245 -0.051399 37.000000
2.841757 0.523001 -0.052212 62.000000
2.862003 0.494687 -0.052483 28.000000
2.941259 0.475538 -0.053838 21.000000
2.946260 0.443617 -0.053929 37.000000
3.015264 0.420583 -0.055105 95.000000
3.039464 0.390327 -0.055467 91.000000
3.053510 0.358569 -0.055648 92.000000
3.052199 0.324820 -0.055558 63.000000
3.055572 0.291654 -0.055464 71.000000
3.038644 0.256711 -0.055103 32.000000
3.056207 0.224861 -0.055374 31.000000
2.998580 0.187904 -0.054290 21.000000
3.020384 0.156290 -0.054651 12.000000
3.031943 0.123927 -0.054832 35.000000
3.043048 0.091253 -0.055012 35.000000
3.033888 0.057981 -0.054739 35.000000
3.044349 0.025090 -0.054919 37.000000
3.044442 -0.007992 -0.054919 50.000000
3.069157 -0.041411 -0.055370 90.000000
3.058506 -0.074427 -0.055096 88.000000
3.032592 -0.106792 -0.054646 95.000000
3.006234 -0.138614 -0.054196 95.000000
2.979625 -0.169801 -0.053655 95.000000
2.977621 -0.202140 -0.053655 95.000000
2.935383 -0.231336 -0.052936 11.000000
2.853022 -0.256091 -0.051411 9.000000
2.815232 -0.283535 -0.050782 9.000000
2.777258 -0.310224 -0.050069 9.000000
2.763752 -0.339116 -0.049890 9.000000
2.725243 -0.364479 -0.049179 10.000000
2.696393 -0.390438 -0.048732 20.000000
2.731501 -0.425871 -0.049363 32.000000
2.642950 -0.441487 -0.047764 8.000000
2.608432 -0.464850 -0.047229 9.000000
2.588521 -0.490363 -0.046881 9.000000
2.602658 -0.522363 -0.047156 49.000000
2.582153 -0.547449 -0.046890 63.000000
2.556515 -0.571046 -0.046454 54.000000
2.555065 -0.599934 -0.046463 60.000000
2.577541 -0.634743 -0.046994 25.000000
2.672150 -0.688905 -0.048768 30.000000
2.708013 -0.729499 -0.049478 37.000000
2.796133 -0.785914 -0.051153 45.000000
2.845017 -0.833092 -0.052119 55.000000
2.898048 -0.882794 -0.053262 98.000000
2.854883 -0.903582 -0.052555 95.000000
2.830673 -0.929795 -0.052201 95.000000
2.834684 -0.965277 -0.052372 95.000000
2.805132 -0.989336 -0.051932 42.000000
2.789541 -1.018037 -0.051754 95.000000
2.722264 -1.027043 -0.050620 90.000000
2.692353 -1.049177 -0.050183 95.000000
2.671523 -1.074639 -0.049922 98.000000
2.645806 -1.097807 -0.049574 95.000000
2.619951 -1.120587 -0.049228 74.000000
2.630562 -1.159019 -0.049572 53.000000
2.622392 -1.189512 -0.049570 32.000000
2.613827 -1.220015 -0.049568 62.000000
2.600444 -1.248365 -0.049480 55.000000
2.618091 -1.292025 -0.049991 46.000000
2.630675 -1.333928 -0.050415 74.000000
2.602699 -1.355539 -0.049980 34.000000
2.574604 -1.376592 -0.049635 25.000000
2.590224 -1.421408 -0.050140 11.000000
2.578979 -1.451907 -0.050134 9.000000
2.575979 -1.487409 -0.050298 10.000000
2.563939 -1.517828 -0.050200 10.000000
2.555844 -1.550843 -0.050277 9.000000
2.560100 -1.591781 -0.050606 9.000000
2.572134 -1.638370 -0.051007 10.000000
2.579199 -1.682589 -0.051415 10.000000
2.594033 -1.732815 -0.051987 9.000000
2.554357 -1.746888 -0.051382 8.000000
2.551566 -1.786030 -0.051619 8.000000
2.527919 -1.810781 -0.051441 8.000000
2.507988 -1.838210 -0.051251 8.000000
2.463868 -1.847455 -0.050663 8.000000
2.487201 -1.907712 -0.051376 6.000000
2.454543 -1.925434 -0.051035 3.000000
2.491901 -1.998923 -0.052067 2.000000
2.400386 -1.968957 -0.050506 2.000000
2.436240 -2.043204 -0.051531 2.000000
2.326530 -1.994757 -0.049574 2.000000
2.315922 -2.029804 -0.049629 1.000000
2.226714 -1.994945 -0.048087 2.000000
2.245371 -2.056174 -0.048786 2.000000
2.350635 -2.200091 -0.051393 1.000000
2.225405 -2.128779 -0.049065 1.000000
2.219969 -2.170316 -0.049274 1.000000
2.171429 -2.169649 -0.048531 1.000000
2.091759 -2.136014 -0.047175 1.000000
2.054564 -2.144204 -0.046678 2.000000
2.061955 -2.199235 -0.047201 4.000000
1.994005 -2.173609 -0.046004 7.000000
1.816626 -2.023979 -0.042334 8.000000
1.718674 -1.957168 -0.040385 9.000000
1.583267 -1.843042 -0.037524 8.000000
1.479544 -1.760587 -0.035376 9.000000
1.406411 -1.710866 -0.033933 9.000000
1.322034 -1.644188 -0.032196 9.000000
1.260868 -1.603400 -0.031066 9.000000
1.182424 -1.537708 -0.029424 9.000000
1.132622 -1.506481 -0.028475 10.000000
1.104441 -1.502563 -0.028059 11.000000
1.085189 -1.510399 -0.027870 17.000000
1.068728 -1.522035 -0.027757 24.000000
1.038011 -1.512945 -0.027272 24.000000
1.024387 -1.528242 -0.027234 24.000000
1.005028 -1.535065 -0.027048 26.000000
0.985647 -1.541661 -0.026862 24.000000
0.968892 -1.552272 -0.026751 24.000000
0.962375 -1.579794 -0.026930 16.000000
0.909393 -1.529959 -0.025803 8.000000
1.135312 1.936628 -0.015689 8.000000
1.143400 1.902799 -0.015515 14.000000
1.161374 1.886008 -0.015480 25.000000
1.176453 1.864843 -0.015477 18.000000
1.196573 1.851990 -0.015477 28.000000
1.222076 1.847208 -0.015547 20.000000
1.222458 1.804913 -0.015368 25.000000
1.207768 1.742233 -0.014945 34.000000
1.281561 1.806515 -0.015615 18.000000
1.286344 1.772291 -0.015505 21.000000
1.305526 1.758189 -0.015505 26.000000
1.327530 1.747935 -0.015541 22.000000
1.340286 1.725502 -0.015537 31.000000
1.362067 1.714814 -0.015572 20.000000
1.367971 1.684386 -0.015430 27.000000
1.392504 1.677112 -0.015501 29.000000
1.433315 1.688627 -0.015818 21.000000
1.425352 1.642733 -0.015532 30.000000
1.443141 1.627135 -0.015532 23.000000
1.460731 1.611337 -0.015532 26.000000
1.484984 1.602742 -0.015670 32.000000
1.502321 1.586472 -0.015670 25.000000
1.515981 1.566409 -0.015634 32.000000
1.536461 1.553398 -0.015670 31.000000
1.563995 1.547144 -0.015845 21.000000
1.573528 1.523069 -0.015773 29.000000
1.586405 1.502388 -0.015737 28.000000
1.606343 1.488382 -0.015773 32.000000
1.615041 1.464089 -0.015701 35.000000
1.638423 1.453027 -0.015840 29.000000
1.665459 1.444945 -0.015948 35.000000
1.692574 1.436415 -0.016057 35.000000
1.708088 1.417852 -0.016057 26.000000
1.723467 1.399153 -0.016057 31.000000
1.738643 1.380251 -0.016057 26.000000
1.769346 1.373477 -0.016270 30.000000
1.780265 1.351108 -0.016233 33.000000
1.802892 1.337559 -0.016306 28.000000
1.817348 1.317828 -0.016306 33.000000
1.839757 1.303741 -0.016378 30.000000
1.845644 1.277954 -0.016306 24.000000
1.884331 1.274550 -0.016524 33.000000
1.898078 1.253930 -0.016524 29.000000
1.924221 1.241372 -0.016633 29.000000
1.937639 1.220336 -0.016703 34.000000
1.959296 1.204398 -0.016776 32.000000
1.980856 1.188133 -0.016848 34.000000
2.006632 1.174065 -0.016958 36.000000
2.006305 1.144778 -0.016848 25.000000
2.031679 1.130145 -0.016958 32.000000
2.057069 1.115156 -0.017067 33.000000
2.086751 1.102073 -0.017213 30.000000
2.116419 1.088461 -0.017359 37.000000
2.141525 1.072151 -0.017468 31.000000
2.175474 1.059710 -0.017651 35.000000
2.195884 1.040359 -0.017724 36.000000
2.202541 1.014314 -0.017687 23.000000
2.236238 1.000546 -0.017870 30.000000
2.265348 0.984216 -0.018015 33.000000
2.275901 0.959567 -0.018015 29.000000
2.313919 0.946121 -0.018234 34.000000
2.319418 0.919178 -0.018198 32.000000
2.338576 0.897559 -0.018271 31.000000
2.376253 0.882546 -0.018490 35.000000
2.404513 0.863466 -0.018635 18.000000
2.418516 0.838984 -0.018672 42.000000
2.441645 0.817418 -0.018781 35.000000
2.459884 0.794007 -0.018854 36.000000
2.497051 0.776169 -0.019073 59.000000
2.514851 0.751900 -0.019146 47.000000
2.561305 0.735624 -0.019438 50.000000
2.598115 0.715777 -0.019657 65.000000
2.586345 0.682465 -0.019511 12.000000
2.608154 0.657970 -0.019620 8.000000
2.619992 0.630818 -0.019574 8.000000
2.655894 0.609067 -0.019792 8.000000
2.686806 0.585533 -0.019974 9.000000
2.722394 0.562397 -0.020192 9.000000
2.757776 0.538623 -0.020410 21.000000
2.822441 0.519469 -0.020845 32.000000
2.901860 0.501588 -0.021390 10.000000
2.897202 0.468446 -0.021317 9.000000
2.921904 0.439985 -0.021373 9.000000
2.961166 0.413078 -0.021626 18.000000
3.030014 0.389147 -0.022096 40.000000
3.063817 0.359735 -0.022313 74.000000
3.082498 0.327994 -0.022421 80.000000
3.075855 0.293554 -0.022349 39.000000
3.073891 0.259751 -0.022219 10.000000
3.071540 0.225962 -0.022183 10.000000
3.068806 0.192281 -0.022147 8.000000
3.045811 0.157675 -0.021967 7.000000
3.062287 0.125152 -0.021981 10.000000
3.083494 0.092452 -0.022124 21.000000
3.064345 0.058554 -0.021981 27.000000
3.094811 0.025596 -0.022196 35.000000
3.089906 -0.008015 -0.022066 34.000000
3.099622 -0.041721 -0.022137 88.000000
3.088963 -0.075157 -0.022066 98.000000
3.017972 -0.106264 -0.021566 71.000000
3.006693 -0.138614 -0.021403 98.000000
2.970097 -0.169232 -0.021154 64.000000
2.948056 -0.200108 -0.021012 59.000000
2.855994 -0.225052 -0.020284 9.000000
2.808640 -0.252068 -0.019966 8.000000
2.810689 -0.283035 -0.020001 9.000000
2.767662 -0.309114 -0.019633 9.000000
2.734401 -0.335547 -0.019422 20.000000
2.740529 -0.366467 -0.019492 53.000000
2.716602 -0.393387 -0.019267 33.000000
2.707222 -0.422021 -0.019232 34.000000
2.633415 -0.439921 -0.018741 10.000000
2.598992 -0.463176 -0.018450 8.000000
2.569193 -0.486721 -0.018275 9.000000
2.588276 -0.519492 -0.018450 33.000000
2.567802 -0.544418 -0.018265 34.000000
2.561794 -0.572216 -0.018265 61.000000
2.540783 -0.596585 -0.018081 35.000000
2.524463 -0.621674 -0.018011 14.000000
2.653121 -0.683997 -0.018898 37.000000
2.727667 -0.734786 -0.019484 33.000000
2.762883 -0.776533 -0.019794 36.000000
2.821477 -0.826157 -0.020187 35.000000
2.874503 -0.875602 -0.020634 57.000000
2.850574 -0.902256 -0.020439 95.000000
2.826286 -0.928416 -0.020337 42.000000
2.825584 -0.962236 -0.020314 51.000000
2.800780 -0.987855 -0.020212 80.000000
2.780510 -1.014700 -0.020054 73.000000
2.703907 -1.020073 -0.019579 73.000000
2.683388 -1.045723 -0.019424 65.000000
2.676514 -1.076592 -0.019458 36.000000
2.664628 -1.105647 -0.019370 35.000000
2.647881 -1.132471 -0.019336 26.000000
2.672092 -1.177250 -0.019515 27.000000
2.659082 -1.206211 -0.019515 29.000000
2.654955 -1.239223 -0.019493 28.000000
2.654886 -1.274507 -0.019593 35.000000
2.618447 -1.292203 -0.019337 21.000000
2.617657 -1.327324 -0.019436 11.000000
2.620795 -1.364956 -0.019479 10.000000
2.601416 -1.390915 -0.019356 9.000000
2.634327 -1.445643 -0.019717 9.000000
2.631533 -1.481522 -0.019723 8.000000
2.606560 -1.505092 -0.019658 7.000000
2.572907 -1.523104 -0.019436 7.000000
2.628783 -1.595119 -0.019988 8.000000
2.628313 -1.634207 -0.020024 8.000000
2.627236 -1.673476 -0.020058 9.000000
2.629827 -1.715654 -0.020219 7.000000
2.640052 -1.763555 -0.020348 7.000000
2.612419 -1.786591 -0.020187 6.000000
2.596908 -1.817758 -0.020219 6.000000
2.548527 -1.825625 -0.019900 7.000000
2.528436 -1.853274 -0.019900 6.000000
2.516154 -1.886731 -0.019867 4.000000
2.507324 -1.923118 -0.019866 2.000000
2.490139 -1.953398 -0.019897 2.000000
2.519396 -2.021116 -0.020207 1.000000
2.458561 -2.016711 -0.019797 1.000000
2.363648 -1.982354 -0.019206 1.000000
2.281261 -1.955891 -0.018616 1.000000
2.440286 -2.138840 -0.020004 1.000000
2.331166 -2.088545 -0.019200 1.000000
2.227213 -2.039569 -0.018525 1.000000
2.255923 -2.111550 -0.018860 1.000000
2.276175 -2.177449 -0.019130 1.000000
2.198708 -2.149628 -0.018674 1.000000
2.104507 -2.102782 -0.017976 1.000000
2.175899 -2.221930 -0.018697 1.000000
2.082419 -2.173266 -0.018004 1.000000
2.038201 -2.173887 -0.017825 2.000000
2.041505 -2.225462 -0.017972 6.000000
1.843510 -2.053997 -0.016340 6.000000
1.784815 -2.032547 -0.015932 8.000000
1.625770 -1.892493 -0.014695 8.000000
1.524718 -1.814386 -0.013887 8.000000
1.435122 -1.745831 -0.013173 9.000000
1.344029 -1.671657 -0.012437 9.000000
1.260930 -1.603586 -0.011766 8.000000
1.197782 -1.557704 -0.011334 9.000000
1.144756 -1.522640 -0.010930 9.000000
1.095615 -1.490648 -0.010558 9.000000
1.082329 -1.506508 -0.010529 11.000000
1.063095 -1.514021 -0.010445 11.000000
1.038123 -1.513113 -0.010304 20.000000
1.021659 -1.524257 -0.010304 16.000000
1.002345 -1.531050 -0.010220 16.000000
0.974930 -1.524978 -0.010053 18.000000
0.974243 -1.560923 -0.010164 14.000000
0.957229 -1.571367 -0.010107 14.000000
0.955430 -1.607488 -0.010215 7.000000
1.107498 1.889249 0.004478 7.000000
1.143400 1.902867 0.004607 18.000000
1.171861 1.903106 0.004638 21.000000
1.165716 1.847995 0.004601 26.000000
1.207426 1.868856 0.004753 22.000000
1.216559 1.838935 0.004778 24.000000
1.222458 1.804980 0.004790 27.000000
1.256193 1.812154 0.004912 22.000000
1.267096 1.786192 0.004946 26.000000
1.277534 1.760218 0.004912 24.000000
1.293603 1.742198 0.004967 24.000000
1.309386 1.724111 0.005021 27.000000
1.337219 1.721620 0.005123 24.000000
1.352671 1.703135 0.005177 27.000000
1.374276 1.692214 0.005189 27.000000
1.389310 1.673332 0.005244 26.000000
1.407431 1.658198 0.005310 29.000000
1.422076 1.639023 0.005364 21.000000
1.439824 1.623460 0.005430 31.000000
1.460731 1.611404 0.005443 35.000000
1.471391 1.588138 0.005484 25.000000
1.495445 1.579278 0.005576 33.000000
1.512504 1.562883 0.005642 32.000000
1.529430 1.546355 0.005642 33.000000
1.560441 1.543694 0.005761 35.000000
1.573528 1.523135 0.005815 20.000000
1.590036 1.505892 0.005815 37.000000
1.613678 1.495245 0.005908 51.000000
1.633563 1.480946 0.005989 34.000000
1.660867 1.472999 0.006097 64.000000
1.676788 1.454843 0.006097 66.000000
1.696386 1.439718 0.006179 41.000000
1.704241 1.414726 0.006219 44.000000
1.723467 1.399221 0.006233 15.000000
1.746475 1.386536 0.006329 35.000000
1.769346 1.373545 0.006426 41.000000
1.784248 1.354199 0.006426 35.000000
1.802892 1.337628 0.006509 34.000000
1.821465 1.320831 0.006592 35.000000
1.831667 1.298028 0.006577 35.000000
1.866266 1.292185 0.006720 48.000000
1.851200 1.252208 0.006684 16.000000
1.906421 1.259511 0.006834 41.000000
1.928422 1.244082 0.006934 62.000000
1.937639 1.220336 0.006919 35.000000
1.959366 1.204468 0.007019 54.000000
1.985214 1.190775 0.007135 47.000000
1.993757 1.166561 0.007120 42.000000
2.010648 1.147327 0.007206 42.000000
2.036119 1.132647 0.007253 22.000000
2.048278 1.110462 0.007324 42.000000
2.077908 1.097475 0.007387 77.000000
2.120865 1.090820 0.007570 37.000000
2.150467 1.076628 0.007706 61.000000
2.166558 1.055405 0.007722 52.000000
2.195958 1.040359 0.007861 44.000000
2.220780 1.022754 0.007909 69.000000
2.231749 0.998579 0.007984 21.000000
2.256176 0.980306 0.008033 62.000000
2.280508 0.961585 0.008157 57.000000
2.309291 0.944305 0.008223 39.000000
2.342659 0.928389 0.008383 49.000000
2.357247 0.904725 0.008399 37.000000
2.381017 0.884365 0.008527 34.000000
2.404591 0.863544 0.008577 43.000000
2.385450 0.827514 0.008553 27.000000
2.436982 0.815909 0.008706 63.000000
2.459963 0.794007 0.008835 91.000000
2.482727 0.771796 0.008887 71.000000
2.514931 0.751980 0.009052 88.000000
2.527747 0.726043 0.009070 80.000000
2.569194 0.707809 0.009190 65.000000
2.586426 0.682465 0.009306 27.000000
2.598540 0.655605 0.009324 7.000000
2.629797 0.633241 0.009493 9.000000
2.646230 0.606915 0.009528 9.000000
2.682004 0.584552 0.009717 9.000000
2.693016 0.556412 0.009735 9.000000
2.733325 0.533831 0.009859 9.000000
2.758604 0.507790 0.010015 9.000000
2.823032 0.488050 0.010230 24.000000
2.847934 0.460554 0.010301 9.000000
2.912106 0.438497 0.010605 9.000000
2.946401 0.411005 0.010713 9.000000
2.970505 0.381596 0.010877 9.000000
3.009287 0.353321 0.011004 15.000000
3.062611 0.325972 0.011185 36.000000
3.110790 0.296974 0.011444 79.000000
3.153699 0.266487 0.011591 95.000000
3.206268 0.235866 0.011774 75.000000
3.223593 0.201974 0.011829 95.000000
3.225564 0.166981 0.011927 84.000000
3.217249 0.131481 0.011890 95.000000
3.203533 0.096146 0.011835 98.000000
3.199316 0.061230 0.011914 95.000000
3.159807 0.026134 0.011765 95.000000
3.129904 -0.008119 0.011653 95.000000
3.074625 -0.041384 0.011449 65.000000
3.029075 -0.073697 0.011374 52.000000
3.028058 -0.106616 0.011374 84.000000
2.991801 -0.137923 0.011242 62.000000
2.955122 -0.168379 0.011111 88.000000
2.928193 -0.198754 0.011107 45.000000
2.851097 -0.224659 0.010823 9.000000
2.803660 -0.251622 0.010652 25.000000
2.790790 -0.281031 0.010615 33.000000
2.777685 -0.310224 0.010577 63.000000
2.774102 -0.340334 0.010577 80.000000
2.740529 -0.366467 0.010548 55.000000
2.706705 -0.391954 0.010433 93.000000
2.687461 -0.418940 0.010376 72.000000
2.603906 -0.434978 0.010071 9.000000
2.574380 -0.458790 0.009975 9.000000
2.539797 -0.481138 0.009861 9.000000
2.554042 -0.512605 0.009937 33.000000
2.548318 -0.540270 0.010017 71.000000
2.517878 -0.562407 0.009921 53.000000
2.492188 -0.585156 0.009844 62.000000
2.514832 -0.619282 0.009959 29.000000
2.512798 -0.647800 0.009978 9.000000
2.635940 -0.710160 0.010497 33.000000
2.700309 -0.758946 0.010786 29.000000
2.768695 -0.810702 0.011093 39.000000
2.860155 -0.871232 0.011497 98.000000
2.836273 -0.897729 0.011440 95.000000
2.807376 -0.922175 0.011363 98.000000
2.792453 -0.950954 0.011343 71.000000
2.772579 -0.977877 0.011305 34.000000
2.719540 -0.992417 0.011220 90.000000
2.717941 -1.025367 0.011259 35.000000
2.725317 -1.062062 0.011337 56.000000
2.722900 -1.095340 0.011375 36.000000
2.724753 -1.130557 0.011433 35.000000
2.712329 -1.160086 0.011433 38.000000
2.717847 -1.197499 0.011511 27.000000
2.691045 -1.220669 0.011453 10.000000
2.691200 -1.256141 0.011511 19.000000
2.699960 -1.296145 0.011608 10.000000
2.681218 -1.323181 0.011497 10.000000
2.711304 -1.374810 0.011689 9.000000
2.709485 -1.411147 0.011747 9.000000
2.711646 -1.449946 0.011824 10.000000
2.686926 -1.474507 0.011786 9.000000
2.718669 -1.530674 0.011997 7.000000
2.623972 -1.515092 0.011651 7.000000
2.598722 -1.538478 0.011613 6.000000
2.628877 -1.595119 0.011824 6.000000
2.683512 -1.668528 0.012151 5.000000
2.627236 -1.673476 0.011978 3.000000
2.621451 -1.710190 0.012036 2.000000
2.631737 -1.758097 0.012170 2.000000
2.620770 -1.792235 0.012209 1.000000
2.596908 -1.817855 0.012093 2.000000
2.544462 -1.822713 0.011940 2.000000
2.532564 -1.856230 0.011978 2.000000
2.572157 -1.928725 0.012264 2.000000
2.562866 -1.965718 0.012321 2.000000
2.450895 -1.922539 0.011883 1.000000
2.496094 -2.002344 0.012207 1.000000
2.323354 -1.905820 0.011371 1.000000
2.283290 -1.914974 0.011277 1.000000
2.292649 -1.965746 0.011428 1.000000
2.289883 -2.007016 0.011523 1.000000
2.264136 -2.028584 0.011504 1.000000
2.168214 -1.985541 0.011125 1.000000
2.197517 -2.056882 0.011299 1.000000
2.153334 -2.059936 0.011186 1.000000
2.191557 -2.142638 0.011505 1.000000
2.065600 -2.063907 0.010961 1.000000
2.119927 -2.164867 0.011374 1.000000
2.013235 -2.101153 0.010834 1.000000
2.014262 -2.148444 0.010965 1.000000
2.034745 -2.218093 0.011207 4.000000
1.927002 -2.147022 0.010741 6.000000
1.758422 -2.002491 0.009841 8.000000
1.645319 -1.915326 0.009324 8.000000
1.550452 -1.845009 0.008899 9.000000
1.447822 -1.761281 0.008350 9.000000
1.375358 -1.710624 0.008038 9.000000
1.282564 -1.631099 0.007599 9.000000
1.219116 -1.585510 0.007324 9.000000
1.162783 -1.546677 0.007027 9.000000
1.116342 -1.518849 0.006846 10.000000
1.096915 -1.526811 0.006827 10.000000
1.060222 -1.509986 0.006644 25.000000
1.038123 -1.513113 0.006608 24.000000
1.010524 -1.507644 0.006536 26.000000
0.994129 -1.518556 0.006481 24.000000
0.974930 -1.524978 0.006463 24.000000
0.958359 -1.535473 0.006463 27.000000
0.944223 -1.550072 0.006425 16.000000
0.909447 -1.530122 0.006301 8.000000
1.117477 1.906435 0.024415 8.000000
1.138115 1.894161 0.024550 18.000000
1.142890 1.856140 0.024349 28.000000
1.160314 1.839404 0.024426 26.000000
1.185587 1.835125 0.024672 28.000000
1.197182 1.809680 0.024635 26.000000
1.219521 1.800707 0.024825 26.000000
1.241818 1.791475 0.025015 33.000000
1.261177 1.777903 0.025148 25.000000
1.265655 1.743901 0.024991 21.000000
1.302411 1.754175 0.025472 36.000000
1.309254 1.724045 0.025371 27.000000
1.330953 1.713656 0.025562 32.000000
1.349495 1.699087 0.025695 32.000000
1.377294 1.696029 0.026006 32.000000
1.385984 1.669419 0.025959 31.000000
1.358771 1.600891 0.025250 33.000000
1.418667 1.635114 0.026098 33.000000
1.436374 1.619588 0.026230 36.000000
1.453883 1.603929 0.026362 35.000000
1.474657 1.591673 0.026555 38.000000
1.488437 1.571951 0.026560 34.000000
1.505418 1.555631 0.026693 37.000000
1.532813 1.549777 0.027010 43.000000
1.553132 1.536528 0.027206 34.000000
1.566210 1.516047 0.027210 36.000000
1.589902 1.505826 0.027469 62.000000
1.598875 1.481586 0.027476 50.000000
1.633428 1.480879 0.027859 62.000000
1.645770 1.459662 0.027930 46.000000
1.665324 1.444878 0.028060 54.000000
1.688559 1.433112 0.028323 74.000000
1.696413 1.408271 0.028262 35.000000
1.711688 1.389699 0.028397 35.000000
1.750254 1.389577 0.028851 44.000000
1.761311 1.367345 0.028923 40.000000
1.776078 1.348086 0.028991 46.000000
1.798740 1.334580 0.029258 38.000000
1.809117 1.311957 0.029261 39.000000
1.831462 1.297959 0.029529 56.000000
1.849617 1.280731 0.029663 36.000000
1.871700 1.266146 0.029864 36.000000
1.893768 1.251174 0.030135 62.000000
1.915679 1.235881 0.030337 48.000000
1.929038 1.214938 0.030406 71.000000
1.954896 1.201709 0.030747 48.000000
1.967853 1.180418 0.030817 52.000000
1.993545 1.166491 0.031089 69.000000
2.006094 1.144778 0.031159 32.000000
2.027168 1.127715 0.031436 36.000000
2.034950 1.103242 0.031438 54.000000
2.073344 1.095068 0.031917 42.000000
2.102864 1.081601 0.032262 70.000000
2.127895 1.065364 0.032539 67.000000
2.157348 1.050952 0.032886 45.000000
2.164110 1.025301 0.032890 93.000000
2.202393 1.014314 0.033376 35.000000
2.208708 0.988295 0.033455 35.000000
2.228439 0.968277 0.033668 52.000000
2.266461 0.955682 0.034158 37.000000
2.295181 0.938552 0.034512 39.000000
2.328485 0.922863 0.034936 46.000000
2.352349 0.902856 0.035222 38.000000
2.376098 0.882546 0.035509 51.000000
2.380831 0.855018 0.035439 29.000000
2.413558 0.837346 0.035867 42.000000
2.417784 0.809482 0.035875 85.000000
2.445453 0.789400 0.036235 61.000000
2.468167 0.767264 0.036525 89.000000
2.505111 0.749035 0.037029 95.000000
2.527506 0.725963 0.037321 94.000000
2.568950 0.707809 0.037899 74.000000
2.537842 0.669708 0.037331 10.000000
2.564281 0.647043 0.037696 9.000000
2.580944 0.621455 0.037919 9.000000
2.645982 0.606832 0.038859 9.000000
2.667015 0.581275 0.039074 9.000000
2.692764 0.556412 0.039444 9.000000
2.713359 0.529998 0.039743 9.000000
2.753430 0.506885 0.040247 9.000000
2.783360 0.481150 0.040692 9.000000
2.882217 0.466141 0.042061 58.000000
2.877230 0.433285 0.042005 26.000000
2.896614 0.404098 0.042311 9.000000
2.960313 0.380322 0.043179 9.000000
2.998987 0.352247 0.043777 9.000000
3.022558 0.321738 0.044067 9.000000
3.025898 0.288896 0.044160 30.000000
3.188281 0.269434 0.046484 34.000000
3.220932 0.237065 0.046920 100.000000
3.238266 0.202912 0.047237 98.000000
3.255225 0.168531 0.047455 98.000000
3.256916 0.133114 0.047555 100.000000
3.238121 0.097196 0.047263 98.000000
3.204022 0.061326 0.046753 95.000000
3.159518 0.026134 0.046096 74.000000
3.089623 -0.008015 0.045169 35.000000
3.049348 -0.041048 0.044585 62.000000
3.038701 -0.073940 0.044438 80.000000
3.002799 -0.105736 0.043927 62.000000
2.966465 -0.136681 0.043415 54.000000
2.944869 -0.167810 0.043213 37.000000
2.868069 -0.194691 0.042114 15.000000
2.840868 -0.223874 0.041748 32.000000
2.808382 -0.252068 0.041309 45.000000
2.795507 -0.281532 0.041162 71.000000
2.767492 -0.309114 0.040796 38.000000
2.753998 -0.337898 0.040649 49.000000
2.715500 -0.363154 0.040137 80.000000
2.676768 -0.387572 0.039624 47.000000
2.682272 -0.418170 0.039771 58.000000
2.608515 -0.435721 0.038745 14.000000
2.549531 -0.454325 0.037939 9.000000
2.524824 -0.478267 0.037646 9.000000
2.544000 -0.510558 0.037934 32.000000
2.533407 -0.537080 0.037860 65.000000
2.493246 -0.556957 0.037349 71.000000
2.472485 -0.580507 0.037130 47.000000
2.500032 -0.615696 0.037641 28.000000
2.546448 -0.656457 0.038365 30.000000
2.611553 -0.703574 0.039459 27.000000
2.671175 -0.750744 0.040480 34.000000
2.763633 -0.809209 0.042012 36.000000
2.821622 -0.859486 0.042943 75.000000
2.836001 -0.897639 0.043307 98.000000
2.792856 -0.917404 0.042708 72.000000
2.801648 -0.954087 0.042998 71.000000
2.781740 -0.981113 0.042853 35.000000
2.766240 -1.009468 0.042690 40.000000
2.773806 -1.046455 0.042980 60.000000
2.757656 -1.074680 0.042817 34.000000
2.755099 -1.108312 0.042962 35.000000
2.756807 -1.143880 0.043088 27.000000
2.725849 -1.165804 0.042799 16.000000
2.749601 -1.211519 0.043285 13.000000
2.754515 -1.249493 0.043573 9.000000
2.758881 -1.287769 0.043768 10.000000
2.762784 -1.326346 0.044056 10.000000
2.748192 -1.356277 0.043962 9.000000
2.746697 -1.392805 0.044083 10.000000
2.766848 -1.441077 0.044656 10.000000
2.755451 -1.473331 0.044632 10.000000
2.739334 -1.503277 0.044537 9.000000
2.727192 -1.535389 0.044608 7.000000
2.623694 -1.515000 0.043090 7.000000
2.551123 -1.510279 0.042075 6.000000
2.607225 -1.582057 0.043282 5.000000
2.645012 -1.644672 0.044109 3.000000
2.652250 -1.689497 0.044438 2.000000
2.646288 -1.726389 0.044553 2.000000
2.710532 -1.810669 0.045864 2.000000
2.599846 -1.778027 0.044316 2.000000
2.641768 -1.849198 0.045273 2.000000
2.536143 -1.816794 0.043704 2.000000
2.564535 -1.879779 0.044447 2.000000
2.427963 -1.820555 0.042328 2.000000
2.503164 -1.919978 0.043905 2.000000
2.458477 -1.928616 0.043392 1.000000
2.449004 -1.964704 0.043505 1.000000
2.342406 -1.921490 0.041888 1.000000
2.298340 -1.927643 0.041382 1.000000
2.208875 -1.893969 0.040052 1.000000
2.240820 -1.964083 0.040924 1.000000
2.316081 -2.075105 0.042614 1.000000
2.197441 -2.012464 0.040742 2.000000
2.157182 -2.019118 0.040310 2.000000
2.163990 -2.070122 0.040764 1.000000
2.084125 -2.037689 0.039498 1.000000
2.097252 -2.095533 0.040085 1.000000
2.070771 -2.114673 0.039927 2.000000
2.033811 -2.122635 0.039567 1.000000
2.044858 -2.181090 0.040149 2.000000
2.017663 -2.199488 0.039900 4.000000
1.983595 -2.210098 0.039608 7.000000
1.797845 -2.047492 0.036258 8.000000
1.671227 -1.945511 0.034051 8.000000
1.569603 -1.867827 0.032242 9.000000
1.473081 -1.792039 0.030586 9.000000
1.387822 -1.726075 0.029066 9.000000
1.307159 -1.662477 0.027690 10.000000
1.237279 -1.609169 0.026515 10.000000
1.168674 -1.554552 0.025286 10.000000
1.119188 -1.522820 0.024513 10.000000
1.079298 -1.502334 0.023882 16.000000
1.060109 -1.509873 0.023761 25.000000
1.029526 -1.500633 0.023383 29.000000
1.010414 -1.507589 0.023208 31.000000
0.991280 -1.514262 0.023089 32.000000
0.969434 -1.516498 0.022852 29.000000
0.950307 -1.522639 0.022733 29.000000
0.944112 -1.549962 0.022876 22.000000
0.896620 -1.508524 0.022012 8.000000
1.129914 1.927728 0.044880 8.000000
1.125040 1.872533 0.044076 19.000000
1.140070 1.851684 0.044073 24.000000
1.157448 1.834977 0.044171 29.000000
1.179961 1.826527 0.044538 27.000000
1.196917 1.809415 0.044634 29.000000
1.219322 1.800508 0.044936 27.000000
1.235922 1.783058 0.045032 30.000000
1.255193 1.769549 0.045230 29.000000
1.268394 1.747749 0.045220 26.000000
1.293205 1.741867 0.045628 29.000000
1.315036 1.731743 0.045932 30.000000
1.324556 1.705495 0.045813 27.000000
1.343013 1.691059 0.046011 33.000000
1.377027 1.695762 0.046743 32.000000
1.385785 1.669154 0.046621 31.000000
1.403798 1.654055 0.046820 32.000000
1.408575 1.623588 0.046585 30.000000
1.432793 1.615649 0.047000 33.000000
1.456975 1.607368 0.047416 46.000000
1.464135 1.580474 0.047220 31.000000
1.488107 1.571686 0.047637 36.000000
1.498201 1.548183 0.047614 35.000000
1.525516 1.542469 0.048078 35.000000
1.552865 1.536328 0.048610 37.000000
1.562286 1.512371 0.048587 32.000000
1.578680 1.495246 0.048720 52.000000
1.598543 1.481386 0.049031 72.000000
1.618279 1.467180 0.049277 57.000000
1.645435 1.459393 0.049817 46.000000
1.661212 1.441400 0.049951 70.000000
1.676856 1.423206 0.050153 36.000000
1.699922 1.411195 0.050515 52.000000
1.699710 1.379978 0.050192 27.000000
1.738169 1.380048 0.051083 48.000000
1.749125 1.357945 0.051103 65.000000
1.771757 1.344859 0.051469 36.000000
1.790370 1.328418 0.051721 63.000000
1.800683 1.305884 0.051809 35.000000
1.822963 1.291973 0.052178 48.000000
1.845164 1.277680 0.052549 38.000000
1.858935 1.257537 0.052686 30.000000
1.885012 1.245455 0.053176 63.000000
1.906861 1.230253 0.053549 76.000000
1.924391 1.212134 0.053806 51.000000
1.941771 1.193716 0.054064 54.000000
1.963217 1.177636 0.054441 53.000000
1.984494 1.161230 0.054819 71.000000
1.996988 1.139612 0.054959 44.000000
2.031111 1.129932 0.055698 32.000000
2.038921 1.105413 0.055649 59.000000
2.064075 1.090184 0.056152 68.000000
2.093541 1.076812 0.056776 81.000000
2.118520 1.060743 0.057283 78.000000
2.134441 1.039860 0.057476 75.000000
2.159154 1.023014 0.057985 69.000000
2.197335 1.012075 0.058860 52.000000
2.212753 0.990189 0.059056 32.000000
2.214241 0.962153 0.058960 43.000000
2.247588 0.947764 0.059645 63.000000
2.294727 0.938401 0.060774 55.000000
2.314086 0.917108 0.061095 50.000000
2.347221 0.900912 0.061862 51.000000
2.366263 0.878911 0.062185 49.000000
2.384995 0.856553 0.062586 35.000000
2.384679 0.827514 0.062416 47.000000
2.412499 0.807972 0.062988 85.000000
2.444904 0.789400 0.063764 95.000000
2.462842 0.765780 0.064091 83.000000
2.494974 0.746171 0.064791 95.000000
2.512532 0.721822 0.065120 95.000000
2.529831 0.697186 0.065529 71.000000
2.542034 0.670984 0.065734 12.000000
2.568562 0.648267 0.066315 8.000000
2.594873 0.624966 0.066897 9.000000
2.625914 0.602361 0.067605 9.000000
2.656665 0.579145 0.068315 9.000000
2.682387 0.554305 0.068901 9.000000
2.712768 0.529998 0.069614 9.000000
2.728253 0.502274 0.069951 9.000000
2.782756 0.481236 0.071297 12.000000
2.871724 0.464545 0.073443 62.000000
2.896290 0.436263 0.074037 71.000000
2.915791 0.406861 0.074506 65.000000
2.954718 0.379684 0.075482 27.000000
2.983449 0.350406 0.076115 10.000000
3.016939 0.321209 0.076968 9.000000
2.930710 0.279868 0.074775 24.000000
3.097852 0.261856 0.078965 33.000000
3.200204 0.235597 0.081602 95.000000
3.242561 0.203323 0.082619 98.000000
3.259520 0.168790 0.083100 98.000000
3.256120 0.133214 0.082972 100.000000
3.232433 0.097046 0.082336 98.000000
3.188345 0.061039 0.081288 20.000000
3.113859 0.025762 0.079377 10.000000
3.103958 -0.008054 0.079122 41.000000
3.018710 -0.040644 0.076956 43.000000
3.013068 -0.073332 0.076921 55.000000
2.952204 -0.103977 0.075390 26.000000
2.900922 -0.133690 0.074114 12.000000
2.874375 -0.163828 0.073477 9.000000
2.862468 -0.194352 0.073221 8.000000
2.795413 -0.220339 0.071563 22.000000
2.807780 -0.251982 0.071946 52.000000
2.784961 -0.280530 0.071436 59.000000
2.766812 -0.309029 0.071053 63.000000
2.703794 -0.331810 0.069522 53.000000
2.705006 -0.361828 0.069566 82.000000
2.676190 -0.387572 0.068929 71.000000
2.666876 -0.415860 0.068802 54.000000
2.573440 -0.429955 0.066508 9.000000
2.534216 -0.451694 0.065538 9.000000
2.519286 -0.477337 0.065284 9.000000
2.509063 -0.503594 0.065078 24.000000
2.488847 -0.527749 0.064697 59.000000
2.473187 -0.552520 0.064365 56.000000
2.452478 -0.575936 0.063984 40.000000
2.484844 -0.612031 0.064922 29.000000
2.545886 -0.656457 0.066697 26.000000
2.586844 -0.696990 0.067883 52.000000
2.670582 -0.750744 0.070290 44.000000
2.719846 -0.796565 0.071723 49.000000
2.777959 -0.846376 0.073405 36.000000
2.840131 -0.899147 0.075209 42.000000
2.839715 -0.933006 0.075462 42.000000
2.838867 -0.966980 0.075623 34.000000
2.818820 -0.994142 0.075279 23.000000
2.831347 -1.033278 0.075817 37.000000
2.829383 -1.067446 0.075976 31.000000
2.794373 -1.089020 0.075256 21.000000
2.782379 -1.119232 0.075165 12.000000
2.802336 -1.162762 0.075949 12.000000
2.807937 -1.201004 0.076356 11.000000
2.808514 -1.237444 0.076638 10.000000
2.799481 -1.269864 0.076669 8.000000
2.799087 -1.306517 0.076948 10.000000
2.825308 -1.356351 0.077973 10.000000
2.810383 -1.386966 0.077782 10.000000
2.795171 -1.417390 0.077686 10.000000
2.797309 -1.456954 0.078085 9.000000
2.803365 -1.498971 0.078607 7.000000
2.835166 -1.555896 0.079769 7.000000
2.848576 -1.603765 0.080533 6.000000
2.666426 -1.539624 0.075759 5.000000
2.563575 -1.517647 0.073118 7.000000
2.546841 -1.545475 0.073027 6.000000
2.593599 -1.612620 0.074678 3.000000
2.736087 -1.742821 0.079224 3.000000
2.679297 -1.747949 0.077930 2.000000
2.618495 -1.749284 0.076616 2.000000
2.537476 -1.735318 0.074604 1.000000
2.514331 -1.760041 0.074389 2.000000
2.478683 -1.775661 0.073718 2.000000
2.463261 -1.805515 0.073653 2.000000
2.463398 -1.847267 0.074161 1.000000
2.411460 -1.849624 0.073013 1.000000
2.434403 -1.909723 0.074145 1.000000
2.460222 -1.973704 0.075390 1.000000
2.349673 -1.927461 0.072549 1.000000
2.194477 -1.840549 0.068198 1.000000
2.216110 -1.900121 0.069329 1.000000
2.259161 -1.980193 0.071163 1.000000
2.192752 -1.964651 0.069563 1.000000
2.215509 -2.028980 0.070797 1.000000
2.174978 -2.035836 0.070026 2.000000
2.163533 -2.069756 0.070195 1.000000
2.148105 -2.100235 0.070246 1.000000
1.980115 -1.978577 0.065283 1.000000
2.024945 -2.067882 0.067233 1.000000
1.985036 -2.071746 0.066477 1.000000
1.972608 -2.104145 0.066649 2.000000
2.037572 -2.221225 0.069468 3.000000
1.999927 -2.228335 0.068824 7.000000
1.837090 -2.092235 0.063744 7.000000
1.723028 -2.005867 0.060378 8.000000
1.588675 -1.890491 0.056232 9.000000
1.485494 -1.807202 0.053058 9.000000
1.425138 -1.772553 0.051446 9.000000
1.331683 -1.693590 0.048535 9.000000
1.243125 -1.616847 0.045820 9.000000
1.186519 -1.578288 0.044180 10.000000
1.130857 -1.538643 0.042609 9.000000
1.093712 -1.522408 0.041656 10.000000
1.059940 -1.509648 0.040877 26.000000
1.026532 -1.496289 0.040047 29.000000
1.010247 -1.507312 0.039880 29.000000
0.991114 -1.514041 0.039660 34.000000
0.963884 -1.507800 0.039058 32.000000
0.952789 -1.526660 0.039111 26.000000
0.941346 -1.545471 0.039163 25.000000
0.947540 -1.594254 0.040023 8.000000
1.137222 1.940254 0.065437 6.000000
1.127347 1.876417 0.063960 10.000000
1.147665 1.864053 0.064294 13.000000
1.151785 1.826125 0.063677 24.000000
1.176918 1.821931 0.064303 13.000000
1.202167 1.817354 0.064865 23.000000
1.213386 1.791834 0.064683 22.000000
1.235591 1.782661 0.065097 18.000000
1.257687 1.773228 0.065579 24.000000
1.279805 1.763533 0.065996 9.000000
1.280958 1.725420 0.065350 22.000000
1.302615 1.715424 0.065765 25.000000
1.321161 1.701153 0.066028 17.000000
1.345725 1.694578 0.066599 26.000000
1.360876 1.675964 0.066709 21.000000
1.385388 1.668823 0.067283 21.000000
1.400167 1.649848 0.067392 24.000000
1.444205 1.664718 0.068906 10.000000
1.422450 1.604037 0.067293 28.000000
1.443153 1.592160 0.067712 29.000000
1.460344 1.576413 0.067975 25.000000
1.477403 1.560403 0.068172 31.000000
1.501282 1.551445 0.068752 28.000000
1.518025 1.534966 0.069016 29.000000
1.534636 1.518354 0.069214 28.000000
1.547525 1.498070 0.069317 11.000000
1.567331 1.484538 0.069675 32.000000
1.590746 1.474193 0.070263 29.000000
1.606706 1.456777 0.070461 29.000000
1.633749 1.449109 0.071215 36.000000
1.656968 1.437789 0.071742 30.000000
1.668699 1.416402 0.071779 31.000000
1.691760 1.404474 0.072308 35.000000
1.695295 1.376494 0.072082 16.000000
1.729800 1.373427 0.073109 32.000000
1.752125 1.361146 0.073643 34.000000
1.766895 1.341973 0.073846 30.000000
1.777381 1.319618 0.073883 31.000000
1.795756 1.303085 0.074253 29.000000
1.809847 1.283370 0.074456 31.000000
1.840166 1.274971 0.075332 33.000000
1.849768 1.252004 0.075368 16.000000
1.875847 1.240082 0.076080 32.000000
