x y z intensity
1.382475 0.658746 1.037858 36.000000
1.404497 0.648234 1.050677 33.000000
1.415577 0.631886 1.054630 41.000000
1.433765 0.618945 1.064509 36.000000
1.448019 0.603955 1.071533 36.000000
1.481012 0.596657 1.092984 26.000000
1.510570 0.586837 1.111189 36.000000
1.536347 0.574931 1.126480 72.000000
1.542359 0.555619 1.127938 54.000000
1.567639 0.542982 1.143522 75.000000
1.585504 0.527014 1.152902 50.000000
1.598979 0.509564 1.159764 53.000000
1.616256 0.492992 1.169421 37.000000
1.621210 0.472861 1.170863 27.000000
1.669944 0.464460 1.203102 38.000000
1.686615 0.446751 1.212952 68.000000
1.707529 0.429484 1.225022 52.000000
1.728009 0.411884 1.237502 50.000000
1.756375 0.395620 1.255587 41.000000
1.768616 0.375283 1.262182 60.000000
1.812850 0.361084 1.291491 35.000000
1.828580 0.340625 1.301121 24.000000
1.872751 0.324692 1.330276 43.000000
1.896296 0.304504 1.345469 57.000000
1.903494 0.281343 1.349055 46.000000
1.930772 0.260821 1.366786 40.000000
1.957978 0.239617 1.384455 48.000000
1.992793 0.218771 1.408257 49.000000
2.015620 0.195776 1.422853 35.000000
2.054191 0.173650 1.449261 26.000000
2.084514 0.150019 1.469780 42.000000
2.134982 0.126888 1.504535 62.000000
2.156360 0.101191 1.519563 37.000000
2.186172 0.075185 1.539627 50.000000
2.203011 0.048278 1.551467 34.000000
2.256482 0.021226 1.589139 36.000000
2.285182 -0.007080 1.609291 28.000000
2.329976 -0.036356 1.640785 33.000000
2.362236 -0.066323 1.663461 33.000000
2.393858 -0.097196 1.686574 31.000000
2.441967 -0.129663 1.720473 31.000000
2.485214 -0.163085 1.751841 31.000000
2.528116 -0.197629 1.783011 25.000000
2.550289 -0.231445 1.799693 17.000000
2.596158 -0.268397 1.833997 29.000000
2.678696 -0.310616 1.893257 33.000000
2.727744 -0.350991 1.930093 34.000000
2.788596 -0.394202 1.975207 35.000000
2.812514 -0.433421 1.994350 32.000000
2.839954 -0.473916 2.016126 36.000000
2.822174 -0.507355 2.006775 35.000000
2.792689 -0.537846 1.987985 29.000000
2.766366 -0.568665 1.972612 32.000000
2.755947 -0.602483 1.968489 35.000000
2.741132 -0.635065 1.961406 35.000000
2.730237 -0.668318 1.956979 35.000000
2.706397 -0.698603 1.944408 35.000000
2.694952 -0.731299 1.939581 34.000000
2.674695 -0.761749 1.929681 30.000000
2.662802 -0.793838 1.924459 23.000000
2.642154 -0.823587 1.914070 31.000000
2.625189 -0.854108 1.906539 33.000000
2.603463 -0.883314 1.896587 34.000000
2.578350 -0.910447 1.883002 29.000000
2.576258 -0.945404 1.886234 32.000000
2.565486 -0.977923 1.884304 32.000000
2.539067 -1.004273 1.870966 28.000000
2.517003 -1.031095 1.859571 20.000000
2.505539 -1.062770 1.857259 31.000000
2.493875 -1.094244 1.854745 34.000000
2.473574 -1.122602 1.847211 33.000000
2.450105 -1.148312 1.835982 30.000000
2.441458 -1.180851 1.835791 31.000000
2.424359 -1.209984 1.830593 32.000000
2.400324 -1.234631 1.819017 26.000000
2.368187 -1.255312 1.802385 13.000000
2.383344 -1.301294 1.821911 35.000000
2.358007 -1.325324 1.810574 34.000000
2.346905 -1.357206 1.810271 45.000000
2.335659 -1.388980 1.809759 35.000000
2.320513 -1.418573 1.806372 32.000000
2.301539 -1.445551 1.800123 34.000000
2.275501 -1.467717 1.788176 30.000000
2.241363 -1.485398 1.771452 18.000000
2.246277 -1.527702 1.784088 33.000000
2.225590 -1.554071 1.777976 30.000000
2.215959 -1.586872 1.779283 33.000000
2.191524 -1.610220 1.770351 31.000000
2.170250 -1.635820 1.763965 28.000000
2.155477 -1.666073 1.762825 33.000000
2.133863 -1.691092 1.756252 27.000000
2.113195 -1.714941 1.748803 17.000000
2.106293 -1.753357 1.756138 33.000000
2.067984 -1.763869 1.735721 26.000000
2.071127 -1.809575 1.750181 32.000000
2.035894 -1.821958 1.732316 25.000000
2.038162 -1.867816 1.746368 10.000000
2.023074 -1.900254 1.747705 25.000000
2.002854 -1.925979 1.742800 25.000000
1.973368 -1.942480 1.729948 16.000000
1.969478 -1.986372 1.741419 31.000000
1.947155 -2.012114 1.736994 27.000000
1.934806 -2.046022 1.739548 31.000000
1.909089 -2.068247 1.732180 29.000000
1.899029 -2.105015 1.737182 29.000000
1.872870 -2.126672 1.729707 29.000000
1.852149 -2.154431 1.727238 26.000000
1.844902 -2.198340 1.737601 14.000000
1.801744 -2.199318 1.714307 28.000000
1.791016 -2.239664 1.721907 27.000000
1.769157 -2.266628 1.719063 29.000000
1.731399 -2.272746 1.700754 28.000000
1.686109 -2.267861 1.674780 27.000000
1.631200 -2.248189 1.638680 28.000000
1.584468 -2.237975 1.610380 21.000000
1.545680 -2.237530 1.589708 10.000000
1.509476 -2.239895 1.571560 18.000000
1.475936 -2.245364 1.555911 16.000000
1.435502 -2.239354 1.532845 20.000000
1.407255 -2.255536 1.525298 16.000000
0.712399 1.168918 0.798885 29.000000
0.724927 1.159196 0.801835 23.000000
0.739684 1.152905 0.807276 26.000000
0.744914 1.132079 0.802544 30.000000
0.769092 1.139746 0.818164 21.000000
0.776464 1.122239 0.815865 20.000000
0.786018 1.108262 0.816105 29.000000
0.800483 1.101131 0.821396 33.000000
0.799646 1.073167 0.811156 47.000000
0.821667 1.075950 0.824183 31.000000
0.841260 1.074951 0.834619 34.000000
0.842316 1.050328 0.826742 36.000000
0.867301 1.055485 0.842419 26.000000
0.881599 1.047080 0.847549 23.000000
0.872960 1.013118 0.831864 32.000000
0.895338 1.014155 0.844861 37.000000
0.906533 1.002132 0.847198 65.000000
0.911152 0.984192 0.844498 36.000000
0.933719 0.984267 0.857456 71.000000
0.941064 0.969141 0.857324 36.000000
0.972727 0.977467 0.878323 33.000000
0.976994 0.958942 0.875431 27.000000
0.978637 0.937169 0.869414 29.000000
0.994702 0.930234 0.877236 40.000000
1.010791 0.922993 0.884989 41.000000
1.026902 0.915443 0.892721 34.000000
1.036711 0.902080 0.894973 46.000000
1.049611 0.891326 0.899911 37.000000
1.081787 0.896345 0.921211 35.000000
1.068738 0.863866 0.904077 30.000000
1.107618 0.873211 0.930923 34.000000
1.107244 0.851199 0.924654 37.000000
1.109932 0.831789 0.921014 66.000000
1.135366 0.829889 0.937112 37.000000
1.131001 0.805492 0.927806 45.000000
1.166701 0.809964 0.952169 37.000000
1.186043 0.801750 0.962258 35.000000
1.204959 0.793429 0.972643 30.000000
1.227295 0.786973 0.985864 34.000000
1.246259 0.777808 0.996162 54.000000
1.251067 0.759683 0.995247 50.000000
1.269949 0.749942 1.005479 37.000000
1.278066 0.733654 1.007167 40.000000
1.286074 0.717203 1.008802 53.000000
1.308416 0.708548 1.021702 34.000000
1.338114 0.703189 1.040195 31.000000
1.352782 0.690017 1.047722 31.000000
1.359989 0.672844 1.049524 33.000000
1.378709 0.660661 1.059362 36.000000
1.389416 0.644850 1.063804 36.000000
1.411276 0.633932 1.076765 34.000000
1.421884 0.617618 1.081063 42.000000
1.455029 0.610609 1.102492 31.000000
1.476854 0.598197 1.115253 33.000000
1.505901 0.588558 1.134142 42.000000
1.516300 0.570773 1.138162 37.000000
1.533754 0.555797 1.148245 75.000000
1.543457 0.537720 1.152527 35.000000
1.568559 0.524666 1.168231 41.000000
1.593617 0.511061 1.183842 49.000000
1.603023 0.492051 1.187859 32.000000
1.635810 0.479766 1.209110 29.000000
1.656808 0.463365 1.221582 35.000000
1.669448 0.444600 1.228601 34.000000
1.693783 0.428568 1.244268 38.000000
1.714134 0.411025 1.256860 42.000000
1.742308 0.394749 1.275214 42.000000
1.774445 0.378722 1.296364 36.000000
1.794548 0.359459 1.308746 29.000000
1.810106 0.339183 1.318508 30.000000
1.829924 0.319097 1.330569 36.000000
1.877327 0.303140 1.363453 44.000000
1.896542 0.281964 1.375826 50.000000
1.927738 0.261880 1.396815 71.000000
1.950741 0.240095 1.411839 42.000000
1.985237 0.219139 1.436001 34.000000
2.003950 0.195718 1.447752 32.000000
2.034150 0.172922 1.468721 32.000000
2.064249 0.149414 1.489627 37.000000
2.114332 0.126326 1.524916 37.000000
2.143654 0.101141 1.546011 36.000000
2.161083 0.074742 1.557620 35.000000
2.181849 0.048024 1.572560 35.000000
2.255187 0.021295 1.625428 51.000000
2.255272 -0.007042 1.625428 33.000000
2.299717 -0.036078 1.657413 28.000000
2.331726 -0.065891 1.680447 29.000000
2.367153 -0.096686 1.706838 29.000000
2.422988 -0.129389 1.747117 29.000000
2.457787 -0.162272 1.773133 27.000000
2.512484 -0.197569 1.813556 24.000000
2.538601 -0.231705 1.833328 22.000000
2.579947 -0.268233 1.865342 28.000000
2.637615 -0.307660 1.908032 27.000000
2.694334 -0.348710 1.951284 29.000000
2.758613 -0.392218 2.000135 33.000000
2.798380 -0.433817 2.031144 30.000000
2.833674 -0.475641 2.059098 34.000000
2.827849 -0.511349 2.058451 32.000000
2.774549 -0.537560 2.021922 24.000000
2.760326 -0.570909 2.015046 32.000000
2.737875 -0.602097 2.002154 34.000000
2.719255 -0.633809 1.992075 32.000000
2.704334 -0.666090 1.984702 32.000000
2.681256 -0.695917 1.971332 32.000000
2.673785 -0.729535 1.969257 31.000000
2.673220 -0.765606 1.973696 30.000000
2.621503 -0.786533 1.940326 22.000000
2.612698 -0.819604 1.938483 29.000000
2.611346 -0.855113 1.942310 31.000000
2.586434 -0.882697 1.928724 29.000000
2.569033 -0.912525 1.920719 32.000000
2.551588 -0.941955 1.912524 30.000000
2.548372 -0.977356 1.916343 31.000000
2.541796 -1.010725 1.916464 32.000000
2.492601 -1.027422 1.885565 24.000000
2.484825 -1.060558 1.886118 33.000000
2.484419 -1.097003 1.892179 33.000000
2.457359 -1.121600 1.878135 32.000000
2.445110 -1.152624 1.875224 32.000000
2.424465 -1.180251 1.867322 31.000000
2.397047 -1.203398 1.852852 29.000000
2.402497 -1.243103 1.863752 30.000000
2.370285 -1.264086 1.846982 27.000000
2.352544 -1.292345 1.841268 32.000000
2.352407 -1.330469 1.849683 35.000000
2.334146 -1.358375 1.843666 31.000000
2.315631 -1.385891 1.837658 35.000000
2.304009 -1.417552 1.837080 35.000000
2.281542 -1.442367 1.827980 33.000000
2.269398 -1.473574 1.827097 31.000000
2.243202 -1.495468 1.814934 27.000000
2.229667 -1.526775 1.814547 31.000000
2.223576 -1.562151 1.818818 34.000000
2.202639 -1.588459 1.812549 32.000000
2.169163 -1.603784 1.794419 33.000000
2.157906 -1.636803 1.796288 33.000000
2.143047 -1.667234 1.795177 32.000000
2.124571 -1.694849 1.791203 30.000000
2.093055 -1.711584 1.776150 25.000000
2.077405 -1.741223 1.774742 31.000000
2.067950 -1.776105 1.778687 33.000000
2.051826 -1.805396 1.777042 33.000000
2.035444 -1.834570 1.775184 31.000000
2.012628 -1.857826 1.767790 14.000000
2.011069 -1.901027 1.779339 24.000000
1.971241 -1.909957 1.758936 32.000000
1.965907 -1.950068 1.767412 26.000000
1.955687 -1.987962 1.773734 31.000000
1.931781 -2.009930 1.765814 35.000000
1.917901 -2.044762 1.769187 32.000000
1.896453 -2.069245 1.763724 34.000000
1.876213 -2.097493 1.761521 30.000000
1.858389 -2.128607 1.761847 30.000000
1.830924 -2.145923 1.750781 29.000000
1.788063 -2.147260 1.727211 20.000000
1.756348 -2.160906 1.714235 33.000000
1.719252 -2.167459 1.695881 48.000000
1.658910 -2.142989 1.654066 32.000000
1.630311 -2.158165 1.643640 33.000000
1.591514 -2.159139 1.622703 32.000000
1.560476 -2.169851 1.609607 30.000000
1.522274 -2.169544 1.588755 29.000000
1.479298 -2.161472 1.562790 14.000000
1.448775 -2.170384 1.549732 22.000000
1.415949 -2.175312 1.533999 26.000000
1.380941 -2.176072 1.515804 21.000000
1.355220 -2.190925 1.507804 26.000000
0.720301 1.163735 0.819015 22.000000
0.732810 1.153805 0.821984 29.000000
0.738214 1.132925 0.817147 24.000000
0.764711 1.144118 0.835610 26.000000
0.760151 1.108960 0.820280 18.000000
0.777070 1.105553 0.828294 26.000000
0.796484 1.105322 0.838916 34.000000
0.800868 1.084173 0.833808 28.000000
0.820410 1.083447 0.844385 36.000000
0.834827 1.075616 0.849717 36.000000
0.846583 1.064302 0.852313 30.000000
0.860963 1.056071 0.857573 42.000000
0.860943 1.031840 0.849782 15.000000
0.872346 1.020146 0.852208 33.000000
0.886382 1.011526 0.857322 59.000000
0.894035 0.996807 0.857352 34.000000
0.927918 1.009448 0.881308 41.000000
0.915385 0.972837 0.862301 50.000000
0.946693 0.981655 0.883564 35.000000
0.962898 0.975222 0.891546 57.000000
0.967224 0.956711 0.888622 22.000000
0.978035 0.943668 0.890755 36.000000
0.988052 0.930874 0.893135 52.000000
1.004112 0.923579 0.901026 34.000000
1.017092 0.913241 0.906084 39.000000
1.030033 0.902621 0.911106 35.000000
1.046143 0.894522 0.918866 35.000000
1.068549 0.891479 0.932169 36.000000
1.081479 0.880041 0.937104 20.000000
1.081376 0.858160 0.930770 50.000000
1.100039 0.851894 0.941514 37.000000
1.122629 0.847406 0.954694 35.000000
1.115372 0.820427 0.942545 59.000000
1.144038 0.820552 0.961664 38.000000
1.163341 0.812601 0.971909 44.000000
1.178763 0.802279 0.979672 36.000000
1.194126 0.791624 0.987352 24.000000
1.216392 0.785146 1.000742 46.000000
1.242168 0.780393 1.016864 43.000000
1.250611 0.764323 1.018770 36.000000
1.262418 0.750240 1.023427 43.000000
1.270557 0.733907 1.025175 36.000000
1.278587 0.717464 1.026814 52.000000
1.286508 0.700912 1.028398 46.000000
1.315457 0.695997 1.047522 18.000000
1.341409 0.688271 1.063375 32.000000
1.355982 0.674792 1.070893 36.000000
1.370463 0.661014 1.078431 34.000000
1.381214 0.645209 1.082920 37.000000
1.395542 0.630874 1.090260 36.000000
1.409829 0.616234 1.097501 33.000000
1.424072 0.601288 1.104700 35.000000
1.456978 0.593763 1.126348 18.000000
1.489584 0.585685 1.148405 33.000000
1.507529 0.570881 1.158240 45.000000
1.517278 0.553129 1.162675 35.000000
1.538477 0.539182 1.175710 41.000000
1.555767 0.523430 1.185782 42.000000
1.569101 0.506079 1.192880 32.000000
1.586172 0.489665 1.202736 34.000000
1.638135 0.483134 1.238904 27.000000
1.646987 0.463495 1.243260 31.000000
1.671679 0.447684 1.258739 36.000000
1.688132 0.429514 1.268680 35.000000
1.700524 0.409968 1.275624 33.000000
1.724572 0.392847 1.291290 34.000000
1.768252 0.379463 1.321592 34.000000
1.783947 0.359501 1.331612 33.000000
1.799831 0.339031 1.341024 32.000000
1.846916 0.323973 1.374509 36.000000
1.854230 0.301205 1.378247 35.000000
1.885331 0.281912 1.399672 40.000000
1.908251 0.260750 1.415051 36.000000
1.931086 0.239009 1.430221 34.000000
1.949382 0.216392 1.442883 33.000000
1.991989 0.195657 1.472663 32.000000
2.013944 0.172195 1.488015 29.000000
2.071842 0.150778 1.529907 33.000000
2.097526 0.126008 1.547935 33.000000
2.122602 0.100708 1.566453 37.000000
2.151886 0.074777 1.587138 34.000000
2.204760 0.048749 1.626039 37.000000
2.233177 0.021172 1.646979 35.000000
2.249357 -0.007080 1.658849 27.000000
2.277438 -0.035928 1.679535 29.000000
2.317236 -0.065918 1.708857 28.000000
2.332178 -0.095847 1.720813 23.000000
2.395604 -0.128683 1.767556 30.000000
2.422084 -0.160834 1.788132 24.000000
2.484463 -0.196554 1.835106 21.000000
2.510266 -0.230490 1.855190 15.000000
2.595421 -0.271516 1.920289 26.000000
2.628561 -0.308470 1.945857 29.000000
2.688776 -0.349973 1.992731 28.000000
2.740515 -0.392056 2.033451 30.000000
2.783798 -0.434102 2.068010 31.000000
2.814780 -0.475342 2.093340 33.000000
2.793721 -0.507998 2.080117 32.000000
2.759986 -0.537937 2.058583 21.000000
2.730639 -0.567785 2.039175 28.000000
2.735929 -0.604984 2.046758 31.000000
2.705451 -0.634082 2.027593 30.000000
2.694496 -0.667334 2.023073 33.000000
2.683351 -0.700382 2.018349 32.000000
2.667283 -0.732469 2.011317 32.000000
2.647791 -0.762717 2.000313 25.000000
2.600309 -0.784690 1.969301 21.000000
2.595263 -0.818877 1.970596 28.000000
2.593834 -0.854430 1.974506 32.000000
2.572870 -0.883288 1.963568 32.000000
2.555605 -0.913219 1.955469 30.000000
2.541898 -0.944064 1.950100 32.000000
2.527203 -0.975117 1.945349 29.000000
2.509275 -1.004055 1.936674 24.000000
2.467860 -1.023555 1.911271 21.000000
2.467548 -1.059851 1.917682 32.000000
2.459486 -1.093026 1.918066 34.000000
2.454889 -1.127695 1.921138 35.000000
2.420442 -1.148467 1.900945 32.000000
2.415241 -1.182733 1.903715 32.000000
2.398824 -1.211561 1.897714 31.000000
2.370570 -1.234932 1.883683 24.000000
2.361002 -1.266804 1.883165 25.000000
2.353876 -1.301148 1.886108 32.000000
2.339339 -1.331323 1.883101 33.000000
2.320964 -1.359326 1.877131 33.000000
2.288374 -1.378468 1.859546 32.000000
2.276667 -1.409934 1.859020 34.000000
2.257779 -1.436877 1.852692 32.000000
2.252516 -1.472538 1.857537 27.000000
2.226389 -1.494391 1.845142 26.000000
2.217087 -1.527480 1.846925 30.000000
2.196381 -1.553992 1.840714 32.000000
2.183210 -1.584374 1.839352 34.000000
2.155426 -1.605362 1.827332 30.000000
2.144051 -1.638357 1.829174 35.000000
2.133463 -1.670726 1.830194 33.000000
2.118136 -1.700965 1.828995 27.000000
2.080115 -1.712716 1.808180 26.000000
2.064476 -1.742332 1.806801 32.000000
2.054873 -1.777277 1.810756 32.000000
2.038561 -1.806643 1.809138 34.000000
2.034437 -1.847102 1.818344 31.000000
2.005256 -1.864919 1.805361 16.000000
1.991289 -1.896609 1.806046 27.000000
1.981576 -1.934806 1.812783 26.000000
1.949120 -1.948518 1.796709 23.000000
1.925406 -1.970719 1.788865 29.000000
1.900254 -1.993345 1.781638 31.000000
1.890692 -2.030173 1.787064 33.000000
1.848021 -2.033551 1.763427 30.000000
1.821203 -2.051063 1.752463 34.000000
1.776158 -2.049798 1.726120 31.000000
1.736937 -2.054193 1.705153 25.000000
1.688813 -2.043950 1.672836 22.000000
1.658166 -2.056641 1.659785 28.000000
1.619685 -2.058837 1.638828 32.000000
1.581454 -2.060327 1.617874 33.000000
1.548667 -2.067920 1.602197 28.000000
1.528540 -2.092043 1.599629 32.000000
1.490846 -2.091767 1.578624 30.000000
1.470462 -2.115235 1.575897 21.000000
1.421151 -2.096167 1.541948 17.000000
1.391275 -2.104648 1.528836 21.000000
1.361450 -2.112666 1.515688 25.000000
1.331769 -2.120136 1.502595 24.000000
0.721294 1.147374 0.831392 21.000000
0.742945 1.151635 0.844847 22.000000
0.750732 1.134180 0.842529 24.000000
0.796420 1.172945 0.882448 15.000000
0.775244 1.113232 0.848291 25.000000
0.779972 1.092203 0.843144 25.000000
0.801863 1.095062 0.856575 28.000000
0.811279 1.080664 0.856641 30.000000
0.820524 1.066189 0.856689 25.000000
0.837472 1.061510 0.864706 31.000000
0.848346 1.050440 0.867644 23.000000
0.881386 1.064722 0.891878 24.000000
0.879609 1.036675 0.880845 32.000000
0.887590 1.021844 0.880936 30.000000
0.907324 1.019098 0.891555 33.000000
0.912288 1.000931 0.888854 34.000000
0.920710 0.985471 0.888427 30.000000
0.942540 0.985351 0.902074 35.000000
0.955833 0.975902 0.907435 32.000000
0.984580 0.980452 0.926277 33.000000
0.965187 0.938491 0.901016 27.000000
0.972213 0.922878 0.900650 29.000000
0.988152 0.915699 0.908607 33.000000
1.007183 0.910939 0.919297 35.000000
1.032546 0.911309 0.935648 31.000000
1.045534 0.900387 0.940700 33.000000
1.067957 0.897142 0.954184 30.000000
1.080945 0.885623 0.959179 28.000000
1.080403 0.863994 0.953152 21.000000
1.096427 0.854748 0.960837 32.000000
1.109137 0.842689 0.965645 32.000000
1.131121 0.838135 0.979394 34.000000
1.137165 0.820714 0.978365 34.000000
1.159176 0.815425 0.992026 35.000000
1.171210 0.802692 0.997011 28.000000
1.189934 0.794304 1.007713 28.000000
1.208751 0.785492 1.018344 24.000000
1.220602 0.771998 1.023173 33.000000
1.242861 0.764607 1.036592 32.000000
1.251165 0.748437 1.038449 32.000000
1.259359 0.732104 1.040143 30.000000
1.270929 0.717715 1.044746 33.000000
1.281940 0.703345 1.049634 31.000000
1.296960 0.690460 1.056956 28.000000
1.318607 0.681224 1.070478 19.000000
1.351169 0.676950 1.092773 29.000000
1.362495 0.661074 1.096959 29.000000
1.369572 0.643497 1.098614 27.000000
1.391199 0.632557 1.111921 28.000000
1.398120 0.614619 1.113363 31.000000
1.437786 0.611006 1.141702 26.000000
1.448251 0.593936 1.145955 21.000000
1.465653 0.579913 1.156486 25.000000
1.483452 0.565245 1.166441 27.000000
1.508305 0.553179 1.182766 30.000000
1.533124 0.540569 1.198943 28.000000
1.546537 0.523483 1.206180 26.000000
1.555997 0.504837 1.210331 27.000000
1.599891 0.496816 1.241150 23.000000
1.612679 0.478740 1.248573 18.000000
1.629570 0.461241 1.258415 18.000000
1.657573 0.446769 1.277547 21.000000
1.681694 0.430582 1.293661 22.000000
1.717407 0.416667 1.318640 23.000000
1.729658 0.396453 1.325498 18.000000
1.753555 0.378574 1.341279 21.000000
1.757725 0.356152 1.341963 13.000000
1.777074 0.336779 1.354979 9.000000
1.808027 0.319022 1.376944 16.000000
1.831475 0.299133 1.392227 14.000000
1.846095 0.277695 1.402439 14.000000
1.900561 0.261182 1.441992 18.000000
1.911349 0.237926 1.448442 13.000000
1.933480 0.215871 1.464285 11.000000
1.959783 0.193556 1.482475 10.000000
1.953706 0.167972 1.476986 8.000000
2.011185 0.147179 1.519485 10.000000
2.048596 0.123763 1.546800 10.000000
2.089411 0.099705 1.577533 10.000000
2.118458 0.074056 1.598526 11.000000
2.138978 0.047600 1.613905 10.000000
2.163170 0.020593 1.632219 10.000000
2.219130 -0.007042 1.674380 16.000000
2.246897 -0.035737 1.695288 16.000000
2.286457 -0.065400 1.725050 15.000000
2.345145 -0.096989 1.770388 18.000000
2.368169 -0.128070 1.787728 17.000000
2.422314 -0.161890 1.829585 14.000000
2.460175 -0.195765 1.859205 15.000000
2.489825 -0.230012 1.882699 9.000000
2.574163 -0.270923 1.948667 19.000000
2.614944 -0.308705 1.980741 16.000000
2.662734 -0.348735 2.019302 18.000000
2.721933 -0.391787 2.066645 23.000000
2.773358 -0.434894 2.106878 21.000000
2.787610 -0.473592 2.121453 26.000000
2.790303 -0.510524 2.126048 27.000000
2.757398 -0.540511 2.103451 16.000000
2.739215 -0.573185 2.093502 22.000000
2.736511 -0.609039 2.095215 26.000000
2.698479 -0.636501 2.069897 29.000000
2.687410 -0.669849 2.065324 26.000000
2.660741 -0.699022 2.048600 24.000000
2.649232 -0.731763 2.043628 25.000000
2.625242 -0.761158 2.030344 24.000000
2.567278 -0.779245 1.989241 10.000000
2.585220 -0.820576 2.008335 23.000000
2.568318 -0.851108 2.000433 25.000000
2.551368 -0.881240 1.992441 24.000000
2.545430 -0.915161 1.993154 24.000000
2.535483 -0.947563 1.990693 28.000000
2.520755 -0.978712 1.985888 28.000000
2.499088 -1.006240 1.974155 21.000000
2.461503 -1.027568 1.951350 11.000000
2.469350 -1.066742 1.962960 26.000000
2.449979 -1.095150 1.954532 26.000000
2.448937 -1.131547 1.960717 29.000000
2.414502 -1.152534 1.940255 28.000000
2.397455 -1.182010 1.935104 28.000000
2.388278 -1.214563 1.934910 28.000000
2.364487 -1.239372 1.922815 24.000000
2.328898 -1.258415 1.902595 13.000000
2.340427 -1.301891 1.919402 30.000000
2.315259 -1.326094 1.907661 29.000000
2.300344 -1.356023 1.904558 31.000000
2.278362 -1.381527 1.895458 29.000000
2.259633 -1.408808 1.889172 26.000000
2.254499 -1.444609 1.894348 29.000000
2.235371 -1.471391 1.887762 26.000000
2.195662 -1.484143 1.863732 13.000000
2.203189 -1.528760 1.879967 31.000000
2.166865 -1.542781 1.858586 25.000000
2.165896 -1.583308 1.869512 29.000000
2.145845 -1.608586 1.862270 30.000000
2.127710 -1.636685 1.858483 25.000000
2.122298 -1.674780 1.865958 28.000000
2.095243 -1.694077 1.852747 24.000000
2.063782 -1.710991 1.837250 10.000000
2.054276 -1.745990 1.841544 29.000000
2.038261 -1.775608 1.839974 29.000000
2.028062 -1.810519 1.843903 28.000000
2.017584 -1.845374 1.847690 25.000000
1.985437 -1.860415 1.831687 10.000000
1.968313 -1.889216 1.829667 18.000000
1.956958 -1.923523 1.832986 23.000000
1.899723 -1.914456 1.795408 13.000000
1.876454 -1.936182 1.787503 29.000000
1.832971 -1.936423 1.760331 29.000000
1.799599 -1.948718 1.744758 30.000000
1.753939 -1.944214 1.714775 27.000000
1.707068 -1.939517 1.685509 23.000000
1.673157 -1.945931 1.666620 22.000000
1.651399 -1.968437 1.661858 18.000000
1.608062 -1.964640 1.635342 13.000000
1.590414 -1.988941 1.632603 26.000000
1.557982 -1.997067 1.616856 24.000000
1.528214 -2.008085 1.603767 24.000000
1.501095 -2.021922 1.593402 27.000000
1.471370 -2.032013 1.580223 23.000000
1.427118 -2.020777 1.551161 25.000000
1.393077 -2.022648 1.532668 13.000000
1.363799 -2.031064 1.519629 10.000000
1.325259 -2.024788 1.495952 21.000000
1.298625 -2.035666 1.485503 19.000000
0.717613 1.123764 0.838305 27.000000
0.741406 1.131299 0.854541 12.000000
0.749049 1.113893 0.852111 29.000000
0.763622 1.106882 0.857663 23.000000
0.778125 1.099658 0.863232 27.000000
0.772852 1.065000 0.847119 29.000000
0.804606 1.081200 0.871514 24.000000
0.816460 1.070033 0.874257 28.000000
0.819698 1.049212 0.869046 28.000000
0.849644 1.060703 0.890854 20.000000
0.849962 1.036432 0.882779 31.000000
0.853470 1.015100 0.877052 29.000000
0.875654 1.015929 0.890590 30.000000
0.886217 1.004236 0.893342 32.000000
0.910656 1.007804 0.910008 30.000000
0.905115 0.977018 0.895612 34.000000
0.935363 0.985962 0.917845 29.000000
0.954423 0.982404 0.928867 29.000000
0.945165 0.948774 0.911448 26.000000
0.958248 0.939056 0.916740 27.000000
0.971245 0.929162 0.921999 30.000000
0.990273 0.924610 0.932893 31.000000
1.000263 0.911407 0.935252 33.000000
1.019313 0.906242 0.946111 36.000000
1.026092 0.889977 0.945483 30.000000
1.044565 0.884588 0.956652 31.000000
1.054249 0.870624 0.958792 32.000000
1.060645 0.853993 0.958005 28.000000
1.082333 0.850265 0.971929 36.000000
1.107993 0.848216 0.988333 35.000000
1.107067 0.826447 0.981939 34.000000
1.142671 0.830807 1.007018 35.000000
1.151513 0.815876 1.009242 33.000000
1.166830 0.805401 1.017189 32.000000
1.175457 0.790117 1.019266 30.000000
1.200886 0.785826 1.035921 34.000000
1.219616 0.776580 1.046661 36.000000
1.238379 0.767010 1.057324 52.000000
1.243320 0.748665 1.056195 32.000000
1.261940 0.738461 1.066789 62.000000
1.269618 0.722166 1.068888 34.000000
1.284686 0.709382 1.076404 32.000000
1.295679 0.694623 1.081310 26.000000
1.317761 0.685006 1.094568 31.000000
1.339387 0.675186 1.108254 32.000000
1.350226 0.659590 1.112938 32.000000
1.368190 0.647221 1.123476 32.000000
1.393447 0.637794 1.139950 35.000000
1.404049 0.621288 1.144395 35.000000
1.417784 0.606438 1.152251 28.000000
1.428181 0.589460 1.156480 27.000000
1.456602 0.579961 1.176131 34.000000
1.481784 0.568155 1.192284 34.000000
1.510327 0.557372 1.211779 37.000000
1.523756 0.540548 1.219153 35.000000
1.540895 0.524755 1.229491 36.000000
1.561785 0.509782 1.242739 54.000000
1.574484 0.492168 1.250351 33.000000
1.599061 0.477526 1.266411 26.000000
1.626953 0.463547 1.285908 34.000000
1.636046 0.443512 1.289713 31.000000
1.656067 0.426483 1.303004 35.000000
1.691556 0.412764 1.328249 32.000000
1.711455 0.394547 1.341256 35.000000
1.723129 0.374381 1.348680 35.000000
1.750603 0.356918 1.367592 27.000000
1.777562 0.338994 1.386870 30.000000
1.808806 0.320955 1.408584 34.000000
1.839595 0.302284 1.430669 31.000000
1.858433 0.281061 1.443568 34.000000
1.880669 0.260053 1.459892 34.000000
1.907112 0.238889 1.478548 33.000000
1.925602 0.216161 1.491041 35.000000
1.971054 0.195847 1.525269 28.000000
1.984799 0.171694 1.534957 26.000000
2.022109 0.148906 1.562812 32.000000
2.071102 0.125851 1.599681 31.000000
2.083844 0.099954 1.609483 29.000000
2.116701 0.074451 1.633833 32.000000
2.148850 0.048056 1.658596 31.000000
2.196677 0.021002 1.695419 30.000000
2.208637 -0.007067 1.704669 35.000000
2.255960 -0.036095 1.741154 34.000000
2.279268 -0.065654 1.759131 32.000000
2.341406 -0.097468 1.808176 33.000000
2.376177 -0.129304 1.834840 32.000000
2.398232 -0.161253 1.852973 32.000000
2.459451 -0.196969 1.901340 27.000000
2.500554 -0.232468 1.934331 25.000000
2.565021 -0.271482 1.985304 31.000000
2.608762 -0.309871 2.021595 32.000000
2.675743 -0.352679 2.075961 31.000000
2.723222 -0.394145 2.114002 34.000000
2.785263 -0.439493 2.164809 35.000000
2.792113 -0.477082 2.172745 35.000000
2.801839 -0.515800 2.184370 35.000000
2.730045 -0.538564 2.131046 28.000000
2.723734 -0.573649 2.129976 34.000000
2.713867 -0.607437 2.125015 35.000000
2.683722 -0.636753 2.105424 34.000000
2.688198 -0.674070 2.112824 37.000000
2.661522 -0.703340 2.095872 35.000000
2.649346 -0.736591 2.091684 34.000000
2.622221 -0.764862 2.074350 31.000000
2.582951 -0.789358 2.048711 25.000000
2.578472 -0.823470 2.049143 32.000000
2.561580 -0.854101 2.041248 30.000000
2.548306 -0.885744 2.036066 30.000000
2.538507 -0.918442 2.033797 32.000000
2.521021 -0.948224 2.025311 32.000000
2.513741 -0.982281 2.026463 33.000000
2.492109 -1.010010 2.014688 28.000000
2.450992 -1.029800 1.988474 27.000000
2.440151 -1.061107 1.985435 28.000000
2.435510 -1.095908 1.988874 32.000000
2.423315 -1.127411 1.986232 32.000000
2.407297 -1.156870 1.980307 34.000000
2.391012 -1.186134 1.974391 32.000000
2.374563 -1.215102 1.968281 33.000000
2.364061 -1.248039 1.968616 29.000000
2.329546 -1.266783 1.947413 24.000000
2.325644 -1.303119 1.953468 30.000000
2.308429 -1.330957 1.946686 33.000000
2.289948 -1.358906 1.940619 31.000000
2.267961 -1.384556 1.931421 34.000000
2.249194 -1.411877 1.925078 32.000000
2.236984 -1.443303 1.924404 30.000000
2.238149 -1.483581 1.935312 30.000000
2.195135 -1.494392 1.908132 23.000000
2.185632 -1.527490 1.909963 29.000000
2.165910 -1.553446 1.902954 32.000000
2.144940 -1.579615 1.896456 30.000000
2.137836 -1.614731 1.900845 29.000000
2.113138 -1.638000 1.891261 29.000000
2.095948 -1.665285 1.886563 25.000000
2.080530 -1.695554 1.885439 26.000000
2.045898 -1.709848 1.866897 21.000000
2.021985 -1.730838 1.856210 23.000000
2.009045 -1.762993 1.857559 28.000000
1.980505 -1.781169 1.844550 27.000000
1.945993 -1.793328 1.825706 26.000000
1.872444 -1.768112 1.770115 18.000000
1.844474 -1.784112 1.756968 22.000000
1.831077 -1.814224 1.757856 22.000000
1.775413 -1.803708 1.719943 16.000000
1.750343 -1.821083 1.709482 21.000000
1.725215 -1.838027 1.698960 26.000000
1.679112 -1.833944 1.669515 23.000000
1.668048 -1.865359 1.672824 22.000000
1.634699 -1.871546 1.653738 25.000000
1.600051 -1.877913 1.635371 25.000000
1.581581 -1.902982 1.633519 18.000000
1.532883 -1.888108 1.597978 11.000000
1.509150 -1.905697 1.590534 19.000000
1.481778 -1.915613 1.576941 23.000000
1.452942 -1.925762 1.563931 22.000000
1.429132 -1.942295 1.556306 23.000000
1.400403 -1.951573 1.543206 23.000000
1.361979 -1.946581 1.519296 19.000000
1.331042 -1.951404 1.503479 15.000000
1.300241 -1.955621 1.487734 9.000000
1.281076 -1.977156 1.485311 10.000000
0.715034 1.131507 0.858080 29.000000
0.729744 1.124843 0.863747 32.000000
0.737454 1.107488 0.861234 19.000000
0.744818 1.090118 0.858684 33.000000
0.756834 1.079592 0.861520 37.000000
0.778468 1.082495 0.875283 35.000000
0.779569 1.058540 0.867384 39.000000
0.806320 1.067535 0.886649 34.000000
0.815625 1.052930 0.886572 33.000000
0.834213 1.051662 0.897890 36.000000
0.840705 1.033542 0.894927 18.000000
0.851432 1.022179 0.897816 61.000000
0.862893 1.010325 0.900315 37.000000
0.878915 1.004890 0.908733 34.000000
0.890251 0.992667 0.911148 39.000000
0.903488 0.983677 0.916688 37.000000
0.930794 0.989507 0.936383 50.000000
0.930654 0.964728 0.927321 44.000000
0.946724 0.958085 0.935613 27.000000
0.956934 0.945322 0.938115 36.000000
0.964145 0.929567 0.937750 34.000000
0.980132 0.922200 0.945895 31.000000
0.993132 0.911810 0.951137 46.000000
1.000012 0.895694 0.950564 35.000000
1.018351 0.890639 0.961866 33.000000
1.037367 0.884834 0.972807 41.000000
1.056508 0.878678 0.983684 23.000000
1.059280 0.859687 0.980376 36.000000
1.072048 0.847951 0.985299 40.000000
1.080893 0.833810 0.987665 35.000000
1.103192 0.828981 1.001313 55.000000
1.115195 0.816853 1.006493 37.000000
1.140288 0.813864 1.023432 34.000000
1.155594 0.803431 1.031514 37.000000
1.167503 0.790459 1.036552 23.000000
1.182769 0.779453 1.044517 34.000000
1.201353 0.770333 1.055369 34.000000
1.219973 0.760783 1.066199 36.000000
1.235193 0.748828 1.073969 34.000000
1.250396 0.736528 1.081647 36.000000
1.258018 0.720288 1.083746 33.000000
1.276520 0.709438 1.094343 34.000000
1.276947 0.688989 1.090285 20.000000
1.301948 0.681633 1.107156 32.000000
1.330537 0.675455 1.127033 32.000000
1.341362 0.659809 1.131763 28.000000
1.366437 0.650806 1.148535 30.000000
1.377125 0.634612 1.153069 29.000000
1.398633 0.623064 1.166644 28.000000
1.416458 0.609447 1.177155 28.000000
1.430067 0.594141 1.184949 17.000000
1.436256 0.575633 1.186615 32.000000
1.464999 0.565334 1.205958 32.000000
1.496984 0.555957 1.228813 33.000000
1.517866 0.541851 1.242376 36.000000
1.534935 0.525951 1.252847 35.000000
1.543947 0.507479 1.257534 35.000000
1.564672 0.492091 1.270849 34.000000
1.577685 0.473974 1.277992 18.000000
1.605355 0.460139 1.297735 28.000000
1.629229 0.444614 1.314316 31.000000
1.645318 0.426488 1.324646 30.000000
1.672891 0.410821 1.344154 32.000000
1.696550 0.393670 1.360410 32.000000
1.704714 0.372524 1.364299 32.000000
1.743141 0.357677 1.393188 30.000000
1.774269 0.340314 1.415325 26.000000
1.797065 0.320869 1.431663 34.000000
1.808224 0.299001 1.438616 33.000000
1.846336 0.281002 1.467125 32.000000
1.872741 0.260405 1.486171 34.000000
1.898554 0.239279 1.505675 34.000000
1.913016 0.216080 1.515250 31.000000
1.942468 0.194216 1.537578 29.000000
1.963925 0.170893 1.553583 21.000000
2.004844 0.148516 1.584844 29.000000
2.053431 0.125531 1.622228 32.000000
2.074478 0.100092 1.637788 31.000000
2.102665 0.074344 1.659951 31.000000
2.126698 0.047802 1.678946 29.000000
2.181886 0.020955 1.722484 32.000000
2.197668 -0.007178 1.734875 28.000000
2.240663 -0.036158 1.768779 30.000000
2.271702 -0.065820 1.793207 30.000000
2.325998 -0.097361 1.836023 32.000000
2.363750 -0.129459 1.866985 29.000000
2.405183 -0.162738 1.900855 30.000000
2.446270 -0.197124 1.934433 26.000000
2.483182 -0.232253 1.964803 17.000000
2.550881 -0.271718 2.019601 27.000000
2.602008 -0.311130 2.062595 30.000000
2.645609 -0.350710 2.098356 31.000000
2.699818 -0.393298 2.143970 31.000000
2.765171 -0.439133 2.198600 32.000000
2.779666 -0.478102 2.212836 34.000000
2.766675 -0.512335 2.205245 35.000000
2.729463 -0.541987 2.179816 27.000000
2.712188 -0.574600 2.168740 27.000000
2.682469 -0.604424 2.149085 32.000000
2.671713 -0.638123 2.144624 32.000000
2.660764 -0.671616 2.139954 33.000000
2.630456 -0.699834 2.119716 32.000000
2.622771 -0.733630 2.117715 34.000000
2.599715 -0.762978 2.103345 27.000000
2.571935 -0.790877 2.086456 20.000000
2.547841 -0.819391 2.072445 26.000000
2.550519 -0.855811 2.078931 32.000000
2.540973 -0.888806 2.076855 30.000000
2.519949 -0.917528 2.065420 29.000000
2.502514 -0.947262 2.056847 29.000000
2.495081 -0.981467 2.058037 30.000000
2.480782 -1.012047 2.052212 27.000000
2.444454 -1.033149 2.027872 18.000000
2.429091 -1.063459 2.022597 29.000000
2.413457 -1.093368 2.017024 31.000000
2.401161 -1.124769 2.014382 32.000000
2.378002 -1.150862 2.002475 29.000000
2.372492 -1.185282 2.005472 32.000000
2.345311 -1.208713 1.990282 30.000000
2.328772 -1.237198 1.983948 23.000000
2.329512 -1.275092 1.992425 18.000000
2.314922 -1.305690 1.989589 33.000000
2.297677 -1.333567 1.982748 31.000000
2.272275 -1.357544 1.970654 33.000000
2.250228 -1.383149 1.961369 32.000000
2.238263 -1.414815 1.960931 32.000000
2.215831 -1.439794 1.951371 31.000000
2.206689 -1.473237 1.953591 26.000000
2.167331 -1.486241 1.928959 17.000000
2.164412 -1.523787 1.936790 28.000000
2.144721 -1.549748 1.929739 29.000000
2.128130 -1.577733 1.925442 32.000000
2.110140 -1.606117 1.921844 32.000000
2.083463 -1.626120 1.908465 30.000000
2.030316 -1.625974 1.872452 32.000000
1.994355 -1.636916 1.850275 22.000000
1.963595 -1.652986 1.834576 21.000000
1.917460 -1.655130 1.804328 28.000000
1.891211 -1.671893 1.790714 29.000000
1.866835 -1.691628 1.780597 32.000000
1.845199 -1.713607 1.773387 32.000000
1.808704 -1.721210 1.751646 28.000000
1.766519 -1.722428 1.724173 32.000000
1.739162 -1.737151 1.711011 19.000000
1.714681 -1.754398 1.700561 17.000000
1.671751 -1.754076 1.673728 24.000000
1.655864 -1.779291 1.671799 26.000000
1.628545 -1.792098 1.658372 30.000000
1.602644 -1.808308 1.648437 27.000000
1.567300 -1.810789 1.626494 27.000000
1.544044 -1.829181 1.619187 29.000000
1.516991 -1.840130 1.605694 16.000000
1.485876 -1.848065 1.589906 17.000000
1.443504 -1.838403 1.559701 27.000000
1.420391 -1.854991 1.552217 26.000000
1.402256 -1.877935 1.550182 29.000000
1.363275 -1.869547 1.522790 26.000000
1.342564 -1.888483 1.517972 25.000000
1.321684 -1.907080 1.512984 29.000000
1.291245 -1.911522 1.497108 19.000000
1.249230 -1.897991 1.467657 10.000000
1.228345 -1.915409 1.462704 21.000000
0.718043 1.118357 0.872734 23.000000
0.739554 1.121959 0.886709 18.000000
0.735590 1.087186 0.870316 32.000000
0.757099 1.090332 0.884240 27.000000
0.763381 1.073145 0.881840 34.000000
0.785063 1.075665 0.895808 30.000000
0.799448 1.067863 0.901400 34.000000
0.815488 1.063521 0.910064 47.000000
0.822246 1.045458 0.907148 25.000000
0.848628 1.053478 0.927054 26.000000
0.839502 1.016113 0.907031 36.000000
0.855411 1.010918 0.915550 34.000000
0.866810 0.998880 0.918056 39.000000
0.899171 1.011612 0.943684 35.000000
0.893304 0.981205 0.929246 33.000000
0.900946 0.966053 0.929088 54.000000
0.911986 0.953386 0.931355 31.000000
0.959304 0.978889 0.971506 29.000000
0.940951 0.937071 0.945129 30.000000
0.959801 0.932792 0.956287 29.000000
0.978735 0.928127 0.967489 39.000000
0.988107 0.915209 0.970275 32.000000
0.998138 0.901784 0.972606 36.000000
1.008016 0.888207 0.974885 46.000000
1.042319 0.895602 1.000659 25.000000
1.051553 0.881802 1.003253 24.000000
1.042629 0.852175 0.987638 29.000000
1.060941 0.845894 0.998977 36.000000
1.079983 0.838898 1.009842 35.000000
1.088803 0.824527 1.012177 36.000000
1.126624 0.831495 1.041259 33.000000
1.132211 0.814191 1.040506 41.000000
1.150755 0.806000 1.051672 29.000000
1.172644 0.799693 1.065769 30.000000
1.174656 0.779675 1.061812 30.000000
1.189816 0.768329 1.069778 32.000000
1.205017 0.756697 1.077711 35.000000
1.223547 0.746851 1.088580 35.000000
1.238078 0.734871 1.096837 34.000000
1.253138 0.722324 1.104564 36.000000
1.267675 0.709762 1.112643 26.000000
1.278642 0.695013 1.117643 13.000000
1.293549 0.681571 1.125198 29.000000
1.307863 0.668169 1.133051 32.000000
1.336321 0.661487 1.153159 32.000000
1.354202 0.649008 1.163959 30.000000
1.371497 0.636366 1.175193 30.000000
1.389308 0.623151 1.185871 30.000000
1.414284 0.612608 1.202604 25.000000
1.417035 0.592653 1.201314 13.000000
1.423224 0.574145 1.202920 28.000000
1.455432 0.565308 1.225602 31.000000
1.479836 0.553167 1.242571 34.000000
1.500569 0.539157 1.256298 32.000000
1.520796 0.524825 1.270427 32.000000
1.545168 0.511088 1.287123 36.000000
1.547067 0.489641 1.285095 27.000000
1.574615 0.476294 1.305194 22.000000
1.595046 0.459998 1.318465 30.000000
1.614927 0.443439 1.332145 30.000000
1.642334 0.428331 1.352012 32.000000
1.662149 0.410692 1.365475 32.000000
1.681375 0.392726 1.379362 28.000000
1.685692 0.370806 1.380171 28.000000
1.720459 0.355133 1.405769 21.000000
1.735523 0.335036 1.416178 21.000000
1.777367 0.319400 1.448429 32.000000
1.811456 0.301490 1.474247 28.000000
1.833954 0.280867 1.490551 32.000000
1.864019 0.260824 1.513060 36.000000
1.878044 0.238195 1.523422 31.000000
1.900138 0.215996 1.539320 32.000000
1.929355 0.194075 1.561949 21.000000
1.942965 0.170094 1.571894 21.000000
1.975699 0.147257 1.597382 26.000000
2.027832 0.124733 1.638339 28.000000
2.052510 0.099580 1.657251 27.000000
2.092122 0.074376 1.689213 31.000000
2.135400 0.048336 1.724086 29.000000
2.151212 0.020758 1.736816 25.000000
2.190198 -0.007216 1.768309 28.000000
2.221233 -0.036071 1.793262 29.000000
2.255801 -0.065845 1.821173 28.000000
2.309617 -0.097344 1.864589 29.000000
2.343231 -0.129183 1.892748 27.000000
2.399729 -0.163421 1.939643 29.000000
2.428787 -0.197058 1.964274 23.000000
2.461478 -0.231769 1.991933 18.000000
2.528661 -0.271120 2.047500 26.000000
2.575344 -0.309952 2.088059 28.000000
2.630126 -0.350912 2.133736 29.000000
2.683810 -0.393475 2.179991 31.000000
2.744684 -0.438771 2.232259 32.000000
2.762735 -0.478339 2.249837 34.000000
2.753633 -0.513389 2.245284 31.000000
2.713708 -0.542114 2.215517 19.000000
2.669033 -0.569239 2.183308 29.000000
2.662314 -0.603903 2.182135 30.000000
2.644728 -0.635508 2.170540 31.000000
2.641295 -0.670879 2.172063 34.000000
2.618736 -0.701079 2.157906 32.000000
2.607354 -0.733962 2.152786 31.000000
2.591079 -0.765742 2.145195 30.000000
2.541795 -0.786586 2.108717 17.000000
2.547597 -0.824569 2.119368 29.000000
2.538218 -0.857814 2.117492 30.000000
2.514546 -0.885323 2.102190 29.000000
2.504704 -0.918063 2.099910 29.000000
2.483528 -0.946396 2.088157 27.000000
2.483361 -0.983336 2.095559 31.000000
2.458225 -1.009678 2.080433 28.000000
2.414778 -1.027617 2.049747 20.000000
2.417423 -1.065686 2.059706 30.000000
2.401769 -1.095741 2.054080 32.000000
2.386865 -1.125089 2.047544 31.000000
2.360110 -1.149457 2.032446 30.000000
2.343910 -1.178480 2.026350 33.000000
2.337992 -1.212781 2.029317 31.000000
2.323888 -1.243831 2.026781 27.000000
2.289647 -1.262574 2.004974 19.000000
2.293341 -1.302245 2.016539 32.000000
2.251096 -1.316584 1.989341 31.000000
2.237183 -1.345813 1.985337 32.000000
2.205131 -1.364958 1.967026 32.000000
2.183106 -1.389781 1.957517 29.000000
2.164417 -1.416511 1.950941 32.000000
2.128898 -1.431706 1.929252 29.000000
2.076920 -1.434809 1.892442 20.000000
2.061322 -1.462153 1.888590 31.000000
2.016356 -1.468063 1.857667 28.000000
2.010155 -1.501846 1.862526 34.000000
1.971799 -1.511147 1.837516 35.000000
1.929240 -1.517740 1.810193 27.000000
1.910094 -1.540528 1.802858 27.000000
1.877086 -1.553317 1.784277 24.000000
1.860865 -1.577924 1.779761 19.000000
1.837158 -1.597593 1.769918 30.000000
1.807249 -1.611523 1.754052 28.000000
1.780388 -1.627589 1.741076 29.000000
1.748952 -1.636958 1.721584 31.000000
1.725168 -1.654827 1.711441 26.000000
1.707045 -1.677975 1.706955 27.000000
1.688831 -1.700854 1.702469 29.000000
1.639189 -1.691310 1.666042 18.000000
1.602801 -1.696115 1.644709 26.000000
1.584504 -1.717635 1.640092 30.000000
1.557979 -1.729758 1.626708 26.000000
1.523255 -1.732239 1.604722 28.000000
1.506207 -1.756454 1.603282 28.000000
1.485009 -1.773487 1.595461 28.000000
1.457037 -1.784576 1.582508 27.000000
1.422918 -1.784829 1.560460 18.000000
1.397678 -1.798048 1.550276 28.000000
1.374008 -1.810286 1.539455 28.000000
1.343955 -1.816057 1.523499 25.000000
1.311520 -1.818100 1.504825 29.000000
1.290422 -1.832333 1.496774 26.000000
1.265313 -1.843561 1.486386 29.000000
1.235474 -1.847559 1.470516 21.000000
1.208140 -1.854466 1.457306 10.000000
0.727755 1.115389 0.895661 19.000000
0.742404 1.108251 0.901449 16.000000
0.756046 1.101342 0.907501 29.000000
0.768318 1.090401 0.910409 26.000000
0.778026 1.076019 0.910440 25.000000
0.791581 1.068518 0.916373 27.000000
0.800971 1.053909 0.916336 26.000000
0.824535 1.059048 0.933658 32.000000
0.828787 1.037615 0.927713 20.000000
0.847388 1.035696 0.939347 26.000000
0.853016 1.017757 0.936478 34.000000
0.869891 1.011796 0.944785 30.000000
0.886005 1.005936 0.953425 29.000000
0.902149 0.999778 0.962050 33.000000
0.907240 0.981387 0.958947 30.000000
0.931730 0.983612 0.976273 33.000000
0.923280 0.950124 0.958058 15.000000
0.936414 0.940317 0.963540 23.000000
0.948706 0.930634 0.969389 30.000000
0.958847 0.917632 0.971849 26.000000
0.977722 0.912676 0.983092 28.000000
0.993652 0.904719 0.991410 29.000000
0.997631 0.885725 0.987753 30.000000
1.031009 0.893423 1.014252 31.000000
1.028672 0.868916 1.004473 10.000000
1.046960 0.862811 1.015976 25.000000
1.056685 0.848483 1.018045 35.000000
1.062439 0.831848 1.017466 32.000000
1.096614 0.836966 1.043871 32.000000
1.105483 0.822289 1.046194 32.000000
1.120741 0.812120 1.054471 32.000000
1.142432 0.806201 1.068794 30.000000
1.151133 0.790840 1.070889 12.000000
1.169611 0.782034 1.082074 27.000000
1.181488 0.768429 1.087078 29.000000
1.196647 0.756795 1.095097 27.000000
1.211133 0.745148 1.103522 29.000000
1.219427 0.728833 1.105225 31.000000
1.244105 0.722637 1.122747 30.000000
1.262529 0.711675 1.133547 30.000000
1.259700 0.689276 1.126256 10.000000
1.287880 0.683624 1.146638 23.000000
1.302165 0.670177 1.154640 24.000000
1.323492 0.659877 1.168748 25.000000
1.337742 0.645681 1.176626 26.000000
1.355443 0.632897 1.187455 27.000000
1.383304 0.624781 1.208060 24.000000
1.397456 0.609494 1.215715 22.000000
1.396625 0.588134 1.211197 9.000000
1.431705 0.581528 1.237862 23.000000
1.456023 0.569780 1.255083 29.000000
1.462632 0.550384 1.256062 20.000000
1.475399 0.533943 1.264171 24.000000
1.492206 0.518341 1.274883 24.000000
1.508974 0.502326 1.285427 19.000000
1.521495 0.484964 1.293280 19.000000
1.549306 0.471683 1.313115 10.000000
1.572777 0.456797 1.330212 17.000000
1.588821 0.439293 1.340900 15.000000
1.612237 0.423334 1.357791 14.000000
1.654431 0.411560 1.390442 15.000000
1.674011 0.393419 1.403963 15.000000
1.681651 0.372440 1.408415 10.000000
1.689718 0.351092 1.412193 10.000000
1.738815 0.337895 1.451307 10.000000
1.746113 0.315871 1.455386 10.000000
1.772273 0.296869 1.475191 10.000000
1.806012 0.278448 1.501293 11.000000
1.816692 0.255852 1.508148 10.000000
1.857381 0.237112 1.540861 10.000000
1.867864 0.213642 1.547438 10.000000
1.877624 0.190120 1.554464 9.000000
1.940986 0.170989 1.605865 9.000000
1.946605 0.146003 1.609431 9.000000
1.982800 0.122746 1.638215 9.000000
2.022743 0.098774 1.670105 10.000000
2.042654 0.073108 1.686496 9.000000
2.077834 0.047291 1.715546 10.000000
2.135913 0.020711 1.763457 11.000000
2.162986 -0.007191 1.785739 13.000000
2.209166 -0.036110 1.823762 18.000000
2.255074 -0.066234 1.861599 19.000000
2.285280 -0.096909 1.886514 16.000000
2.333899 -0.129548 1.927871 20.000000
2.370626 -0.162610 1.959496 19.000000
2.399414 -0.195952 1.984468 10.000000
2.466375 -0.233736 2.041124 16.000000
2.513718 -0.271251 2.081556 19.000000
2.567604 -0.311098 2.129021 15.000000
2.606537 -0.350081 2.162624 14.000000
2.652059 -0.391497 2.203166 25.000000
2.708435 -0.435950 2.252985 26.000000
2.741638 -0.477905 2.283508 28.000000
2.713562 -0.509331 2.263063 23.000000
2.677664 -0.538528 2.236198 18.000000
2.667416 -0.572834 2.232062 24.000000
2.650067 -0.604888 2.220529 24.000000
2.635574 -0.637772 2.212814 25.000000
2.605783 -0.666404 2.192259 26.000000
2.602114 -0.701511 2.193615 26.000000
2.579441 -0.731214 2.179092 27.000000
2.582697 -0.768170 2.186329 14.000000
2.547737 -0.794071 2.162809 22.000000
2.539246 -0.827197 2.160188 26.000000
2.518764 -0.856879 2.148876 23.000000
2.505389 -0.888559 2.143650 26.000000
2.485358 -0.917029 2.131122 26.000000
2.467082 -0.947230 2.123199 25.000000
2.449489 -0.976619 2.114357 25.000000
2.446080 -1.011579 2.117715 14.000000
2.410178 -1.032772 2.092882 22.000000
2.384004 -1.058268 2.078065 25.000000
2.362136 -1.084512 2.065476 28.000000
2.328743 -1.105636 2.044202 26.000000
2.298792 -1.127724 2.025878 26.000000
2.275734 -1.152695 2.013596 27.000000
2.252594 -1.177189 2.001241 25.000000
2.229374 -1.201211 1.988719 10.000000
2.178545 -1.209573 1.951370 24.000000
2.164637 -1.238646 1.948666 27.000000
2.144607 -1.263040 1.938850 29.000000
2.096500 -1.271166 1.905186 29.000000
2.076431 -1.294463 1.895177 29.000000
2.051892 -1.315730 1.882703 30.000000
2.033922 -1.340902 1.876362 27.000000
2.009246 -1.361256 1.863660 10.000000
1.964884 -1.367644 1.832665 22.000000
1.949978 -1.393775 1.828985 24.000000
1.925171 -1.412567 1.816040 24.000000
1.913065 -1.440599 1.815123 22.000000
1.888095 -1.458592 1.802048 23.000000
1.866320 -1.478723 1.791838 26.000000
1.836992 -1.493911 1.776199 23.000000
1.808968 -1.507952 1.759801 10.000000
1.776684 -1.519415 1.741189 20.000000
1.760849 -1.542900 1.736564 22.000000
1.719666 -1.545330 1.708874 25.000000
1.705518 -1.571308 1.707803 24.000000
1.573816 -1.486468 1.588237 33.000000
1.650235 -1.597708 1.678713 25.000000
1.631128 -1.616567 1.670823 25.000000
1.616288 -1.641553 1.669336 10.000000
1.566310 -1.631956 1.633233 19.000000
1.545825 -1.650194 1.625801 19.000000
1.533548 -1.677188 1.627033 26.000000
1.504621 -1.685850 1.610733 28.000000
1.478632 -1.697036 1.597225 19.000000
1.451244 -1.708421 1.584356 24.000000
1.435677 -1.731255 1.582375 18.000000
1.414888 -1.747625 1.574471 10.000000
1.359378 -1.722407 1.529994 16.000000
1.336404 -1.734430 1.519232 18.000000
1.321826 -1.759795 1.520361 25.000000
1.296149 -1.767786 1.506722 24.000000
1.271544 -1.779417 1.496367 20.000000
1.246846 -1.790669 1.486047 24.000000
1.216763 -1.790630 1.466708 18.000000
1.199101 -1.811324 1.464715 10.000000
0.743155 1.122665 0.927571 26.000000
0.751057 1.104988 0.924873 25.000000
0.762413 1.094425 0.928146 17.000000
0.786630 1.099933 0.945346 29.000000
0.781970 1.065413 0.928152 24.000000
0.800425 1.064265 0.939906 24.000000
0.822331 1.065591 0.954259 24.000000
0.813254 1.028557 0.934122 14.000000
0.836860 1.033002 0.951671 29.000000
0.838254 1.008439 0.942593 32.000000
0.864669 1.015273 0.963014 29.000000
0.878123 1.006325 0.968811 39.000000
0.888849 0.994089 0.971631 33.000000
0.910376 0.993601 0.986211 35.000000
0.921079 0.980962 0.988963 32.000000
0.923311 0.959474 0.982757 14.000000
0.930844 0.943785 0.982407 30.000000
0.943968 0.933715 0.987909 32.000000
0.965701 0.931760 1.002352 29.000000
