x y z intensity
0.905707 1.621560 0.685942 18.000000
0.923110 1.610502 0.688782 27.000000
0.938016 1.595225 0.689815 20.000000
0.952656 1.579823 0.690835 26.000000
0.967148 1.564360 0.691780 24.000000
0.988886 1.560508 0.698013 16.000000
1.006727 1.548032 0.700423 19.000000
1.018180 1.528080 0.699516 20.000000
1.037244 1.519644 0.703941 23.000000
1.048308 1.499488 0.702939 31.000000
1.069829 1.494454 0.709051 22.000000
1.091453 1.489109 0.715188 29.000000
1.096399 1.461028 0.710476 26.000000
1.123539 1.462582 0.720203 21.000000
1.136493 1.445448 0.720795 27.000000
1.149247 1.428142 0.721375 22.000000
1.164698 1.414314 0.723720 31.000000
1.179246 1.400847 0.726365 32.000000
1.200580 1.393758 0.732349 29.000000
1.212677 1.375834 0.732790 35.000000
1.224577 1.357802 0.733159 30.000000
1.242572 1.346481 0.737250 27.000000
1.259736 1.335449 0.741533 26.000000
1.280795 1.326950 0.747465 28.000000
1.295370 1.311525 0.749529 34.000000
1.309035 1.296464 0.751898 32.000000
1.323367 1.280735 0.753963 30.000000
1.347538 1.274357 0.761604 37.000000
1.357544 1.255493 0.761963 30.000000
1.371399 1.239136 0.763916 28.000000
1.398367 1.235376 0.773713 28.000000
1.415547 1.221501 0.777482 27.000000
1.435579 1.210889 0.783433 38.000000
1.448497 1.194059 0.785544 30.000000
1.461787 1.176608 0.787221 30.000000
1.485199 1.168015 0.795026 33.000000
1.501427 1.153366 0.798972 29.000000
1.517465 1.138507 0.802801 29.000000
1.537149 1.126093 0.808594 26.000000
1.553020 1.110639 0.812383 29.000000
1.568823 1.094971 0.816118 34.000000
1.595892 1.086850 0.825696 34.000000
1.603857 1.065466 0.825456 31.000000
1.630850 1.056467 0.835015 33.000000
1.657870 1.047041 0.844539 32.000000
1.661453 1.022617 0.842140 30.000000
1.680153 1.008079 0.847928 27.000000
1.699085 0.992769 0.853339 30.000000
1.709624 0.973066 0.855107 33.000000
1.724304 0.954994 0.858412 34.000000
1.746575 0.941439 0.866053 33.000000
1.765130 0.924946 0.871314 34.000000
1.779100 0.906448 0.874847 30.000000
1.817533 0.899911 0.890380 28.000000
1.835448 0.882585 0.895826 23.000000
1.857461 0.866865 0.903232 26.000000
1.875160 0.848900 0.908569 31.000000
1.917581 0.841908 0.926329 29.000000
1.930873 0.821194 0.929542 26.000000
1.960969 0.807200 0.940801 31.000000
1.978025 0.787854 0.946207 27.000000
1.973628 0.759892 0.941458 24.000000
2.015995 0.749664 0.959019 27.000000
2.028269 0.727705 0.962207 24.000000
2.053375 0.710049 0.971451 32.000000
2.065331 0.687522 0.974511 27.000000
2.090136 0.668920 0.983710 28.000000
2.110262 0.648721 0.991027 29.000000
2.134777 0.629211 1.000037 28.000000
2.163419 0.610608 1.011336 21.000000
2.187495 0.590157 1.020452 24.000000
2.211445 0.569297 1.029582 25.000000
2.243964 0.550199 1.042995 26.000000
2.280906 0.531286 1.058101 28.000000
2.299820 0.507802 1.065224 23.000000
2.323020 0.484781 1.074340 26.000000
2.350530 0.462224 1.085373 24.000000
2.346470 0.433202 1.081885 10.000000
2.427384 0.419107 1.117480 26.000000
2.454234 0.394570 1.128641 25.000000
2.462819 0.366831 1.131292 24.000000
2.507243 0.343767 1.150500 28.000000
2.542503 0.318629 1.165414 26.000000
2.577333 0.292758 1.180513 25.000000
2.607539 0.265693 1.193467 26.000000
2.587518 0.233415 1.183542 9.000000
2.685210 0.210835 1.227341 25.000000
2.710166 0.181188 1.237798 22.000000
2.739152 0.151357 1.250607 21.000000
2.799709 0.122192 1.277850 25.000000
2.823571 0.090398 1.288317 23.000000
2.856166 0.058358 1.303127 22.000000
2.902035 0.025701 1.324072 27.000000
2.924877 -0.008045 1.334449 25.000000
3.002005 -0.043002 1.369629 31.000000
3.037781 -0.078689 1.385925 31.000000
3.059390 -0.114707 1.396196 26.000000
3.139740 -0.154256 1.433327 32.000000
3.160653 -0.191906 1.443380 25.000000
3.230922 -0.233799 1.476453 26.000000
3.277969 -0.275472 1.498932 26.000000
3.283829 -0.314289 1.502636 26.000000
3.244092 -0.348457 1.485399 28.000000
3.226597 -0.384368 1.478421 27.000000
3.177002 -0.415830 1.457285 29.000000
3.176781 -0.453319 1.458710 32.000000
3.140233 -0.485136 1.443480 26.000000
3.125819 -0.519961 1.438389 25.000000
3.097459 -0.552285 1.427423 22.000000
3.077712 -0.585686 1.420386 24.000000
3.071203 -0.621274 1.419546 29.000000
3.050913 -0.653999 1.412311 28.000000
3.003711 -0.680270 1.392517 26.000000
2.987111 -0.713019 1.387574 29.000000
2.966136 -0.744145 1.379965 28.000000
2.962148 -0.779707 1.380791 21.000000
2.918374 -0.804366 1.363137 23.000000
2.878786 -0.829270 1.347463 20.000000
2.869462 -0.862854 1.346361 28.000000
2.846980 -0.891945 1.338716 27.000000
2.832662 -0.923562 1.335374 26.000000
2.809334 -0.952148 1.327850 28.000000
2.794514 -0.983264 1.324322 25.000000
2.766465 -1.009387 1.314585 17.000000
2.729712 -1.031784 1.300699 24.000000
2.709894 -1.060047 1.294878 24.000000
2.706799 -1.094771 1.297091 29.000000
2.677647 -1.119408 1.287421 27.000000
2.656753 -1.146984 1.281821 26.000000
2.652745 -1.181323 1.283643 30.000000
2.618880 -1.202687 1.271805 26.000000
2.589070 -1.225331 1.261819 17.000000
2.571392 -1.253414 1.257896 26.000000
2.582213 -1.295583 1.267854 25.000000
2.567963 -1.325527 1.265736 28.000000
2.528763 -1.342869 1.251888 29.000000
2.502104 -1.365560 1.243601 26.000000
2.498722 -1.401806 1.247692 29.000000
2.463690 -1.419162 1.235251 27.000000
2.447891 -1.448111 1.233170 14.000000
2.424435 -1.471541 1.226551 26.000000
2.400328 -1.495165 1.220420 25.000000
2.395300 -1.530688 1.224002 28.000000
2.370709 -1.553703 1.217694 25.000000
2.372647 -1.594293 1.225094 16.000000
2.358875 -1.624709 1.224497 16.000000
2.333488 -1.646878 1.217913 21.000000
2.296747 -1.660688 1.205475 12.000000
2.260111 -1.673780 1.192893 27.000000
2.263946 -1.716766 1.201783 24.000000
2.230655 -1.731826 1.191186 31.000000
2.215463 -1.760603 1.190131 27.000000
2.209904 -1.798665 1.195338 26.000000
2.204657 -1.836122 1.199943 32.000000
2.163839 -1.843695 1.185172 22.000000
2.139681 -1.866508 1.180527 13.000000
2.130033 -1.900414 1.182985 25.000000
2.101897 -1.919548 1.176243 21.000000
2.095016 -1.956421 1.180380 27.000000
2.069819 -1.978106 1.175454 25.000000
2.034579 -1.989816 1.164761 21.000000
2.026654 -2.026277 1.168748 26.000000
1.994462 -2.040425 1.159888 19.000000
1.997417 -2.090918 1.171619 13.000000
1.969186 -2.106995 1.164067 25.000000
1.936547 -2.120067 1.154958 19.000000
1.925581 -2.156868 1.158999 26.000000
1.895710 -2.172780 1.151772 22.000000
1.883888 -2.209377 1.155567 25.000000
1.878866 -2.252251 1.162520 32.000000
1.868910 -2.292515 1.167947 28.000000
1.890159 -2.372872 1.193350 23.000000
1.855715 -2.384235 1.183898 16.000000
1.663426 -2.187473 1.072670 9.000000
1.556201 -2.094959 1.014624 10.000000
1.445845 -1.992568 0.953262 9.000000
1.367529 -1.929796 0.912099 10.000000
1.293445 -1.869276 0.872997 10.000000
1.231402 -1.822667 0.841225 9.000000
1.175623 -1.782646 0.813153 9.000000
1.122263 -1.746096 0.787379 15.000000
1.098458 -1.751517 0.780797 19.000000
1.084459 -1.772518 0.781282 24.000000
1.072552 -1.797453 0.783491 25.000000
1.050825 -1.806226 0.778608 19.000000
1.031293 -1.818748 0.775478 22.000000
0.904837 1.631105 0.707577 21.000000
0.917747 1.611843 0.706878 18.000000
0.942139 1.612671 0.715088 21.000000
0.952277 1.589127 0.712572 20.000000
0.969359 1.577496 0.715358 19.000000
0.991229 1.573632 0.721763 18.000000
1.000574 1.549775 0.719116 18.000000
1.014743 1.533747 0.720012 21.000000
1.028707 1.517540 0.720834 26.000000
1.047712 1.508855 0.725316 24.000000
1.066739 1.499925 0.729750 27.000000
1.080259 1.483179 0.730499 24.000000
1.099127 1.473821 0.734886 21.000000
1.115079 1.460467 0.737424 23.000000
1.133827 1.450586 0.741770 22.000000
1.140890 1.425977 0.738630 32.000000
1.159336 1.415794 0.742915 29.000000
1.180714 1.408848 0.749100 31.000000
1.196040 1.394552 0.751463 32.000000
1.210457 1.380619 0.754067 28.000000
1.225602 1.365960 0.756369 29.000000
1.240564 1.351118 0.758611 30.000000
1.264099 1.346741 0.766846 26.000000
1.278870 1.331482 0.769043 42.000000
1.293518 1.315979 0.771240 35.000000
1.310641 1.304094 0.775555 33.000000
1.331629 1.294610 0.781513 55.000000
1.345219 1.279053 0.783850 35.000000
1.359424 1.262696 0.785879 34.000000
1.376174 1.249863 0.790110 45.000000
1.376282 1.220947 0.784180 20.000000
1.403113 1.216821 0.794179 35.000000
1.405605 1.191386 0.790423 34.000000
1.440113 1.191886 0.804051 35.000000
1.452844 1.174932 0.806100 36.000000
1.476253 1.166325 0.814044 32.000000
1.503289 1.160079 0.824008 37.000000
1.523120 1.147783 0.829956 33.000000
1.524425 1.121609 0.825861 22.000000
1.536587 1.103585 0.827689 43.000000
1.559810 1.093257 0.835542 46.000000
1.579236 1.079889 0.841345 43.000000
1.598584 1.066214 0.847037 52.000000
1.629353 1.059711 0.858807 52.000000
1.644822 1.042834 0.862517 53.000000
1.663581 1.028464 0.868461 51.000000
1.670966 1.006319 0.867930 24.000000
1.693401 0.993706 0.875865 56.000000
1.704358 0.973563 0.877309 41.000000
1.722700 0.958052 0.883037 48.000000
1.736929 0.940052 0.886733 51.000000
1.755439 0.923552 0.892090 50.000000
1.769387 0.905051 0.895671 49.000000
1.791409 0.890312 0.903307 37.000000
1.817398 0.877199 0.912957 21.000000
1.843425 0.863566 0.922565 39.000000
1.860716 0.845917 0.928337 48.000000
1.878295 0.827664 0.933711 35.000000
1.891219 0.807567 0.937299 47.000000
1.937880 0.800855 0.957087 43.000000
1.963280 0.785028 0.966811 51.000000
1.992853 0.770233 0.978497 33.000000
1.996843 0.745336 0.977704 24.000000
2.026231 0.729631 0.989284 61.000000
2.046916 0.710376 0.996637 62.000000
2.071861 0.692113 1.006096 65.000000
2.096639 0.673373 1.015350 72.000000
2.116757 0.652965 1.022897 60.000000
2.141089 0.633468 1.032407 70.000000
2.182770 0.618362 1.050262 41.000000
2.193710 0.594066 1.053280 29.000000
2.213229 0.571860 1.060510 43.000000
2.236995 0.550276 1.069702 52.000000
2.269299 0.530423 1.083356 59.000000
2.288145 0.507013 1.090626 56.000000
2.333435 0.488711 1.110414 57.000000
2.365247 0.466685 1.123811 55.000000
2.374736 0.439910 1.126574 35.000000
2.423847 0.420076 1.148539 34.000000
2.450765 0.395347 1.159533 63.000000
2.472865 0.369511 1.168671 65.000000
2.499004 0.343875 1.180106 55.000000
2.534110 0.318679 1.195367 60.000000
2.568960 0.292749 1.210552 65.000000
2.603452 0.266087 1.225922 67.000000
2.633240 0.238284 1.239004 37.000000
2.694225 0.212342 1.267222 35.000000
2.728119 0.183036 1.282173 70.000000
2.756989 0.152835 1.295282 56.000000
2.794654 0.122306 1.312552 66.000000
2.823025 0.090740 1.325295 59.000000
2.864418 0.058726 1.344797 49.000000
2.910062 0.025804 1.366238 58.000000
2.964471 -0.008195 1.391735 34.000000
2.959745 -0.042512 1.389411 35.000000
3.027017 -0.078705 1.421074 36.000000
3.053135 -0.114944 1.433716 34.000000
3.087861 -0.152158 1.450500 35.000000
3.144723 -0.191693 1.477789 31.000000
3.192050 -0.231833 1.501037 29.000000
3.239085 -0.273128 1.523625 27.000000
3.240415 -0.311140 1.525308 33.000000
3.214286 -0.346345 1.514156 34.000000
3.192270 -0.381673 1.505348 34.000000
3.160889 -0.415293 1.492197 32.000000
3.151893 -0.451282 1.489005 33.000000
3.128840 -0.485085 1.479679 35.000000
3.105314 -0.518578 1.470788 30.000000
3.072829 -0.549846 1.457039 25.000000
3.044372 -0.581342 1.445735 35.000000
3.024473 -0.614018 1.438459 33.000000
3.004321 -0.646384 1.431087 33.000000
2.975080 -0.676225 1.419404 30.000000
2.972095 -0.711785 1.420176 33.000000
2.955176 -0.744228 1.414936 33.000000
2.929329 -0.773945 1.405393 30.000000
2.894432 -0.800833 1.391558 20.000000
2.872466 -0.830688 1.383944 30.000000
2.863416 -0.864073 1.382436 32.000000
2.840972 -0.893171 1.374541 33.000000
2.822231 -0.923579 1.369153 30.000000
2.790454 -0.949198 1.357299 30.000000
2.788425 -0.984804 1.359992 33.000000
2.764699 -1.012599 1.352142 29.000000
2.715282 -1.030321 1.331705 15.000000
2.733593 -1.073447 1.344519 36.000000
2.692369 -1.093211 1.328097 33.000000
2.684180 -1.126660 1.328711 34.000000
2.663623 -1.154097 1.322417 34.000000
2.642463 -1.181631 1.316622 33.000000
2.625615 -1.210197 1.312226 34.000000
2.599806 -1.235050 1.304194 29.000000
2.561656 -1.253414 1.289807 16.000000
2.564085 -1.291512 1.295933 35.000000
2.541859 -1.317213 1.289711 33.000000
2.526910 -1.347398 1.287891 35.000000
2.504153 -1.372432 1.281497 35.000000
2.477322 -1.394753 1.272979 33.000000
2.461637 -1.424033 1.270982 36.000000
2.438384 -1.447888 1.264249 30.000000
2.398778 -1.462427 1.249876 13.000000
2.402481 -1.502319 1.257294 35.000000
2.385831 -1.530606 1.255023 34.000000
2.391726 -1.573788 1.264685 44.000000
2.374341 -1.601966 1.262202 25.000000
2.352810 -1.627254 1.257610 21.000000
2.331145 -1.652263 1.252932 30.000000
2.290813 -1.663534 1.238150 30.000000
2.261488 -1.682204 1.229324 13.000000
2.254036 -1.717002 1.232492 35.000000
2.220897 -1.732122 1.221517 32.000000
2.212825 -1.766663 1.224472 34.000000
2.207840 -1.804175 1.229378 34.000000
2.183945 -1.827664 1.224655 34.000000
2.167663 -1.856102 1.223409 34.000000
2.133836 -1.869283 1.212233 29.000000
2.088870 -1.873300 1.195688 10.000000
2.106166 -1.931813 1.213743 32.000000
2.067683 -1.941261 1.200963 26.000000
2.070266 -1.987562 1.210998 32.000000
2.038254 -2.002682 1.202045 32.000000
2.023474 -2.032775 1.202221 30.000000
2.007319 -2.063591 1.202754 32.000000
1.965386 -2.067513 1.187889 26.000000
1.956183 -2.103673 1.191686 10.000000
1.935943 -2.130440 1.190084 31.000000
1.912462 -2.153540 1.186567 26.000000
1.899129 -2.185976 1.188174 30.000000
1.877958 -2.212142 1.186340 31.000000
1.889133 -2.277393 1.205243 46.000000
1.852503 -2.285519 1.193919 61.000000
1.896475 -2.394828 1.234921 67.000000
1.870230 -2.417453 1.230899 56.000000
1.650732 -2.184322 1.098238 10.000000
1.546996 -2.095703 1.040661 10.000000
1.456138 -2.019978 0.990851 10.000000
1.377949 -1.957497 0.948651 12.000000
1.306602 -1.901172 0.910398 11.000000
1.234087 -1.839474 0.870493 13.000000
1.150347 -1.756833 0.821745 13.000000
1.118743 -1.750967 0.809573 10.000000
1.090027 -1.748482 0.799210 22.000000
1.075922 -1.769537 0.799709 25.000000
1.054369 -1.778395 0.794799 32.000000
1.035172 -1.791035 0.791689 27.000000
1.022650 -1.815754 0.793852 24.000000
0.896922 1.628304 0.723894 24.000000
0.912225 1.613110 0.724994 24.000000
0.927319 1.597789 0.726081 29.000000
0.944583 1.586340 0.728988 22.000000
0.961666 1.574709 0.731835 31.000000
0.981093 1.566833 0.736533 25.000000
0.995468 1.550902 0.737469 22.000000
1.012188 1.538666 0.740256 30.000000
1.023663 1.518558 0.739239 24.000000
1.040118 1.506022 0.741951 31.000000
1.061801 1.500865 0.748373 27.000000
1.075380 1.484154 0.749086 28.000000
1.091453 1.470981 0.751685 31.000000
1.104669 1.454007 0.752378 24.000000
1.123358 1.444153 0.756821 27.000000
1.132413 1.423753 0.755764 37.000000
1.150838 1.413564 0.760153 37.000000
1.175186 1.410150 0.768356 37.000000
1.190611 1.395818 0.770785 36.000000
1.205065 1.381850 0.773457 35.000000
1.220248 1.367153 0.775765 36.000000
1.235248 1.352275 0.778073 26.000000
1.261893 1.351205 0.788469 35.000000
1.273623 1.332485 0.788771 41.000000
1.288308 1.316944 0.790974 43.000000
1.302136 1.301830 0.793421 81.000000
1.326426 1.295542 0.801453 47.000000
1.340112 1.279884 0.803857 37.000000
1.337529 1.247910 0.795918 66.000000
1.347355 1.229053 0.796231 37.000000
1.370728 1.222225 0.804435 29.000000
1.384311 1.205521 0.806332 35.000000
1.397161 1.189123 0.808474 35.000000
1.413404 1.175465 0.812637 65.000000
1.447324 1.176013 0.826820 36.000000
1.463540 1.161671 0.830906 35.000000
1.490521 1.155450 0.841049 49.000000
1.506574 1.140433 0.845107 29.000000
1.511618 1.117070 0.842910 33.000000
1.534847 1.107093 0.850948 36.000000
1.554333 1.094040 0.856894 37.000000
1.569987 1.078039 0.860735 50.000000
1.596859 1.069424 0.870710 50.000000
1.612391 1.052853 0.874451 42.000000
1.650358 1.051117 0.890890 62.000000
1.654176 1.026570 0.888379 32.000000
1.668908 1.009527 0.892354 34.000000
1.684018 0.991868 0.895877 50.000000
1.694516 0.972053 0.897649 39.000000
1.720808 0.960964 0.907721 71.000000
1.735062 0.942867 0.911472 59.000000
1.741536 0.919972 0.910634 58.000000
1.763577 0.905660 0.918463 51.000000
1.777370 0.886814 0.922102 34.000000
1.819293 0.881982 0.940713 31.000000
1.832989 0.862338 0.944187 37.000000
1.854767 0.846291 0.951828 36.000000
1.867835 0.826494 0.955526 61.000000
1.910142 0.818602 0.973666 40.000000
1.927188 0.799659 0.979386 36.000000
1.956765 0.785508 0.991359 68.000000
1.969372 0.764177 0.994841 28.000000
1.998740 0.748951 1.006716 34.000000
2.019562 0.730011 1.014347 52.000000
2.044535 0.712185 1.023985 51.000000
2.060778 0.690938 1.029288 49.000000
2.085316 0.672411 1.039106 71.000000
2.105364 0.652072 1.046725 37.000000
2.134157 0.633627 1.058277 62.000000
2.158298 0.613591 1.067849 32.000000
2.182013 0.593149 1.077820 33.000000
2.205907 0.572070 1.087273 36.000000
2.225213 0.549424 1.094507 34.000000
2.252907 0.528609 1.106297 36.000000
2.306892 0.512998 1.130898 52.000000
2.325568 0.488836 1.138258 35.000000
2.344063 0.464203 1.145465 39.000000
2.362129 0.439341 1.152843 29.000000
2.415776 0.420103 1.177217 36.000000
2.437888 0.394761 1.186625 61.000000
2.459894 0.369005 1.195876 43.000000
2.481622 0.342664 1.205051 37.000000
2.534266 0.319941 1.229671 64.000000
2.546591 0.291290 1.234269 42.000000
2.585477 0.265274 1.252151 44.000000
2.606149 0.236705 1.261186 29.000000
2.680287 0.211978 1.296555 41.000000
2.718420 0.183062 1.314113 62.000000
2.742654 0.152556 1.325346 39.000000
2.802625 0.123106 1.353782 36.000000
2.799361 0.090259 1.351703 37.000000
2.854141 0.058722 1.378072 42.000000
2.881543 0.025684 1.391309 35.000000
2.899651 -0.008058 1.400004 31.000000
2.926369 -0.042252 1.412949 28.000000
2.979889 -0.077780 1.438731 32.000000
3.032774 -0.114568 1.464810 32.000000
3.067314 -0.151727 1.481989 29.000000
3.137464 -0.191924 1.516331 32.000000
3.170946 -0.231182 1.533602 26.000000
3.217726 -0.272310 1.556841 28.000000
3.219036 -0.310269 1.558574 31.000000
3.188660 -0.344940 1.545006 30.000000
3.189004 -0.382741 1.546850 33.000000
3.140094 -0.413952 1.524189 32.000000
3.121994 -0.448715 1.517151 31.000000
3.112414 -0.484445 1.514237 34.000000
3.093640 -0.518474 1.506782 31.000000
3.034457 -0.545125 1.480177 25.000000
3.037363 -0.582099 1.483353 31.000000
3.004260 -0.612183 1.469446 31.000000
2.997412 -0.647253 1.468408 30.000000
2.968163 -0.677204 1.456478 32.000000
2.956360 -0.710654 1.453086 31.000000
2.930841 -0.740889 1.443440 31.000000
2.922458 -0.775137 1.442418 31.000000
2.861882 -0.794588 1.414877 21.000000
2.866055 -0.831797 1.420016 32.000000
2.847930 -0.862866 1.414714 35.000000
2.808328 -0.886531 1.398095 30.000000
2.798677 -0.919163 1.396404 32.000000
2.784054 -0.950534 1.392871 31.000000
2.760644 -0.978684 1.385068 29.000000
2.749768 -1.011017 1.383486 30.000000
2.696332 -1.027054 1.360481 24.000000
2.701776 -1.065233 1.367248 33.000000
2.669168 -1.088234 1.354752 32.000000
2.653138 -1.117581 1.350588 29.000000
2.648825 -1.152539 1.353277 36.000000
2.623968 -1.177738 1.344685 32.000000
2.602567 -1.204840 1.338712 31.000000
2.580961 -1.231459 1.332556 30.000000
2.547423 -1.251408 1.319513 26.000000
2.541763 -1.285399 1.321621 35.000000
2.531606 -1.317295 1.321614 51.000000
2.504630 -1.341005 1.313591 33.000000
2.489920 -1.370330 1.311203 37.000000
2.471066 -1.397133 1.306629 34.000000
2.444019 -1.419184 1.297890 33.000000
2.428074 -1.448227 1.295802 32.000000
2.389143 -1.462173 1.280576 27.000000
2.388196 -1.500238 1.286621 30.000000
2.364461 -1.523028 1.279642 35.000000
2.362681 -1.561074 1.285457 33.000000
2.364261 -1.601846 1.293302 26.000000
2.338982 -1.624584 1.286507 24.000000
2.306198 -1.641666 1.275620 31.000000
2.291784 -1.671549 1.274922 33.000000
2.258846 -1.687675 1.263894 27.000000
2.240363 -1.714362 1.260970 35.000000
2.217909 -1.737949 1.255917 46.000000
2.195421 -1.761168 1.250874 33.000000
2.194005 -1.801427 1.257900 52.000000
2.156883 -1.812489 1.244576 51.000000
2.154681 -1.852690 1.251362 35.000000
2.130304 -1.875629 1.246509 32.000000
2.096445 -1.888342 1.234989 25.000000
2.093089 -1.928307 1.241507 35.000000
2.064719 -1.947220 1.234486 37.000000
2.043939 -1.971306 1.230803 33.000000
2.028370 -2.002407 1.231652 36.000000
2.010376 -2.029263 1.229839 33.000000
1.997280 -2.063370 1.232433 31.000000
1.971138 -2.084062 1.227034 33.000000
1.942991 -2.100161 1.219115 26.000000
1.931988 -2.137165 1.223325 35.000000
1.905251 -2.156925 1.217842 33.000000
1.879731 -2.175469 1.211704 28.000000
1.864659 -2.208602 1.213798 34.000000
1.857873 -2.252435 1.221550 50.000000
1.835945 -2.278341 1.219610 37.000000
1.846644 -2.343051 1.238160 33.000000
1.829373 -2.376214 1.239751 26.000000
1.642168 -2.183876 1.125169 11.000000
1.538863 -2.095494 1.066356 15.000000
1.448530 -2.019895 1.015315 14.000000
1.370625 -1.957676 0.972224 18.000000
1.289145 -1.886137 0.925579 17.000000
1.227437 -1.839990 0.892264 16.000000
1.151733 -1.769221 0.847987 24.000000
1.112589 -1.751687 0.829940 18.000000
1.081395 -1.745379 0.817554 30.000000
1.067318 -1.766353 0.818069 34.000000
1.050438 -1.783300 0.816721 30.000000
1.028769 -1.791962 0.811701 35.000000
1.009325 -1.804495 0.808449 31.000000
0.906663 1.614179 0.743072 23.000000
0.924137 1.602855 0.746055 21.000000
0.941427 1.591409 0.748977 29.000000
0.949046 1.563823 0.744362 23.000000
0.970874 1.559928 0.751038 24.000000
0.985226 1.544035 0.751987 23.000000
1.004434 1.535758 0.756733 23.000000
1.021093 1.523340 0.759519 27.000000
1.032403 1.503129 0.758405 25.000000
1.053017 1.498503 0.765274 26.000000
1.066619 1.481797 0.766005 31.000000
1.082812 1.468625 0.768664 24.000000
1.104375 1.462682 0.775218 29.000000
1.111902 1.438155 0.771906 28.000000
1.133282 1.431686 0.778359 29.000000
1.142279 1.411153 0.777270 35.000000
1.166562 1.407782 0.785664 31.000000
1.190897 1.403953 0.794033 33.000000
1.199508 1.382948 0.792813 34.000000
1.214668 1.368214 0.795187 32.000000
1.229767 1.353298 0.797501 37.000000
1.243953 1.338747 0.800119 26.000000
1.265056 1.330099 0.806393 36.000000
1.279007 1.315108 0.808963 71.000000
1.293570 1.299444 0.811105 35.000000
1.310536 1.287288 0.815642 39.000000
1.334777 1.280704 0.823830 61.000000
1.344982 1.261699 0.824200 33.000000
1.361783 1.248754 0.828589 40.000000
1.375749 1.232069 0.830566 21.000000
1.395771 1.221695 0.836904 32.000000
1.391505 1.190248 0.828831 38.000000
1.421730 1.188222 0.841313 34.000000
1.420425 1.159695 0.835135 47.000000
1.464908 1.168243 0.855861 54.000000
1.484717 1.156352 0.862100 37.000000
1.511755 1.149538 0.872407 48.000000
1.502314 1.115184 0.861833 21.000000
1.521799 1.102530 0.867912 35.000000
1.541211 1.089512 0.873945 67.000000
1.564345 1.078700 0.882038 37.000000
1.579422 1.062881 0.886258 55.000000
1.606239 1.053854 0.896445 50.000000
1.633082 1.044269 0.906535 35.000000
1.655709 1.032253 0.914862 49.000000
1.663219 1.009978 0.914314 26.000000
1.677872 0.992663 0.918282 40.000000
1.696295 0.977316 0.924327 71.000000
1.702859 0.955019 0.923906 37.000000
1.717042 0.937013 0.927697 52.000000
1.739117 0.923014 0.935787 55.000000
1.753108 0.904460 0.939467 41.000000
1.766944 0.885611 0.943087 40.000000
1.829297 0.890287 0.972524 26.000000
1.822690 0.860838 0.965262 32.000000
1.839957 0.843177 0.971226 51.000000
1.865680 0.828569 0.981122 34.000000
1.878597 0.808438 0.984812 38.000000
1.916355 0.798393 1.001474 37.000000
1.941568 0.782545 1.011582 35.000000
1.962521 0.764528 1.019394 36.000000
1.983438 0.746143 1.027222 33.000000
2.008400 0.728779 1.037106 38.000000
2.033280 0.710943 1.046935 64.000000
2.049256 0.689984 1.052701 42.000000
2.069643 0.669842 1.060153 62.000000
2.098187 0.652214 1.072299 62.000000
2.122346 0.632649 1.082199 39.000000
2.159348 0.616302 1.098633 38.000000
2.170317 0.592078 1.101747 34.000000
2.198231 0.572277 1.113978 35.000000
2.230547 0.552813 1.127969 59.000000
2.253878 0.530755 1.137726 46.000000
2.298878 0.513096 1.158531 38.000000
2.313103 0.487951 1.163749 43.000000
2.340326 0.465143 1.175521 41.000000
2.358340 0.440173 1.183129 32.000000
2.407078 0.420293 1.206075 34.000000
2.433777 0.395531 1.217560 50.000000
2.451018 0.369083 1.225214 52.000000
2.481620 0.344001 1.239019 61.000000
2.511964 0.318209 1.252663 37.000000
2.546315 0.292389 1.268793 45.000000
2.580568 0.265752 1.284851 50.000000
2.587768 0.235855 1.287424 32.000000
2.661702 0.211168 1.323212 34.000000
2.699457 0.182483 1.341434 49.000000
2.736985 0.152776 1.359575 52.000000
2.783226 0.122718 1.382075 60.000000
2.802366 0.090648 1.390962 34.000000
2.838953 0.058625 1.409125 36.000000
2.875168 0.025666 1.427102 37.000000
2.915573 -0.008145 1.447108 27.000000
2.919753 -0.042282 1.449232 32.000000
2.964030 -0.077679 1.471055 32.000000
3.025578 -0.114805 1.502165 33.000000
3.050976 -0.151519 1.515290 31.000000
3.107329 -0.190781 1.543855 29.000000
3.176587 -0.232386 1.578855 30.000000
3.231796 -0.274527 1.607502 24.000000
3.210754 -0.310693 1.598181 29.000000
3.162585 -0.343430 1.575442 32.000000
3.145447 -0.378765 1.568030 33.000000
3.118703 -0.412721 1.556513 29.000000
3.118425 -0.449995 1.558086 36.000000
3.087024 -0.482208 1.543618 32.000000
3.090122 -0.519962 1.547621 30.000000
3.013762 -0.543390 1.511154 17.000000
3.003418 -0.577664 1.507693 32.000000
2.992468 -0.612044 1.504651 32.000000
2.994378 -0.649067 1.508028 36.000000
2.956572 -0.677073 1.491437 31.000000
2.940317 -0.709522 1.485791 34.000000
2.914892 -0.739764 1.476053 31.000000
2.902478 -0.772551 1.472216 30.000000
2.850545 -0.794589 1.449004 21.000000
2.828760 -0.824304 1.441106 33.000000
2.819651 -0.857437 1.439705 31.000000
2.810142 -0.890369 1.438103 35.000000
2.778789 -0.916561 1.425950 30.000000
2.773010 -0.950402 1.426350 33.000000
2.753891 -0.980118 1.420486 32.000000
2.734442 -1.009336 1.414534 26.000000
2.681243 -1.025496 1.391049 23.000000
2.674135 -1.058597 1.391475 30.000000
2.654102 -1.086582 1.385273 31.000000
2.646391 -1.119440 1.385500 34.000000
2.625868 -1.146791 1.379022 33.000000
2.608852 -1.175994 1.375207 33.000000
2.600248 -1.208318 1.375043 36.000000
2.570489 -1.231289 1.364466 25.000000
2.548704 -1.257674 1.358226 25.000000
2.530742 -1.285718 1.353959 33.000000
2.508536 -1.311384 1.347453 34.000000
2.502045 -1.345225 1.349448 52.000000
2.475401 -1.368133 1.340719 35.000000
2.452544 -1.392707 1.333960 35.000000
2.421780 -1.412445 1.322855 32.000000
2.406454 -1.440826 1.320300 29.000000
2.378617 -1.462381 1.311652 26.000000
2.378119 -1.499910 1.317408 33.000000
2.361346 -1.528242 1.315039 35.000000
2.344290 -1.556385 1.312575 35.000000
2.338857 -1.591326 1.315869 24.000000
2.324963 -1.621723 1.315308 24.000000
2.295865 -1.641463 1.306242 30.000000
2.274075 -1.666114 1.301394 26.000000
2.241163 -1.682120 1.290093 29.000000
2.208300 -1.697685 1.278829 31.000000
2.200403 -1.732312 1.282080 34.000000
2.188498 -1.764057 1.283131 49.000000
2.190322 -1.807273 1.292446 94.000000
2.174187 -1.836109 1.291180 95.000000
2.123234 -1.834954 1.269297 59.000000
2.127303 -1.881092 1.280298 26.000000
2.099248 -1.900827 1.273156 28.000000
2.072086 -1.919263 1.265561 32.000000
2.061438 -1.953051 1.268088 35.000000
2.036235 -1.974832 1.262828 32.000000
2.005369 -1.989055 1.252955 28.000000
2.002273 -2.032932 1.261787 37.000000
1.971232 -2.046469 1.251836 31.000000
1.948395 -2.070348 1.248330 26.000000
1.926506 -2.093184 1.244350 26.000000
1.906261 -2.119902 1.242747 31.000000
1.891804 -2.153206 1.245022 31.000000
1.878174 -2.185773 1.246782 35.000000
1.848026 -2.201450 1.238990 29.000000
1.835321 -2.238011 1.243062 35.000000
1.826439 -2.277283 1.248470 33.000000
1.804180 -2.302996 1.246360 21.000000
1.778851 -2.324831 1.242285 16.000000
1.623668 -2.172980 1.146616 10.000000
1.534663 -2.103318 1.096188 14.000000
1.436649 -2.016782 1.038258 15.000000
1.360626 -1.953896 0.993719 16.000000
1.282112 -1.886345 0.947959 21.000000
1.218047 -1.836497 0.912062 16.000000
1.142776 -1.765888 0.866802 13.000000
1.098920 -1.740590 0.844560 18.000000
1.082402 -1.757908 0.843260 31.000000
1.060895 -1.767071 0.838177 33.000000
1.034656 -1.768041 0.829290 34.000000
1.019962 -1.788710 0.829722 29.000000
0.906406 1.627902 0.767124 15.000000
0.919529 1.608442 0.766315 24.000000
0.934692 1.592896 0.767456 19.000000
0.956725 1.589021 0.774238 16.000000
0.966693 1.565291 0.771443 24.000000
0.993541 1.568807 0.782128 10.000000
1.003052 1.544861 0.779175 26.000000
1.004539 1.509363 0.770313 25.000000
1.033908 1.515854 0.782950 18.000000
1.053101 1.506775 0.787659 25.000000
1.064232 1.486184 0.786453 21.000000
1.084839 1.480957 0.793457 20.000000
1.095569 1.460192 0.792162 27.000000
1.117126 1.453857 0.798828 11.000000
1.135889 1.443602 0.803395 29.000000
1.136470 1.412309 0.796278 23.000000
1.163635 1.412354 0.806824 26.000000
1.176251 1.394454 0.807303 32.000000
1.190741 1.380451 0.810103 23.000000
1.208984 1.369141 0.814575 29.000000
1.227242 1.357572 0.818937 29.000000
1.247630 1.349708 0.825727 15.000000
1.259440 1.330963 0.826009 33.000000
1.273487 1.315934 0.828585 32.000000
1.290552 1.303957 0.833167 34.000000
1.301826 1.284835 0.833308 33.000000
1.318716 1.272411 0.837841 30.000000
1.342905 1.265467 0.846184 35.000000
1.356348 1.249359 0.848539 32.000000
1.379851 1.242240 0.857180 23.000000
1.389737 1.222705 0.857388 33.000000
1.406249 1.208976 0.861736 29.000000
1.422763 1.194978 0.866032 34.000000
1.428647 1.172153 0.863987 32.000000
1.451883 1.163400 0.872472 29.000000
1.468115 1.148754 0.876669 31.000000
1.491343 1.139262 0.885079 30.000000
1.503754 1.121278 0.887042 22.000000
1.519629 1.105825 0.891084 33.000000
1.535371 1.090095 0.895135 31.000000
1.557953 1.079672 0.903754 36.000000
1.573611 1.063421 0.907640 34.000000
1.592834 1.049367 0.913694 31.000000
1.607727 1.032956 0.917860 34.000000
1.630114 1.021044 0.926309 34.000000
1.645295 1.003647 0.930046 24.000000
1.671482 0.993318 0.940583 32.000000
1.678267 0.971157 0.940248 35.000000
1.696560 0.955644 0.946329 32.000000
1.702859 0.933267 0.945857 31.000000
1.732837 0.923531 0.958405 33.000000
1.742839 0.902859 0.959938 33.000000
1.784726 0.898135 0.979005 33.000000
1.802569 0.880754 0.984838 29.000000
1.819952 0.863388 0.991026 29.000000
1.841630 0.847224 0.998958 34.000000
1.850665 0.825499 1.000544 32.000000
1.892334 0.817789 1.019797 34.000000
1.905241 0.797127 1.023491 28.000000
1.930357 0.781268 1.033720 32.000000
1.942970 0.759980 1.037294 27.000000
1.955335 0.738524 1.040731 17.000000
1.997021 0.727547 1.059719 32.000000
2.017292 0.708437 1.067871 28.000000
2.037733 0.688737 1.075600 32.000000
2.070582 0.673028 1.090281 34.000000
2.090515 0.652576 1.098193 30.000000
2.114591 0.632953 1.108289 29.000000
2.142922 0.614080 1.120572 29.000000
2.123700 0.581646 1.108001 10.000000
2.185877 0.571350 1.138376 27.000000
2.226789 0.554031 1.157159 26.000000
2.250047 0.531943 1.167191 27.000000
2.273077 0.509288 1.177081 28.000000
2.295953 0.486142 1.186903 27.000000
2.314052 0.461793 1.194722 27.000000
2.349744 0.440260 1.211185 27.000000
2.367501 0.414925 1.218787 9.000000
2.402663 0.392071 1.235365 27.000000
2.424461 0.366409 1.245003 27.000000
2.476888 0.344547 1.270416 25.000000
2.506926 0.318816 1.284782 28.000000
2.523495 0.290845 1.292189 24.000000
2.548615 0.263477 1.303963 24.000000
2.609017 0.238749 1.333892 29.000000
2.629294 0.209390 1.343147 10.000000
2.675821 0.181511 1.366386 25.000000
2.690909 0.150844 1.373565 26.000000
2.745789 0.121543 1.400998 20.000000
2.791535 0.090698 1.423704 26.000000
2.818925 0.058436 1.437714 24.000000
2.859396 0.025666 1.458352 21.000000
2.846132 -0.007995 1.451537 24.000000
2.894928 -0.042152 1.476425 23.000000
2.965680 -0.078047 1.512361 25.000000
3.000172 -0.114260 1.530528 27.000000
3.020875 -0.150645 1.541778 24.000000
3.108041 -0.191666 1.586765 28.000000
3.150342 -0.231407 1.608925 24.000000
3.169617 -0.270299 1.620053 16.000000
3.188632 -0.309823 1.630959 26.000000
3.162971 -0.344820 1.619073 24.000000
3.128078 -0.378226 1.602444 27.000000
3.106197 -0.412558 1.592520 28.000000
3.079312 -0.445942 1.580661 25.000000
3.069901 -0.481463 1.577652 29.000000
3.038097 -0.513062 1.563122 21.000000
3.006073 -0.544041 1.548504 12.000000
3.017319 -0.582858 1.556915 26.000000
2.971576 -0.610107 1.535229 23.000000
2.956008 -0.643177 1.529680 25.000000
2.948869 -0.677938 1.528541 29.000000
2.915288 -0.706289 1.513784 23.000000
2.902861 -0.739640 1.510610 28.000000
2.877516 -0.769020 1.500078 24.000000
2.847360 -0.796994 1.487621 10.000000
2.842758 -0.831785 1.488553 30.000000
2.803635 -0.856135 1.471335 26.000000
2.785607 -0.886357 1.465353 28.000000
2.775927 -0.919089 1.463656 27.000000
2.744307 -0.944742 1.451179 24.000000
2.738319 -0.978432 1.451431 27.000000
2.727310 -1.010765 1.449944 26.000000
2.657505 -1.020535 1.417064 10.000000
2.662890 -1.058496 1.424219 29.000000
2.642887 -1.086535 1.417918 28.000000
2.622665 -1.114184 1.411435 28.000000
2.602325 -1.141444 1.404965 28.000000
2.585761 -1.170165 1.400528 28.000000
2.576689 -1.202777 1.400902 29.000000
2.551595 -1.227126 1.391866 24.000000
2.513695 -1.245499 1.376724 11.000000
2.515866 -1.283511 1.383424 34.000000
2.501661 -1.313264 1.381216 30.000000
2.471256 -1.334381 1.370144 30.000000
2.452734 -1.361477 1.365571 31.000000
2.426065 -1.383738 1.356637 29.000000
2.418669 -1.416998 1.358440 30.000000
2.387839 -1.436236 1.347073 26.000000
2.367761 -1.462488 1.342728 13.000000
2.363336 -1.497541 1.346403 31.000000
2.339574 -1.520392 1.339139 26.000000
2.330077 -1.553448 1.341002 29.000000
2.327633 -1.591587 1.347065 20.000000
2.292172 -1.605817 1.333072 12.000000
2.285297 -1.641155 1.336765 24.000000
2.259862 -1.663082 1.329631 25.000000
2.216213 -1.671036 1.311833 12.000000
2.208494 -1.705750 1.315230 32.000000
2.203955 -1.743341 1.320724 30.000000
2.191850 -1.775288 1.321746 58.000000
2.238713 -1.856369 1.358725 118.000000
2.235712 -1.897680 1.365852 108.000000
2.146606 -1.864659 1.320282 35.000000
2.102679 -1.869101 1.302042 25.000000
2.055564 -1.869543 1.281786 10.000000
2.062000 -1.918674 1.294946 30.000000
2.033753 -1.937568 1.287563 26.000000
2.025942 -1.974311 1.292195 29.000000
1.994069 -1.989346 1.282657 27.000000
1.976004 -2.016116 1.280850 25.000000
1.960834 -2.045968 1.280996 30.000000
1.928613 -2.059902 1.271323 21.000000
1.906795 -2.082570 1.267261 10.000000
1.895732 -2.119413 1.271743 29.000000
1.869056 -2.139074 1.266000 24.000000
1.849626 -2.164473 1.263758 26.000000
1.828411 -2.190608 1.261977 28.000000
1.812805 -2.223527 1.264122 24.000000
1.809632 -2.269827 1.273688 28.000000
1.776035 -2.281039 1.263521 10.000000
1.773007 -2.331897 1.275348 9.000000
1.616106 -2.176751 1.175669 10.000000
1.523455 -2.099007 1.119724 9.000000
1.431307 -2.020181 1.064495 10.000000
1.348973 -1.950747 1.015529 10.000000
1.281323 -1.898579 0.976608 10.000000
1.204817 -1.829669 0.930123 10.000000
1.140038 -1.774666 0.891666 10.000000
1.093696 -1.745684 0.866976 13.000000
1.069858 -1.751182 0.859838 28.000000
1.045987 -1.756426 0.852729 27.000000
1.036061 -1.785313 0.857086 30.000000
1.016486 -1.798067 0.853744 27.000000
0.904634 1.593251 0.776615 20.000000
0.922003 1.581773 0.779652 23.000000
0.936829 1.566168 0.780721 27.000000
0.982746 1.601276 0.807378 15.000000
0.965922 1.534531 0.782695 26.000000
0.985106 1.526270 0.787577 23.000000
1.000635 1.514487 0.790779 22.000000
1.017191 1.501858 0.793619 29.000000
1.036237 1.492869 0.798471 24.000000
1.057896 1.487361 0.805294 27.000000
1.068767 1.466760 0.803983 29.000000
1.086642 1.457580 0.809045 18.000000
1.097133 1.436781 0.807638 33.000000
1.115714 1.426658 0.812282 27.000000
1.133343 1.416830 0.817243 31.000000
1.143237 1.395632 0.815735 35.000000
1.161511 1.384920 0.820278 28.000000
1.181913 1.377894 0.827272 37.000000
1.200195 1.366577 0.831787 32.000000
1.223586 1.362314 0.840793 28.000000
1.232566 1.340379 0.839006 37.000000
1.252918 1.332183 0.845835 33.000000
1.270884 1.319892 0.850276 35.000000
1.284877 1.304604 0.852866 60.000000
1.295533 1.285940 0.853276 35.000000
1.316361 1.276131 0.859673 37.000000
1.326673 1.257137 0.860016 33.000000
1.350125 1.250387 0.868825 34.000000
1.356777 1.227990 0.866904 34.000000
1.373323 1.214605 0.871398 29.000000
1.386456 1.198002 0.873629 36.000000
1.409682 1.190004 0.882331 37.000000
1.436450 1.184375 0.893165 31.000000
1.428251 1.150028 0.882301 40.000000
1.458433 1.146680 0.895278 33.000000
1.481654 1.137172 0.903823 29.000000
1.486866 1.113794 0.901421 32.000000
1.517240 1.109037 0.914311 34.000000
1.528848 1.091050 0.916544 36.000000
1.551898 1.080187 0.924985 47.000000
1.567046 1.064272 0.929371 33.000000
1.593730 1.055120 0.939870 54.000000
1.608743 1.038571 0.944162 45.000000
1.624070 1.021346 0.948005 30.000000
1.650256 1.011313 0.958777 34.000000
1.664912 0.993899 0.962912 35.000000
1.683355 0.978511 0.969152 42.000000
1.693909 0.958333 0.970944 52.000000
1.712099 0.942335 0.977075 37.000000
1.718360 0.919754 0.976503 42.000000
1.740231 0.905250 0.984762 47.000000
1.757715 0.888716 0.991133 36.000000
1.799535 0.883325 1.010551 34.000000
1.813225 0.863663 1.014175 33.000000
1.834575 0.847716 1.022595 37.000000
1.859840 0.833236 1.033229 35.000000
1.876944 0.814680 1.039292 35.000000
1.902132 0.799243 1.049832 52.000000
1.935441 0.786628 1.064868 35.000000
1.943957 0.763585 1.066156 28.000000
1.956421 0.741905 1.069649 33.000000
1.993784 0.729227 1.086744 40.000000
2.005622 0.707124 1.090481 34.000000
2.038404 0.691998 1.105572 47.000000
2.058693 0.671691 1.113317 49.000000
2.070068 0.648646 1.116794 41.000000
2.098349 0.630468 1.129365 45.000000
2.113433 0.608176 1.135306 35.000000
2.149984 0.591269 1.152281 35.000000
2.173369 0.570424 1.162697 48.000000
2.201161 0.549861 1.174888 34.000000
2.228525 0.528944 1.187408 35.000000
2.242854 0.504516 1.192880 37.000000
2.295729 0.488188 1.219422 52.000000
2.292276 0.459243 1.215455 56.000000
2.327531 0.437884 1.232577 30.000000
2.388868 0.420416 1.263418 34.000000
2.419544 0.396422 1.278036 41.000000
2.445678 0.371143 1.290188 53.000000
2.462849 0.344034 1.297638 39.000000
2.488341 0.317736 1.309894 54.000000
2.513547 0.290919 1.322163 55.000000
2.565077 0.266241 1.348077 41.000000
2.581066 0.237085 1.355383 29.000000
2.649811 0.211853 1.390411 36.000000
2.660756 0.181236 1.395505 33.000000
2.684615 0.151065 1.407466 36.000000
2.730349 0.121261 1.430842 40.000000
2.758136 0.089929 1.444851 37.000000
2.785371 0.057875 1.459054 36.000000
2.834472 0.025488 1.484766 32.000000
2.887718 -0.008158 1.512605 35.000000
2.918520 -0.042635 1.528744 35.000000
2.957869 -0.078179 1.549316 38.000000
3.014290 -0.115239 1.579468 36.000000
3.056971 -0.153096 1.602450 37.000000
3.108235 -0.192441 1.629957 44.000000
3.145746 -0.232061 1.650281 33.000000
3.213548 -0.275266 1.687143 31.000000
3.179459 -0.310135 1.670481 35.000000
3.158209 -0.345721 1.660666 34.000000
3.114677 -0.378221 1.639065 33.000000
3.106178 -0.414258 1.635887 37.000000
3.096937 -0.450407 1.633034 38.000000
3.065491 -0.482788 1.618408 35.000000
3.060043 -0.518997 1.617554 34.000000
3.028096 -0.550341 1.602630 29.000000
3.000182 -0.581806 1.589927 35.000000
2.963145 -0.611069 1.572942 32.000000
2.960924 -0.646774 1.573685 34.000000
2.940655 -0.678796 1.565735 44.000000
2.915828 -0.709255 1.555184 35.000000
2.899076 -0.741713 1.549657 34.000000
2.869505 -0.770101 1.536630 29.000000
2.830894 -0.795681 1.519440 27.000000
2.809518 -0.825158 1.510745 32.000000
2.796118 -0.857139 1.507046 31.000000
2.782345 -0.888819 1.503152 34.000000
2.755242 -0.916388 1.492805 32.000000
2.749482 -0.950324 1.493295 32.000000
2.713975 -0.973641 1.477617 30.000000
2.686412 -0.999666 1.467022 31.000000
2.650285 -1.021991 1.451699 26.000000
2.647168 -1.056738 1.454492 30.000000
2.647803 -1.093284 1.459446 35.000000
2.615239 -1.115838 1.446150 31.000000
2.594813 -1.143201 1.439482 33.000000
2.586354 -1.175713 1.439510 34.000000
2.561501 -1.200456 1.430408 29.000000
2.539919 -1.227239 1.424064 29.000000
2.506240 -1.247666 1.410788 27.000000
2.492846 -1.277038 1.408205 31.000000
2.482543 -1.308876 1.408247 36.000000
2.468074 -1.338390 1.405947 34.000000
2.445408 -1.363453 1.399082 32.000000
2.434294 -1.394715 1.398829 33.000000
2.411270 -1.419067 1.391792 31.000000
2.395821 -1.447678 1.389122 32.000000
2.361044 -1.464288 1.375265 27.000000
2.348175 -1.495172 1.375115 29.000000
2.335822 -1.525388 1.374387 32.000000
2.318643 -1.553576 1.371919 30.000000
2.309341 -1.585994 1.373188 25.000000
2.269596 -1.598279 1.357344 20.000000
2.248883 -1.622336 1.351853 24.000000
2.245364 -1.660049 1.357774 26.000000
2.198292 -1.665322 1.337383 25.000000
2.183421 -1.694459 1.336567 26.000000
2.185837 -1.737411 1.346506 35.000000
2.159737 -1.757928 1.338956 32.000000
2.171673 -1.809839 1.355202 95.000000
2.134708 -1.821127 1.340979 62.000000
2.084177 -1.819937 1.318208 29.000000
2.088016 -1.865979 1.329761 27.000000
2.061100 -1.884760 1.321888 22.000000
2.027523 -1.897014 1.309772 26.000000
2.013542 -1.927350 1.310278 33.000000
1.985269 -1.945732 1.302839 28.000000
1.986772 -1.991794 1.313807 27.000000
1.956051 -2.005652 1.303499 31.000000
1.939676 -2.036267 1.304217 25.000000
1.927292 -2.069220 1.306441 25.000000
1.891872 -2.079453 1.294463 18.000000
1.884968 -2.118816 1.300635 26.000000
1.873191 -2.155684 1.305235 30.000000
1.832801 -2.157107 1.288399 23.000000
1.817513 -2.190113 1.290703 26.000000
1.801705 -2.223049 1.292874 29.000000
1.786915 -2.255043 1.294524 24.000000
1.775940 -2.295038 1.300609 15.000000
1.725742 -2.283992 1.277995 9.000000
1.609721 -2.179412 1.204169 9.000000
1.518717 -2.106512 1.149590 10.000000
1.427117 -2.027951 1.093163 10.000000
1.334728 -1.943588 1.035092 10.000000
1.262350 -1.883970 0.991420 10.000000
1.210369 -1.848907 0.961485 10.000000
1.140760 -1.786500 0.918205 10.000000
1.084761 -1.742138 0.885119 10.000000
1.070431 -1.763429 0.885791 15.000000
1.053452 -1.780609 0.884331 18.000000
1.031653 -1.789738 0.879008 21.000000
0.898748 1.593966 0.794518 29.000000
0.914943 1.583008 0.797927 28.000000
0.932295 1.571318 0.800971 26.000000
0.956664 1.571171 0.810060 28.000000
0.956821 1.531879 0.798968 25.000000
0.975981 1.523551 0.803952 26.000000
0.990152 1.507408 0.804875 32.000000
1.014312 1.506225 0.813903 29.000000
1.029738 1.493958 0.817061 34.000000
1.038309 1.469798 0.813735 35.000000
1.057132 1.460347 0.818575 31.000000
1.078625 1.454362 0.825442 32.000000
1.088130 1.434062 0.824315 32.000000
1.106809 1.423993 0.829062 35.000000
1.124355 1.414158 0.834126 52.000000
1.140023 1.400008 0.836738 34.000000
1.155570 1.385737 0.839288 51.000000
1.170024 1.371769 0.842143 36.000000
1.191223 1.363892 0.848877 47.000000
1.205566 1.349487 0.851685 53.000000
1.222837 1.338237 0.856506 31.000000
1.250114 1.336137 0.867460 43.000000
1.267387 1.324258 0.872266 52.000000
1.275076 1.302446 0.870619 36.000000
1.292878 1.289664 0.875061 78.000000
1.309885 1.277113 0.879762 53.000000
1.326774 1.264298 0.884413 49.000000
1.343606 1.251281 0.889076 62.000000
1.353727 1.231880 0.889257 24.000000
1.363658 1.212437 0.889426 36.000000
1.383512 1.201725 0.896173 51.000000
1.420483 1.205245 0.913828 36.000000
1.412802 1.170720 0.902801 39.000000
1.435990 1.162019 0.911623 37.000000
1.455721 1.150035 0.918133 35.000000
1.482479 1.143224 0.929109 35.000000
1.498557 1.127802 0.933377 26.000000
1.499570 1.102017 0.928979 37.000000
1.515328 1.086277 0.933122 62.000000
1.541427 1.078453 0.944321 35.000000
1.557065 1.062083 0.948367 42.000000
1.586916 1.055837 0.961753 37.000000
1.598188 1.036812 0.963773 42.000000
1.624799 1.026729 0.974446 36.000000
1.624396 1.000186 0.969622 25.000000
1.654275 0.992115 0.982866 34.000000
1.672668 0.976719 0.989264 51.000000
1.687092 0.958806 0.993268 51.000000
1.697470 0.938448 0.994998 40.000000
1.723383 0.926379 1.005737 52.000000
1.733051 0.905969 1.007684 35.000000
1.750910 0.889045 1.013749 40.000000
1.784180 0.879990 1.029356 26.000000
1.809904 0.866053 1.039926 33.000000
1.831219 0.850070 1.048563 45.000000
1.844359 0.830021 1.052468 31.000000
1.869452 0.815051 1.063245 35.000000
1.886392 0.796107 1.069348 36.000000
1.894992 0.773548 1.070687 32.000000
1.940460 0.765404 1.092910 32.000000
1.957072 0.745269 1.098778 28.000000
1.981556 0.728135 1.109599 33.000000
2.010417 0.711718 1.122333 48.000000
2.026292 0.690669 1.128319 35.000000
2.050485 0.672028 1.138910 41.000000
2.066141 0.650258 1.144774 43.000000
2.085787 0.629414 1.152911 34.000000
2.105063 0.608345 1.161289 35.000000
2.137269 0.590273 1.176256 31.000000
2.160553 0.569420 1.186864 34.000000
2.196469 0.551231 1.204379 33.000000
2.215219 0.528157 1.212367 35.000000
2.229496 0.503725 1.217935 33.000000
2.278015 0.486379 1.242253 47.000000
2.296306 0.461838 1.249960 35.000000
2.318420 0.437888 1.260355 31.000000
2.375096 0.419581 1.289460 31.000000
2.401271 0.394947 1.302004 34.000000
2.418555 0.368385 1.309673 34.000000
2.452833 0.344047 1.327049 41.000000
2.465348 0.316011 1.332116 35.000000
2.507924 0.291326 1.353985 36.000000
2.559188 0.266621 1.380424 36.000000
2.579229 0.237942 1.390686 32.000000
2.625740 0.210782 1.414520 29.000000
2.640930 0.180568 1.422166 32.000000
2.677849 0.151284 1.441468 33.000000
2.705827 0.120680 1.455858 34.000000
2.764269 0.090459 1.486632 34.000000
2.791357 0.058238 1.501222 32.000000
2.818164 0.025391 1.515527 33.000000
2.849086 -0.008095 1.532202 28.000000
2.906131 -0.042700 1.562787 34.000000
2.949550 -0.078311 1.586159 32.000000
2.983630 -0.114628 1.605098 29.000000
3.034964 -0.152559 1.633401 33.000000
3.077026 -0.191299 1.656647 29.000000
3.145173 -0.232927 1.693967 32.000000
3.172944 -0.272934 1.710418 26.000000
3.130614 -0.306579 1.688145 27.000000
3.127018 -0.343621 1.687601 35.000000
3.109974 -0.379064 1.679750 33.000000
3.092422 -0.414196 1.672339 33.000000
3.070439 -0.448271 1.661816 35.000000
3.030450 -0.479180 1.642295 30.000000
3.024928 -0.515076 1.641339 28.000000
2.993165 -0.546222 1.626242 24.000000
2.965518 -0.577383 1.613203 30.000000
2.954509 -0.611713 1.610118 34.000000
2.930383 -0.642999 1.599664 33.000000
2.905925 -0.673875 1.589223 29.000000
2.894108 -0.707279 1.585636 32.000000
2.869176 -0.737183 1.574806 32.000000
2.826976 -0.761879 1.554513 25.000000
2.818276 -0.795568 1.553400 24.000000
2.792826 -0.823851 1.542118 28.000000
2.783575 -0.857034 1.540811 30.000000
2.778232 -0.891467 1.541537 34.000000
2.739001 -0.914595 1.523494 28.000000
2.724758 -0.945627 1.519370 33.000000
2.689137 -0.969256 1.504008 32.000000
2.674443 -0.999447 1.499613 24.000000
2.638449 -1.021741 1.484006 19.000000
2.627041 -1.053235 1.482348 29.000000
2.615341 -1.084533 1.480398 30.000000
2.607324 -1.117480 1.480762 35.000000
2.578800 -1.141260 1.469372 30.000000
2.574352 -1.175611 1.471851 33.000000
2.549554 -1.200411 1.462605 32.000000
2.528001 -1.227249 1.456066 25.000000
2.486864 -1.243193 1.437481 24.000000
2.484769 -1.279192 1.442258 34.000000
2.463283 -1.304305 1.434898 30.000000
2.452646 -1.335995 1.434982 35.000000
2.426243 -1.358795 1.425648 32.000000
2.415033 -1.390007 1.425445 32.000000
2.407416 -1.423387 1.427412 43.000000
2.361328 -1.433636 1.406579 25.000000
2.326801 -1.449946 1.392421 18.000000
2.329163 -1.490304 1.401471 30.000000
2.309255 -1.515481 1.396283 29.000000
2.307636 -1.552937 1.402168 34.000000
2.286564 -1.578348 1.397355 25.000000
2.251331 -1.592492 1.382921 18.000000
2.248017 -1.630296 1.389044 30.000000
2.212716 -1.643487 1.374476 23.000000
2.180138 -1.659430 1.362656 21.000000
2.179403 -1.699537 1.370682 35.000000
2.160573 -1.725804 1.367575 34.000000
2.148498 -1.757561 1.368797 39.000000
2.118910 -1.774797 1.358873 36.000000
2.106175 -1.806209 1.359985 35.000000
2.076338 -1.822685 1.349911 32.000000
2.059788 -1.850651 1.348534 24.000000
2.042984 -1.878510 1.347146 21.000000
2.019276 -1.899904 1.341296 33.000000
2.002030 -1.927278 1.339708 31.000000
1.978013 -1.948029 1.333683 32.000000
1.962274 -1.978965 1.334618 30.000000
1.947339 -2.008926 1.334964 31.000000
1.919557 -2.025644 1.326603 33.000000
1.915151 -2.069304 1.335864 24.000000
1.884055 -2.082097 1.325273 22.000000
1.870972 -2.114722 1.327390 32.000000
1.856144 -2.148137 1.329849 31.000000
1.839318 -2.177160 1.329676 35.000000
1.800513 -2.182419 1.315107 28.000000
1.793216 -2.225899 1.323715 31.000000
1.772762 -2.250807 1.321098 30.000000
1.747632 -2.272759 1.316958 18.000000
1.707554 -2.271748 1.299667 9.000000
