x y z intensity
2.001801 0.412000 -0.853878 20.000000
1.997070 0.387328 -0.850629 15.000000
2.014788 0.366861 -0.856957 17.000000
1.995917 0.339887 -0.847776 10.000000
2.040391 0.323545 -0.865771 21.000000
2.016504 0.296011 -0.854446 26.000000
2.024175 0.273563 -0.856785 16.000000
2.036165 0.251440 -0.860992 22.000000
2.025002 0.226611 -0.855660 29.000000
2.022775 0.202883 -0.853859 21.000000
2.024861 0.179735 -0.854128 21.000000
2.008296 0.155100 -0.846581 10.000000
2.032825 0.133606 -0.856604 22.000000
2.020434 0.109522 -0.850790 25.000000
2.026111 0.086609 -0.852863 24.000000
2.022310 0.063235 -0.850991 21.000000
2.018238 0.039966 -0.849186 29.000000
1.995463 0.016650 -0.839625 29.000000
1.216351 -0.031663 -0.511717 108.000000
1.188313 -0.044564 -0.500009 95.000000
1.183158 -0.057960 -0.497992 95.000000
1.182413 -0.071489 -0.497953 69.000000
1.181629 -0.085018 -0.497757 32.000000
1.235735 -0.103149 -0.520835 95.000000
1.705637 -0.221400 -0.721003 35.000000
1.821911 -0.257716 -0.770895 29.000000
1.878191 -0.287739 -0.795698 28.000000
1.938763 -0.319682 -0.822151 21.000000
1.989633 -0.351544 -0.844842 9.000000
2.022026 -0.381172 -0.859661 21.000000
2.008759 -0.402497 -0.855196 16.000000
2.031303 -0.431282 -0.866203 16.000000
2.026566 -0.454491 -0.865379 16.000000
2.030469 -0.479822 -0.868605 17.000000
2.034119 -0.505360 -0.871686 20.000000
2.019640 -0.526308 -0.867018 14.000000
2.004799 -0.547119 -0.862564 10.000000
2.025476 -0.577584 -0.873091 16.000000
2.023433 -0.602211 -0.874238 13.000000
2.029977 -0.629538 -0.879065 17.000000
2.027426 -0.654260 -0.880062 18.000000
2.015869 -0.676004 -0.877100 10.000000
1.999697 -0.696057 -0.872238 13.000000
2.022526 -0.729897 -0.884363 10.000000
1.997038 -0.746762 -0.875841 9.000000
2.006207 -0.776230 -0.882163 15.000000
2.019101 -0.807884 -0.890501 10.000000
2.031521 -0.839962 -0.898815 14.000000
2.000957 -0.854285 -0.888135 10.000000
1.991634 -0.877234 -0.886844 10.000000
2.007253 -0.911602 -0.896785 15.000000
1.993107 -0.932590 -0.893452 10.000000
1.978785 -0.953410 -0.890124 9.000000
2.017905 -1.001129 -0.911398 21.000000
1.986430 -1.013582 -0.900334 10.000000
1.987446 -1.043093 -0.904620 16.000000
1.984386 -1.070096 -0.906578 14.000000
1.984697 -1.099832 -0.910682 12.000000
1.996738 -1.136590 -0.920270 15.000000
1.976182 -1.154942 -0.914896 10.000000
1.967452 -1.180200 -0.915019 9.000000
1.997931 -1.229674 -0.933621 13.000000
1.980593 -1.250233 -0.929927 10.000000
1.962925 -1.270548 -0.926163 10.000000
1.964609 -1.303396 -0.931517 10.000000
1.938834 -1.318140 -0.924005 10.000000
1.955078 -1.361719 -0.936562 11.000000
1.959261 -1.397658 -0.943500 9.000000
1.928525 -1.409623 -0.934321 8.000000
1.943097 -1.454103 -0.946586 10.000000
1.930498 -1.479674 -0.946412 10.000000
1.940323 -1.521876 -0.956681 10.000000
1.930563 -1.550478 -0.958111 10.000000
1.921162 -1.578440 -0.959198 9.000000
1.932166 -1.624915 -0.971284 10.000000
1.921993 -1.652962 -0.972140 9.000000
1.903599 -1.675498 -0.969738 8.000000
1.912811 -1.722716 -0.981502 13.000000
1.891212 -1.741241 -0.976784 10.000000
1.902541 -1.792167 -0.990123 10.000000
1.896311 -1.827413 -0.994545 10.000000
1.876208 -1.849491 -0.991710 9.000000
1.888812 -1.904637 -1.006527 11.000000
1.868965 -1.925884 -1.003205 9.000000
1.860793 -1.961251 -1.007214 8.000000
1.877563 -2.024148 -1.025106 12.000000
1.855454 -2.045988 -1.021960 10.000000
1.861176 -2.099150 -1.034291 10.000000
1.844513 -2.127869 -1.034454 10.000000
1.839564 -2.170785 -1.041470 10.000000
1.836961 -2.217467 -1.050039 13.000000
1.827804 -2.257054 -1.055021 10.000000
1.826725 -2.307764 -1.065048 9.000000
1.821942 -2.355012 -1.073287 19.000000
1.806337 -2.392152 -1.076668 18.000000
1.797351 -2.435778 -1.082884 28.000000
1.760136 -2.441394 -1.072248 24.000000
1.744663 -2.477281 -1.075035 26.000000
1.726090 -2.509145 -1.076108 25.000000
1.712332 -2.548730 -1.080265 21.000000
1.693669 -2.585379 -1.083205 10.000000
1.668428 -2.609046 -1.080654 25.000000
1.650604 -2.644391 -1.082913 22.000000
1.627322 -2.671597 -1.081851 26.000000
1.613803 -2.719956 -1.089310 23.000000
1.591816 -2.751020 -1.089785 19.000000
1.574013 -2.790290 -1.093348 22.000000
1.553481 -2.830358 -1.097261 18.000000
0.776827 1.424913 -0.538654 11.000000
0.782698 1.399170 -0.534572 19.000000
0.817431 1.422308 -0.549231 17.000000
0.822854 1.396368 -0.545073 26.000000
0.847472 1.402880 -0.553665 21.000000
0.863258 1.392426 -0.555619 26.000000
0.875450 1.378294 -0.556171 25.000000
0.900405 1.383890 -0.564803 19.000000
0.907289 1.361541 -0.562060 22.000000
0.917319 1.342543 -0.560648 18.000000
0.942429 1.347321 -0.569291 25.000000
0.951321 1.328596 -0.568079 28.000000
0.968260 1.321264 -0.571732 24.000000
0.991692 1.320724 -0.578491 29.000000
1.000043 1.301655 -0.577203 26.000000
1.031438 1.312159 -0.589154 21.000000
1.033722 1.285423 -0.584419 22.000000
1.053486 1.280576 -0.589692 22.000000
1.076332 1.279086 -0.596668 30.000000
1.087020 1.262897 -0.596878 31.000000
1.106851 1.257212 -0.602151 26.000000
1.136112 1.261759 -0.612482 33.000000
1.143348 1.241512 -0.610951 29.000000
1.163214 1.234988 -0.616172 25.000000
1.166821 1.211178 -0.612854 29.000000
1.193115 1.210901 -0.621469 24.000000
1.209594 1.200178 -0.624903 32.000000
1.229402 1.192532 -0.630073 33.000000
1.266149 1.200701 -0.643916 26.000000
1.282131 1.189529 -0.647582 37.000000
1.312468 1.190190 -0.657936 32.000000
1.321939 1.171682 -0.657863 32.000000
1.327686 1.150017 -0.655975 28.000000
1.354051 1.146958 -0.664823 20.000000
1.363052 1.128013 -0.664568 32.000000
1.389949 1.123745 -0.673175 34.000000
1.434868 1.133933 -0.690825 30.000000
1.451039 1.119906 -0.694027 36.000000
1.470406 1.108907 -0.699311 30.000000
1.482610 1.091592 -0.700754 27.000000
1.513236 1.088154 -0.711291 26.000000
1.528625 1.073486 -0.714722 25.000000
1.552081 1.063336 -0.721435 30.000000
1.578976 1.055818 -0.730148 33.000000
1.594186 1.040171 -0.733499 27.000000
1.625066 1.034328 -0.744000 35.000000
1.648105 1.022925 -0.750864 32.000000
1.687004 1.020710 -0.764919 29.000000
1.722127 1.015419 -0.777209 32.000000
1.749284 1.004735 -0.785843 30.000000
1.768316 0.988998 -0.790800 33.000000
1.791338 0.975234 -0.797591 36.000000
1.822467 0.965345 -0.807980 30.000000
1.849222 0.953053 -0.816776 35.000000
1.880391 0.941989 -0.827085 35.000000
1.911303 0.930652 -0.837698 29.000000
1.938302 0.916429 -0.846156 26.000000
1.969208 0.903899 -0.856685 16.000000
1.978879 0.881287 -0.857964 18.000000
2.005403 0.865903 -0.866548 26.000000
2.001795 0.837430 -0.862228 21.000000
1.997927 0.809182 -0.857822 20.000000
2.010960 0.787866 -0.860664 22.000000
2.002103 0.758087 -0.854246 16.000000
2.001401 0.732035 -0.851730 21.000000
1.978673 0.698112 -0.839568 19.000000
1.981727 0.673995 -0.838743 20.000000
2.006524 0.657062 -0.847154 23.000000
2.000260 0.629901 -0.842465 17.000000
2.011390 0.608276 -0.845159 20.000000
2.013502 0.583898 -0.844052 21.000000
1.997436 0.554521 -0.835397 11.000000
2.021228 0.536498 -0.843698 16.000000
2.013389 0.509961 -0.838838 16.000000
2.032445 0.490047 -0.844937 21.000000
2.023984 0.463750 -0.840205 21.000000
2.024377 0.439593 -0.838875 20.000000
2.033623 0.417266 -0.841230 23.000000
2.028900 0.392332 -0.838087 21.000000
2.019376 0.366643 -0.832991 13.000000
2.018662 0.342750 -0.831583 17.000000
2.017728 0.318893 -0.830038 16.000000
2.016443 0.295209 -0.828693 21.000000
2.019531 0.272180 -0.829095 20.000000
2.026947 0.249651 -0.831316 20.000000
2.038776 0.227462 -0.835357 24.000000
2.036467 0.203748 -0.833808 23.000000
2.034013 0.180004 -0.832056 18.000000
2.035897 0.156721 -0.832191 18.000000
2.037377 0.133506 -0.832527 18.000000
2.029544 0.109723 -0.828752 21.000000
2.039867 0.086940 -0.832729 25.000000
2.031420 0.063302 -0.828953 21.000000
2.031956 0.040125 -0.829154 19.000000
2.055370 0.017141 -0.838665 24.000000
2.009144 -0.006225 -0.819776 25.000000
1.494890 -0.038788 -0.609864 113.000000
1.193667 -0.044604 -0.487096 115.000000
1.193116 -0.058225 -0.486978 103.000000
2.072007 -0.172445 -0.846808 24.000000
2.056053 -0.194771 -0.841082 16.000000
2.076901 -0.220697 -0.850029 24.000000
2.074424 -0.244438 -0.849754 23.000000
2.071602 -0.268112 -0.849410 20.000000
2.059469 -0.290491 -0.845164 21.000000
2.074568 -0.316718 -0.852140 26.000000
2.052687 -0.337421 -0.844204 9.000000
2.044355 -0.360049 -0.841777 20.000000
2.058539 -0.386851 -0.848741 15.000000
2.040629 -0.407578 -0.842423 24.000000
2.045108 -0.432860 -0.845694 21.000000
2.062910 -0.461316 -0.854443 21.000000
2.066926 -0.486821 -0.857282 21.000000
2.065906 -0.511696 -0.858664 23.000000
2.037791 -0.529399 -0.848479 10.000000
2.049944 -0.557475 -0.855046 18.000000
2.048187 -0.582225 -0.856143 18.000000
2.055017 -0.609646 -0.860963 17.000000
2.048320 -0.633192 -0.860046 18.000000
2.054526 -0.660860 -0.864709 18.000000
2.073705 -0.693104 -0.874788 22.000000
2.048612 -0.710661 -0.866290 18.000000
2.023152 -0.727888 -0.857952 9.000000
2.041355 -0.760651 -0.867853 18.000000
2.032982 -0.784052 -0.866780 14.000000
2.037200 -0.812546 -0.871244 18.000000
2.036863 -0.839423 -0.873778 18.000000
2.036161 -0.866425 -0.876230 14.000000
2.056450 -0.902751 -0.887790 19.000000
2.038100 -0.922426 -0.882719 13.000000
2.011179 -0.937827 -0.873995 9.000000
2.030058 -0.975149 -0.885566 24.000000
2.044533 -1.010640 -0.894974 17.000000
2.033318 -1.034192 -0.893628 20.000000
2.026304 -1.059453 -0.893728 20.000000
2.026850 -1.089444 -0.897757 16.000000
2.027025 -1.119570 -0.901692 23.000000
2.010610 -1.140552 -0.898289 12.000000
1.994018 -1.161365 -0.894816 9.000000
2.001266 -1.196213 -0.902176 13.000000
1.980191 -1.214377 -0.896819 10.000000
2.026137 -1.274359 -0.921953 16.000000
2.012282 -1.297529 -0.920075 14.000000
2.002009 -1.323195 -0.919829 10.000000
1.987577 -1.346097 -0.917868 11.000000
1.976357 -1.371976 -0.917847 10.000000
1.976739 -1.405361 -0.922837 8.000000
1.987990 -1.447110 -0.933037 10.000000
1.968029 -1.467590 -0.929340 10.000000
1.974559 -1.506968 -0.937612 11.000000
1.968848 -1.538623 -0.940790 10.000000
1.945076 -1.555184 -0.934832 10.000000
1.953151 -1.598594 -0.944911 15.000000
1.938977 -1.624301 -0.944440 10.000000
1.953785 -1.673656 -0.957416 9.000000
1.942322 -1.702622 -0.958550 10.000000
1.933962 -1.734547 -0.961317 10.000000
1.925141 -1.766547 -0.963973 10.000000
1.913374 -1.794641 -0.964449 10.000000
1.910609 -1.833069 -0.970408 10.000000
1.910582 -1.875009 -0.978035 10.000000
1.913267 -1.920487 -0.987229 10.000000
1.921739 -1.972886 -0.999676 9.000000
1.906675 -2.001960 -1.000128 13.000000
1.900901 -2.041333 -1.005556 13.000000
1.897650 -2.084198 -1.012622 18.000000
1.900024 -2.134262 -1.022905 14.000000
1.898513 -2.181079 -1.031422 20.000000
1.880917 -2.210178 -1.031398 23.000000
1.869101 -2.246384 -1.034689 23.000000
1.880493 -2.311849 -1.051147 28.000000
1.843773 -2.318778 -1.040949 26.000000
1.818762 -2.340051 -1.037308 27.000000
1.793560 -2.361037 -1.033666 28.000000
1.769542 -2.386392 -1.031953 24.000000
1.757779 -2.425967 -1.036480 25.000000
1.745413 -2.465477 -1.040754 27.000000
1.724370 -2.493343 -1.040099 24.000000
1.722464 -2.553399 -1.052749 24.000000
1.687335 -2.561408 -1.043844 21.000000
1.685563 -2.620715 -1.055836 24.000000
1.655131 -2.636180 -1.050121 25.000000
1.630204 -2.664216 -1.049497 21.000000
1.611571 -2.699406 -1.051618 21.000000
1.582840 -2.718021 -1.047268 22.000000
1.568268 -2.766142 -1.054338 17.000000
1.566281 -2.834208 -1.068747 21.000000
0.779811 1.423140 -0.522926 16.000000
0.786553 1.396882 -0.518746 30.000000
0.806118 1.395913 -0.523997 26.000000
0.824216 1.390069 -0.527463 29.000000
0.841365 1.384532 -0.531147 29.000000
0.858496 1.378781 -0.534792 30.000000
0.876603 1.372241 -0.538240 30.000000
0.896297 1.369977 -0.543484 31.000000
0.894986 1.335857 -0.536050 23.000000
0.910038 1.324943 -0.537860 32.000000
0.932286 1.325970 -0.544603 25.000000
0.949143 1.319013 -0.548184 29.000000
0.968786 1.315597 -0.553329 32.000000
0.985690 1.308059 -0.556939 28.000000
1.006203 1.303619 -0.561857 29.000000
1.034772 1.310446 -0.571923 31.000000
1.027979 1.272686 -0.562429 20.000000
1.047621 1.267989 -0.567592 35.000000
1.064265 1.259438 -0.571087 35.000000
1.087056 1.257749 -0.577822 37.000000
1.106790 1.252202 -0.582942 36.000000
1.130442 1.249304 -0.589462 31.000000
1.143897 1.236121 -0.591259 36.000000
1.160430 1.226255 -0.594718 29.000000
1.193375 1.233032 -0.606463 21.000000
1.193445 1.205750 -0.601501 43.000000
1.206464 1.191852 -0.603204 35.000000
1.225594 1.184774 -0.608489 43.000000
1.255570 1.186635 -0.618517 54.000000
1.271907 1.175156 -0.621831 35.000000
1.295183 1.169791 -0.628542 44.000000
1.318496 1.163956 -0.635222 36.000000
1.324103 1.142406 -0.633415 22.000000
1.354038 1.142517 -0.643712 35.000000
1.373771 1.132674 -0.648630 35.000000
1.389804 1.119543 -0.651849 36.000000
1.409010 1.109523 -0.656971 34.000000
1.443514 1.110195 -0.668770 33.000000
1.474050 1.107831 -0.679067 35.000000
1.501350 1.101660 -0.687372 34.000000
1.509230 1.081725 -0.687272 21.000000
1.532658 1.072081 -0.693818 43.000000
1.547974 1.057190 -0.697144 34.000000
1.571390 1.046855 -0.703602 45.000000
1.602217 1.041541 -0.713888 46.000000
1.625224 1.030698 -0.720580 35.000000
1.648205 1.019397 -0.727292 36.000000
1.667212 1.005278 -0.732202 32.000000
1.686134 0.990785 -0.737126 23.000000
1.729260 0.989987 -0.752598 48.000000
1.760408 0.981417 -0.762747 35.000000
1.795650 0.974475 -0.774632 37.000000
1.814519 0.958102 -0.779450 52.000000
1.837373 0.943539 -0.785991 35.000000
1.868252 0.933069 -0.796314 53.000000
1.891022 0.917633 -0.802757 32.000000
1.917945 0.903691 -0.811001 18.000000
1.952978 0.893454 -0.823053 33.000000
1.996655 0.886284 -0.838652 24.000000
2.018941 0.868967 -0.845250 22.000000
2.015579 0.840223 -0.840795 22.000000
2.028903 0.818832 -0.843665 24.000000
2.037705 0.795574 -0.844738 24.000000
2.037353 0.769165 -0.842419 21.000000
2.014957 0.734613 -0.830704 10.000000
2.018560 0.709904 -0.829738 23.000000
2.012812 0.682441 -0.825359 20.000000
2.024479 0.660926 -0.828145 23.000000
2.027076 0.636379 -0.827238 24.000000
2.038286 0.614554 -0.829888 21.000000
2.035961 0.588676 -0.827020 23.000000
2.037791 0.564106 -0.825895 20.000000
2.030312 0.537187 -0.821057 9.000000
2.049498 0.517484 -0.827350 22.000000
2.041391 0.490873 -0.822571 21.000000
2.046622 0.467544 -0.823191 21.000000
2.047028 0.443161 -0.821915 21.000000
2.051765 0.419746 -0.822464 21.000000
2.056160 0.396400 -0.823082 26.000000
2.051191 0.371328 -0.819971 20.000000
2.045913 0.346396 -0.816787 10.000000
2.054184 0.323778 -0.818959 22.000000
2.057594 0.300314 -0.819300 23.000000
2.056122 0.276232 -0.817875 23.000000
2.063596 0.253388 -0.820050 19.000000
2.066256 0.229857 -0.820323 23.000000
2.063948 0.205864 -0.818896 24.000000
2.052160 0.181158 -0.813658 21.000000
2.077168 0.159551 -0.823047 10.000000
2.078809 0.135830 -0.823184 23.000000
2.080176 0.112178 -0.823252 24.000000
2.071978 0.088062 -0.819713 20.000000
2.068215 0.064303 -0.817875 23.000000
2.064110 0.040649 -0.816240 21.000000
2.096927 0.017411 -0.829178 25.000000
2.078397 -0.006411 -0.821824 27.000000
2.031767 -0.029406 -0.803305 31.000000
2.008479 -0.143637 -0.795291 23.000000
2.076348 -0.172266 -0.822568 15.000000
2.078995 -0.196355 -0.824062 19.000000
2.090679 -0.221462 -0.829154 20.000000
2.101987 -0.246884 -0.834380 21.000000
2.094596 -0.270241 -0.832130 24.000000
2.096224 -0.294650 -0.833477 27.000000
2.102021 -0.320003 -0.836792 26.000000
2.093804 -0.343169 -0.834543 21.000000
2.099143 -0.368645 -0.837645 17.000000
2.085941 -0.390762 -0.833430 22.000000
2.099887 -0.418124 -0.840039 26.000000
2.090629 -0.441098 -0.837653 22.000000
2.099359 -0.467950 -0.842563 26.000000
2.098675 -0.492912 -0.843681 32.000000
2.079672 -0.513443 -0.837442 45.000000
2.087584 -0.540529 -0.842056 61.000000
2.068021 -0.560751 -0.835898 18.000000
2.070738 -0.586876 -0.838827 19.000000
2.073188 -0.613135 -0.841609 19.000000
2.075298 -0.639527 -0.844312 19.000000
2.081645 -0.667403 -0.848817 20.000000
2.074275 -0.691019 -0.847744 19.000000
2.075574 -0.717611 -0.850281 20.000000
2.098325 -0.752418 -0.861970 16.000000
2.041842 -0.758547 -0.841207 11.000000
2.072840 -0.796699 -0.856039 20.000000
2.059788 -0.818581 -0.853153 22.000000
2.059362 -0.845682 -0.855581 16.000000
2.071388 -0.878523 -0.863593 17.000000
2.070308 -0.905801 -0.865847 19.000000
2.068926 -0.933201 -0.868016 16.000000
2.067239 -0.960646 -0.870173 19.000000
2.043947 -0.978348 -0.863640 10.000000
2.054028 -1.012210 -0.871272 16.000000
2.055546 -1.041727 -0.874952 16.000000
2.056475 -1.071831 -0.878838 16.000000
2.061157 -1.104279 -0.884476 22.000000
2.044852 -1.125674 -0.881184 16.000000
2.044660 -1.156034 -0.884950 16.000000
2.027973 -1.177047 -0.881505 12.000000
2.023098 -1.205002 -0.883335 10.000000
2.045859 -1.250156 -0.897344 14.000000
2.036157 -1.275925 -0.897296 13.000000
2.042012 -1.311836 -0.904145 17.000000
2.035535 -1.340228 -0.905652 17.000000
2.028310 -1.369199 -0.907462 15.000000
2.013494 -1.392218 -0.905392 11.000000
2.013192 -1.426483 -0.910483 10.000000
1.990266 -1.443846 -0.904863 9.000000
2.019324 -1.500548 -0.923622 18.000000
2.010686 -1.529133 -0.924688 17.000000
1.993693 -1.552447 -0.922635 12.000000
1.977111 -1.574941 -0.920172 15.000000
1.974195 -1.609724 -0.924864 13.000000
1.960023 -1.635645 -0.924333 11.000000
1.978399 -1.688213 -0.938655 12.000000
1.973926 -1.723457 -0.943065 10.000000
1.976032 -1.765131 -0.950818 17.000000
1.960093 -1.791158 -0.949926 20.000000
1.940385 -1.813792 -0.947430 11.000000
1.944341 -1.858956 -0.956488 15.000000
1.941767 -1.897119 -0.961787 11.000000
1.951041 -1.949435 -0.974048 16.000000
1.956096 -1.998896 -0.984473 18.000000
1.931118 -2.018018 -0.979832 14.000000
1.938192 -2.071256 -0.991701 28.000000
1.931569 -2.110958 -0.996900 29.000000
1.920119 -2.148068 -1.000688 35.000000
1.909287 -2.184452 -1.004065 52.000000
1.879535 -2.199188 -0.997526 35.000000
1.861787 -2.228017 -0.997413 37.000000
1.843695 -2.256705 -0.997278 31.000000
1.819445 -2.277854 -0.993894 22.000000
1.818223 -2.328479 -1.003279 32.000000
1.791848 -2.350283 -1.000137 29.000000
1.766521 -2.370850 -0.996518 30.000000
1.749469 -2.402530 -0.997674 29.000000
1.732077 -2.434117 -0.998698 26.000000
1.700610 -2.446225 -0.991887 31.000000
1.699555 -2.505914 -1.004176 26.000000
1.667540 -2.517467 -0.997147 21.000000
1.653654 -2.556430 -1.001073 28.000000
1.637277 -2.596479 -1.005334 26.000000
1.607185 -2.611159 -0.999742 29.000000
1.604018 -2.670332 -1.011144 25.000000
1.581043 -2.702041 -1.011960 25.000000
1.566483 -2.744917 -1.016932 28.000000
1.532864 -2.759802 -1.011455 21.000000
0.769820 1.434483 -0.506588 7.000000
0.776783 1.408246 -0.502600 25.000000
0.791644 1.399196 -0.504657 21.000000
0.807430 1.389477 -0.506559 29.000000
0.824525 1.384214 -0.510125 25.000000
0.844034 1.382806 -0.515219 24.000000
0.859546 1.372482 -0.517035 31.000000
0.876643 1.366529 -0.520585 29.000000
0.897224 1.363814 -0.525470 27.000000
0.893013 1.325830 -0.516694 19.000000
0.915159 1.327271 -0.523273 24.000000
0.927313 1.312267 -0.523432 31.000000
0.949593 1.313091 -0.530003 26.000000
0.966363 1.305983 -0.533488 30.000000
0.985977 1.302335 -0.538497 30.000000
1.000621 1.290472 -0.540177 26.000000
1.032066 1.301178 -0.551521 31.000000
1.031010 1.270850 -0.545485 27.000000
1.050594 1.266251 -0.550447 36.000000
1.067216 1.257687 -0.553839 37.000000
1.087608 1.251991 -0.558624 30.000000
1.104159 1.242982 -0.561988 32.000000
1.127046 1.240696 -0.568574 35.000000
1.146831 1.234560 -0.573524 31.000000
1.169861 1.231597 -0.580110 35.000000
1.169936 1.204441 -0.575326 23.000000
1.189600 1.197608 -0.580256 48.000000
1.202565 1.183826 -0.581890 46.000000
1.222175 1.176435 -0.586738 39.000000
1.252083 1.178434 -0.596577 47.000000
1.275282 1.173475 -0.603061 47.000000
1.298579 1.168106 -0.609572 30.000000
1.311282 1.153032 -0.611153 50.000000
1.326884 1.141316 -0.614559 14.000000
1.342949 1.128896 -0.617692 35.000000
1.366196 1.122265 -0.624161 43.000000
1.382117 1.109308 -0.627259 31.000000
1.401235 1.099462 -0.632269 35.000000
1.428187 1.094601 -0.640358 35.000000
1.451504 1.086455 -0.646797 37.000000
1.501019 1.097738 -0.665224 38.000000
1.505413 1.074729 -0.663175 19.000000
1.524525 1.063021 -0.668117 34.000000
1.547886 1.053179 -0.674467 58.000000
1.566956 1.040710 -0.679321 34.000000
1.593845 1.032994 -0.687594 36.000000
1.621143 1.024482 -0.695585 36.000000
1.652101 1.018258 -0.705558 32.000000
1.675146 1.006611 -0.712080 35.000000
1.698096 0.994498 -0.718558 21.000000
1.712915 0.977389 -0.721555 37.000000
1.739839 0.966836 -0.729720 42.000000
1.779151 0.962476 -0.743017 35.000000
1.806150 0.950766 -0.751174 55.000000
1.837317 0.940680 -0.761017 52.000000
1.855920 0.923778 -0.765623 32.000000
1.895520 0.916690 -0.778844 37.000000
1.917979 0.901158 -0.785427 22.000000
1.949098 0.888743 -0.795092 28.000000
1.988511 0.879912 -0.808545 35.000000
2.015151 0.864646 -0.816801 20.000000
2.041881 0.848557 -0.824646 23.000000
2.037920 0.820049 -0.820550 22.000000
2.055450 0.800188 -0.825055 22.000000
2.050856 0.771740 -0.820800 18.000000
2.050198 0.745333 -0.818501 10.000000
2.053816 0.720319 -0.817596 17.000000
2.057188 0.695264 -0.816687 24.000000
2.064551 0.671899 -0.817678 19.000000
2.067166 0.647067 -0.816834 22.000000
2.056171 0.618084 -0.810618 23.000000
2.053766 0.592100 -0.807853 18.000000
2.055604 0.567426 -0.806781 20.000000
2.052615 0.541591 -0.803866 10.000000
2.085498 0.525095 -0.815332 17.000000
2.063907 0.494761 -0.805182 18.000000
2.064545 0.470239 -0.804031 18.000000
2.074160 0.447724 -0.806360 21.000000
2.069712 0.422233 -0.803359 21.000000
2.078715 0.399665 -0.805759 18.000000
2.078334 0.375195 -0.804532 17.000000
2.077658 0.350761 -0.803234 10.000000
2.095219 0.329333 -0.808992 18.000000
2.103306 0.306175 -0.811121 23.000000
2.101870 0.281672 -0.809754 20.000000
2.114052 0.258907 -0.813669 21.000000
2.093555 0.232258 -0.805023 24.000000
2.100611 0.208909 -0.807015 24.000000
2.084141 0.183477 -0.800215 21.000000
2.085986 0.159756 -0.800420 10.000000
2.096947 0.136642 -0.804131 19.000000
2.107577 0.113386 -0.807911 23.000000
2.099419 0.088989 -0.804268 20.000000
2.114313 0.065597 -0.809699 20.000000
2.110129 0.041520 -0.808118 22.000000
2.119812 0.017596 -0.811763 21.000000
2.087196 -0.006343 -0.799179 22.000000
2.087059 -0.030079 -0.799111 26.000000
2.044637 -0.052665 -0.782821 30.000000
1.964572 -0.072912 -0.752309 29.000000
1.954281 -0.094815 -0.748799 29.000000
2.046425 -0.122585 -0.784273 28.000000
2.082217 -0.148486 -0.798360 16.000000
2.094475 -0.173241 -0.803444 11.000000
2.106433 -0.198312 -0.808455 21.000000
2.122732 -0.224191 -0.815384 16.000000
2.110873 -0.247231 -0.811538 22.000000
2.131262 -0.274164 -0.820035 21.000000
2.137497 -0.299606 -0.823107 21.000000
2.143281 -0.325330 -0.826316 26.000000
2.130448 -0.348178 -0.822261 15.000000
2.121968 -0.371552 -0.819989 18.000000
2.122411 -0.396467 -0.821133 24.000000
2.131794 -0.423166 -0.825755 27.000000
2.140763 -0.450319 -0.830511 37.000000
2.108382 -0.468514 -0.819300 62.000000
2.112341 -0.494543 -0.822139 81.000000
2.115829 -0.520851 -0.825113 78.000000
2.132782 -0.550659 -0.833104 35.000000
2.108540 -0.570068 -0.825316 32.000000
2.097768 -0.592739 -0.822767 23.000000
2.091155 -0.616560 -0.821985 16.000000
2.115711 -0.649927 -0.833394 23.000000
2.099650 -0.671040 -0.828864 18.000000
2.123415 -0.705155 -0.840161 20.000000
2.124463 -0.732422 -0.842798 23.000000
2.094215 -0.748783 -0.833076 10.000000
2.103738 -0.778916 -0.838849 10.000000
2.086365 -0.799464 -0.834328 21.000000
2.099336 -0.831821 -0.841897 17.000000
2.098889 -0.859200 -0.844208 21.000000
2.089288 -0.883276 -0.843248 16.000000
2.092504 -0.912605 -0.847137 13.000000
2.095450 -0.942003 -0.851010 18.000000
2.072143 -0.960163 -0.844611 10.000000
2.087216 -0.995614 -0.853512 12.000000
2.093003 -1.027808 -0.859148 24.000000
2.090004 -1.056004 -0.861311 20.000000
2.078354 -1.079837 -0.859864 18.000000
2.087106 -1.114651 -0.867096 19.000000
2.070761 -1.136232 -0.863840 14.000000
2.074696 -1.169018 -0.869085 20.000000
2.061853 -1.192691 -0.867461 9.000000
2.060902 -1.223328 -0.870882 10.000000
2.075700 -1.263864 -0.881099 19.000000
2.057906 -1.284961 -0.877584 11.000000
2.075179 -1.329109 -0.889591 18.000000
2.056854 -1.350035 -0.885978 16.000000
2.065680 -1.389093 -0.894124 14.000000
2.054057 -1.415738 -0.894035 19.000000
2.046466 -1.444297 -0.895298 10.000000
2.038026 -1.473519 -0.896790 10.000000
2.033579 -1.504904 -0.899534 16.000000
2.028131 -1.536878 -0.902582 16.000000
2.037144 -1.580588 -0.912279 19.000000
2.027671 -1.609320 -0.913101 16.000000
2.009828 -1.632692 -0.911007 17.000000
2.006329 -1.667961 -0.915366 17.000000
2.009503 -1.709430 -0.923080 9.000000
1.998545 -1.738059 -0.923643 10.000000
2.000627 -1.779835 -0.931100 17.000000
1.998544 -1.818746 -0.936779 16.000000
1.989021 -1.851360 -0.939148 19.000000
1.982450 -1.887298 -0.943031 13.000000
1.971941 -1.919900 -0.945253 12.000000
1.991209 -1.982598 -0.961933 23.000000
1.976269 -2.012100 -0.962352 24.000000
1.964189 -2.044987 -0.964271 34.000000
1.954947 -2.081277 -0.967766 36.000000
1.929200 -2.100147 -0.963130 35.000000
1.919086 -2.136294 -0.966478 57.000000
1.892933 -2.154648 -0.961745 34.000000
1.877734 -2.187969 -0.963730 54.000000
1.854170 -2.209399 -0.960576 36.000000
1.833337 -2.234220 -0.958904 29.000000
1.815305 -2.262441 -0.958696 25.000000
1.805627 -2.301822 -0.963158 29.000000
1.785369 -2.330890 -0.963268 29.000000
1.768925 -2.362578 -0.964438 32.000000
1.740912 -2.378924 -0.959384 27.000000
1.720997 -2.406435 -0.958872 30.000000
1.701927 -2.438641 -0.960255 27.000000
1.689395 -2.477664 -0.964284 26.000000
1.665599 -2.500854 -0.962059 20.000000
1.650362 -2.540759 -0.966189 26.000000
1.630944 -2.571562 -0.966944 27.000000
1.606999 -2.599172 -0.966449 27.000000
1.591737 -2.637879 -0.969946 25.000000
1.585628 -2.693020 -0.979462 26.000000
1.557520 -2.716250 -0.977253 23.000000
1.542673 -2.758973 -0.982050 19.000000
1.538755 -2.828011 -0.995944 10.000000
0.762358 1.410879 -0.483515 8.000000
0.779553 1.406221 -0.487009 13.000000
0.792977 1.392528 -0.487400 18.000000
0.810007 1.387507 -0.490854 15.000000
0.831982 1.390481 -0.497254 25.000000
0.847552 1.380395 -0.499065 22.000000
0.859492 1.366627 -0.499604 21.000000
0.877398 1.360221 -0.502841 23.000000
0.904932 1.370048 -0.512200 12.000000
0.900710 1.331987 -0.503731 17.000000
0.915622 1.321137 -0.505428 19.000000
0.935126 1.318374 -0.510290 16.000000
0.943493 1.299900 -0.509130 25.000000
0.963731 1.296183 -0.513807 18.000000
0.986141 1.296486 -0.520233 23.000000
1.005765 1.292677 -0.525112 19.000000
1.032116 1.295495 -0.532811 16.000000
1.033900 1.268899 -0.528472 29.000000
1.038256 1.246074 -0.525632 18.000000
1.060828 1.244963 -0.531989 23.000000
1.087288 1.246589 -0.539714 29.000000
1.103778 1.237657 -0.542969 18.000000
1.123440 1.231949 -0.547795 31.000000
1.146330 1.229461 -0.554205 29.000000
1.162840 1.219662 -0.557450 20.000000
1.169323 1.199487 -0.555925 26.000000
1.185600 1.189327 -0.559121 23.000000
1.208557 1.185624 -0.565493 29.000000
1.231622 1.181525 -0.571838 34.000000
1.258248 1.180267 -0.579747 24.000000
1.278007 1.172120 -0.584496 33.000000
1.294210 1.160539 -0.587661 30.000000
1.328175 1.164259 -0.598806 23.000000
1.326432 1.136571 -0.593848 26.000000
1.342390 1.124295 -0.596925 23.000000
1.361964 1.114706 -0.601571 26.000000
1.392581 1.113696 -0.611095 29.000000
1.396866 1.092224 -0.609455 23.000000
1.420038 1.084639 -0.615715 30.000000
1.447072 1.079446 -0.623513 29.000000
1.485164 1.082547 -0.636541 22.000000
1.481641 1.054379 -0.631288 30.000000
1.520364 1.056024 -0.644022 22.000000
1.543270 1.046748 -0.650458 28.000000
1.566591 1.036661 -0.656613 36.000000
1.585571 1.023987 -0.661316 24.000000
1.612462 1.015980 -0.669347 30.000000
1.651751 1.014518 -0.682073 30.000000
1.670691 1.000550 -0.686779 21.000000
1.685539 0.983894 -0.689768 29.000000
1.704282 0.969351 -0.694370 29.000000
1.747667 0.968130 -0.709017 28.000000
1.766376 0.952611 -0.713597 30.000000
1.801670 0.945527 -0.724834 29.000000
1.824470 0.931318 -0.731062 30.000000
1.859863 0.922967 -0.742290 32.000000
1.874062 0.903748 -0.745052 25.000000
1.909414 0.894209 -0.756191 26.000000
1.940332 0.882346 -0.765944 26.000000
1.980072 0.873379 -0.778763 26.000000
2.028259 0.867567 -0.795216 30.000000
2.055084 0.851510 -0.802937 22.000000
2.055450 0.824624 -0.800620 14.000000
2.077366 0.806370 -0.806804 20.000000
2.059640 0.772811 -0.797591 10.000000
2.063505 0.747787 -0.796813 10.000000
2.080429 0.727374 -0.801084 17.000000
2.074729 0.699327 -0.797027 10.000000
2.091203 0.678549 -0.801233 21.000000
2.084894 0.650713 -0.797019 14.000000
2.087348 0.625666 -0.796155 13.000000
2.080465 0.598127 -0.791781 20.000000
2.086796 0.574491 -0.792484 10.000000
2.092986 0.550716 -0.793118 10.000000
2.108001 0.529226 -0.797194 16.000000
2.090687 0.499889 -0.789284 10.000000
2.105151 0.478278 -0.793433 15.000000
2.087407 0.449335 -0.785155 17.000000
2.119646 0.431343 -0.796213 16.000000
2.105787 0.403752 -0.789792 19.000000
2.105354 0.379072 -0.788621 10.000000
2.104833 0.354288 -0.787169 11.000000
2.108582 0.330475 -0.787585 13.000000
2.111915 0.306592 -0.788141 13.000000
2.115178 0.282639 -0.788419 16.000000
2.122749 0.259255 -0.790499 18.000000
2.116140 0.234149 -0.787309 14.000000
2.132564 0.211569 -0.792721 21.000000
2.106699 0.184912 -0.782588 10.000000
2.117908 0.161815 -0.786335 16.000000
2.124246 0.138065 -0.788210 19.000000
2.134995 0.114529 -0.791891 19.000000
2.122055 0.089721 -0.786681 16.000000
2.141699 0.066316 -0.793697 22.000000
2.132882 0.041865 -0.790362 18.000000
2.137848 0.017743 -0.792169 18.000000
2.119164 -0.006414 -0.785220 20.000000
2.114338 -0.030348 -0.783345 20.000000
2.104550 -0.054056 -0.779666 20.000000
2.103865 -0.077898 -0.779598 23.000000
2.107521 -0.101898 -0.781334 25.000000
2.115646 -0.126353 -0.784531 21.000000
2.100166 -0.149288 -0.779118 9.000000
2.126425 -0.175374 -0.789252 18.000000
2.147827 -0.201587 -0.797574 15.000000
2.154839 -0.226925 -0.800830 17.000000
2.161548 -0.252405 -0.803943 20.000000
2.149411 -0.275638 -0.800055 17.000000
2.164821 -0.302627 -0.806697 20.000000
2.152202 -0.325684 -0.802668 17.000000
2.134700 -0.347776 -0.796986 10.000000
2.163043 -0.377622 -0.808802 31.000000
2.168127 -0.403835 -0.811613 35.000000
2.140521 -0.423804 -0.802483 50.000000
2.177249 -0.456598 -0.817219 77.000000
2.140037 -0.474297 -0.804723 61.000000
2.162191 -0.504858 -0.814340 52.000000
2.170312 -0.532609 -0.818706 71.000000
2.132527 -0.549037 -0.806022 25.000000
2.149114 -0.579337 -0.813892 41.000000
2.106514 -0.593521 -0.799373 18.000000
2.117998 -0.622641 -0.805446 17.000000
2.129152 -0.652097 -0.811360 12.000000
2.135422 -0.680389 -0.815477 15.000000
2.141235 -0.709131 -0.819800 18.000000
2.124655 -0.730172 -0.815290 10.000000
2.103275 -0.749580 -0.809231 9.000000
2.121476 -0.783196 -0.818499 13.000000
2.117281 -0.808874 -0.819097 10.000000
2.130253 -0.841490 -0.826479 21.000000
2.116683 -0.863789 -0.823596 13.000000
2.120049 -0.893520 -0.827709 13.000000
2.114665 -0.919273 -0.828056 14.000000
2.104422 -0.943424 -0.826935 10.000000
2.115548 -0.976994 -0.833938 9.000000
2.104747 -1.001088 -0.832729 13.000000
2.097873 -1.027178 -0.833125 10.000000
2.103424 -1.059494 -0.838547 13.000000
2.087491 -1.081283 -0.835499 10.000000
2.079773 -1.107254 -0.835724 10.000000
2.100724 -1.149000 -0.847545 12.000000
2.108720 -1.184340 -0.854322 10.000000
2.087555 -1.203582 -0.849353 9.000000
2.086635 -1.234413 -0.852693 10.000000
2.081290 -1.262915 -0.854279 10.000000
2.095160 -1.304388 -0.864351 13.000000
2.073077 -1.322931 -0.859218 10.000000
2.086428 -1.364473 -0.868828 10.000000
2.075124 -1.391111 -0.868779 13.000000
2.071793 -1.422460 -0.871676 9.000000
2.090745 -1.470794 -0.884606 9.000000
2.070566 -1.492136 -0.881158 10.000000
2.043166 -1.506871 -0.873969 10.000000
2.052866 -1.550337 -0.883452 10.000000
2.058220 -1.591270 -0.891182 10.000000
2.048690 -1.620136 -0.891980 10.000000
2.041871 -1.652568 -0.894710 10.000000
2.030956 -1.682066 -0.895725 10.000000
2.055784 -1.742094 -0.912765 9.000000
2.029524 -1.759417 -0.907221 9.000000
2.031415 -1.801554 -0.914373 10.000000
2.032720 -1.843831 -0.921474 10.000000
2.005624 -1.860617 -0.915825 10.000000
2.023134 -1.919505 -0.930683 12.000000
2.005634 -1.945868 -0.929570 11.000000
2.011377 -1.995526 -0.939462 24.000000
2.013026 -2.042150 -0.947713 29.000000
1.951262 -2.023979 -0.926084 28.000000
1.945606 -2.063483 -0.930991 31.000000
1.910402 -2.071645 -0.921857 35.000000
1.897604 -2.103952 -0.923611 29.000000
1.887451 -2.139771 -0.926788 32.000000
1.866295 -2.165713 -0.925582 32.000000
1.849135 -2.194174 -0.925534 30.000000
1.840718 -2.233428 -0.930054 30.000000
1.801841 -2.235763 -0.919277 18.000000
1.800108 -2.287055 -0.928490 23.000000
1.784400 -2.318708 -0.929769 27.000000
1.751068 -2.327517 -0.921870 21.000000
1.741714 -2.371274 -0.927816 25.000000
1.719171 -2.394920 -0.925925 25.000000
1.685394 -2.402625 -0.917958 17.000000
1.677244 -2.450188 -0.925179 21.000000
1.653798 -2.473140 -0.923055 13.000000
1.640623 -2.511770 -0.926821 21.000000
1.625095 -2.551472 -0.930820 23.000000
1.595623 -2.565764 -0.925685 18.000000
1.579087 -2.605114 -0.929509 20.000000
1.578373 -2.668293 -0.941605 17.000000
1.545310 -2.677900 -0.934855 15.000000
1.536256 -2.733897 -0.944181 17.000000
1.521079 -2.776591 -0.948796 8.000000
0.790221 1.455100 -0.483472 6.000000
0.786861 1.412463 -0.474215 10.000000
0.812227 1.419550 -0.481717 16.000000
0.824683 1.406152 -0.482275 23.000000
0.840350 1.396191 -0.484039 11.000000
0.855032 1.386594 -0.486011 24.000000
0.867984 1.372222 -0.486340 18.000000
0.895431 1.382435 -0.495455 18.000000
0.916159 1.379650 -0.500078 26.000000
0.911849 1.341496 -0.491823 10.000000
0.926022 1.331047 -0.493685 25.000000
0.935368 1.312190 -0.492418 23.000000
0.960467 1.316942 -0.500084 19.000000
0.980127 1.313622 -0.504849 28.000000
0.989033 1.294308 -0.503466 18.000000
1.014480 1.298067 -0.511162 24.000000
1.028272 1.286485 -0.512952 24.000000
1.069843 1.307460 -0.527899 10.000000
1.053164 1.258663 -0.514719 28.000000
1.075850 1.257462 -0.520955 26.000000
1.098663 1.255943 -0.527168 24.000000
1.109583 1.239308 -0.527100 35.000000
1.122843 1.226634 -0.528751 25.000000
1.148963 1.227657 -0.536481 30.000000
1.171982 1.224836 -0.542670 30.000000
1.181799 1.207962 -0.542770 13.000000
1.191433 1.191055 -0.542808 34.000000
1.211636 1.183552 -0.547233 29.000000
1.227787 1.172932 -0.550350 29.000000
1.257797 1.175053 -0.559549 36.000000
1.270502 1.160581 -0.561096 29.000000
1.290129 1.152330 -0.565640 35.000000
1.306205 1.140625 -0.568697 33.000000
1.325794 1.131755 -0.573213 20.000000
1.348996 1.125594 -0.579367 30.000000
1.364417 1.113521 -0.582518 28.000000
1.380242 1.100742 -0.585507 32.000000
1.407189 1.096456 -0.593123 46.000000
1.415348 1.077404 -0.592861 28.000000
1.449911 1.078016 -0.603684 34.000000
1.472812 1.070098 -0.609961 33.000000
1.503861 1.066758 -0.619150 19.000000
1.507703 1.044031 -0.617206 37.000000
1.542352 1.042887 -0.628215 34.000000
1.561653 1.030293 -0.632617 29.000000
1.592529 1.025452 -0.642029 42.000000
1.611778 1.012054 -0.646404 28.000000
1.646792 1.008669 -0.657360 35.000000
1.670064 0.996896 -0.663322 34.000000
1.701172 0.989854 -0.672661 22.000000
1.695313 0.961161 -0.667451 35.000000
1.713903 0.946497 -0.671954 32.000000
1.774047 0.953846 -0.692666 35.000000
1.792694 0.938013 -0.697028 37.000000
1.828024 0.930435 -0.707992 35.000000
1.833854 0.907479 -0.707484 29.000000
1.886211 0.907077 -0.724904 40.000000
1.904572 0.889511 -0.729195 19.000000
1.944326 0.881433 -0.741700 33.000000
1.966603 0.865205 -0.747873 35.000000
2.006446 0.855676 -0.760295 32.000000
2.050441 0.847400 -0.774608 36.000000
2.077149 0.830961 -0.782068 26.000000
2.094847 0.810862 -0.786457 21.000000
2.112329 0.790418 -0.790710 24.000000
2.103042 0.760081 -0.785106 11.000000
2.115597 0.737694 -0.787632 21.000000
2.123569 0.713703 -0.788429 26.000000
2.108675 0.682524 -0.781134 17.000000
2.124994 0.661301 -0.785178 21.000000
2.131980 0.637318 -0.786042 23.000000
2.125156 0.609294 -0.781834 20.000000
2.140759 0.587744 -0.785958 24.000000
2.105986 0.552686 -0.771574 9.000000
2.143906 0.536799 -0.783909 22.000000
2.145047 0.511375 -0.782737 22.000000
2.150403 0.487167 -0.783451 22.000000
2.150939 0.461898 -0.782348 23.000000
2.142007 0.434717 -0.777888 24.000000
2.155861 0.412201 -0.781668 21.000000
2.150928 0.386218 -0.778950 19.000000
2.127167 0.357184 -0.769157 9.000000
2.144899 0.335325 -0.774617 23.000000
2.153077 0.311732 -0.776650 24.000000
2.160916 0.288033 -0.778826 27.000000
2.163884 0.263588 -0.779179 30.000000
2.161959 0.238628 -0.777778 26.000000
2.159742 0.213702 -0.776306 25.000000
2.157303 0.188882 -0.774762 23.000000
2.107565 0.160592 -0.756441 9.000000
2.160882 0.140100 -0.775113 23.000000
2.162216 0.115744 -0.775394 27.000000
2.168113 0.091446 -0.777079 28.000000
2.173661 0.067112 -0.778835 29.000000
2.174225 0.042579 -0.778976 27.000000
2.174578 0.018047 -0.779047 25.000000
2.174648 -0.006556 -0.779047 23.000000
2.136854 -0.030550 -0.765418 23.000000
2.131732 -0.054538 -0.763525 26.000000
2.140380 -0.079008 -0.766827 21.000000
2.125302 -0.102489 -0.761702 16.000000
2.156955 -0.128449 -0.773218 22.000000
2.141327 -0.151754 -0.768025 16.000000
2.120819 -0.174424 -0.761012 9.000000
2.175071 -0.203623 -0.781074 22.000000
2.158616 -0.226716 -0.775743 17.000000
2.170115 -0.252759 -0.780437 22.000000
2.181295 -0.278977 -0.785055 25.000000
2.178160 -0.303561 -0.784557 26.000000
2.174740 -0.328217 -0.784200 61.000000
2.185052 -0.354996 -0.788736 64.000000
2.180964 -0.379738 -0.788377 32.000000
2.162911 -0.401684 -0.782704 83.000000
2.167665 -0.427951 -0.785555 84.000000
2.199764 -0.460143 -0.798372 89.000000
2.199270 -0.485979 -0.799390 91.000000
2.193945 -0.510778 -0.798660 45.000000
2.206494 -0.540058 -0.804755 84.000000
2.214233 -0.568507 -0.809098 65.000000
2.148761 -0.577612 -0.786691 31.000000
2.160506 -0.606984 -0.792559 51.000000
2.158349 -0.632642 -0.793350 18.000000
2.155945 -0.658329 -0.794065 19.000000
2.153073 -0.684265 -0.794996 19.000000
2.150098 -0.709863 -0.795630 16.000000
2.164576 -0.741901 -0.803030 18.000000
2.156361 -0.766323 -0.802068 13.000000
2.130210 -0.784223 -0.794425 10.000000
2.161320 -0.823346 -0.808243 23.000000
2.147881 -0.845990 -0.805474 18.000000
2.160346 -0.879365 -0.812730 24.000000
2.142065 -0.899978 -0.808239 20.000000
2.140747 -0.928135 -0.810469 14.000000
2.152211 -0.961818 -0.817225 15.000000
2.167302 -0.998118 -0.825896 14.000000
2.139203 -1.014598 -0.818131 9.000000
2.140785 -1.045129 -0.821799 21.000000
2.129249 -1.069354 -0.820415 15.000000
2.125885 -1.097842 -0.822281 15.000000
2.138906 -1.135234 -0.830625 16.000000
2.143097 -1.168433 -0.835540 11.000000
2.138599 -1.197306 -0.837197 14.000000
2.133765 -1.226129 -0.838843 10.000000
2.120435 -1.250171 -0.837177 9.000000
2.134826 -1.291687 -0.846999 18.000000
2.112705 -1.310738 -0.841942 13.000000
2.114111 -1.345182 -0.846823 13.000000
2.123395 -1.384440 -0.854550 11.000000
2.115847 -1.414033 -0.856106 10.000000
2.120248 -1.451100 -0.862010 13.000000
2.104120 -1.475415 -0.860190 10.000000
2.099301 -1.507781 -0.863122 9.000000
2.106102 -1.548090 -0.870438 19.000000
2.104200 -1.583633 -0.874809 11.000000
2.109228 -1.625065 -0.882212 15.000000
2.091338 -1.649204 -0.880158 12.000000
2.069494 -1.670105 -0.876453 10.000000
2.066462 -1.705098 -0.880217 12.000000
2.069485 -1.747069 -0.887320 10.000000
2.061142 -1.779958 -0.889717 9.000000
2.080838 -1.838099 -0.904391 19.000000
2.060788 -1.861714 -0.901985 12.000000
2.064929 -1.907746 -0.910271 18.000000
2.057932 -1.944354 -0.913890 21.000000
2.057317 -1.987529 -0.920446 16.000000
2.038235 -2.014995 -0.919590 34.000000
1.989487 -2.011058 -0.904650 28.000000
1.954483 -2.019933 -0.895857 28.000000
1.939158 -2.049001 -0.896094 72.000000
1.907312 -2.060368 -0.888767 37.000000
1.897915 -2.096167 -0.891907 58.000000
1.890011 -2.136288 -0.896872 35.000000
1.863894 -2.154032 -0.892457 31.000000
1.850006 -2.186005 -0.893921 56.000000
1.829613 -2.210557 -0.892293 29.000000
1.807672 -2.235730 -0.891022 23.000000
1.780826 -2.252374 -0.886424 32.000000
1.780184 -2.302614 -0.894970 28.000000
1.742735 -2.308353 -0.886230 34.000000
1.737966 -2.354859 -0.893216 32.000000
1.718537 -2.382136 -0.892762 28.000000
1.697252 -2.410198 -0.892662 29.000000
1.666165 -2.421391 -0.886298 21.000000
1.661868 -2.471922 -0.894429 21.000000
1.641941 -2.503586 -0.895500 30.000000
1.620694 -2.530062 -0.894826 24.000000
1.604880 -2.569525 -0.898586 29.000000
1.575285 -2.583464 -0.893506 22.000000
1.556107 -2.618639 -0.895779 22.000000
1.542934 -2.660987 -0.900428 26.000000
1.519988 -2.691817 -0.901203 16.000000
1.533178 -2.784731 -0.922452 9.000000
0.781444 1.431760 -0.460735 7.000000
0.787099 1.406074 -0.457241 13.000000
0.793206 1.379891 -0.453499 24.000000
0.825711 1.399325 -0.464843 25.000000
0.835334 1.381765 -0.463989 23.000000
0.862490 1.392701 -0.472767 24.000000
0.862547 1.358024 -0.466135 25.000000
0.879478 1.352234 -0.469373 24.000000
0.918512 1.377663 -0.483630 27.000000
0.889720 1.303831 -0.462957 20.000000
0.918021 1.312893 -0.471573 23.000000
0.942992 1.318043 -0.479026 29.000000
0.957691 1.306852 -0.480625 27.000000
0.977209 1.303638 -0.485181 25.000000
1.002668 1.307742 -0.492673 26.000000
1.017261 1.295826 -0.494196 28.000000
1.034010 1.288012 -0.497369 29.000000
1.032462 1.257776 -0.491873 23.000000
1.043443 1.241869 -0.491875 29.000000
1.072218 1.248165 -0.500757 35.000000
1.085498 1.235935 -0.502437 30.000000
1.108255 1.234271 -0.508407 31.000000
1.134955 1.235216 -0.515713 32.000000
1.154726 1.229273 -0.520268 28.000000
1.167869 1.216077 -0.521830 30.000000
1.170868 1.192551 -0.518944 24.000000
1.194370 1.188822 -0.524738 31.000000
1.217394 1.185182 -0.530719 36.000000
1.233561 1.174566 -0.533681 37.000000
1.253180 1.166958 -0.538204 35.000000
1.265779 1.152606 -0.539628 35.000000
1.292456 1.150826 -0.547081 45.000000
1.308458 1.139166 -0.550032 37.000000
1.328046 1.130347 -0.554451 23.000000
1.343938 1.118147 -0.557366 30.000000
1.359785 1.105752 -0.560232 34.000000
1.382928 1.099029 -0.566158 33.000000
1.406152 1.091937 -0.572048 41.000000
1.444563 1.095922 -0.584034 48.000000
1.456074 1.079760 -0.585546 33.000000
1.475522 1.068597 -0.589905 36.000000
1.491094 1.054394 -0.592676 28.000000
1.494752 1.031824 -0.590755 35.000000
1.521418 1.025666 -0.598354 43.000000
1.540550 1.013397 -0.602579 37.000000
1.587673 1.018791 -0.617708 42.000000
1.622614 1.015986 -0.628396 56.000000
1.641852 1.002303 -0.632627 35.000000
1.664784 0.991051 -0.638621 34.000000
1.679474 0.974570 -0.641434 30.000000
1.694278 0.957622 -0.644003 35.000000
1.712853 0.942993 -0.648339 43.000000
1.743884 0.934776 -0.657353 42.000000
1.770698 0.923828 -0.664815 41.000000
1.818721 0.923041 -0.680142 49.000000
1.849892 0.912865 -0.689179 42.000000
1.872541 0.898042 -0.695002 35.000000
1.925205 0.896738 -0.711895 35.000000
1.934912 0.874863 -0.712920 37.000000
1.957366 0.858563 -0.718657 34.000000
1.988251 0.845815 -0.727738 35.000000
2.010576 0.828548 -0.733436 33.000000
2.072196 0.826995 -0.753689 34.000000
2.116529 0.816996 -0.767368 34.000000
2.116353 0.789784 -0.765183 18.000000
2.147068 0.773865 -0.774086 25.000000
2.141891 0.744929 -0.770218 26.000000
2.145369 0.719232 -0.769413 27.000000
2.144092 0.691963 -0.766992 25.000000
2.151355 0.667850 -0.767936 25.000000
2.154011 0.642094 -0.766975 25.000000
2.147177 0.613983 -0.762924 23.000000
2.144604 0.587213 -0.760480 18.000000
2.164573 0.566566 -0.765983 18.000000
2.165974 0.540953 -0.765012 25.000000
2.167207 0.515372 -0.763894 24.000000
2.172597 0.491008 -0.764613 25.000000
2.173219 0.465367 -0.763420 21.000000
2.187436 0.442788 -0.767245 26.000000
2.192118 0.418085 -0.767677 26.000000
2.173172 0.389214 -0.760186 17.000000
2.172642 0.363920 -0.758843 18.000000
2.176482 0.339389 -0.759269 24.000000
2.175359 0.314182 -0.757995 26.000000
2.188065 0.290877 -0.761611 27.000000
2.176982 0.264512 -0.757073 23.000000
2.179673 0.240015 -0.757356 23.000000
2.177448 0.214912 -0.756006 26.000000
2.179638 0.190397 -0.756289 22.000000
2.191040 0.166528 -0.759627 21.000000
2.211605 0.143056 -0.766304 29.000000
2.203528 0.117648 -0.763250 27.000000
2.209389 0.093049 -0.765099 31.000000
2.186703 0.067398 -0.756995 24.000000
2.201511 0.043019 -0.761829 26.000000
2.211246 0.018281 -0.765170 26.000000
2.178242 -0.006472 -0.753725 19.000000
2.149753 -0.030618 -0.743846 18.000000
2.158714 -0.055089 -0.747046 18.000000
2.153225 -0.079252 -0.745342 22.000000
2.185361 -0.105054 -0.756572 22.000000
2.174654 -0.129150 -0.753022 19.000000
2.173177 -0.153629 -0.752811 10.000000
2.180698 -0.178881 -0.756006 16.000000
2.197542 -0.205153 -0.762181 21.000000
2.195191 -0.229951 -0.761896 25.000000
2.211334 -0.256788 -0.768063 35.000000
2.194393 -0.279860 -0.762742 54.000000
2.191251 -0.304640 -0.762457 73.000000
2.192498 -0.329980 -0.763656 67.000000
2.221445 -0.359963 -0.774546 36.000000
2.222036 -0.385830 -0.775809 83.000000
2.213092 -0.409934 -0.773529 95.000000
2.222435 -0.437587 -0.777893 84.000000
2.236130 -0.466447 -0.783799 95.000000
2.226279 -0.490708 -0.781661 80.000000
2.225444 -0.516784 -0.782546 89.000000
2.228886 -0.544086 -0.785194 72.000000
2.236567 -0.572769 -0.789381 35.000000
2.184536 -0.585684 -0.772476 55.000000
2.187231 -0.612817 -0.774902 72.000000
2.189578 -0.640009 -0.777249 28.000000
2.186972 -0.666174 -0.778124 23.000000
2.184263 -0.692072 -0.778775 22.000000
2.185576 -0.719701 -0.781177 20.000000
2.182122 -0.745927 -0.781893 18.000000
2.164946 -0.767285 -0.777720 10.000000
2.178741 -0.799869 -0.784691 19.000000
2.169994 -0.824318 -0.783644 18.000000
2.178436 -0.855922 -0.789137 21.000000
2.177871 -0.883909 -0.791121 25.000000
2.172479 -0.910413 -0.791730 18.000000
2.162544 -0.934757 -0.790440 18.000000
2.173883 -0.968826 -0.797244 19.000000
2.167468 -0.995393 -0.797680 10.000000
2.169354 -1.026037 -0.801203 17.000000
2.170877 -1.056740 -0.804710 22.000000
2.163547 -1.083408 -0.804968 22.000000
2.155859 -1.110015 -0.805143 21.000000
2.173061 -1.149803 -0.814750 16.000000
2.177177 -1.183373 -0.819528 19.000000
2.176712 -1.214767 -0.822636 18.000000
2.154933 -1.234959 -0.818225 10.000000
2.166094 -1.273584 -0.825917 14.000000
2.144154 -1.292974 -0.821025 18.000000
2.145925 -1.327500 -0.825798 16.000000
2.159684 -1.369299 -0.834796 18.000000
2.148401 -1.396600 -0.834785 12.000000
2.156682 -1.436929 -0.842415 16.000000
2.153001 -1.469004 -0.845045 17.000000
2.136779 -1.493588 -0.843289 10.000000
2.135698 -1.529000 -0.847592 11.000000
2.138045 -1.567412 -0.853399 18.000000
2.136535 -1.602551 -0.857302 17.000000
2.130233 -1.635562 -0.859907 17.000000
2.115991 -1.662774 -0.859363 15.000000
2.105140 -1.692798 -0.860328 13.000000
2.115978 -1.740898 -0.870274 16.000000
2.115173 -1.780286 -0.875629 10.000000
2.106543 -1.813602 -0.877845 10.000000
2.118918 -1.865808 -0.889048 18.000000
2.105684 -1.896221 -0.889604 20.000000
2.095549 -1.929756 -0.891638 24.000000
2.088405 -1.966529 -0.895044 22.000000
2.084327 -2.006654 -0.899901 24.000000
2.055698 -2.023533 -0.894351 33.000000
2.012647 -2.027247 -0.883185 32.000000
1.967445 -2.025881 -0.870141 36.000000
1.942239 -2.044600 -0.865968 71.000000
1.903910 -2.048964 -0.855952 66.000000
1.884006 -2.074731 -0.854911 57.000000
1.864918 -2.099499 -0.853593 46.000000
1.854901 -2.134908 -0.856524 52.000000
1.835095 -2.159387 -0.855083 42.000000
1.816913 -2.188164 -0.855434 33.000000
1.793529 -2.208557 -0.852443 28.000000
1.775923 -2.236091 -0.852221 33.000000
1.756607 -2.264491 -0.852343 34.000000
1.738312 -2.291748 -0.852081 34.000000
1.711102 -2.307397 -0.847554 32.000000
1.702116 -2.350726 -0.853181 34.000000
1.688187 -2.385411 -0.855570 31.000000
1.672337 -2.421002 -0.858196 31.000000
1.652081 -2.447669 -0.857618 24.000000
1.632604 -2.479035 -0.858690 32.000000
1.611493 -2.505411 -0.858063 32.000000
1.593611 -2.540617 -0.860457 32.000000
1.576899 -2.574823 -0.862331 31.000000
1.559748 -2.608871 -0.864255 32.000000
