x y z intensity
2.112411 0.815167 1.738894 35.000000
2.132180 0.791860 1.750220 33.000000
2.133217 0.761520 1.746042 36.000000
2.160140 0.740179 1.763153 35.000000
2.137483 0.702568 1.740965 34.000000
2.137757 0.672326 1.736316 31.000000
2.160331 0.649014 1.749960 26.000000
2.163244 0.620045 1.748721 31.000000
2.173574 0.593165 1.753445 31.000000
2.175943 0.564034 1.751852 32.000000
2.193516 0.538674 1.762472 34.000000
2.199374 0.510346 1.763608 32.000000
2.204969 0.481842 1.764657 33.000000
2.209778 0.453427 1.766144 30.000000
2.230399 0.427802 1.779177 32.000000
2.230840 0.398320 1.777236 36.000000
2.227298 0.368297 1.772029 35.000000
2.227265 0.338977 1.769816 33.000000
2.234830 0.310753 1.773518 35.000000
2.245517 0.283008 1.780840 37.000000
2.244865 0.253563 1.778099 36.000000
2.235597 0.223525 1.769607 31.000000
2.265164 0.197105 1.791882 28.000000
2.247618 0.166500 1.776758 33.000000
2.249369 0.137509 1.777021 34.000000
2.250946 0.108606 1.777109 34.000000
2.247812 0.079476 1.774537 33.000000
2.236565 0.050272 1.765681 30.000000
2.248598 0.021596 1.775149 35.000000
2.256535 -0.007370 1.781345 32.000000
2.256359 -0.036411 1.781170 34.000000
2.259932 -0.065479 1.783916 36.000000
2.255394 -0.094406 1.780293 36.000000
2.250070 -0.123233 1.777196 32.000000
2.248494 -0.152136 1.777021 33.000000
2.250568 -0.181355 1.779678 32.000000
2.236819 -0.209211 1.769869 24.000000
2.242275 -0.238846 1.775269 32.000000
2.227506 -0.266349 1.765730 31.000000
2.240391 -0.296993 1.776958 36.000000
2.232991 -0.325292 1.773255 34.000000
2.233109 -0.354637 1.775555 35.000000
2.225283 -0.382748 1.771503 35.000000
2.213340 -0.409868 1.764196 32.000000
2.185114 -0.433896 1.745086 21.000000
2.188242 -0.463597 1.749779 30.000000
2.182868 -0.491852 1.748826 32.000000
2.181068 -0.520935 1.750776 35.000000
2.167605 -0.547136 1.743324 33.000000
2.157737 -0.574066 1.738781 33.000000
2.147631 -0.600726 1.734071 34.000000
2.122217 -0.622839 1.717017 24.000000
2.107400 -0.648031 1.709607 18.000000
2.111283 -0.678993 1.717343 30.000000
2.107929 -0.707302 1.718175 33.000000
2.100039 -0.734572 1.716460 32.000000
2.073282 -0.754894 1.699319 30.000000
2.068745 -0.783070 1.700327 31.000000
2.063240 -0.811597 1.701838 33.000000
2.036078 -0.830628 1.684334 24.000000
2.012650 -0.850647 1.669655 16.000000
2.010282 -0.880104 1.673873 31.000000
1.993095 -0.902931 1.665710 31.000000
1.979335 -0.927175 1.660504 34.000000
1.961942 -0.949504 1.652118 30.000000
1.947941 -0.973179 1.646598 31.000000
1.930181 -0.994766 1.637993 29.000000
1.908887 -1.014127 1.626236 20.000000
1.905007 -1.042733 1.629348 17.000000
1.896563 -1.069722 1.630024 31.000000
1.888739 -1.096220 1.629861 32.000000
1.855691 -1.108661 1.609368 35.000000
1.843272 -1.133005 1.606654 34.000000
1.834085 -1.159332 1.606833 32.000000
1.814486 -1.179009 1.597926 30.000000
1.791470 -1.196027 1.585995 21.000000
1.761787 -1.208140 1.568019 14.000000
1.761884 -1.240399 1.576594 22.000000
1.745246 -1.261093 1.570307 22.000000
1.728497 -1.281456 1.563870 23.000000
1.704220 -1.297154 1.552145 26.000000
1.674440 -1.306882 1.533797 26.000000
1.659728 -1.329189 1.530679 34.000000
1.636313 -1.343044 1.518099 21.000000
1.624400 -1.367446 1.517668 21.000000
1.584525 -1.367744 1.491036 29.000000
1.573463 -1.390993 1.489851 28.000000
1.561243 -1.414717 1.489122 31.000000
1.542658 -1.432642 1.482621 32.000000
1.515160 -1.441866 1.467363 29.000000
1.496553 -1.459200 1.460678 33.000000
1.477852 -1.476143 1.453931 20.000000
1.441825 -1.475222 1.429952 16.000000
1.427658 -1.497963 1.429347 28.000000
1.414501 -1.519937 1.428113 26.000000
1.398274 -1.538701 1.423883 32.000000
1.378000 -1.554836 1.417374 28.000000
1.350748 -1.560593 1.401762 26.000000
1.335678 -1.582336 1.400681 30.000000
1.316484 -1.596913 1.393463 17.000000
1.285504 -1.598852 1.375505 17.000000
1.263708 -1.609420 1.365432 29.000000
1.250754 -1.633450 1.366837 29.000000
1.205142 -1.613955 1.332274 31.000000
1.099971 -1.508461 1.228677 24.000000
1.078413 -1.516922 1.219309 28.000000
1.059256 -1.528418 1.212572 32.000000
1.037691 -1.536169 1.203131 21.000000
1.016010 -1.543652 1.193658 19.000000
0.996753 -1.554278 1.186926 29.000000
1.108676 1.726771 1.347523 20.000000
1.127706 1.710813 1.352093 10.000000
1.153591 1.704984 1.364877 30.000000
1.177183 1.695312 1.374868 29.000000
1.194438 1.679116 1.379788 25.000000
1.213057 1.662087 1.384177 28.000000
1.238896 1.654856 1.396889 29.000000
1.266019 1.651083 1.412845 33.000000
1.266565 1.610396 1.397346 23.000000
1.298815 1.612335 1.418846 14.000000
1.322216 1.600378 1.428574 36.000000
1.336247 1.579166 1.430191 30.000000
1.364821 1.572771 1.445510 32.000000
1.395078 1.569531 1.464141 37.000000
1.403369 1.541462 1.459833 30.000000
1.422546 1.525346 1.466982 35.000000
1.439978 1.505347 1.470561 24.000000
1.467507 1.497467 1.486173 16.000000
1.492244 1.486091 1.498871 32.000000
1.511176 1.468652 1.505643 26.000000
1.527063 1.448101 1.509516 32.000000
1.547638 1.433459 1.519708 33.000000
1.569361 1.417865 1.529217 31.000000
1.587929 1.399194 1.535738 35.000000
1.600266 1.375013 1.536306 20.000000
1.614444 1.353826 1.540289 17.000000
1.641984 1.342048 1.555382 32.000000
1.659098 1.322807 1.562199 31.000000
1.673974 1.300291 1.565255 30.000000
1.697252 1.285292 1.577804 34.000000
1.717375 1.267494 1.587249 29.000000
1.730851 1.244683 1.590658 33.000000
1.740885 1.219333 1.590991 21.000000
1.767224 1.205170 1.606159 16.000000
1.776958 1.179451 1.606253 34.000000
1.793102 1.157904 1.612200 31.000000
1.805837 1.133985 1.615057 32.000000
1.828524 1.116127 1.626823 35.000000
1.840016 1.092156 1.630107 30.000000
1.855609 1.069595 1.635604 33.000000
1.870340 1.047189 1.641605 23.000000
1.888349 1.026422 1.650579 17.000000
1.900010 1.001115 1.652730 32.000000
1.910679 0.976139 1.655293 31.000000
1.935361 0.958016 1.670092 30.000000
1.945775 0.932522 1.672425 32.000000
1.958770 0.908857 1.678409 29.000000
1.972385 0.884680 1.683568 30.000000
1.971317 0.853891 1.676264 18.000000
1.991116 0.832753 1.688000 23.000000
2.003461 0.808220 1.693342 32.000000
2.012676 0.781749 1.694850 32.000000
2.032013 0.759573 1.706217 34.000000
2.047575 0.735697 1.714259 34.000000
2.051220 0.707873 1.713527 30.000000
2.066430 0.683503 1.721333 32.000000
2.062756 0.652855 1.713461 24.000000
2.065745 0.624852 1.712290 25.000000
2.076570 0.598865 1.716493 33.000000
2.082803 0.571912 1.718093 32.000000
2.092651 0.545777 1.722725 34.000000
2.098558 0.518522 1.723990 35.000000
2.103621 0.491351 1.725762 30.000000
2.101394 0.462249 1.720530 29.000000
2.106606 0.434841 1.721286 21.000000
2.118641 0.408995 1.728800 24.000000
2.153570 0.387006 1.755008 37.000000
2.126826 0.353979 1.730909 32.000000
2.153740 0.329842 1.750457 32.000000
2.141885 0.299705 1.738609 48.000000
2.144680 0.272012 1.739710 35.000000
2.136204 0.242831 1.730559 32.000000
2.150185 0.216289 1.740726 24.000000
2.144630 0.187748 1.735044 24.000000
2.146487 0.159987 1.735466 30.000000
2.159913 0.132858 1.745051 32.000000
2.157468 0.104672 1.741997 31.000000
2.166007 0.077002 1.748869 32.000000
2.170407 0.049128 1.752349 32.000000
2.158992 0.020833 1.743098 29.000000
2.151296 -0.007088 1.736901 31.000000
2.151212 -0.034934 1.736732 31.000000
2.158568 -0.063007 1.742674 33.000000
2.161864 -0.091117 1.745305 34.000000
2.152819 -0.118685 1.738943 32.000000
2.158979 -0.147026 1.745051 34.000000
2.157198 -0.175023 1.744626 29.000000
2.120359 -0.199650 1.715885 21.000000
2.145296 -0.230016 1.737083 32.000000
2.138386 -0.257362 1.733778 32.000000
2.143494 -0.285986 1.738948 35.000000
2.132395 -0.312632 1.732091 34.000000
2.128766 -0.340309 1.731331 34.000000
2.124885 -0.367902 1.730403 35.000000
2.124670 -0.396125 1.732433 31.000000
2.101305 -0.419775 1.715541 25.000000
2.092461 -0.446270 1.711664 31.000000
2.083384 -0.472582 1.707622 32.000000
2.078543 -0.499458 1.705869 33.000000
2.076657 -0.527463 1.707734 35.000000
2.063246 -0.552365 1.700168 35.000000
2.053480 -0.578048 1.695474 32.000000
2.054088 -0.607045 1.700611 32.000000
2.010226 -0.622086 1.667719 20.000000
2.010476 -0.650721 1.672532 29.000000
2.010506 -0.679469 1.677252 34.000000
1.999786 -0.704086 1.671844 30.000000
1.984581 -0.727420 1.663846 30.000000
1.980210 -0.754597 1.664965 30.000000
1.964013 -0.777690 1.657312 29.000000
1.955655 -0.803255 1.655100 29.000000
1.932548 -0.822402 1.640413 23.000000
1.937546 -0.854139 1.650839 29.000000
1.927877 -0.879541 1.648791 35.000000
1.911636 -0.901082 1.639874 32.000000
1.894486 -0.922681 1.631467 30.000000
1.884320 -0.947406 1.629027 37.000000
1.873909 -0.972048 1.626506 32.000000
1.855615 -0.993194 1.618377 25.000000
1.820599 -1.003928 1.594244 23.000000
1.820167 -1.033559 1.600476 32.000000
1.801563 -1.053669 1.592079 32.000000
1.787018 -1.075009 1.585848 31.000000
1.764783 -1.092386 1.574225 32.000000
1.745812 -1.111396 1.565410 29.000000
1.736877 -1.136706 1.565570 31.000000
1.724341 -1.159637 1.562634 30.000000
1.681943 -1.161945 1.532548 21.000000
1.675845 -1.188723 1.535415 31.000000
1.659766 -1.208437 1.529141 29.000000
1.649935 -1.232715 1.528761 34.000000
1.643166 -1.259289 1.531264 37.000000
1.622460 -1.276394 1.522343 31.000000
1.612132 -1.300215 1.521624 31.000000
1.578741 -1.306432 1.500684 26.000000
1.537370 -1.303616 1.470366 20.000000
1.544189 -1.342827 1.487672 30.000000
1.517122 -1.352817 1.472465 27.000000
1.502109 -1.373192 1.468941 30.000000
1.485127 -1.390027 1.461887 33.000000
1.464046 -1.404351 1.452396 29.000000
1.448665 -1.423996 1.448589 28.000000
1.433209 -1.443412 1.444782 29.000000
1.403395 -1.448019 1.426386 22.000000
1.386661 -1.467392 1.422918 26.000000
1.370832 -1.486010 1.418923 32.000000
1.357745 -1.507448 1.417641 27.000000
1.319974 -1.501068 1.390569 30.000000
1.294856 -1.509989 1.378310 29.000000
1.278904 -1.527344 1.374026 25.000000
1.261549 -1.545143 1.370186 25.000000
1.227364 -1.539536 1.346002 17.000000
1.215042 -1.563094 1.347699 28.000000
1.198816 -1.579466 1.343168 29.000000
1.161473 -1.569473 1.316638 25.000000
1.090505 -1.511716 1.251234 25.000000
1.072559 -1.522979 1.244072 29.000000
1.046180 -1.524285 1.228967 31.000000
1.033811 -1.545987 1.230488 29.000000
1.012103 -1.553553 1.220837 20.000000
1.079164 1.653972 1.328146 16.000000
1.104384 1.648609 1.340975 17.000000
1.123535 1.636670 1.348608 24.000000
1.144151 1.623786 1.355748 23.000000
1.164622 1.610687 1.362833 21.000000
1.181244 1.594507 1.367466 23.000000
1.203944 1.584137 1.377350 26.000000
1.222935 1.570759 1.384784 17.000000
1.240622 1.553220 1.388706 21.000000
1.262012 1.542459 1.398966 25.000000
1.288710 1.537597 1.414802 28.000000
1.306167 1.519241 1.418622 29.000000
1.319582 1.498203 1.419995 26.000000
1.346409 1.492116 1.435808 29.000000
1.359481 1.470590 1.436964 26.000000
1.394806 1.472473 1.461487 24.000000
1.400449 1.441167 1.453201 18.000000
1.430315 1.436277 1.471749 21.000000
1.436036 1.408680 1.467343 25.000000
1.457214 1.394577 1.476974 25.000000
1.472473 1.374512 1.480560 24.000000
1.499403 1.365205 1.496019 28.000000
1.511471 1.341927 1.496505 27.000000
1.519222 1.316486 1.494530 20.000000
1.558315 1.316304 1.521656 17.000000
1.581250 1.303125 1.534453 22.000000
1.589703 1.276479 1.531572 29.000000
1.606232 1.257617 1.538240 27.000000
1.616396 1.233678 1.538653 28.000000
1.639054 1.219173 1.551149 27.000000
1.658568 1.201845 1.560497 31.000000
1.671455 1.179527 1.563718 22.000000
1.693997 1.163793 1.575910 17.000000
1.713232 1.145514 1.585010 25.000000
1.725769 1.122424 1.587866 29.000000
1.744832 1.103483 1.596761 28.000000
1.749414 1.076324 1.593976 26.000000
1.768170 1.056808 1.602576 26.000000
1.786058 1.037430 1.611834 25.000000
1.801163 1.015297 1.617153 23.000000
1.822251 0.997090 1.629214 14.000000
1.836357 0.974763 1.634963 23.000000
1.843279 0.948669 1.634451 21.000000
1.860612 0.927678 1.643068 22.000000
1.884840 0.909746 1.657831 24.000000
1.884136 0.879760 1.650624 23.000000
1.903825 0.859879 1.662639 22.000000
1.906274 0.831412 1.658360 19.000000
1.925758 0.810957 1.670079 13.000000
1.934248 0.785651 1.672365 20.000000
1.938944 0.758760 1.671357 24.000000
1.955039 0.735675 1.678926 20.000000
1.954996 0.707508 1.675105 21.000000
1.973681 0.685589 1.686237 23.000000
1.984909 0.660761 1.690855 18.000000
1.987939 0.633640 1.689760 16.000000
1.987719 0.605157 1.684692 10.000000
1.993923 0.579115 1.686406 14.000000
1.988830 0.549891 1.678492 14.000000
2.002174 0.525721 1.686187 13.000000
2.004118 0.498549 1.684331 12.000000
2.017107 0.474052 1.691712 15.000000
2.021760 0.447765 1.693263 10.000000
2.015538 0.418791 1.684499 10.000000
2.053928 0.399129 1.714317 10.000000
2.046643 0.370236 1.705878 10.000000
2.042878 0.342197 1.700436 10.000000
2.069468 0.319067 1.720298 14.000000
2.061468 0.290324 1.711351 10.000000
2.068012 0.264001 1.715598 12.000000
2.063472 0.236015 1.709490 10.000000
2.046572 0.207227 1.694334 9.000000
2.067823 0.182163 1.710803 9.000000
2.054322 0.154082 1.698491 9.000000
2.071352 0.128228 1.711378 10.000000
2.072830 0.101220 1.711460 10.000000
2.058071 0.073660 1.699224 10.000000
2.077834 0.047291 1.715546 10.000000
2.081937 0.020187 1.718893 16.000000
2.082019 -0.006921 1.718893 17.000000
2.093503 -0.034219 1.728277 22.000000
2.081607 -0.061139 1.718399 24.000000
2.077177 -0.088084 1.714723 21.000000
2.083563 -0.115653 1.721086 24.000000
2.081995 -0.142812 1.720921 25.000000
2.037964 -0.166434 1.685525 10.000000
2.070679 -0.196236 1.713654 21.000000
2.057027 -0.221970 1.703380 21.000000
2.069412 -0.250735 1.715927 24.000000
2.059203 -0.276569 1.708505 25.000000
2.052098 -0.302931 1.704755 25.000000
2.052307 -0.330339 1.707191 26.000000
2.052421 -0.357765 1.709460 28.000000
2.021869 -0.379501 1.686203 10.000000
2.013937 -0.405040 1.681900 20.000000
2.012859 -0.432266 1.684336 23.000000
2.008313 -0.458405 1.682794 24.000000
2.006802 -0.485618 1.684900 26.000000
2.001271 -0.511806 1.683680 27.000000
1.999322 -0.539003 1.685454 30.000000
1.985908 -0.562961 1.677680 30.000000
1.938884 -0.576681 1.641322 10.000000
1.954377 -0.609135 1.659098 22.000000
1.944168 -0.633341 1.653943 25.000000
1.936944 -0.658945 1.652498 24.000000
1.922143 -0.681705 1.644616 24.000000
1.915187 -0.706652 1.642217 26.000000
1.906712 -0.732078 1.640938 24.000000
1.887846 -0.752690 1.629556 23.000000
1.868834 -0.772858 1.617959 10.000000
1.867798 -0.800360 1.621905 27.000000
1.855020 -0.823450 1.616965 25.000000
1.839193 -0.844416 1.608210 27.000000
1.819109 -0.863673 1.596838 26.000000
1.809463 -0.887673 1.594642 28.000000
1.792578 -0.907969 1.586094 28.000000
1.789541 -0.935201 1.589858 27.000000
1.741266 -0.938213 1.553301 10.000000
1.758668 -0.976448 1.575276 24.000000
1.747440 -0.999918 1.573093 26.000000
1.743555 -1.026845 1.576276 29.000000
1.704883 -1.033718 1.549306 30.000000
1.683955 -1.049791 1.536961 29.000000
1.668828 -1.070099 1.531224 29.000000
1.666824 -1.098886 1.537701 29.000000
1.628408 -1.103240 1.510417 10.000000
1.619482 -1.127229 1.510505 26.000000
1.594261 -1.139521 1.495339 24.000000
1.588266 -1.165368 1.498233 26.000000
1.582018 -1.191311 1.501025 25.000000
1.569202 -1.212241 1.497689 24.000000
1.543784 -1.223172 1.482175 26.000000
1.526690 -1.241561 1.476165 26.000000
1.507474 -1.256627 1.466501 10.000000
1.502410 -1.284857 1.472395 21.000000
1.470898 -1.288838 1.450611 24.000000
1.450500 -1.303452 1.441398 24.000000
1.433108 -1.320336 1.435029 25.000000
1.421416 -1.342527 1.434441 25.000000
1.400815 -1.356226 1.424989 24.000000
1.387033 -1.374651 1.420788 26.000000
1.371998 -1.393445 1.417029 9.000000
1.344556 -1.400908 1.402005 21.000000
1.323803 -1.413182 1.392293 18.000000
1.308591 -1.431160 1.388363 21.000000
1.287739 -1.442844 1.378555 25.000000
1.269694 -1.457237 1.371530 19.000000
1.252987 -1.475030 1.367914 24.000000
1.239902 -1.495174 1.366596 20.000000
1.239638 -1.531162 1.379455 10.000000
1.196761 -1.516362 1.346967 20.000000
1.175935 -1.526168 1.336810 19.000000
1.156289 -1.539410 1.329961 22.000000
1.128040 -1.538506 1.311301 20.000000
1.082012 -1.514183 1.273323 22.000000
1.057930 -1.519355 1.260889 28.000000
1.039949 -1.530424 1.253572 26.000000
1.022897 -1.545156 1.249480 12.000000
1.063597 1.606750 1.327533 22.000000
1.083833 1.594583 1.334663 26.000000
1.100221 1.579340 1.339387 18.000000
1.125120 1.573237 1.352131 25.000000
1.137851 1.550291 1.350561 26.000000
1.158898 1.540900 1.360846 21.000000
1.176183 1.524119 1.364879 17.000000
1.189574 1.504503 1.366372 18.000000
1.210504 1.494220 1.376576 23.000000
1.237917 1.489242 1.392002 32.000000
1.253639 1.471992 1.396224 26.000000
1.269288 1.454597 1.400372 31.000000
1.292871 1.445947 1.413281 34.000000
1.311051 1.430905 1.420262 27.000000
1.323706 1.409765 1.421265 25.000000
1.347309 1.400078 1.434054 18.000000
1.370879 1.389938 1.446817 26.000000
1.386008 1.370954 1.450525 30.000000
1.403870 1.354528 1.457151 26.000000
1.424559 1.340542 1.466716 32.000000
1.441229 1.323993 1.473753 29.000000
1.458855 1.306691 1.480207 28.000000
1.470389 1.283917 1.480482 29.000000
1.480669 1.261449 1.481266 21.000000
1.503041 1.249069 1.494033 31.000000
1.523247 1.233266 1.503121 34.000000
1.539397 1.215143 1.509638 33.000000
1.552238 1.194296 1.513113 33.000000
1.574487 1.180410 1.525550 36.000000
1.583990 1.156729 1.525748 35.000000
1.602928 1.139836 1.534934 32.000000
1.612026 1.115895 1.534897 24.000000
1.630707 1.098480 1.543961 32.000000
1.652618 1.082813 1.555987 41.000000
1.657972 1.056185 1.552476 33.000000
1.668904 1.034169 1.555610 34.000000
1.687156 1.015502 1.564276 35.000000
1.697824 0.993014 1.567193 35.000000
1.715055 0.974230 1.576276 36.000000
1.735708 0.956996 1.588353 22.000000
1.745862 0.933819 1.590988 34.000000
1.766309 0.915786 1.602801 38.000000
1.765861 0.886923 1.595716 35.000000
1.793026 0.871778 1.613693 44.000000
1.806168 0.849399 1.618877 36.000000
1.814874 0.825556 1.621465 35.000000
1.831227 0.804360 1.629586 34.000000
1.821825 0.772551 1.616134 23.000000
1.844259 0.754316 1.630985 36.000000
1.866661 0.735466 1.645712 70.000000
1.838461 0.696986 1.615867 37.000000
1.875009 0.683170 1.642999 50.000000
1.882503 0.658241 1.644577 62.000000
1.893495 0.634458 1.649260 53.000000
1.896229 0.608384 1.648048 35.000000
1.913580 0.586761 1.659436 27.000000
1.924018 0.562371 1.663581 50.000000
1.929980 0.537011 1.665092 58.000000
1.928273 0.509529 1.660125 39.000000
1.933183 0.484266 1.661947 42.000000
1.942224 0.459570 1.666180 61.000000
1.936147 0.431438 1.657436 44.000000
1.947992 0.407528 1.665194 35.000000
1.952110 0.381948 1.666461 29.000000
1.945393 0.354073 1.657222 36.000000
1.959871 0.330552 1.668361 63.000000
1.959652 0.304148 1.665858 49.000000
1.962971 0.278302 1.666411 60.000000
1.962337 0.251968 1.663589 56.000000
1.972384 0.227126 1.670896 40.000000
1.974522 0.201230 1.671608 52.000000
1.995623 0.176943 1.688272 32.000000
2.001274 0.151085 1.691895 52.000000
1.987616 0.123858 1.679242 37.000000
1.989047 0.097703 1.679242 48.000000
1.974407 0.071078 1.666902 49.000000
1.971061 0.045115 1.663993 42.000000
1.990478 0.019398 1.680276 36.000000
1.967634 -0.006601 1.661004 35.000000
1.982758 -0.032707 1.673746 34.000000
1.986261 -0.058795 1.676654 35.000000
1.978068 -0.084494 1.669652 34.000000
1.953906 -0.109141 1.650312 33.000000
1.986821 -0.137214 1.679163 38.000000
1.981262 -0.162897 1.675622 30.000000
1.960404 -0.187106 1.658961 24.000000
1.973572 -0.214455 1.671212 36.000000
1.967477 -0.239809 1.667123 34.000000
1.964473 -0.265734 1.666728 37.000000
1.946088 -0.289250 1.653386 31.000000
1.954054 -0.316656 1.662327 35.000000
1.954830 -0.342878 1.664040 34.000000
1.950404 -0.368645 1.663645 32.000000
1.905118 -0.385882 1.627156 21.000000
1.927265 -0.416464 1.648288 36.000000
1.911026 -0.439297 1.637888 32.000000
1.905957 -0.464482 1.636875 34.000000
1.908721 -0.491270 1.641481 35.000000
1.892033 -0.513377 1.630559 34.000000
1.882654 -0.537224 1.625963 33.000000
1.872521 -0.561051 1.621839 30.000000
1.855453 -0.582165 1.610489 24.000000
1.856612 -0.608917 1.614933 34.000000
1.849649 -0.633440 1.613618 32.000000
1.842377 -0.657887 1.612071 31.000000
1.813312 -0.674182 1.591311 28.000000
1.809424 -0.699503 1.592649 31.000000
1.808943 -0.726284 1.597072 31.000000
1.793875 -0.747148 1.588589 29.000000
1.764487 -0.761528 1.567407 18.000000
1.766327 -0.789814 1.575136 32.000000
1.747458 -0.808074 1.563245 32.000000
1.731292 -0.828032 1.554981 32.000000
1.721945 -0.851022 1.552871 32.000000
1.715989 -0.875706 1.553748 30.000000
1.699351 -0.894811 1.545138 30.000000
1.689572 -0.917379 1.542656 29.000000
1.655793 -0.926452 1.518157 14.000000
1.666101 -0.960112 1.534197 35.000000
1.652525 -0.980112 1.528232 30.000000
1.637944 -1.000322 1.522801 33.000000
1.620759 -1.017759 1.513533 32.000000
1.602696 -1.035316 1.504734 29.000000
1.597676 -1.061171 1.508246 32.000000
1.572837 -1.073742 1.493151 28.000000
1.551345 -1.088078 1.481033 17.000000
1.545783 -1.113533 1.484170 27.000000
1.530447 -1.131894 1.478008 27.000000
1.521314 -1.154804 1.477905 27.000000
1.502611 -1.170280 1.468483 30.000000
1.483865 -1.185440 1.459015 26.000000
1.464131 -1.200725 1.450084 26.000000
1.451394 -1.220304 1.446518 24.000000
1.414457 -1.218873 1.418679 10.000000
1.412663 -1.248756 1.427603 32.000000
1.392747 -1.262737 1.418333 26.000000
1.391384 -1.292233 1.426464 31.000000
1.374134 -1.308462 1.420062 29.000000
1.353860 -1.321666 1.410541 26.000000
1.333636 -1.334569 1.400978 27.000000
1.310587 -1.344150 1.388402 23.000000
1.270933 -1.335857 1.358010 10.000000
1.278414 -1.376967 1.377891 24.000000
1.255348 -1.385482 1.365206 24.000000
1.240370 -1.402720 1.361249 23.000000
1.222676 -1.416609 1.354291 25.000000
1.210204 -1.436490 1.353125 24.000000
1.175625 -1.431680 1.329119 23.000000
1.168091 -1.457347 1.333660 18.000000
1.132661 -1.447706 1.306218 9.000000
1.121164 -1.470301 1.308209 19.000000
1.098427 -1.475945 1.295219 18.000000
1.089022 -1.501544 1.299914 24.000000
1.062552 -1.503700 1.284462 27.000000
1.046931 -1.518431 1.279940 26.000000
1.025216 -1.526672 1.270215 26.000000
1.015821 1.550828 1.301158 29.000000
1.036414 1.543026 1.311555 29.000000
1.051454 1.524325 1.312829 33.000000
1.070988 1.512131 1.319816 32.000000
1.093844 1.506796 1.332991 29.000000
1.104723 1.484769 1.331624 33.000000
1.143626 1.497542 1.361879 22.000000
1.169280 1.494107 1.378031 19.000000
1.164810 1.452443 1.358816 35.000000
1.186607 1.441647 1.368456 32.000000
1.207059 1.431129 1.378482 36.000000
1.222314 1.414101 1.382597 40.000000
1.240159 1.399934 1.389553 35.000000
1.263243 1.391413 1.402506 39.000000
1.291899 1.388310 1.421363 24.000000
1.304186 1.367266 1.422190 26.000000
1.319053 1.348933 1.425943 33.000000
1.330957 1.327644 1.426530 29.000000
1.345577 1.309062 1.430131 35.000000
1.361780 1.293432 1.437202 34.000000
1.381962 1.279766 1.446686 31.000000
1.398018 1.263576 1.453581 33.000000
1.412181 1.244038 1.456777 24.000000
1.428103 1.227364 1.463549 26.000000
1.442005 1.207421 1.466606 34.000000
1.454669 1.187696 1.470100 33.000000
1.476489 1.175244 1.482715 36.000000
1.482809 1.150217 1.479892 33.000000
1.504519 1.137105 1.492409 33.000000
1.516776 1.116481 1.495492 40.000000
1.522529 1.091228 1.492270 23.000000
1.540850 1.074866 1.501437 27.000000
1.562276 1.060375 1.513608 34.000000
1.574019 1.039031 1.516266 33.000000
1.588002 1.020013 1.522581 45.000000
1.596027 0.996271 1.521879 35.000000
1.616398 0.980822 1.534285 33.000000
1.630067 0.961093 1.540339 46.000000
1.647739 0.942601 1.548746 24.000000
1.657758 0.920395 1.551363 27.000000
1.671030 0.899947 1.557076 33.000000
1.680845 0.877396 1.559398 32.000000
1.693052 0.856811 1.565502 35.000000
1.705971 0.835684 1.570791 35.000000
1.715224 0.812589 1.572746 35.000000
1.727070 0.791398 1.578499 35.000000
1.729012 0.764921 1.573760 23.000000
1.740500 0.743382 1.579216 28.000000
1.766131 0.727440 1.597360 37.000000
1.766758 0.700981 1.592913 38.000000
1.777903 0.678734 1.597944 45.000000
1.792444 0.657557 1.606050 66.000000
1.792464 0.631033 1.601129 35.000000
1.806149 0.609740 1.609628 41.000000
1.805735 0.583180 1.604390 29.000000
1.822662 0.562592 1.615829 31.000000
1.832270 0.539483 1.620666 36.000000
1.837927 0.515097 1.622119 37.000000
1.847188 0.491690 1.626659 43.000000
1.852550 0.467101 1.627808 40.000000
1.853981 0.441555 1.625559 34.000000
1.850920 0.415351 1.620516 37.000000
1.840237 0.387701 1.608886 26.000000
1.874584 0.369099 1.635425 34.000000
1.882156 0.344916 1.639676 47.000000
1.882105 0.319364 1.637267 35.000000
1.885022 0.294573 1.638572 37.000000
1.891999 0.270088 1.642368 60.000000
1.895076 0.245017 1.642753 42.000000
1.897460 0.219946 1.643599 42.000000
1.892075 0.194102 1.637766 29.000000
1.893990 0.169054 1.638302 30.000000
1.891975 0.143796 1.635421 34.000000
1.904842 0.119432 1.645367 37.000000
1.894880 0.093723 1.635650 35.000000
1.895568 0.068725 1.636109 35.000000
1.896027 0.043651 1.636491 36.000000
1.900041 0.018614 1.639911 36.000000
1.881192 -0.006370 1.623577 26.000000
1.899965 -0.031559 1.639757 29.000000
1.888306 -0.056268 1.629653 32.000000
1.895415 -0.081568 1.635726 34.000000
1.894116 -0.106566 1.635726 29.000000
1.885184 -0.131115 1.629044 28.000000
1.887360 -0.156326 1.632004 23.000000
1.870444 -0.179749 1.618418 25.000000
1.879778 -0.205734 1.627598 30.000000
1.870044 -0.229556 1.620240 29.000000
1.867163 -0.254355 1.619861 30.000000
1.867804 -0.279563 1.622664 31.000000
1.861323 -0.303572 1.618116 32.000000
1.854097 -0.327483 1.614028 29.000000
1.865387 -0.354843 1.626053 26.000000
1.816299 -0.370527 1.586581 22.000000
1.816066 -0.395313 1.588563 26.000000
1.823004 -0.421761 1.596883 31.000000
1.814428 -0.445104 1.592663 30.000000
1.805574 -0.468198 1.588373 30.000000
1.800340 -0.492123 1.587102 32.000000
1.791219 -0.514921 1.582520 27.000000
1.792851 -0.540777 1.587419 25.000000
1.779803 -0.562228 1.579311 26.000000
1.776788 -0.587154 1.581345 31.000000
1.770657 -0.610556 1.579326 30.000000
1.752831 -0.630300 1.568170 29.000000
1.745772 -0.653633 1.566610 31.000000
1.731350 -0.674039 1.558400 30.000000
1.723875 -0.697054 1.556550 30.000000
1.719791 -0.721406 1.557683 25.000000
1.715602 -0.745778 1.558733 28.000000
1.696393 -0.764078 1.547506 27.000000
1.691757 -0.788155 1.548261 31.000000
1.679333 -0.809202 1.543149 29.000000
1.666724 -0.830009 1.537897 30.000000
1.661682 -0.853735 1.538274 31.000000
1.635087 -0.866916 1.520118 25.000000
1.635767 -0.894409 1.527211 26.000000
1.619311 -0.912451 1.518310 28.000000
1.588510 -0.922743 1.497306 29.000000
1.578602 -0.943935 1.494558 32.000000
1.565239 -0.962946 1.488518 31.000000
1.547697 -0.980004 1.479852 29.000000
1.540684 -1.002755 1.479969 32.000000
1.529448 -1.023569 1.477377 32.000000
1.514781 -1.042099 1.471516 24.000000
1.496827 -1.058070 1.462476 27.000000
1.485162 -1.078394 1.459614 31.000000
1.470141 -1.096089 1.453502 33.000000
1.445752 -1.106475 1.437964 29.000000
1.439967 -1.130869 1.440962 32.000000
1.421680 -1.145344 1.431521 34.000000
1.406394 -1.162022 1.425045 31.000000
1.396121 -1.184001 1.425220 24.000000
1.371661 -1.192465 1.409424 31.000000
1.366972 -1.219317 1.415507 31.000000
1.342555 -1.227063 1.399566 33.000000
1.328758 -1.245623 1.396344 32.000000
1.313074 -1.260730 1.389389 31.000000
1.293355 -1.273315 1.379912 34.000000
1.276494 -1.288366 1.373415 32.000000
1.259487 -1.303130 1.366863 25.000000
1.250702 -1.326405 1.369197 27.000000
1.222674 -1.328997 1.350467 29.000000
1.208222 -1.345926 1.346683 30.000000
1.185762 -1.353584 1.333897 28.000000
1.173747 -1.373117 1.332969 29.000000
1.148692 -1.376977 1.317155 27.000000
1.135348 -1.396608 1.316577 25.000000
1.118000 -1.409230 1.309550 24.000000
1.093146 -1.411905 1.293607 20.000000
1.079439 -1.430889 1.292831 28.000000
1.069283 -1.452471 1.294345 28.000000
1.049291 -1.460766 1.284198 26.000000
1.028027 -1.469330 1.274493 26.000000
1.015974 -1.490981 1.276307 26.000000
0.986815 -1.484846 1.254525 24.000000
1.004618 1.511394 1.304318 29.000000
1.020373 1.496866 1.308888 30.000000
1.039678 1.484902 1.315850 27.000000
1.059837 1.476494 1.326187 29.000000
1.071875 1.454277 1.324189 26.000000
1.099252 1.454955 1.343392 28.000000
1.109676 1.432842 1.341728 29.000000
1.126055 1.416463 1.345444 30.000000
1.143587 1.403534 1.352634 34.000000
1.156059 1.384188 1.353702 30.000000
1.186432 1.385937 1.375756 32.000000
1.196027 1.363070 1.373623 37.000000
1.210746 1.346060 1.377511 32.000000
1.238791 1.343445 1.396509 35.000000
1.253461 1.325897 1.400229 30.000000
1.265164 1.305295 1.400827 29.000000
1.286756 1.296273 1.414142 34.000000
1.298251 1.275319 1.414528 29.000000
1.320930 1.265068 1.427202 31.000000
1.331083 1.244256 1.428012 33.000000
1.350810 1.230686 1.437373 30.000000
1.366514 1.214703 1.444233 32.000000
1.377276 1.192868 1.444185 31.000000
1.389764 1.173923 1.447662 33.000000
1.405196 1.157249 1.454259 33.000000
1.420539 1.140279 1.460729 34.000000
1.432796 1.120683 1.463936 34.000000
1.454120 1.108017 1.476495 43.000000
1.466096 1.088008 1.479579 36.000000
1.477930 1.067784 1.482520 34.000000
1.495958 1.051802 1.491637 29.000000
1.510748 1.033388 1.497540 33.000000
1.524574 1.015105 1.503960 36.000000
1.535857 0.994058 1.506492 33.000000
1.546199 0.973228 1.509530 38.000000
1.560551 0.953899 1.514961 35.000000
1.577166 0.936663 1.524179 36.000000
1.577155 0.909508 1.517269 32.000000
1.606933 0.899341 1.539038 27.000000
1.613307 0.875686 1.538244 29.000000
1.622808 0.853760 1.540583 35.000000
1.632164 0.831687 1.542775 35.000000
1.644067 0.811450 1.548633 32.000000
1.656520 0.790755 1.553841 35.000000
1.664667 0.768517 1.556263 34.000000
1.680359 0.748939 1.564429 35.000000
1.695235 0.729321 1.573127 28.000000
1.681938 0.697786 1.555639 32.000000
1.692920 0.676538 1.560791 35.000000
1.700244 0.653686 1.562549 43.000000
1.725207 0.637332 1.580454 34.000000
1.713721 0.607983 1.566284 35.000000
1.724117 0.586057 1.570868 36.000000
1.751717 0.570034 1.592321 35.000000
1.757662 0.546627 1.594030 30.000000
1.763978 0.522922 1.594922 32.000000
1.769551 0.499291 1.596334 35.000000
1.774307 0.475735 1.598192 36.000000
1.786891 0.453811 1.605874 35.000000
1.788301 0.428981 1.603558 35.000000
1.796218 0.405983 1.608262 35.000000
1.793553 0.380320 1.602353 31.000000
1.793727 0.355660 1.600175 30.000000
1.790038 0.330416 1.594550 30.000000
1.800994 0.307754 1.601955 35.000000
1.808044 0.284311 1.605920 42.000000
1.810645 0.260309 1.607109 36.000000
1.813691 0.236084 1.607406 43.000000
1.815921 0.211933 1.608298 35.000000
1.803069 0.186240 1.595678 27.000000
1.834807 0.164900 1.622631 26.000000
1.814088 0.138760 1.603173 33.000000
1.815642 0.114634 1.603321 34.000000
1.816974 0.090434 1.603395 35.000000
1.821313 0.066445 1.607146 36.000000
1.821758 0.042196 1.607517 37.000000
1.821981 0.017946 1.607665 37.000000
1.803310 -0.006239 1.591125 27.000000
1.825730 -0.030542 1.610824 24.000000
1.821684 -0.054728 1.607220 28.000000
1.828660 -0.079229 1.613387 27.000000
1.823723 -0.103366 1.610081 29.000000
1.818570 -0.127403 1.606627 26.000000
1.824490 -0.152202 1.612941 21.000000
1.818968 -0.176115 1.609115 23.000000
1.787187 -0.196976 1.582097 27.000000
1.807427 -0.223495 1.601101 28.000000
1.800894 -0.247037 1.597504 28.000000
1.805814 -0.272085 1.602993 32.000000
1.798917 -0.295502 1.599029 30.000000
1.799214 -0.320139 1.601584 33.000000
1.784571 -0.341968 1.590740 20.000000
1.762377 -0.361913 1.573178 18.000000
1.761606 -0.386279 1.575885 29.000000
1.757586 -0.409667 1.574496 30.000000
1.745443 -0.431320 1.566976 31.000000
1.740421 -0.454684 1.565957 26.000000
1.735909 -0.477684 1.564137 30.000000
1.734223 -0.501952 1.566031 30.000000
1.735327 -0.527417 1.571704 20.000000
1.707994 -0.543679 1.550467 18.000000
1.716573 -0.571170 1.561800 29.000000
1.706285 -0.592975 1.557223 31.000000
1.689478 -0.611811 1.545331 28.000000
1.682535 -0.634449 1.543813 27.000000
1.671912 -0.655629 1.538823 29.000000
1.664623 -0.678003 1.537019 28.000000
1.653685 -0.698824 1.531825 18.000000
1.642635 -0.719408 1.526423 20.000000
1.627288 -0.738466 1.518368 29.000000
1.622940 -0.761842 1.519238 31.000000
1.627928 -0.790458 1.530287 31.000000
1.612849 -0.808729 1.521238 32.000000
1.600377 -0.828720 1.515859 28.000000
1.574286 -0.841255 1.497563 27.000000
1.561613 -0.860664 1.492007 15.000000
1.548838 -0.879841 1.486321 24.000000
1.539280 -0.900657 1.483772 31.000000
1.536173 -0.925373 1.487466 34.000000
1.509139 -0.936266 1.469325 30.000000
1.502473 -0.958599 1.469551 32.000000
1.485089 -0.974875 1.460803 29.000000
1.468499 -0.990484 1.451377 29.000000
1.460569 -1.012747 1.451884 18.000000
1.452451 -1.034958 1.452310 25.000000
1.437807 -1.052529 1.446281 29.000000
1.423143 -1.069803 1.440195 32.000000
1.405309 -1.084475 1.430845 32.000000
1.393480 -1.103679 1.427714 31.000000
1.375522 -1.117751 1.418265 30.000000
1.363538 -1.136455 1.414940 32.000000
1.345461 -1.149932 1.405327 13.000000
1.314603 -1.153178 1.383746 19.000000
1.308262 -1.176328 1.386397 30.000000
1.297822 -1.197246 1.386408 29.000000
1.285353 -1.214923 1.382640 29.000000
1.263222 -1.224635 1.370203 29.000000
1.243940 -1.236691 1.360671 24.000000
1.239590 -1.262098 1.365909 34.000000
1.220124 -1.273698 1.356267 14.000000
1.197938 -1.282040 1.343616 22.000000
1.181231 -1.295895 1.336943 29.000000
1.167100 -1.312381 1.333174 28.000000
1.160676 -1.337840 1.338450 32.000000
1.130689 -1.335801 1.316486 25.000000
1.118868 -1.354727 1.315607 26.000000
1.099301 -1.364158 1.305612 26.000000
1.083565 -1.380095 1.302011 15.000000
1.056665 -1.379399 1.283093 15.000000
1.042097 -1.394297 1.278940 26.000000
1.033205 -1.419246 1.284039 28.000000
1.008907 -1.420664 1.267956 27.000000
0.997203 -1.442188 1.270008 27.000000
0.975268 -1.446237 1.256813 22.000000
0.990967 1.468927 1.303833 24.000000
1.008629 1.457731 1.311237 27.000000
1.020667 1.435981 1.309176 24.000000
1.040457 1.427584 1.319514 25.000000
1.057924 1.415714 1.326823 24.000000
1.077752 1.406673 1.337095 13.000000
1.091480 1.387484 1.337733 25.000000
1.103786 1.368638 1.338828 29.000000
1.126012 1.361903 1.351921 32.000000
1.145806 1.351722 1.361953 32.000000
1.160334 1.335216 1.365909 27.000000
1.174862 1.318574 1.369729 32.000000
1.189185 1.301658 1.373412 29.000000
1.208825 1.290423 1.383256 18.000000
1.216468 1.267896 1.381187 25.000000
1.227630 1.247706 1.381568 24.000000
1.252647 1.241112 1.397392 29.000000
1.262538 1.221020 1.398192 29.000000
1.279083 1.205612 1.404533 29.000000
1.294450 1.190468 1.411371 29.000000
1.299170 1.164229 1.404990 24.000000
1.337751 1.169208 1.436841 19.000000
1.332368 1.135414 1.421349 27.000000
1.353354 1.124332 1.434198 29.000000
1.359393 1.100619 1.431122 32.000000
1.377254 1.086508 1.440641 34.000000
1.392091 1.069669 1.446869 30.000000
1.406770 1.052607 1.452971 30.000000
1.421361 1.035251 1.459016 32.000000
1.445268 1.024405 1.474601 24.000000
1.465222 1.011177 1.487524 28.000000
1.466933 0.984380 1.480439 33.000000
1.473929 0.962241 1.480316 31.000000
1.497720 0.949934 1.495525 30.000000
1.494705 0.921390 1.485440 34.000000
1.524085 0.912716 1.507517 32.000000
1.530535 0.889897 1.506908 30.000000
1.536802 0.867097 1.506145 25.000000
1.549551 0.847822 1.511804 23.000000
1.562127 0.828384 1.517330 26.000000
1.574671 0.808642 1.522653 27.000000
1.579477 0.785650 1.522023 26.000000
1.588294 0.763962 1.523943 26.000000
1.592761 0.740895 1.523014 23.000000
1.604648 0.720588 1.527925 21.000000
1.633015 0.707827 1.549686 19.000000
1.626674 0.679834 1.538553 24.000000
1.641013 0.660579 1.546921 28.000000
1.644677 0.636917 1.545347 24.000000
1.651047 0.614804 1.547565 24.000000
1.657845 0.592333 1.548997 21.000000
1.663857 0.570077 1.550929 21.000000
1.670369 0.547391 1.552074 16.000000
1.701110 0.532754 1.576910 15.000000
1.706703 0.509803 1.578435 16.000000
1.722941 0.489846 1.589699 18.000000
1.728277 0.466531 1.590941 18.000000
1.718918 0.439514 1.578743 12.000000
1.730523 0.418219 1.586919 14.000000
1.735253 0.394855 1.587719 16.000000
1.739257 0.371564 1.588957 10.000000
1.717534 0.343091 1.566714 9.000000
1.735767 0.322722 1.580988 14.000000
1.728231 0.297465 1.571773 10.000000
1.731465 0.274252 1.572420 10.000000
1.737662 0.251571 1.576910 10.000000
1.736928 0.227681 1.573857 10.000000
1.746468 0.205335 1.581334 10.000000
1.744792 0.181494 1.578639 10.000000
1.742893 0.157752 1.575797 9.000000
1.770546 0.136392 1.599509 10.000000
1.768298 0.112379 1.596381 10.000000
1.751130 0.087794 1.579647 10.000000
1.762840 0.064724 1.590195 10.000000
1.763203 0.041096 1.590485 10.000000
1.759780 0.017431 1.587353 10.000000
1.752355 -0.006122 1.580655 16.000000
1.737433 -0.029350 1.567117 15.000000
1.737147 -0.052559 1.566832 13.000000
1.744141 -0.076163 1.573025 15.000000
1.739213 -0.099330 1.569679 16.000000
1.745264 -0.123111 1.576229 17.000000
1.740053 -0.146230 1.572595 17.000000
1.738332 -0.169537 1.572165 12.000000
1.725383 -0.191543 1.561489 18.000000
1.730769 -0.215550 1.567460 22.000000
1.724293 -0.238299 1.563832 21.000000
1.718186 -0.260806 1.559422 21.000000
1.726140 -0.285646 1.568794 25.000000
1.708178 -0.306182 1.554661 18.000000
1.715669 -0.331197 1.563810 18.000000
1.693838 -0.350393 1.546077 20.000000
1.701013 -0.375533 1.554861 25.000000
1.685554 -0.395847 1.544165 23.000000
1.685072 -0.419263 1.546003 24.000000
1.680247 -0.441969 1.545010 24.000000
1.671536 -0.463533 1.540483 25.000000
1.673550 -0.488142 1.545843 24.000000
1.668217 -0.510612 1.544350 21.000000
1.666239 -0.534154 1.546097 19.000000
1.631391 -0.547206 1.518490 24.000000
1.625648 -0.569057 1.516669 24.000000
1.643756 -0.600063 1.538377 27.000000
1.612971 -0.612691 1.513168 25.000000
1.623603 -0.641384 1.528022 21.000000
1.612969 -0.661903 1.522892 20.000000
1.612628 -0.686616 1.527555 18.000000
1.570658 -0.693095 1.492691 17.000000
1.576272 -0.720829 1.504203 28.000000
1.565150 -0.740434 1.498689 28.000000
1.553225 -0.760086 1.493604 24.000000
1.545276 -0.780936 1.491024 28.000000
1.533127 -0.800240 1.485743 21.000000
1.527494 -0.822915 1.486840 23.000000
1.501747 -0.834465 1.468297 18.000000
1.489272 -0.852988 1.462639 19.000000
1.486544 -0.877093 1.466568 27.000000
1.464032 -0.889354 1.451015 27.000000
1.460988 -0.913272 1.454794 27.000000
1.456891 -0.937575 1.458965 29.000000
1.446937 -0.957344 1.455992 29.000000
1.410724 -0.960061 1.427835 22.000000
1.422776 -0.994543 1.447123 20.000000
1.389810 -0.998425 1.421996 16.000000
1.378674 -1.017573 1.419279 27.000000
1.364330 -1.034257 1.413177 26.000000
1.355995 -1.055395 1.413440 26.000000
1.341498 -1.071654 1.407147 25.000000
1.335836 -1.095060 1.410355 25.000000
1.315156 -1.105945 1.397624 19.000000
1.306269 -1.126598 1.397459 17.000000
1.285532 -1.136819 1.384585 20.000000
1.275363 -1.157539 1.384757 26.000000
1.263223 -1.175074 1.381115 27.000000
1.238558 -1.182084 1.365475 21.000000
1.220728 -1.193651 1.355515 21.000000
1.210058 -1.213659 1.355356 24.000000
1.199260 -1.233546 1.355049 19.000000
1.181210 -1.244346 1.344937 17.000000
1.162084 -1.255193 1.335191 18.000000
1.132369 -1.254102 1.313205 22.000000
1.136950 -1.290875 1.331033 25.000000
1.112553 -1.294986 1.315045 20.000000
1.100962 -1.313811 1.314272 23.000000
1.069180 -1.307827 1.289150 23.000000
1.047659 -1.313663 1.276187 21.000000
1.049523 -1.351099 1.293821 13.000000
1.023058 -1.350102 1.274665 13.000000
0.994421 -1.345412 1.252609 20.000000
0.984824 -1.366141 1.254501 23.000000
0.966751 -1.377465 1.247806 21.000000
0.947629 -1.384698 1.237651 21.000000
0.953196 1.394359 1.272821 23.000000
0.978368 1.392819 1.288701 24.000000
0.990832 1.375127 1.289908 31.000000
1.000673 1.354178 1.287993 10.000000
1.030711 1.357988 1.309894 28.000000
1.045212 1.342897 1.313962 27.000000
1.062045 1.330697 1.321029 27.000000
1.078813 1.318293 1.328049 33.000000
1.085461 1.293494 1.322689 28.000000
1.109721 1.289631 1.338788 29.000000
1.123794 1.273510 1.342488 34.000000
1.141862 1.263462 1.352870 14.000000
1.161048 1.252601 1.362691 30.000000
1.169474 1.230141 1.359972 29.000000
1.183081 1.213216 1.363358 26.000000
1.201056 1.202057 1.373493 31.000000
1.214526 1.184720 1.376761 27.000000
1.232410 1.172993 1.386746 30.000000
1.234323 1.144650 1.377164 31.000000
1.260596 1.140283 1.396551 18.000000
1.275506 1.125110 1.403157 32.000000
1.284497 1.104700 1.403400 31.000000
1.299260 1.089109 1.409819 33.000000
1.313874 1.073234 1.416186 36.000000
1.328473 1.057141 1.422499 35.000000
1.342989 1.040828 1.428691 34.000000
1.351320 1.019625 1.428380 35.000000
1.374776 1.009665 1.444074 29.000000
1.382861 0.988147 1.443566 32.000000
1.389878 0.966919 1.443520 36.000000
1.403822 0.949560 1.449214 35.000000
1.426369 0.938507 1.465233 42.000000
1.436188 0.918869 1.468117 32.000000
1.440332 0.894688 1.463711 35.000000
1.453002 0.876748 1.469650 35.000000
1.455874 0.852858 1.465559 28.000000
1.474915 0.838326 1.477867 29.000000
1.484047 0.817932 1.480133 29.000000
1.492287 0.797745 1.482880 32.000000
1.497740 0.775350 1.481640 34.000000
1.516506 0.759702 1.493470 35.000000
1.517555 0.735741 1.489265 34.000000
1.525177 0.715004 1.491600 35.000000
1.536824 0.695397 1.496429 31.000000
1.551036 0.677399 1.505138 32.000000
1.561733 0.657627 1.510331 44.000000
1.568869 0.636221 1.512133 52.000000
1.575173 0.615023 1.514349 55.000000
1.578477 0.592102 1.512534 49.000000
1.585113 0.570466 1.513917 36.000000
1.594431 0.550181 1.519129 50.000000
1.593063 0.526239 1.514161 32.000000
1.616194 0.510164 1.532515 30.000000
1.625811 0.489057 1.536707 34.000000
1.637543 0.469153 1.545313 37.000000
1.642667 0.446902 1.546506 37.000000
1.629741 0.419897 1.530737 35.000000
1.633837 0.397889 1.532195 37.000000
1.652823 0.378905 1.546365 33.000000
1.635019 0.351902 1.527327 29.000000
1.664004 0.334879 1.552051 33.000000
1.671139 0.313026 1.556339 35.000000
1.663618 0.288486 1.546980 34.000000
1.663124 0.265333 1.544160 36.000000
1.672854 0.243942 1.552038 46.000000
1.672075 0.220837 1.548937 37.000000
1.674171 0.198264 1.549706 35.000000
1.672468 0.175238 1.546949 32.000000
1.670618 0.152311 1.544052 31.000000
1.672218 0.129697 1.544330 31.000000
1.670009 0.106918 1.541151 29.000000
1.674932 0.084540 1.544538 36.000000
1.668140 0.061655 1.538249 34.000000
1.668555 0.039140 1.538526 32.000000
1.665087 0.016589 1.535345 32.000000
1.698239 -0.005992 1.565848 35.000000
1.679720 -0.028590 1.548762 34.000000
1.683186 -0.051366 1.551872 34.000000
1.679023 -0.073917 1.547995 36.000000
1.681579 -0.096791 1.551383 37.000000
1.672914 -0.118912 1.544469 35.000000
1.671383 -0.141526 1.544191 29.000000
1.669783 -0.164070 1.543773 32.000000
1.675219 -0.187432 1.549915 35.000000
1.647689 -0.206795 1.525538 37.000000
1.659595 -0.231124 1.538791 33.000000
1.660946 -0.254037 1.541129 36.000000
1.665156 -0.277654 1.547259 37.000000
1.661941 -0.300157 1.546561 35.000000
1.658517 -0.322660 1.545652 24.000000
1.633272 -0.340504 1.524369 24.000000
1.644038 -0.365713 1.536746 34.000000
1.614416 -0.382091 1.512470 33.000000
1.621202 -0.406577 1.521127 36.000000
1.627241 -0.431353 1.530182 31.000000
1.611547 -0.450441 1.518989 33.000000
1.600021 -0.470009 1.510414 33.000000
1.611898 -0.497309 1.526363 24.000000
1.574706 -0.508909 1.494674 24.000000
1.576299 -0.532520 1.499736 28.000000
1.570625 -0.553848 1.497891 31.000000
1.560708 -0.573960 1.493251 31.000000
1.561113 -0.597904 1.498425 31.000000
1.551553 -0.617559 1.492900 29.000000
1.541201 -0.637256 1.487863 29.000000
1.530743 -0.656723 1.482629 18.000000
1.506517 -0.669952 1.464056 28.000000
1.491780 -0.687545 1.455943 27.000000
1.487793 -0.709387 1.457044 29.000000
1.480273 -0.729529 1.454761 29.000000
1.478639 -0.753280 1.459485 32.000000
1.470074 -0.773581 1.457529 32.000000
1.455499 -0.789886 1.448248 26.000000
1.436840 -0.804372 1.436173 16.000000
1.437775 -0.829700 1.443683 26.000000
1.431958 -0.851302 1.444541 27.000000
1.419513 -0.868976 1.438648 26.000000
1.390090 -0.876596 1.416977 28.000000
1.380752 -0.895602 1.414261 26.000000
1.377602 -0.918690 1.417918 29.000000
1.367090 -0.937916 1.415523 26.000000
1.363537 -0.960932 1.418942 18.000000
1.331091 -0.964252 1.393634 20.000000
1.320306 -0.982798 1.390938 21.000000
1.315465 -1.005792 1.394617 29.000000
1.295393 -1.016998 1.382068 23.000000
1.287226 -1.037449 1.382323 22.000000
1.275914 -1.055337 1.379232 24.000000
1.267405 -1.075518 1.379267 23.000000
1.247148 -1.085592 1.366416 12.000000
1.223976 -1.092590 1.350368 16.000000
1.226697 -1.122635 1.362843 23.000000
1.208126 -1.134850 1.353500 22.000000
1.187855 -1.143497 1.340446 25.000000
1.177649 -1.163219 1.340480 24.000000
1.162888 -1.176765 1.333572 26.000000
1.152363 -1.196175 1.333460 24.000000
1.125605 -1.198388 1.314404 12.000000
1.109665 -1.211627 1.307886 15.000000
1.102586 -1.232851 1.310121 18.000000
1.086419 -1.245668 1.303419 21.000000
1.057447 -1.243303 1.281234 16.000000
1.048927 -1.264502 1.283718 17.000000
1.032764 -1.276514 1.276831 17.000000
1.016540 -1.288200 1.269899 18.000000
0.997840 -1.296549 1.259935 10.000000
0.977956 -1.305071 1.250384 10.000000
0.963971 -1.319181 1.246371 11.000000
0.952172 -1.336410 1.245380 21.000000
0.936707 -1.350680 1.241670 15.000000
0.943651 1.359571 1.276336 33.000000
0.958065 1.345476 1.280482 31.000000
0.972480 1.331125 1.284628 32.000000
0.990279 1.319349 1.291282 22.000000
1.006869 1.307822 1.298337 32.000000
1.023335 1.295968 1.305347 35.000000
1.029948 1.271744 1.299936 35.000000
1.038730 1.250552 1.297461 33.000000
1.078967 1.268438 1.336004 35.000000
1.090351 1.249607 1.336580 33.000000
1.104001 1.233551 1.340155 33.000000
1.104534 1.203077 1.327895 20.000000
1.119456 1.190159 1.334977 26.000000
1.130037 1.170958 1.335154 31.000000
1.151288 1.162675 1.347903 32.000000
1.171553 1.154417 1.361154 35.000000
1.180769 1.135073 1.361606 33.000000
1.193705 1.117847 1.364596 31.000000
1.205470 1.100946 1.368041 33.000000
1.219963 1.086330 1.374576 23.000000
1.234444 1.071502 1.381125 33.000000
1.248784 1.056397 1.387560 35.000000
1.263112 1.041078 1.393878 32.000000
1.277361 1.025545 1.400145 35.000000
1.291531 1.009731 1.406294 33.000000
1.299590 0.989111 1.405867 34.000000
1.307466 0.968445 1.405295 32.000000
1.320437 0.952480 1.411785 23.000000
1.328003 0.931570 1.411003 30.000000
1.337648 0.913068 1.413956 33.000000
1.354285 0.898264 1.422839 32.000000
1.363711 0.879412 1.425608 34.000000
1.385718 0.868394 1.441469 40.000000
1.391766 0.847087 1.440752 31.000000
1.410588 0.833414 1.453094 32.000000
1.413128 0.810049 1.448854 21.000000
1.428499 0.793915 1.457705 28.000000
1.436519 0.774333 1.460379 31.000000
1.448440 0.756005 1.465722 35.000000
1.456947 0.735775 1.467598 30.000000
1.464517 0.715679 1.469943 32.000000
1.471952 0.695516 1.472153 27.000000
1.482690 0.676758 1.477655 32.000000
1.480449 0.651606 1.468914 21.000000
1.496924 0.635736 1.481482 32.000000
1.514092 0.619251 1.493273 35.000000
1.527786 0.601065 1.501644 35.000000
1.534441 0.579948 1.503138 42.000000
1.536887 0.557710 1.501725 35.000000
1.543255 0.536437 1.502877 36.000000
1.548810 0.515367 1.504570 33.000000
1.547229 0.491935 1.499344 24.000000
1.559447 0.472820 1.507551 32.000000
1.557548 0.449446 1.501974 30.000000
1.569542 0.430003 1.509923 33.000000
1.570130 0.407742 1.508144 31.000000
1.581904 0.387922 1.515768 35.000000
1.575084 0.363860 1.506830 29.000000
1.585937 0.343962 1.514800 29.000000
1.607976 0.325843 1.532339 24.000000
1.615059 0.304527 1.536575 32.000000
1.621332 0.283251 1.541366 35.000000
1.624497 0.261092 1.541986 35.000000
1.620239 0.237874 1.535559 30.000000
1.604432 0.213477 1.519340 33.000000
1.599229 0.190731 1.513238 37.000000
1.604739 0.169397 1.517269 32.000000
1.617308 0.148494 1.528021 21.000000
1.622503 0.126796 1.531788 32.000000
1.620302 0.104463 1.528497 32.000000
1.617959 0.082229 1.525070 29.000000
1.622140 0.060364 1.528974 32.000000
1.626118 0.038400 1.532743 33.000000
1.626391 0.016301 1.532879 32.000000
1.593645 -0.005681 1.502016 26.000000
1.604493 -0.027522 1.512169 29.000000
1.600586 -0.049213 1.508472 33.000000
1.603820 -0.071127 1.511429 29.000000
1.599042 -0.092719 1.508069 27.000000
1.594135 -0.114211 1.504507 27.000000
1.603612 -0.136844 1.514519 26.000000
1.594745 -0.157910 1.507196 20.000000
1.596620 -0.180004 1.510083 30.000000
