x y z intensity
2.668373 -0.583494 0.830675 64.000000
2.633954 -0.606934 0.821257 35.000000
2.622493 -0.635206 0.819115 56.000000
2.615522 -0.664552 0.818340 43.000000
2.548089 -0.677736 0.798721 15.000000
2.586630 -0.719141 0.812532 44.000000
2.551005 -0.740073 0.803080 33.000000
2.520050 -0.761520 0.794838 29.000000
2.520707 -0.792590 0.796886 27.000000
2.502762 -0.818001 0.793327 20.000000
2.507384 -0.850561 0.796726 21.000000
2.498018 -0.878576 0.795629 14.000000
2.461233 -0.896754 0.786162 8.000000
2.532137 -0.954627 0.810912 21.000000
2.503681 -0.976032 0.804229 16.000000
2.546220 -1.025675 0.820383 17.000000
2.565820 -1.067056 0.829254 24.000000
2.593681 -1.112823 0.840954 21.000000
2.774301 -1.227152 0.902423 29.000000
2.848007 -1.298009 0.929541 26.000000
2.833758 -1.329794 0.928046 10.000000
2.806259 -1.355225 0.922295 32.000000
2.795676 -1.388699 0.922124 27.000000
2.758827 -1.409379 0.913760 31.000000
2.730807 -1.433446 0.907849 32.000000
2.693704 -1.452965 0.899427 26.000000
2.690526 -1.489922 0.901797 30.000000
2.648869 -1.506013 0.891903 27.000000
2.624300 -1.530632 0.887259 10.000000
2.627895 -1.572609 0.892709 30.000000
2.590107 -1.589648 0.884071 26.000000
2.580559 -1.624029 0.885120 29.000000
2.567155 -1.655118 0.884476 30.000000
2.536887 -1.676190 0.878566 10.000000
2.526299 -1.710070 0.879501 18.000000
2.491707 -1.727605 0.872131 23.000000
2.441294 -1.733460 0.859173 10.000000
2.426169 -1.763664 0.858647 32.000000
2.387555 -1.776640 0.849878 23.000000
2.383306 -1.815119 0.853279 29.000000
2.363438 -1.841926 0.851282 30.000000
2.343285 -1.868354 0.849191 25.000000
2.341489 -1.909892 0.853802 30.000000
2.302218 -1.920733 0.844913 23.000000
2.262995 -1.930873 0.835869 10.000000
2.259345 -1.972732 0.840731 29.000000
2.230676 -1.991604 0.835757 24.000000
2.205514 -2.013278 0.832047 26.000000
2.190705 -2.044449 0.832358 29.000000
2.174707 -2.076350 0.832939 22.000000
2.141889 -2.090531 0.826471 28.000000
2.122750 -2.117719 0.825334 20.000000
2.092178 -2.135318 0.820505 10.000000
2.085876 -2.175999 0.824451 32.000000
2.062511 -2.199173 0.821877 22.000000
2.031290 -2.215806 0.816870 28.000000
2.026859 -2.259797 0.822050 29.000000
1.993216 -2.271370 0.815359 22.000000
1.983429 -2.312620 0.819464 29.000000
1.958781 -2.334573 0.816672 9.000000
1.966380 -2.398194 0.828264 8.000000
1.780589 -2.220164 0.757191 9.000000
1.630583 -2.080880 0.700944 9.000000
1.526131 -1.991390 0.662609 10.000000
1.405357 -1.877362 0.617203 10.000000
1.262684 -1.725011 0.560323 10.000000
1.237836 -1.731708 0.555908 26.000000
1.200106 -1.717570 0.544950 21.000000
1.186400 -1.739442 0.545542 18.000000
1.168080 -1.752452 0.543352 29.000000
1.143219 -1.757807 0.538938 26.000000
1.135109 -1.786715 0.541649 25.000000
1.117723 -1.803970 0.540883 26.000000
1.097607 -1.816869 0.538879 23.000000
1.081088 -1.833074 0.537764 27.000000
1.060591 -1.845600 0.535688 19.000000
1.060206 -1.891101 0.543131 9.000000
1.011956 1.841136 0.542897 9.000000
1.033537 1.833961 0.546538 25.000000
1.051491 1.817494 0.547467 26.000000
1.069220 1.800885 0.548386 25.000000
1.075420 1.768204 0.544339 29.000000
1.110430 1.780078 0.554089 29.000000
1.121234 1.755344 0.552561 30.000000
1.132826 1.729999 0.550739 31.000000
1.164428 1.737325 0.559419 21.000000
1.159116 1.687757 0.549733 27.000000
1.176843 1.674689 0.551932 31.000000
1.195411 1.660843 0.553873 32.000000
1.204298 1.635795 0.552010 33.000000
1.236996 1.640857 0.560516 30.000000
1.242510 1.611670 0.557314 30.000000
1.263398 1.600837 0.560441 32.000000
1.283335 1.590388 0.563837 25.000000
1.303223 1.579678 0.567177 34.000000
1.320797 1.564373 0.568928 37.000000
1.337399 1.549458 0.570938 41.000000
1.356991 1.538023 0.574232 48.000000
1.367700 1.514951 0.573218 32.000000
1.393601 1.510098 0.579163 36.000000
1.403091 1.487396 0.578331 34.000000
1.426309 1.477846 0.582681 29.000000
1.442141 1.461753 0.584506 47.000000
1.461192 1.448784 0.587638 41.000000
1.473872 1.428329 0.587829 37.000000
1.492671 1.414955 0.590969 46.000000
1.511345 1.401307 0.594051 36.000000
1.522908 1.380929 0.594365 45.000000
1.548512 1.373247 0.600175 65.000000
1.559682 1.352476 0.600423 35.000000
1.585759 1.343545 0.605999 35.000000
1.615078 1.337752 0.613198 36.000000
1.625753 1.316396 0.613325 33.000000
1.647513 1.303855 0.617742 59.000000
1.669202 1.290942 0.622040 36.000000
1.683167 1.271942 0.623517 40.000000
1.700787 1.255655 0.626414 53.000000
1.710559 1.233472 0.626404 33.000000
1.731351 1.219924 0.630870 40.000000
1.760426 1.211025 0.637940 51.000000
1.773561 1.190948 0.639301 43.000000
1.786559 1.170736 0.640594 57.000000
1.803319 1.152899 0.643326 37.000000
1.823651 1.137778 0.647712 51.000000
1.844230 1.121926 0.651767 51.000000
1.856480 1.100868 0.652937 33.000000
1.872321 1.082411 0.655833 42.000000
1.879946 1.058683 0.655483 37.000000
1.903882 1.044458 0.661090 34.000000
1.936056 1.034319 0.669702 64.000000
1.947402 1.012187 0.670682 36.000000
1.971057 0.996737 0.676335 53.000000
1.998860 0.982969 0.683328 71.000000
2.009383 0.960428 0.684466 34.000000
2.019694 0.937745 0.685604 30.000000
2.060281 0.928664 0.696985 40.000000
2.083444 0.911094 0.702422 34.000000
2.093249 0.887561 0.703439 36.000000
2.107182 0.865698 0.705863 35.000000
2.129883 0.847119 0.711182 36.000000
2.170009 0.835248 0.722668 37.000000
2.183550 0.812316 0.724971 30.000000
2.219141 0.797504 0.734940 36.000000
2.232092 0.774117 0.737334 47.000000
2.249453 0.752067 0.741223 36.000000
2.280126 0.734049 0.749599 51.000000
2.283458 0.706901 0.748870 36.000000
2.309318 0.686577 0.755620 45.000000
2.344162 0.668379 0.765299 65.000000
2.355859 0.643359 0.767656 30.000000
2.404187 0.627798 0.781945 36.000000
2.429375 0.605381 0.788670 36.000000
2.458981 0.583488 0.796908 51.000000
2.488465 0.561074 0.805080 38.000000
2.499087 0.534070 0.807075 52.000000
2.528095 0.510737 0.815347 52.000000
2.552193 0.485906 0.821957 52.000000
2.571342 0.459733 0.827067 26.000000
2.595081 0.433945 0.833525 43.000000
2.627800 0.409202 0.843181 65.000000
2.665076 0.384506 0.854276 37.000000
2.688025 0.357014 0.860672 56.000000
2.720142 0.330246 0.870098 70.000000
2.737686 0.301277 0.875079 64.000000
2.759829 0.272368 0.881490 55.000000
2.800555 0.244693 0.893877 25.000000
2.855245 0.217250 0.910909 45.000000
2.881218 0.186786 0.918765 59.000000
2.911613 0.155951 0.928048 52.000000
2.955947 0.125079 0.941885 38.000000
2.985751 0.092707 0.951177 40.000000
3.029385 0.060071 0.964830 71.000000
3.058454 0.026352 0.974128 52.000000
3.130013 -0.008221 0.996888 92.000000
3.134476 -0.043374 0.998305 98.000000
3.110060 -0.078018 0.990719 94.000000
3.047070 -0.110645 0.970898 28.000000
3.026667 -0.143919 0.964636 24.000000
3.020164 -0.177605 0.963023 37.000000
2.984763 -0.209186 0.952119 91.000000
2.934878 -0.238766 0.936675 71.000000
2.913071 -0.269918 0.930331 79.000000
2.891022 -0.300644 0.923991 74.000000
2.882844 -0.332489 0.922012 82.000000
2.836487 -0.359436 0.908112 86.000000
2.808855 -0.388036 0.900181 95.000000
2.785553 -0.416719 0.893588 95.000000
2.771543 -0.446405 0.890025 91.000000
2.733631 -0.471827 0.879003 44.000000
2.718927 -0.500739 0.875452 67.000000
2.703995 -0.529351 0.871815 73.000000
2.679414 -0.555817 0.865081 44.000000
2.673195 -0.585859 0.864556 60.000000
2.671272 -0.616974 0.865448 41.000000
2.659795 -0.645855 0.863242 32.000000
2.647992 -0.674457 0.860951 26.000000
2.645168 -0.705326 0.861578 20.000000
2.674131 -0.745172 0.872698 25.000000
2.688775 -0.781849 0.879389 28.000000
2.689218 -0.814890 0.881577 25.000000
2.693792 -0.849302 0.885164 27.000000
2.707069 -0.886992 0.891638 29.000000
2.715394 -0.923473 0.896511 26.000000
2.777234 -0.979220 0.919249 30.000000
2.797888 -1.021750 0.928440 29.000000
2.826652 -1.068458 0.940768 29.000000
2.881769 -1.126110 0.961677 37.000000
2.917917 -1.178208 0.976795 33.000000
2.918170 -1.216603 0.979929 37.000000
2.882696 -1.239995 0.971224 31.000000
2.873429 -1.274313 0.971397 34.000000
2.872409 -1.312600 0.974313 30.000000
2.814749 -1.324430 0.958083 26.000000
2.808749 -1.360184 0.959432 30.000000
2.793902 -1.391670 0.957838 35.000000
2.753126 -1.409883 0.947458 31.000000
2.733100 -1.438951 0.944515 35.000000
2.704807 -1.462586 0.938461 35.000000
2.672185 -1.483518 0.930770 32.000000
2.664019 -1.518580 0.932118 32.000000
2.622708 -1.533724 0.921552 26.000000
2.601551 -1.561105 0.918456 29.000000
2.592387 -1.595532 0.919704 32.000000
2.554965 -1.611584 0.910452 29.000000
2.541076 -1.643165 0.910159 29.000000
2.522947 -1.671903 0.908326 21.000000
2.496506 -1.695067 0.903625 15.000000
2.497425 -1.737006 0.908859 28.000000
2.439880 -1.736736 0.892258 24.000000
2.428458 -1.769943 0.893199 27.000000
2.412878 -1.800268 0.892516 32.000000
2.362558 -1.804202 0.879160 28.000000
2.354122 -1.839740 0.881322 31.000000
2.337715 -1.869258 0.880547 34.000000
2.306103 -1.886424 0.874134 29.000000
2.285541 -1.912387 0.871955 29.000000
2.263841 -1.938825 0.869965 24.000000
2.242711 -1.964314 0.867691 26.000000
2.224872 -1.992628 0.866715 30.000000
2.203233 -2.017684 0.864247 30.000000
2.181309 -2.042361 0.861875 28.000000
2.166138 -2.073398 0.862075 31.000000
2.139281 -2.095077 0.858507 25.000000
2.133644 -2.136039 0.862810 26.000000
2.080303 -2.128946 0.847895 21.000000
2.069600 -2.166944 0.850997 26.000000
2.052879 -2.196980 0.851059 32.000000
2.016241 -2.205661 0.842864 24.000000
2.001130 -2.239834 0.844556 25.000000
1.989810 -2.276615 0.847095 28.000000
1.971730 -2.305975 0.846909 25.000000
1.951952 -2.336247 0.846993 16.000000
1.924022 -2.354118 0.842765 8.000000
1.769491 -2.213613 0.782552 9.000000
1.661646 -2.127686 0.742895 10.000000
1.519082 -1.988935 0.685971 10.000000
1.401581 -1.878934 0.640204 12.000000
1.276515 -1.750275 0.589271 10.000000
1.212130 -1.702110 0.566357 18.000000
1.207949 -1.735332 0.570691 21.000000
1.185787 -1.745373 0.567388 18.000000
1.175330 -1.770514 0.569000 25.000000
1.152964 -1.780088 0.565630 22.000000
1.131625 -1.788732 0.562070 22.000000
1.116650 -1.810126 0.562555 21.000000
1.100145 -1.826554 0.561478 24.000000
1.084652 -1.847681 0.561862 20.000000
1.068839 -1.868720 0.562225 16.000000
1.039785 -1.863631 0.554749 9.000000
1.001096 1.830542 0.558918 9.000000
1.023829 1.822755 0.562459 27.000000
1.047741 1.819492 0.567513 27.000000
1.050799 1.777934 0.560535 34.000000
1.069347 1.766048 0.562952 29.000000
1.089004 1.753314 0.565041 31.000000
1.107421 1.741036 0.567393 41.000000
1.126752 1.727844 0.569482 31.000000
1.144973 1.715109 0.571768 34.000000
1.142285 1.669720 0.563132 29.000000
1.170826 1.672618 0.570695 31.000000
1.182883 1.651528 0.570192 36.000000
1.204146 1.641371 0.573544 36.000000
1.224331 1.631665 0.577035 35.000000
1.239516 1.613359 0.577610 35.000000
1.253650 1.595572 0.578370 33.000000
1.280460 1.591999 0.584362 37.000000
1.297321 1.577538 0.586437 32.000000
1.310961 1.559139 0.587063 34.000000
1.328300 1.543677 0.588874 71.000000
1.351076 1.535878 0.593667 40.000000
1.370601 1.524106 0.597016 46.000000
1.384357 1.504416 0.597372 57.000000
1.400413 1.488751 0.599322 41.000000
1.422988 1.479740 0.604030 56.000000
1.432134 1.456705 0.603093 33.000000
1.451068 1.443835 0.606333 45.000000
1.474098 1.433448 0.610744 77.000000
1.489481 1.416690 0.612577 53.000000
1.504734 1.399670 0.614344 73.000000
1.526875 1.389031 0.618918 79.000000
1.538292 1.368420 0.619188 56.000000
1.560278 1.357119 0.623782 89.000000
1.578558 1.342422 0.626877 26.000000
1.596772 1.327443 0.629981 37.000000
1.622280 1.318282 0.635936 56.000000
1.640295 1.302652 0.638995 52.000000
1.654463 1.283938 0.640532 61.000000
1.675983 1.270801 0.644934 44.000000
1.689813 1.251599 0.646478 35.000000
1.707247 1.235064 0.649361 55.000000
1.716803 1.212726 0.649298 27.000000
1.749689 1.206612 0.658102 41.000000
1.766415 1.189723 0.661215 61.000000
1.779345 1.169443 0.662508 35.000000
1.796157 1.151603 0.665289 59.000000
1.820503 1.139008 0.671265 48.000000
1.828858 1.115649 0.671006 36.000000
1.848910 1.099973 0.675509 48.000000
1.860953 1.078709 0.676610 26.000000
1.876666 1.060065 0.679490 36.000000
1.900786 1.045439 0.685110 65.000000
1.916166 1.026237 0.687938 42.000000
1.939838 1.011206 0.693725 52.000000
1.959194 0.993595 0.697943 52.000000
1.978432 0.975581 0.702172 37.000000
2.001775 0.959362 0.707931 49.000000
2.016403 0.938689 0.710519 24.000000
2.048219 0.925620 0.719207 32.000000
2.066951 0.906253 0.723339 42.000000
2.089859 0.888334 0.728936 35.000000
2.095065 0.862794 0.728352 35.000000
2.148423 0.856892 0.744766 40.000000
2.157693 0.832494 0.745656 33.000000
2.175433 0.811497 0.749767 35.000000
2.188547 0.788611 0.752348 29.000000
2.219442 0.771724 0.761021 34.000000
2.241187 0.751157 0.766552 46.000000
2.271853 0.733130 0.775106 59.000000
2.275202 0.706060 0.774403 35.000000
2.310108 0.688445 0.784374 58.000000
2.326522 0.665142 0.788400 40.000000
2.347344 0.642734 0.793906 37.000000
2.381728 0.623472 0.804000 27.000000
2.411421 0.602357 0.812479 33.000000
2.450166 0.582841 0.824081 37.000000
2.470298 0.558326 0.829315 35.000000
2.490090 0.533497 0.834801 35.000000
2.514359 0.509216 0.841690 44.000000
2.547711 0.486298 0.851625 34.000000
2.580930 0.462583 0.861489 32.000000
2.576447 0.431870 0.858871 32.000000
2.609134 0.407311 0.868835 34.000000
2.632178 0.380591 0.875513 39.000000
2.692596 0.358460 0.894710 72.000000
2.715205 0.330469 0.901494 39.000000
2.728072 0.300924 0.904889 37.000000
2.750060 0.272102 0.911684 36.000000
2.804842 0.245666 0.929096 34.000000
2.854625 0.217789 0.945132 37.000000
2.861572 0.185893 0.946976 33.000000
2.901341 0.155764 0.959705 45.000000
2.950267 0.125091 0.975576 57.000000
2.979972 0.092759 0.985179 42.000000
3.009314 0.059786 0.994591 42.000000
3.047678 0.026254 1.007337 57.000000
3.118985 -0.008221 1.030873 95.000000
3.113938 -0.043242 1.029204 95.000000
3.094354 -0.077799 1.022928 91.000000
3.079026 -0.112101 1.018123 94.000000
3.044445 -0.145081 1.006945 95.000000
3.014246 -0.177691 0.997438 86.000000
2.960014 -0.207901 0.979900 68.000000
2.933969 -0.239255 0.971777 31.000000
2.907493 -0.270076 0.963753 80.000000
2.876153 -0.299779 0.953793 63.000000
2.849037 -0.329483 0.945778 46.000000
2.854773 -0.362661 0.948354 40.000000
2.822388 -0.390839 0.938599 36.000000
2.813296 -0.421903 0.936577 34.000000
2.803855 -0.452679 0.934375 29.000000
2.770664 -0.479392 0.924639 11.000000
2.797941 -0.516594 0.935023 27.000000
2.801506 -0.549865 0.937503 28.000000
2.804664 -0.583347 0.939887 31.000000
2.802864 -0.615834 0.940616 28.000000
2.800581 -0.648425 0.941527 27.000000
2.807231 -0.683276 0.945547 29.000000
2.845670 -0.726671 0.960250 24.000000
2.833063 -0.757410 0.957755 11.000000
2.897934 -0.809602 0.981625 31.000000
2.911868 -0.848707 0.988211 31.000000
2.943368 -0.893949 1.001262 35.000000
2.974202 -0.940017 1.014189 33.000000
3.018007 -0.991359 1.031621 42.000000
3.020504 -1.029906 1.035127 34.000000
3.018108 -1.066966 1.036878 27.000000
3.001934 -1.099219 1.034004 18.000000
2.981038 -1.129480 1.029495 29.000000
2.964033 -1.161481 1.026836 32.000000
2.942551 -1.191086 1.022239 36.000000
2.898578 -1.211417 1.010202 29.000000
2.880712 -1.242262 1.007364 32.000000
2.849634 -1.267104 0.999850 32.000000
2.826983 -1.295219 0.995303 26.000000
2.795406 -1.318974 0.987721 17.000000
2.802372 -1.360870 0.993734 31.000000
2.774617 -1.386017 0.987586 32.000000
2.746703 -1.410678 0.981354 35.000000
2.701773 -1.425955 0.968992 30.000000
2.686222 -1.456276 0.967232 33.000000
2.665723 -1.484570 0.964258 37.000000
2.633049 -1.504891 0.956290 29.000000
2.603920 -1.527735 0.950234 21.000000
2.599568 -1.564186 0.952700 30.000000
2.574077 -1.588773 0.948059 30.000000
2.552824 -1.614954 0.944439 36.000000
2.526946 -1.638736 0.939722 29.000000
2.512724 -1.670167 0.939282 21.000000
2.490840 -1.695350 0.935582 21.000000
2.464230 -1.718194 0.930697 24.000000
2.429676 -1.735020 0.922775 25.000000
2.422077 -1.771137 0.925192 32.000000
2.398704 -1.795775 0.921710 32.000000
2.360024 -1.808409 0.912177 32.000000
2.336331 -1.832128 0.908626 32.000000
2.323702 -1.864646 0.909366 32.000000
2.295774 -1.884813 0.904172 32.000000
2.282445 -1.916930 0.904803 26.000000
2.254271 -1.936550 0.899529 26.000000
2.229450 -1.958786 0.895715 31.000000
2.211725 -1.987151 0.894696 31.000000
2.197079 -2.018552 0.895106 33.000000
2.175119 -2.043268 0.892635 30.000000
2.156426 -2.071113 0.891497 32.000000
2.136421 -2.099514 0.890636 34.000000
2.103483 -2.113353 0.883704 24.000000
2.074014 -2.130115 0.878213 24.000000
2.060950 -2.163807 0.879706 31.000000
2.050647 -2.200948 0.882580 33.000000
2.022636 -2.221222 0.878689 32.000000
1.989178 -2.233108 0.871626 27.000000
1.987303 -2.280597 0.878535 33.000000
1.955409 -2.296451 0.873063 32.000000
1.955475 -2.347734 0.881177 25.000000
1.927305 -2.365844 0.876788 9.000000
1.769050 -2.222833 0.813419 10.000000
1.668550 -2.143838 0.774875 10.000000
1.513519 -1.990942 0.710858 18.000000
1.400573 -1.884209 0.664656 16.000000
1.288901 -1.775962 0.618984 16.000000
1.214408 -1.711774 0.589574 24.000000
1.198989 -1.729169 0.588659 23.000000
1.179652 -1.743172 0.586592 21.000000
1.153210 -1.744185 0.580313 27.000000
1.136286 -1.761745 0.579526 29.000000
1.120270 -1.778435 0.578530 26.000000
1.107950 -1.803801 0.580300 24.000000
1.091473 -1.820264 0.579205 27.000000
1.071063 -1.833020 0.577057 25.000000
1.061356 -1.861675 0.579796 20.000000
1.040422 -1.874141 0.577560 9.000000
0.992465 1.824069 0.575973 9.000000
1.028033 1.842132 0.587867 20.000000
1.031859 1.800459 0.580774 32.000000
1.056865 1.796392 0.585715 26.000000
1.060724 1.759642 0.580075 29.000000
1.074108 1.739403 0.579758 35.000000
1.098709 1.734687 0.584636 28.000000
1.122184 1.730244 0.589796 35.000000
1.136173 1.708821 0.589197 29.000000
1.154156 1.695920 0.591477 25.000000
1.164809 1.670354 0.589392 37.000000
1.179683 1.653183 0.590261 32.000000
1.198078 1.639112 0.592327 35.000000
1.218249 1.629400 0.595926 44.000000
1.238438 1.619366 0.599537 28.000000
1.247661 1.593318 0.597237 36.000000
1.261535 1.575345 0.598006 28.000000
1.278238 1.561020 0.600125 26.000000
1.301802 1.553203 0.604848 44.000000
1.315208 1.534721 0.605479 35.000000
1.331564 1.519782 0.607539 54.000000
1.360566 1.518847 0.615313 37.000000
1.380765 1.506254 0.618517 52.000000
1.396924 1.490552 0.620537 54.000000
1.402895 1.464228 0.618118 32.000000
1.415271 1.444768 0.618532 25.000000
1.448392 1.444931 0.627541 75.000000
1.463870 1.428343 0.629369 48.000000
1.479283 1.411624 0.631198 74.000000
1.497926 1.397968 0.634506 67.000000
1.513047 1.380818 0.636273 52.000000
1.531534 1.366649 0.639528 76.000000
1.549893 1.352268 0.642725 37.000000
1.571752 1.340704 0.647425 29.000000
1.597278 1.331831 0.653574 37.000000
1.611715 1.313469 0.655237 34.000000
1.633411 1.300914 0.659847 71.000000
1.651341 1.285061 0.662961 45.000000
1.661481 1.263220 0.662988 36.000000
1.667133 1.238890 0.661757 71.000000
1.692202 1.228123 0.667784 30.000000
1.717255 1.216889 0.673764 33.000000
1.734457 1.199837 0.676708 50.000000
1.755053 1.185698 0.681461 36.000000
1.771995 1.168082 0.684353 77.000000
1.788791 1.150239 0.687183 58.000000
1.805029 1.132578 0.690293 62.000000
1.829572 1.119242 0.696154 64.000000
1.841547 1.098597 0.697599 35.000000
1.857355 1.080135 0.700594 31.000000
1.873353 1.061027 0.703319 72.000000
1.893079 1.044398 0.707744 34.000000
1.916813 1.029689 0.713738 60.000000
1.944692 1.016758 0.721311 61.000000
1.959852 0.996775 0.724144 61.000000
1.983358 0.980836 0.730045 84.000000
1.981046 0.952126 0.726475 32.000000
2.004264 0.935541 0.732320 26.000000
2.031651 0.920622 0.739682 36.000000
2.054651 0.903186 0.745486 35.000000
2.081635 0.887460 0.753028 45.000000
2.095626 0.865543 0.755554 38.000000
2.109220 0.843673 0.758305 36.000000
2.122851 0.821338 0.760767 37.000000
2.162653 0.808942 0.772901 31.000000
2.189182 0.790937 0.780299 30.000000
2.219951 0.773940 0.789228 62.000000
2.237261 0.751757 0.793323 42.000000
2.258842 0.730829 0.798943 55.000000
2.275611 0.708188 0.803130 60.000000
2.292288 0.685036 0.807094 41.000000
2.313192 0.663060 0.812819 67.000000
2.333948 0.640699 0.818476 31.000000
2.372797 0.622760 0.830479 30.000000
2.402404 0.601638 0.839213 44.000000
2.427291 0.578819 0.846275 32.000000
2.465643 0.558803 0.858331 35.000000
2.485559 0.533837 0.863726 48.000000
2.495852 0.506674 0.865992 35.000000
2.547678 0.487410 0.882673 40.000000
2.562012 0.460403 0.886650 30.000000
2.576298 0.432935 0.890295 34.000000
2.599463 0.406802 0.897341 54.000000
2.645937 0.383558 0.912297 37.000000
2.663973 0.355520 0.917574 35.000000
2.700577 0.329456 0.929409 60.000000
2.708613 0.299531 0.931465 37.000000
2.730609 0.270813 0.938287 35.000000
2.775677 0.243739 0.953296 28.000000
2.839604 0.217060 0.974429 33.000000
2.865319 0.186631 0.982800 37.000000
2.886065 0.155323 0.989556 49.000000
2.939542 0.124996 1.007656 35.000000
2.973776 0.092811 1.019188 49.000000
3.003014 0.059880 1.028910 57.000000
3.031780 0.026213 1.038730 60.000000
3.102827 -0.008208 1.063137 90.000000
3.102627 -0.043142 1.063037 85.000000
3.078283 -0.077580 1.054935 59.000000
3.072464 -0.112076 1.053215 73.000000
3.052275 -0.145886 1.046537 37.000000
3.036334 -0.179451 1.041284 36.000000
3.024738 -0.212930 1.037850 29.000000
2.951473 -0.241379 1.013467 11.000000
2.958124 -0.275497 1.016322 27.000000
2.964372 -0.309828 1.019174 28.000000
2.970215 -0.344275 1.022024 29.000000
2.971051 -0.378336 1.023062 29.000000
2.962018 -0.411201 1.021060 27.000000
2.980786 -0.448085 1.028652 30.000000
2.989746 -0.483984 1.032910 27.000000
3.012255 -0.522529 1.042101 20.000000
3.015747 -0.558160 1.044536 33.000000
3.037384 -0.597657 1.053509 35.000000
3.081672 -0.642413 1.070417 36.000000
3.111352 -0.685467 1.082678 58.000000
3.122303 -0.724664 1.088183 48.000000
3.155541 -0.770096 1.101812 42.000000
3.179070 -0.813907 1.112103 35.000000
3.156358 -0.846075 1.106341 21.000000
3.160670 -0.885390 1.109989 34.000000
3.150942 -0.920919 1.108825 35.000000
3.117920 -0.949653 1.099880 32.000000
3.098493 -0.981854 1.095322 34.000000
3.065103 -1.009405 1.086196 32.000000
3.053984 -1.044007 1.084949 35.000000
3.033514 -1.075235 1.080519 32.000000
2.985999 -1.096354 1.066458 23.000000
2.965156 -1.126569 1.061850 32.000000
2.939257 -1.155053 1.055970 32.000000
2.926656 -1.188081 1.054344 34.000000
2.895947 -1.213976 1.046800 35.000000
2.869650 -1.240753 1.040346 34.000000
2.834206 -1.263572 1.031056 31.000000
2.833172 -1.301649 1.034282 32.000000
2.788803 -1.319519 1.021774 23.000000
2.774223 -1.351059 1.020187 33.000000
2.772081 -1.388781 1.023202 40.000000
2.718840 -1.400496 1.007429 32.000000
2.695017 -1.426710 1.002537 35.000000
2.675267 -1.454809 0.999117 35.000000
2.646976 -1.477984 0.992592 32.000000
2.634451 -1.510624 0.992587 34.000000
2.589391 -1.523392 0.979785 22.000000
2.589087 -1.562245 0.983948 34.000000
2.567673 -1.589341 0.980657 33.000000
2.534360 -1.607925 0.972362 30.000000
2.520439 -1.639501 0.972070 32.000000
2.498254 -1.665599 0.968607 19.000000
2.476414 -1.690837 0.964860 11.000000
2.465471 -1.724557 0.965898 35.000000
2.411539 -1.727661 0.950147 21.000000
2.415473 -1.772134 0.957186 32.000000
2.381325 -1.787472 0.948620 32.000000
2.338912 -1.797136 0.937435 29.000000
2.326571 -1.829664 0.938190 35.000000
2.306482 -1.856102 0.936010 32.000000
2.282333 -1.879318 0.932138 29.000000
2.279949 -1.920605 0.937366 33.000000
2.229959 -1.921535 0.922920 19.000000
2.216125 -1.953171 0.923551 28.000000
2.205416 -1.987883 0.925464 34.000000
2.187192 -2.016080 0.924480 32.000000
2.168708 -2.044072 0.923298 36.000000
2.136204 -2.058692 0.916301 28.000000
2.124053 -2.092822 0.917966 30.000000
2.096978 -2.114280 0.914214 32.000000
2.054093 -2.117360 0.902585 18.000000
2.057552 -2.168274 0.911522 32.000000
2.030837 -2.187942 0.907207 30.000000
2.009296 -2.215195 0.906086 29.000000
1.991808 -2.244958 0.906020 32.000000
1.964560 -2.263729 0.901613 29.000000
1.946497 -2.293097 0.901428 29.000000
1.920624 -2.315807 0.898744 26.000000
1.862599 -2.296427 0.879990 8.000000
1.766622 -2.227098 0.842774 9.000000
1.665199 -2.149264 0.803227 13.000000
1.540897 -2.034046 0.750885 12.000000
1.416418 -1.912449 0.697500 22.000000
1.285243 -1.777346 0.640564 14.000000
1.208154 -1.709445 0.608801 21.000000
1.183474 -1.715643 0.603955 24.000000
1.176069 -1.744822 0.607116 18.000000
1.145859 -1.742530 0.599452 26.000000
1.127449 -1.755377 0.597068 32.000000
1.120476 -1.788997 0.601736 23.000000
1.104095 -1.805627 0.600623 27.000000
1.085095 -1.817914 0.598138 29.000000
1.067105 -1.834831 0.597210 24.000000
1.051192 -1.855793 0.597620 21.000000
1.045561 -1.892848 0.603179 8.000000
0.999813 1.846994 0.602462 8.000000
1.012287 1.822858 0.600975 16.000000
1.030370 1.806369 0.601903 23.000000
1.054113 1.802898 0.607272 18.000000
1.054534 1.757231 0.598384 30.000000
1.088050 1.769700 0.609369 23.000000
1.089961 1.728220 0.601728 26.000000
1.105495 1.711712 0.602779 29.000000
1.140503 1.722395 0.613459 21.000000
1.150655 1.697475 0.611606 22.000000
1.154898 1.664607 0.606785 20.000000
1.181809 1.662502 0.613233 29.000000
1.188163 1.633498 0.609793 31.000000
1.208276 1.623750 0.613497 24.000000
1.223578 1.605488 0.614043 29.000000
1.237638 1.587744 0.614836 28.000000
1.266453 1.588562 0.622883 21.000000
1.275156 1.562345 0.620482 29.000000
1.297892 1.555063 0.625558 29.000000
1.320655 1.547513 0.630654 33.000000
1.327749 1.521576 0.628342 34.000000
1.344853 1.505763 0.630150 30.000000
1.367359 1.497383 0.635204 35.000000
1.383442 1.481754 0.637215 32.000000
1.405915 1.472764 0.642233 27.000000
1.418353 1.453194 0.642679 32.000000
1.430653 1.433506 0.643116 33.000000
1.456948 1.426514 0.649288 42.000000
1.479240 1.416383 0.654225 57.000000
1.487577 1.392881 0.653076 32.000000
1.495576 1.369341 0.651844 54.000000
1.521033 1.361638 0.658202 33.000000
1.539342 1.347293 0.661508 31.000000
1.564815 1.338788 0.667841 30.000000
1.579351 1.320750 0.669559 29.000000
1.600452 1.309129 0.674643 34.000000
1.629570 1.302477 0.682454 35.000000
1.640027 1.280730 0.682504 30.000000
1.657772 1.264697 0.685670 35.000000
1.675378 1.248376 0.688776 31.000000
1.688538 1.229511 0.690588 29.000000
1.701965 1.209973 0.692065 31.000000
1.722988 1.195712 0.696627 31.000000
1.751375 1.186865 0.704633 42.000000
1.772354 1.171816 0.709160 37.000000
1.776827 1.146645 0.707628 29.000000
1.797441 1.131143 0.712100 35.000000
1.813580 1.113182 0.715196 30.000000
1.825775 1.092218 0.716498 31.000000
1.845676 1.076231 0.721135 29.000000
1.861286 1.057582 0.724113 34.000000
1.880952 1.040994 0.728703 35.000000
1.904608 1.026325 0.734913 35.000000
1.919888 1.006767 0.737779 33.000000
1.947582 0.993495 0.745491 34.000000
1.962536 0.973320 0.748306 35.000000
1.998632 0.963248 0.759220 30.000000
2.000441 0.936409 0.757122 31.000000
2.023547 0.919403 0.763061 28.000000
2.041881 0.900341 0.767677 32.000000
2.090797 0.893728 0.783342 32.000000
2.100338 0.870022 0.784517 29.000000
2.101034 0.842504 0.782205 33.000000
2.145190 0.832350 0.796384 31.000000
2.149684 0.806317 0.795786 26.000000
2.184932 0.791572 0.806662 30.000000
2.197948 0.768281 0.809279 28.000000
2.219573 0.747830 0.815112 29.000000
2.254389 0.731445 0.826045 37.000000
2.257772 0.704378 0.825240 31.000000
2.278828 0.682910 0.831105 33.000000
2.290593 0.658451 0.833678 30.000000
2.315804 0.637493 0.841136 19.000000
2.363628 0.621970 0.856799 30.000000
2.379419 0.597473 0.860821 25.000000
2.408787 0.575901 0.869740 29.000000
2.437874 0.553889 0.878831 32.000000
2.475972 0.533264 0.891176 26.000000
2.490868 0.507040 0.895153 29.000000
2.524001 0.484160 0.905700 27.000000
2.505872 0.451456 0.898132 10.000000
2.561793 0.431646 0.916848 30.000000
2.594279 0.407024 0.927427 26.000000
2.617189 0.380329 0.934515 28.000000
2.658505 0.355799 0.948449 34.000000
2.662152 0.325671 0.948970 26.000000
2.698330 0.299180 0.961084 26.000000
2.762375 0.274746 0.983135 29.000000
2.765251 0.243469 0.983314 9.000000
2.819366 0.216156 1.002045 28.000000
2.849779 0.186046 1.012250 30.000000
2.875064 0.155137 1.020975 24.000000
2.919022 0.124405 1.036014 30.000000
2.957836 0.092567 1.049573 30.000000
2.968025 0.059312 1.053204 26.000000
3.043896 0.026417 1.080051 31.000000
3.058131 -0.008120 1.085067 30.000000
3.119085 -0.043537 1.106700 37.000000
3.160875 -0.079861 1.121542 34.000000
3.169270 -0.115939 1.124782 35.000000
3.181850 -0.152455 1.129795 35.000000
3.180096 -0.188351 1.129486 22.000000
3.182528 -0.224682 1.130950 18.000000
3.165751 -0.259476 1.125527 18.000000
3.162769 -0.295266 1.125322 17.000000
3.220208 -0.337441 1.146712 29.000000
3.230374 -0.375449 1.151298 28.000000
3.249541 -0.414968 1.159111 29.000000
3.296232 -0.458809 1.176703 31.000000
3.309708 -0.498785 1.182828 29.000000
3.355264 -0.544579 1.200493 30.000000
3.353748 -0.583342 1.201607 27.000000
3.314795 -0.615108 1.189085 26.000000
3.317175 -0.654464 1.191645 32.000000
3.263683 -0.682339 1.174270 27.000000
3.260629 -0.720143 1.174958 28.000000
3.266525 -0.760189 1.178961 31.000000
3.225879 -0.789336 1.166494 26.000000
3.198792 -0.821167 1.158905 29.000000
3.175936 -0.853595 1.152981 27.000000
3.143755 -0.883162 1.143549 23.000000
3.124983 -0.915985 1.139085 28.000000
3.101438 -0.947015 1.132875 27.000000
3.072854 -0.976518 1.125237 24.000000
3.057636 -1.009638 1.122132 30.000000
3.015232 -1.033470 1.109379 26.000000
3.012596 -1.070829 1.111426 24.000000
2.965360 -1.091759 1.096966 25.000000
2.940070 -1.120298 1.090624 22.000000
2.932170 -1.155159 1.090735 31.000000
2.897361 -1.179632 1.081346 29.000000
2.867103 -1.205035 1.073206 25.000000
2.840639 -1.232023 1.067014 29.000000
2.818613 -1.260046 1.061962 24.000000
2.804664 -1.292130 1.060467 19.000000
2.777496 -1.317833 1.054008 27.000000
2.745914 -1.341069 1.045945 24.000000
2.731128 -1.372316 1.044368 32.000000
2.695025 -1.392407 1.034524 28.000000
2.667127 -1.416263 1.027930 26.000000
2.651551 -1.446442 1.026080 29.000000
2.619255 -1.467170 1.017712 25.000000
2.599090 -1.494412 1.014272 18.000000
2.595007 -1.530899 1.017041 27.000000
2.573874 -1.558238 1.013698 26.000000
2.540811 -1.577307 1.005194 28.000000
2.507101 -1.596298 0.997100 25.000000
2.493851 -1.627016 0.996390 19.000000
2.483624 -1.660941 0.997737 17.000000
2.465648 -1.688818 0.995334 10.000000
2.474090 -1.736159 1.004352 13.000000
2.424015 -1.742285 0.989723 27.000000
2.382355 -1.752568 0.977810 23.000000
2.359169 -1.776899 0.974058 28.000000
2.324478 -1.792347 0.965625 25.000000
2.308404 -1.821883 0.964921 23.000000
2.291983 -1.851221 0.964209 28.000000
2.279730 -1.882723 0.964567 25.000000
2.229985 -1.884179 0.949819 14.000000
2.227270 -1.925119 0.955098 24.000000
2.195421 -1.941073 0.947931 18.000000
2.195355 -1.985225 0.954601 29.000000
2.159643 -1.997259 0.945916 24.000000
2.148238 -2.031592 0.947855 23.000000
2.129583 -2.059350 0.946724 27.000000
2.099368 -2.077609 0.941315 24.000000
2.100205 -2.125176 0.949072 14.000000
2.053958 -2.125006 0.935733 21.000000
2.037521 -2.155209 0.935809 20.000000
2.014173 -2.178272 0.932867 26.000000
1.990635 -2.201050 0.929925 21.000000
1.965769 -2.224398 0.927267 23.000000
1.948000 -2.253830 0.927202 29.000000
1.942314 -2.297708 0.933041 21.000000
1.941959 -2.349081 0.941677 18.000000
1.876354 -2.323532 0.919628 9.000000
1.804066 -2.284679 0.892926 9.000000
1.671592 -2.164987 0.835709 10.000000
1.537727 -2.039493 0.777664 9.000000
1.425127 -1.933515 0.728381 10.000000
1.298203 -1.802021 0.670767 10.000000
1.217294 -1.731081 0.636805 10.000000
1.196169 -1.740825 0.632942 10.000000
1.172323 -1.746327 0.627660 21.000000
1.157948 -1.768212 0.628298 20.000000
1.115925 -1.744848 0.613037 27.000000
1.111508 -1.782449 0.619279 20.000000
1.100145 -1.807241 0.620964 20.000000
1.077441 -1.816101 0.617206 23.000000
1.060645 -1.832341 0.616051 19.000000
1.044703 -1.853291 0.616479 15.000000
1.050554 -1.911433 0.629085 6.000000
0.988733 1.835953 0.618091 9.000000
1.019702 1.845441 0.627881 19.000000
1.021531 1.799692 0.618904 19.000000
1.045266 1.796170 0.624352 23.000000
1.059302 1.775896 0.624111 21.000000
1.079143 1.763042 0.626484 26.000000
1.090109 1.738492 0.624687 23.000000
1.114723 1.733312 0.629901 25.000000
1.140958 1.732464 0.636802 23.000000
1.145946 1.699478 0.631953 22.000000
1.159499 1.677807 0.631157 26.000000
1.177286 1.664515 0.633633 27.000000
1.194943 1.650963 0.635978 27.000000
1.213447 1.636564 0.638128 32.000000
1.233726 1.626421 0.641974 28.000000
1.248045 1.608482 0.642754 26.000000
1.269058 1.597228 0.646349 29.000000
1.271078 1.564111 0.640993 26.000000
1.299908 1.564177 0.649335 34.000000
1.316653 1.549191 0.651550 34.000000
1.334049 1.533424 0.653440 30.000000
1.350468 1.518047 0.655590 35.000000
1.369892 1.506059 0.659280 35.000000
1.386089 1.490254 0.661370 33.000000
1.402089 1.474254 0.663395 32.000000
1.417959 1.458058 0.665419 32.000000
1.436982 1.445099 0.669003 62.000000
1.455948 1.431802 0.672531 44.000000
1.471432 1.414940 0.674499 38.000000
1.490244 1.401197 0.677975 45.000000
1.508862 1.387178 0.681394 38.000000
1.527485 1.372880 0.684821 35.000000
1.545913 1.358303 0.688257 56.000000
1.553489 1.334246 0.686865 24.000000
1.567991 1.316250 0.688579 36.000000
1.597012 1.310076 0.696685 38.000000
1.618707 1.297505 0.701551 38.000000
1.639795 1.285101 0.706702 61.000000
1.653827 1.266034 0.708313 36.000000
1.671448 1.249666 0.711538 39.000000
1.676997 1.225175 0.710119 35.000000
1.698162 1.211175 0.714902 29.000000
1.715299 1.194161 0.717940 62.000000
1.735798 1.179985 0.722950 64.000000
1.760622 1.167700 0.729199 43.000000
1.773035 1.147647 0.730836 65.000000
1.797295 1.135025 0.737389 48.000000
1.809792 1.114082 0.738693 41.000000
1.829836 1.098343 0.743494 50.000000
1.833481 1.072678 0.741646 22.000000
1.853148 1.056409 0.746390 63.000000
1.872778 1.039747 0.751078 64.000000
1.884000 1.018341 0.752464 53.000000
1.928337 1.014361 0.767063 71.000000
1.939334 0.992226 0.768332 65.000000
1.954270 0.972119 0.771196 60.000000
1.977528 0.955806 0.777401 60.000000
2.004973 0.941133 0.785222 24.000000
2.019228 0.920353 0.788330 48.000000
2.033526 0.899116 0.791012 42.000000
2.064749 0.885277 0.800701 49.000000
2.083054 0.865162 0.805009 53.000000
2.114177 0.850264 0.814593 55.000000
2.149582 0.836430 0.825813 49.000000
2.171695 0.816877 0.831998 54.000000
2.167227 0.787308 0.827907 29.000000
2.197877 0.770341 0.837337 55.000000
2.219404 0.750009 0.843627 61.000000
2.245350 0.730449 0.851246 83.000000
2.262063 0.707827 0.855637 67.000000
2.283109 0.686201 0.861736 81.000000
2.290381 0.660208 0.862664 50.000000
2.333672 0.644143 0.877141 50.000000
2.354222 0.621179 0.882962 30.000000
2.392765 0.602417 0.895615 67.000000
2.412803 0.578547 0.901619 64.000000
2.423507 0.552199 0.904133 48.000000
2.452443 0.529551 0.913168 57.000000
2.485519 0.507404 0.924335 67.000000
2.523164 0.485352 0.936901 52.000000
2.491279 0.450044 0.923939 44.000000
2.565598 0.433404 0.949990 39.000000
2.588634 0.407244 0.957445 86.000000
2.639359 0.384641 0.975297 68.000000
2.652740 0.355902 0.979079 68.000000
2.689016 0.329810 0.991631 83.000000
2.711115 0.301422 0.998948 64.000000
2.746919 0.273831 1.011253 62.000000
2.763729 0.243935 1.016863 42.000000
2.827010 0.217321 1.039600 37.000000
2.843275 0.186168 1.045041 43.000000
2.910653 0.157486 1.069523 70.000000
2.931023 0.125217 1.076412 62.000000
2.965104 0.092964 1.088564 62.000000
2.989242 0.059874 1.097468 59.000000
3.013196 0.026156 1.106180 60.000000
3.074310 -0.008195 1.128680 35.000000
3.097476 -0.043304 1.137094 44.000000
3.139102 -0.079521 1.152396 46.000000
3.184988 -0.116869 1.169518 37.000000
3.206876 -0.154050 1.178234 36.000000
3.261332 -0.193711 1.198480 35.000000
3.310502 -0.234315 1.217206 35.000000
3.335768 -0.274164 1.227209 29.000000
3.384028 -0.316728 1.245590 35.000000
3.436411 -0.361060 1.265898 45.000000
3.474226 -0.404921 1.280923 37.000000
3.502280 -0.448428 1.292385 35.000000
3.478515 -0.485533 1.285054 35.000000
3.436004 -0.519296 1.270407 34.000000
3.411592 -0.555122 1.262866 32.000000
3.368177 -0.587523 1.248695 26.000000
3.343153 -0.622187 1.240950 32.000000
3.294721 -0.651874 1.224760 32.000000
3.296716 -0.691005 1.227092 34.000000
3.270600 -0.724467 1.219594 33.000000
3.235095 -0.755050 1.208360 32.000000
3.194839 -0.783783 1.195221 31.000000
3.176871 -0.817756 1.190954 27.000000
3.145126 -0.847639 1.181365 24.000000
3.135715 -0.883380 1.180308 32.000000
3.116859 -0.916258 1.175742 33.000000
3.088753 -0.945967 1.167573 34.000000
3.047009 -0.970880 1.154327 31.000000
3.031753 -1.004057 1.151594 30.000000
3.002975 -1.032131 1.143265 29.000000
2.982679 -1.063064 1.138542 27.000000
2.953212 -1.090432 1.130448 21.000000
2.932374 -1.120555 1.125644 33.000000
2.915681 -1.152106 1.122534 36.000000
2.885643 -1.177915 1.114175 34.000000
2.859394 -1.205458 1.107819 31.000000
2.833264 -1.232102 1.101074 31.000000
2.819551 -1.264534 1.099673 33.000000
2.793006 -1.290337 1.092751 30.000000
2.740361 -1.303998 1.076216 15.000000
2.755545 -1.349760 1.086225 35.000000
2.719595 -1.370542 1.076207 32.000000
2.712788 -1.405833 1.077858 42.000000
2.680615 -1.427814 1.069337 35.000000
2.648340 -1.449316 1.060840 32.000000
2.624195 -1.474771 1.055578 34.000000
2.599957 -1.499844 1.050328 29.000000
2.563245 -1.517227 1.040048 13.000000
2.546684 -1.546304 1.037930 32.000000
2.537274 -1.580665 1.039482 32.000000
2.520178 -1.609352 1.037260 37.000000
2.494788 -1.632670 1.031672 34.000000
2.464720 -1.653464 1.024850 24.000000
2.454689 -1.686607 1.025711 18.000000
2.412649 -1.698538 1.013943 21.000000
2.386124 -1.720807 1.008605 11.000000
2.379036 -1.756001 1.010895 41.000000
2.352030 -1.777664 1.005473 29.000000
2.339745 -1.810551 1.006508 33.000000
2.320480 -1.836681 1.003742 33.000000
2.300167 -1.863289 1.001453 29.000000
2.283215 -1.892729 1.000572 37.000000
2.255163 -1.912771 0.994900 29.000000
2.205478 -1.913721 0.979701 10.000000
2.205701 -1.957891 0.986681 34.000000
2.173622 -1.973573 0.979277 28.000000
2.165899 -2.011327 0.982944 33.000000
2.147380 -2.039407 0.981760 35.000000
2.111478 -2.050741 0.972723 27.000000
2.092426 -2.078118 0.971544 31.000000
2.063113 -2.095227 0.965582 25.000000
2.040350 -2.118745 0.962654 10.000000
2.033599 -2.159282 0.967478 33.000000
2.013493 -2.185917 0.965977 30.000000
1.989841 -2.208805 0.962925 32.000000
1.962759 -2.227837 0.958337 29.000000
1.943737 -2.258284 0.958639 28.000000
1.919379 -2.280349 0.955391 32.000000
1.904007 -2.313065 0.956707 25.000000
1.906037 -2.368065 0.967086 13.000000
1.790806 -2.278237 0.918735 9.000000
1.696680 -2.207822 0.879351 10.000000
1.572796 -2.093515 0.823718 11.000000
1.430657 -1.950529 0.758226 11.000000
1.318009 -1.838761 0.706270 13.000000
1.218970 -1.740250 0.660547 19.000000
1.172395 -1.715215 0.643513 23.000000
1.156794 -1.732464 0.642464 10.000000
1.138366 -1.745570 0.640002 28.000000
1.121173 -1.763110 0.639136 28.000000
1.102502 -1.775779 0.636603 29.000000
1.082498 -1.788915 0.634202 28.000000
1.065994 -1.805240 0.633047 26.000000
1.046880 -1.817336 0.630440 28.000000
1.035735 -1.846545 0.633770 21.000000
1.036868 -1.896119 0.643922 10.000000
0.985277 1.842393 0.639470 9.000000
1.010753 1.838567 0.644942 18.000000
1.016099 1.801810 0.638836 30.000000
1.033989 1.785190 0.639800 24.000000
1.052776 1.773193 0.642502 29.000000
1.071431 1.760998 0.645139 28.000000
1.083628 1.735808 0.643016 26.000000
1.109729 1.735290 0.650149 31.000000
1.124013 1.713806 0.649435 25.000000
1.139466 1.696859 0.650478 25.000000
1.157467 1.683636 0.653031 34.000000
1.176385 1.669628 0.655257 30.000000
1.196908 1.659872 0.659212 37.000000
1.208909 1.638372 0.658627 32.000000
1.232077 1.631987 0.664133 31.000000
1.244567 1.609571 0.663134 36.000000
1.258795 1.591412 0.663930 26.000000
1.275801 1.576882 0.666275 34.000000
1.295638 1.565750 0.670121 41.000000
1.306289 1.543483 0.669265 34.000000
1.323645 1.527752 0.671215 62.000000
1.340025 1.512477 0.673425 37.000000
1.362643 1.503969 0.678742 38.000000
1.382061 1.491642 0.682488 55.000000
1.388322 1.465285 0.679796 35.000000
1.407414 1.452566 0.683476 33.000000
1.429782 1.443005 0.688707 75.000000
1.445361 1.426378 0.690736 42.000000
1.467620 1.416192 0.695929 83.000000
1.482944 1.399093 0.697902 64.000000
1.505087 1.388275 0.703057 58.000000
1.516706 1.367600 0.703345 67.000000
1.538628 1.356250 0.708455 33.000000
1.542067 1.329579 0.705663 31.000000
1.563824 1.317711 0.710721 55.000000
1.585451 1.305478 0.715730 46.000000
1.610754 1.295902 0.722403 75.000000
1.635581 1.286407 0.729303 51.000000
1.645905 1.264423 0.729327 37.000000
1.671119 1.253711 0.735922 59.000000
1.672961 1.226355 0.732819 33.000000
1.682623 1.204075 0.732627 35.000000
1.707004 1.193014 0.739454 67.000000
1.731830 1.181013 0.745967 52.000000
1.748312 1.163863 0.749345 81.000000
1.768662 1.148984 0.754346 49.000000
1.781309 1.128340 0.755713 52.000000
1.801414 1.112846 0.760666 59.000000
1.817392 1.094605 0.763870 35.000000
1.833215 1.076135 0.767081 35.000000
1.848953 1.057433 0.770230 55.000000
1.860289 1.036213 0.771681 52.000000
1.888012 1.023745 0.779890 72.000000
1.907411 1.006444 0.784634 62.000000
1.930875 0.990886 0.791031 52.000000
1.949995 0.972874 0.795730 66.000000
1.981671 0.960600 0.805521 32.000000
1.987657 0.936128 0.805232 32.000000
2.006335 0.917108 0.809749 42.000000
2.020378 0.896133 0.812837 35.000000
2.051486 0.882404 0.822701 48.000000
2.078467 0.865869 0.830640 50.000000
2.100743 0.847402 0.837010 43.000000
2.114250 0.825081 0.839851 53.000000
2.149432 0.810860 0.851384 30.000000
2.171168 0.791300 0.857875 36.000000
2.184090 0.767955 0.860595 59.000000
2.214571 0.750449 0.870143 60.000000
2.231398 0.728153 0.874778 64.000000
2.252604 0.706981 0.881093 71.000000
2.273516 0.685350 0.887265 52.000000
2.298861 0.664559 0.895201 42.000000
2.314981 0.640859 0.899566 34.000000
2.358078 0.623982 0.914310 35.000000
2.373674 0.599484 0.918777 57.000000
2.393791 0.575553 0.924690 36.000000
2.422704 0.553476 0.934290 37.000000
2.451405 0.530880 0.943823 73.000000
2.466217 0.504785 0.948002 51.000000
2.489846 0.480337 0.955794 39.000000
2.494890 0.451970 0.956539 28.000000
2.564170 0.434545 0.981925 35.000000
2.582611 0.407462 0.987735 66.000000
2.623984 0.383445 1.002303 52.000000
2.641869 0.355467 1.008215 38.000000
2.668728 0.328316 1.017586 60.000000
2.686091 0.299425 1.023248 37.000000
2.731051 0.273096 1.039539 46.000000
2.747800 0.243253 1.045302 26.000000
2.806167 0.216325 1.066838 36.000000
2.841027 0.186503 1.079522 47.000000
2.894235 0.156949 1.099399 63.000000
2.919197 0.125027 1.108170 37.000000
2.934359 0.092280 1.113680 51.000000
2.972516 0.059683 1.128158 58.000000
3.000950 0.026156 1.138900 35.000000
3.033770 -0.008120 1.151317 33.000000
3.056943 -0.042911 1.160088 32.000000
3.117097 -0.079182 1.182944 35.000000
3.162694 -0.116318 1.200576 35.000000
3.189161 -0.153617 1.211320 34.000000
3.243390 -0.193221 1.232178 33.000000
3.301681 -0.234430 1.255010 33.000000
3.289661 -0.271149 1.251142 27.000000
3.370329 -0.316396 1.282599 34.000000
3.408423 -0.359140 1.298207 34.000000
3.441439 -0.402295 1.311924 35.000000
3.492575 -0.448450 1.332480 35.000000
3.464362 -0.484849 1.322947 33.000000
3.407905 -0.516629 1.302930 32.000000
3.392937 -0.553807 1.298721 32.000000
3.331365 -0.582716 1.276745 22.000000
3.320257 -0.619698 1.274098 32.000000
3.290480 -0.652713 1.264290 31.000000
3.264834 -0.686280 1.256366 30.000000
3.257218 -0.723379 1.255496 35.000000
3.217268 -0.752904 1.242093 29.000000
3.181488 -0.782928 1.230789 31.000000
3.172836 -0.819031 1.229614 33.000000
3.136533 -0.847803 1.218016 21.000000
3.118097 -0.880944 1.213450 30.000000
3.090415 -0.911125 1.205281 29.000000
3.062428 -0.940688 1.197021 28.000000
3.047633 -0.974017 1.193916 33.000000
3.014667 -1.001233 1.183727 29.000000
2.994634 -1.032526 1.178998 33.000000
2.961119 -1.058881 1.169049 27.000000
2.945154 -1.090631 1.165568 26.000000
2.928713 -1.122486 1.162400 31.000000
2.898923 -1.148854 1.153928 35.000000
2.864639 -1.172946 1.143640 31.000000
2.851346 -1.205878 1.142432 35.000000
2.820952 -1.230701 1.133806 32.000000
2.798980 -1.258782 1.128553 30.000000
2.784909 -1.290915 1.127056 32.000000
2.715858 -1.296065 1.102697 24.000000
2.730981 -1.341661 1.113157 34.000000
2.707668 -1.368768 1.107947 36.000000
2.675914 -1.391052 1.099323 32.000000
2.664678 -1.423831 1.099269 42.000000
2.636621 -1.447461 1.092285 35.000000
2.596134 -1.463687 1.080013 28.000000
2.592186 -1.500453 1.083180 34.000000
2.555542 -1.517895 1.072653 25.000000
2.538955 -1.547019 1.070435 32.000000
2.514097 -1.570866 1.064932 34.000000
2.496409 -1.599994 1.063106 34.000000
2.486880 -1.633522 1.064166 37.000000
2.465229 -1.659052 1.060075 29.000000
2.438987 -1.682299 1.054700 12.000000
2.436146 -1.720718 1.058896 25.000000
2.374925 -1.718529 1.038407 25.000000
2.367878 -1.753712 1.040745 35.000000
2.348328 -1.781082 1.038551 36.000000
2.321040 -1.802475 1.032946 32.000000
2.305532 -1.831457 1.031843 36.000000
2.285251 -1.858022 1.029368 35.000000
2.261056 -1.881377 1.025246 31.000000
2.243833 -1.910581 1.024416 32.000000
2.205735 -1.920113 1.013280 26.000000
2.202319 -1.961140 1.018799 35.000000
2.173716 -1.980195 1.012876 35.000000
2.151982 -2.005157 1.010124 32.000000
2.133387 -2.033097 1.008991 37.000000
2.100976 -2.047714 1.001294 33.000000
2.081908 -2.075180 1.000066 32.000000
2.065893 -2.105819 1.000340 33.000000
2.033145 -2.119235 0.992590 24.000000
2.026367 -2.159786 0.997543 35.000000
2.009220 -2.189946 0.997578 52.000000
1.979160 -2.205849 0.991344 32.000000
1.949061 -2.221320 0.984940 35.000000
1.929951 -2.251625 0.985336 34.000000
1.917828 -2.288206 0.988283 36.000000
1.884132 -2.299071 0.980322 34.000000
1.877214 -2.342805 0.986246 12.000000
1.802227 -2.300620 0.956433 10.000000
1.675058 -2.189868 0.899170 13.000000
1.551939 -2.075684 0.841916 14.000000
1.451144 -1.985767 0.795743 24.000000
1.316452 -1.843541 0.729950 18.000000
1.213951 -1.742051 0.681631 20.000000
1.168503 -1.716497 0.663820 31.000000
1.150275 -1.729736 0.661292 22.000000
1.130649 -1.743508 0.658963 32.000000
1.114638 -1.760376 0.657874 44.000000
1.097272 -1.777771 0.656973 32.000000
1.073501 -1.782094 0.651312 32.000000
1.059445 -1.802499 0.651627 30.000000
1.043738 -1.823554 0.652118 29.000000
1.026730 -1.839676 0.650841 29.000000
1.012645 -1.864656 0.652762 10.000000
0.995796 1.823807 0.658963 24.000000
1.014155 1.807278 0.660040 23.000000
1.028520 1.787142 0.659781 26.000000
1.043762 1.766261 0.659232 26.000000
1.064905 1.758164 0.663464 24.000000
1.078477 1.737689 0.663083 28.000000
1.098030 1.724435 0.665511 25.000000
1.129317 1.731544 0.675904 26.000000
1.131872 1.694699 0.669200 26.000000
1.148304 1.676904 0.669926 26.000000
1.174307 1.675176 0.677186 32.000000
1.178234 1.642287 0.671865 29.000000
1.201399 1.636152 0.677501 27.000000
1.221684 1.625966 0.681572 35.000000
1.240013 1.611107 0.683732 28.000000
1.254298 1.592983 0.684554 28.000000
1.265402 1.570979 0.683696 29.000000
1.285248 1.559877 0.687646 33.000000
1.308026 1.552192 0.693224 43.000000
1.318542 1.529775 0.692272 32.000000
1.331835 1.510852 0.692926 35.000000
1.355264 1.501749 0.698073 38.000000
1.371460 1.485944 0.700294 34.000000
1.390702 1.473444 0.704090 36.000000
1.396772 1.447019 0.701311 29.000000
1.419069 1.437421 0.706694 40.000000
1.437964 1.424218 0.710374 62.000000
1.459531 1.414548 0.716053 63.000000
1.468076 1.390964 0.714694 37.000000
1.490112 1.380218 0.719999 67.000000
1.505106 1.362790 0.721907 36.000000
1.527023 1.351407 0.727173 62.000000
1.538262 1.330488 0.727339 25.000000
1.534205 1.297823 0.721006 36.000000
1.577419 1.303818 0.736240 65.000000
1.599075 1.291209 0.741425 35.000000
1.623749 1.281744 0.748529 56.000000
1.637848 1.262744 0.750208 54.000000
1.654961 1.246840 0.753864 34.000000
1.672473 1.230176 0.757125 58.000000
1.677930 1.205542 0.755579 26.000000
1.691223 1.185870 0.757123 52.000000
1.723275 1.179723 0.767492 86.000000
1.740214 1.162094 0.770646 44.000000
1.756598 1.144646 0.774079 59.000000
1.776789 1.129488 0.779186 65.000000
1.800869 1.116482 0.786048 38.000000
1.808858 1.093298 0.785823 49.000000
1.828700 1.077133 0.790828 31.000000
1.836250 1.053720 0.790600 44.000000
