x y z intensity
1.181383 0.843084 0.708238 35.000000
1.205393 0.839005 0.718456 37.000000
1.232842 0.837295 0.731164 32.000000
1.249544 0.827253 0.736894 37.000000
1.273431 0.822101 0.747369 35.000000
1.290149 0.811349 0.753088 33.000000
1.302633 0.798282 0.756812 26.000000
1.318856 0.787315 0.762769 30.000000
1.350554 0.785058 0.777550 37.000000
1.355127 0.766666 0.776755 35.000000
1.363411 0.750417 0.778083 32.000000
1.383359 0.740444 0.786129 37.000000
1.415177 0.736160 0.800820 32.000000
1.418926 0.717421 0.800098 37.000000
1.450850 0.712168 0.814743 25.000000
1.478786 0.704365 0.827116 29.000000
1.498439 0.692395 0.835232 35.000000
1.526127 0.683727 0.847836 32.000000
1.557986 0.676238 0.862680 32.000000
1.577578 0.662871 0.870703 36.000000
1.592921 0.647417 0.876416 31.000000
1.612365 0.633336 0.884296 26.000000
1.640063 0.621938 0.896684 25.000000
1.667756 0.609982 0.909038 31.000000
1.686736 0.594694 0.917099 32.000000
1.714112 0.581908 0.929686 33.000000
1.750100 0.571006 0.946434 37.000000
1.777374 0.556932 0.958887 35.000000
1.817434 0.546064 0.978172 37.000000
1.831642 0.527086 0.983932 33.000000
1.867317 0.513532 1.000786 28.000000
1.889886 0.496021 1.011041 35.000000
1.908247 0.476690 1.018543 31.000000
1.952119 0.463339 1.040132 31.000000
1.970074 0.443156 1.047800 32.000000
2.026664 0.430972 1.076503 35.000000
2.044345 0.409572 1.083992 34.000000
2.066011 0.388683 1.094085 25.000000
2.126835 0.374301 1.124835 28.000000
2.157025 0.353411 1.139370 29.000000
2.208999 0.335226 1.165331 37.000000
2.243344 0.313371 1.181984 35.000000
2.286108 0.291913 1.203436 35.000000
2.328662 0.269521 1.224911 36.000000
2.362339 0.245198 1.241528 35.000000
2.408995 0.221279 1.265024 27.000000
2.464324 0.197023 1.293083 33.000000
2.514901 0.171301 1.319008 31.000000
2.551933 0.143598 1.337905 32.000000
2.610869 0.115955 1.368228 34.000000
2.678447 0.087331 1.403106 34.000000
2.723376 0.056586 1.426579 32.000000
2.754753 0.024771 1.443007 27.000000
2.861145 -0.008083 1.498685 32.000000
2.909663 -0.042506 1.524104 32.000000
2.980009 -0.078764 1.560913 32.000000
3.023142 -0.115577 1.584106 33.000000
3.017155 -0.151102 1.581579 53.000000
2.993279 -0.185324 1.569674 45.000000
2.991109 -0.220653 1.569157 36.000000
2.939867 -0.251823 1.543458 26.000000
2.972198 -0.289918 1.561587 36.000000
2.937971 -0.321613 1.544860 35.000000
2.921110 -0.354716 1.537202 36.000000
2.908473 -0.387891 1.531764 37.000000
2.895154 -0.421060 1.526633 37.000000
2.885940 -0.454510 1.523616 37.000000
2.876441 -0.487857 1.520500 34.000000
2.840476 -0.516243 1.503332 29.000000
2.843424 -0.551407 1.506854 35.000000
2.824112 -0.582397 1.499138 33.000000
2.813528 -0.614577 1.495346 35.000000
2.802272 -0.646853 1.492053 41.000000
2.782114 -0.676730 1.483866 35.000000
2.765736 -0.707598 1.478382 33.000000
2.749406 -0.737870 1.472316 29.000000
2.711159 -0.762027 1.455174 26.000000
2.707199 -0.795106 1.455725 32.000000
2.702631 -0.828481 1.456659 34.000000
2.689177 -0.859056 1.452818 34.000000
2.662416 -0.885514 1.442511 31.000000
2.665400 -0.921262 1.447628 33.000000
2.646963 -0.949601 1.441133 31.000000
2.636355 -0.981039 1.439686 32.000000
2.612899 -1.007575 1.431221 26.000000
2.585125 -1.031971 1.420403 30.000000
2.581917 -1.066080 1.423130 35.000000
2.561951 -1.093102 1.416683 31.000000
2.549934 -1.123428 1.414585 34.000000
2.545752 -1.157256 1.416911 34.000000
2.533219 -1.187201 1.414615 29.000000
2.527863 -1.221413 1.417304 30.000000
2.494248 -1.241697 1.404038 29.000000
2.496821 -1.279075 1.410451 35.000000
2.533933 -1.335971 1.437399 98.000000
2.578115 -1.398064 1.468633 120.000000
2.504004 -1.396123 1.432606 95.000000
2.445941 -1.401389 1.405522 34.000000
2.434418 -1.432690 1.405154 32.000000
2.407320 -1.454626 1.395790 31.000000
2.368660 -1.469012 1.379702 27.000000
2.351956 -1.497580 1.377329 27.000000
2.358354 -1.540102 1.387645 31.000000
2.359648 -1.581051 1.396181 26.000000
2.346349 -1.611410 1.395195 18.000000
2.328356 -1.639658 1.392486 23.000000
2.310846 -1.667036 1.389100 28.000000
2.306831 -1.705493 1.394943 27.000000
2.262842 -1.714222 1.376654 23.000000
2.261655 -1.755172 1.384457 29.000000
2.252822 -1.790655 1.387770 33.000000
2.226137 -1.811974 1.380121 28.000000
2.195918 -1.830044 1.370332 28.000000
2.189620 -1.867972 1.375473 31.000000
2.165777 -1.891191 1.369818 26.000000
2.172210 -1.941220 1.383380 26.000000
2.137808 -1.954905 1.371084 19.000000
2.133192 -1.995881 1.378033 24.000000
2.118142 -2.027472 1.378345 32.000000
2.075803 -2.034463 1.362252 26.000000
2.085950 -2.091223 1.379391 26.000000
2.073160 -2.125731 1.381541 30.000000
2.052302 -2.154502 1.379946 26.000000
2.038661 -2.188790 1.381933 26.000000
2.004956 -2.203750 1.371838 18.000000
1.990696 -2.237660 1.373587 24.000000
1.983554 -2.282690 1.382136 29.000000
1.950666 -2.295828 1.371254 23.000000
1.951281 -2.351305 1.385699 25.000000
1.930808 -2.382344 1.385516 27.000000
1.905854 -2.405141 1.380689 18.000000
1.882049 -2.432163 1.378318 20.000000
1.813819 -2.400559 1.343219 11.000000
1.710159 -2.315396 1.279303 10.000000
1.647059 -2.284528 1.246738 18.000000
1.590366 -2.259931 1.218212 15.000000
1.531698 -2.230408 1.187844 11.000000
1.471466 -2.196062 1.155655 16.000000
1.421305 -2.171123 1.129046 13.000000
1.367924 -2.142253 1.101051 11.000000
1.315303 -2.112391 1.073232 9.000000
1.270690 -2.093336 1.051507 10.000000
1.238391 -2.093205 1.039580 11.000000
1.185597 -2.056803 1.010175 13.000000
0.637458 1.130558 0.563530 29.000000
0.651238 1.126752 0.567948 26.000000
0.665925 1.122370 0.572122 24.000000
0.685371 1.125615 0.580342 33.000000
0.683098 1.093645 0.570403 16.000000
0.702411 1.096495 0.578602 29.000000
0.709400 1.079991 0.576657 31.000000
0.723781 1.074794 0.580775 24.000000
0.739962 1.073547 0.587134 33.000000
0.751789 1.064208 0.589185 29.000000
0.763484 1.054695 0.591193 33.000000
0.780513 1.052402 0.597305 33.000000
0.783124 1.032090 0.593257 18.000000
0.805713 1.036609 0.603524 36.000000
0.819254 1.030417 0.607780 34.000000
0.833534 1.023624 0.611786 32.000000
0.844902 1.013189 0.613651 37.000000
0.861349 1.009870 0.619969 32.000000
0.881505 1.009280 0.628169 50.000000
0.889105 0.995247 0.628117 37.000000
0.908742 0.994500 0.636506 24.000000
0.926010 0.989731 0.642563 66.000000
0.936493 0.978516 0.644531 38.000000
0.956307 0.976835 0.652965 49.000000
0.960880 0.958491 0.650354 65.000000
0.980801 0.956262 0.658738 35.000000
0.997526 0.950554 0.664939 58.000000
1.014291 0.944594 0.671165 49.000000
1.021116 0.929207 0.670766 27.000000
1.044576 0.928739 0.681309 38.000000
1.057980 0.918966 0.685309 35.000000
1.067930 0.906112 0.687023 32.000000
1.081191 0.895930 0.690896 33.000000
1.083963 0.877155 0.688143 32.000000
1.111130 0.877805 0.700797 36.000000
1.131365 0.872460 0.709056 33.000000
1.158788 0.872095 0.721752 23.000000
1.157120 0.850354 0.716833 33.000000
1.173743 0.841409 0.722778 34.000000
1.193599 0.835096 0.731232 35.000000
1.213920 0.828022 0.739366 36.000000
1.241288 0.825877 0.752285 33.000000
1.253847 0.813424 0.756122 37.000000
1.277974 0.807567 0.766443 33.000000
1.282818 0.789867 0.765730 22.000000
1.318071 0.790485 0.783115 36.000000
1.334290 0.779130 0.789137 36.000000
1.346578 0.765286 0.792792 35.000000
1.362648 0.753342 0.798737 36.000000
1.378706 0.741104 0.804590 34.000000
1.402195 0.733011 0.815308 35.000000
1.422119 0.722097 0.823384 36.000000
1.445663 0.713028 0.834054 22.000000
1.465541 0.701273 0.842064 29.000000
1.485099 0.689398 0.850373 32.000000
1.520787 0.684403 0.867825 27.000000
1.544330 0.673303 0.878332 33.000000
1.563827 0.659976 0.886494 33.000000
1.587364 0.647972 0.896874 30.000000
1.602631 0.632149 0.902637 30.000000
1.609516 0.612917 0.903646 12.000000
1.657528 0.609069 0.928155 31.000000
1.685080 0.596544 0.940710 34.000000
1.703927 0.580790 0.948814 34.000000
1.739550 0.570122 0.966206 35.000000
1.766761 0.556037 0.978898 32.000000
1.789630 0.540045 0.989212 31.000000
1.820710 0.526169 1.004421 33.000000
1.852016 0.511491 1.019266 20.000000
1.883011 0.496273 1.034401 30.000000
1.901038 0.477089 1.042387 30.000000
1.931877 0.460602 1.057297 28.000000
1.962645 0.443434 1.072159 30.000000
2.006207 0.428346 1.094030 34.000000
2.032512 0.408783 1.106367 29.000000
2.062744 0.389597 1.121363 30.000000
2.110232 0.372791 1.145662 23.000000
2.148963 0.353449 1.165200 29.000000
2.174521 0.331215 1.177526 30.000000
2.208422 0.309764 1.194817 32.000000
2.264274 0.290237 1.223468 29.000000
2.310967 0.268447 1.247651 34.000000
2.344462 0.244250 1.264600 31.000000
2.394999 0.220946 1.291351 28.000000
2.441323 0.195978 1.315172 26.000000
2.495920 0.170653 1.344077 29.000000
2.537141 0.143334 1.365726 31.000000
2.587035 0.115382 1.391942 32.000000
2.641022 0.086426 1.420349 28.000000
2.694496 0.056217 1.449130 27.000000
2.756517 0.024835 1.482375 29.000000
2.849086 -0.008095 1.532202 30.000000
2.892921 -0.042506 1.555683 34.000000
2.962757 -0.078662 1.593261 31.000000
3.001233 -0.115304 1.614568 29.000000
2.999776 -0.150790 1.614463 36.000000
2.975924 -0.185014 1.602214 32.000000
2.973858 -0.220240 1.601698 35.000000
2.971069 -0.255569 1.601594 31.000000
2.915767 -0.285539 1.572292 29.000000
2.921178 -0.321002 1.576512 35.000000
2.895644 -0.352940 1.563987 33.000000
2.913342 -0.390210 1.575494 33.000000
2.869814 -0.418981 1.553232 35.000000
2.860641 -0.452329 1.550270 34.000000
2.859774 -0.486954 1.551726 30.000000
2.819649 -0.514557 1.531967 24.000000
2.809666 -0.547039 1.528422 30.000000
2.807648 -0.581306 1.530083 34.000000
2.792483 -0.612740 1.524386 35.000000
2.772665 -0.642973 1.516344 30.000000
2.765481 -0.675845 1.515163 35.000000
2.749449 -0.706421 1.509092 34.000000
2.707587 -0.729703 1.488863 25.000000
2.695003 -0.760769 1.485454 22.000000
2.686877 -0.792597 1.483616 29.000000
2.682201 -0.825822 1.484696 30.000000
2.668786 -0.856349 1.480810 33.000000
2.655111 -0.886582 1.476833 29.000000
2.657893 -0.922421 1.482085 34.000000
2.639184 -0.951252 1.476070 35.000000
2.624686 -0.980852 1.471713 25.000000
2.580643 -0.999355 1.451492 19.000000
2.565373 -1.028511 1.447551 29.000000
2.562133 -1.062469 1.450280 31.000000
2.558437 -1.096528 1.452997 36.000000
2.538253 -1.123315 1.446269 32.000000
2.538037 -1.159028 1.451088 34.000000
2.521448 -1.187178 1.446481 34.000000
2.516020 -1.221432 1.449165 27.000000
2.474946 -1.237235 1.430592 23.000000
2.476868 -1.275125 1.437672 34.000000
2.490783 -1.318866 1.450917 37.000000
2.499511 -1.361523 1.462402 95.000000
2.449535 -1.371840 1.439334 37.000000
2.426606 -1.396669 1.432276 34.000000
2.418917 -1.430187 1.434231 39.000000
2.372754 -1.440573 1.413386 26.000000
2.338151 -1.457019 1.399213 19.000000
2.344189 -1.499919 1.410513 28.000000
2.342830 -1.537515 1.416584 29.000000
2.333565 -1.570386 1.417923 32.000000
2.334354 -1.611336 1.426560 22.000000
2.306063 -1.631207 1.416542 22.000000
2.298697 -1.667049 1.420359 33.000000
2.273781 -1.688843 1.412408 25.000000
2.244260 -1.708237 1.402734 21.000000
2.239451 -1.746363 1.408448 33.000000
2.230608 -1.781745 1.411905 33.000000
2.210974 -1.808669 1.408600 34.000000
2.187706 -1.832421 1.402992 33.000000
2.174336 -1.864662 1.403997 31.000000
2.164118 -1.899741 1.406980 32.000000
2.146727 -1.928763 1.405453 25.000000
2.129074 -1.957669 1.403913 20.000000
2.111061 -1.986263 1.402264 29.000000
2.099374 -2.020986 1.404848 32.000000
2.080767 -2.049225 1.402965 32.000000
2.063881 -2.081436 1.403725 30.000000
2.060410 -2.125574 1.412478 30.000000
2.043800 -2.156753 1.412467 32.000000
2.013364 -2.175422 1.404370 22.000000
1.987208 -2.196093 1.397832 21.000000
1.981911 -2.240114 1.406098 31.000000
1.965677 -2.274901 1.408325 30.000000
1.950438 -2.308690 1.410006 31.000000
1.918815 -2.325815 1.401517 29.000000
1.915610 -2.377825 1.414064 30.000000
1.907615 -2.422025 1.421594 27.000000
1.866726 -2.427638 1.406703 21.000000
1.805909 -2.402600 1.374528 13.000000
1.709295 -2.329509 1.316102 15.000000
1.646309 -2.298902 1.282727 19.000000
1.592203 -2.278285 1.255724 23.000000
1.514651 -2.218097 1.207820 21.000000
1.469876 -2.206499 1.187248 22.000000
1.423192 -2.190298 1.164668 21.000000
1.362498 -2.150114 1.129961 13.000000
1.305218 -2.112643 1.097500 10.000000
1.272493 -2.113282 1.085386 17.000000
1.207420 -2.058052 1.045164 16.000000
1.177324 -2.056609 1.032801 20.000000
0.647704 1.128328 0.581298 26.000000
0.660097 1.119978 0.583516 35.000000
0.677079 1.119254 0.589844 24.000000
0.698105 1.126462 0.600507 17.000000
0.693403 1.090654 0.588229 25.000000
0.705320 1.081771 0.590352 23.000000
0.722244 1.080355 0.596648 33.000000
0.733372 1.071540 0.598961 25.000000
0.745199 1.062201 0.601056 28.000000
0.759541 1.056368 0.605172 32.000000
0.775858 1.054425 0.611682 23.000000
0.795720 1.055390 0.620037 20.000000
0.790803 1.023841 0.609260 28.000000
0.812660 1.028381 0.619994 29.000000
0.824077 1.018071 0.621896 41.000000
0.834741 1.008070 0.624020 32.000000
0.857605 1.011253 0.634557 37.000000
0.871235 1.004205 0.638786 37.000000
0.882398 0.993221 0.640631 31.000000
0.898940 0.989124 0.647059 26.000000
0.906392 0.974863 0.646868 32.000000
0.923474 0.969901 0.653012 41.000000
0.949464 0.974754 0.665956 62.000000
0.956699 0.959971 0.665694 33.000000
0.970177 0.951406 0.669840 52.000000
0.986819 0.945772 0.676170 36.000000
1.006818 0.942855 0.684700 32.000000
1.030177 0.942627 0.695449 26.000000
1.030361 0.921069 0.690601 30.000000
1.050458 0.917252 0.699067 36.000000
1.063806 0.907297 0.703075 51.000000
1.070215 0.891354 0.702543 35.000000
1.086897 0.883844 0.708675 35.000000
1.100020 0.873296 0.712566 36.000000
1.116194 0.865588 0.718977 29.000000
1.157684 0.876035 0.740981 24.000000
1.153011 0.851234 0.733462 29.000000
1.172829 0.845181 0.742031 33.000000
1.185789 0.833355 0.745807 62.000000
1.212966 0.831642 0.758963 33.000000
1.225496 0.819463 0.762927 33.000000
1.256979 0.818903 0.778056 37.000000
1.262002 0.801362 0.777348 31.000000
1.281900 0.793140 0.785825 25.000000
1.305642 0.786776 0.796592 27.000000
1.329426 0.779941 0.807341 35.000000
1.341767 0.765994 0.811046 42.000000
1.357811 0.754048 0.817086 35.000000
1.373466 0.742078 0.823358 34.000000
1.389481 0.729490 0.829323 48.000000
1.416797 0.722900 0.842541 24.000000
1.432732 0.709572 0.848382 22.000000
1.468095 0.705839 0.866251 29.000000
1.479639 0.690080 0.869954 29.000000
1.487035 0.672296 0.871252 27.000000
1.534647 0.672086 0.896075 31.000000
1.550010 0.657087 0.902016 31.000000
1.573426 0.645061 0.912580 34.000000
1.588683 0.629340 0.918433 26.000000
1.624035 0.621406 0.936329 24.000000
1.643232 0.606389 0.944412 32.000000
1.657959 0.589722 0.950378 29.000000
1.689209 0.578434 0.965749 34.000000
1.712108 0.563675 0.976390 34.000000
1.751702 0.553753 0.996398 32.000000
1.782862 0.540352 1.011671 35.000000
1.801146 0.522804 1.020002 26.000000
1.832269 0.508215 1.035127 21.000000
1.863084 0.493085 1.050476 30.000000
1.885332 0.475135 1.060994 28.000000
1.920273 0.459778 1.078651 32.000000
1.955164 0.443569 1.096197 32.000000
1.994215 0.427565 1.116026 26.000000
2.015878 0.407269 1.126556 31.000000
2.041637 0.387309 1.139434 22.000000
2.088845 0.370666 1.164211 23.000000
2.135998 0.352846 1.188868 35.000000
2.157169 0.330019 1.199027 28.000000
2.195143 0.309224 1.219060 31.000000
2.246334 0.289124 1.245877 32.000000
2.284138 0.266441 1.265717 28.000000
2.321790 0.242849 1.285492 31.000000
2.319707 0.214875 1.283729 26.000000
2.409357 0.194231 1.332158 25.000000
2.467995 0.169493 1.364049 29.000000
2.513344 0.142574 1.388454 31.000000
2.540988 0.113831 1.403209 26.000000
2.616615 0.085955 1.444266 30.000000
2.665397 0.055849 1.471205 27.000000
2.718296 0.024637 1.500289 26.000000
2.823450 -0.008070 1.558369 32.000000
2.884533 -0.042535 1.591993 29.000000
2.953949 -0.078793 1.630337 35.000000
2.992187 -0.115433 1.652074 32.000000
2.981981 -0.150582 1.647036 34.000000
2.971368 -0.185522 1.641894 37.000000
2.964926 -0.220580 1.638962 31.000000
2.909779 -0.251387 1.609895 22.000000
2.924567 -0.287604 1.618628 32.000000
2.886360 -0.318571 1.598824 32.000000
2.887067 -0.353398 1.600627 35.000000
2.878469 -0.387263 1.597812 37.000000
2.852545 -0.418278 1.584859 30.000000
2.852053 -0.453002 1.586563 35.000000
2.846925 -0.486990 1.585759 35.000000
2.815524 -0.516135 1.570424 20.000000
2.805542 -0.548672 1.566826 35.000000
2.782299 -0.578430 1.556027 31.000000
2.775773 -0.611653 1.555137 35.000000
2.760305 -0.642787 1.549253 35.000000
2.731801 -0.670480 1.536088 29.000000
2.724367 -0.702952 1.534816 32.000000
2.720879 -0.736474 1.535643 34.000000
2.665979 -0.755917 1.508369 20.000000
2.691491 -0.797482 1.525737 34.000000
2.665729 -0.824465 1.514830 34.000000
2.652340 -0.854994 1.510897 31.000000
2.647028 -0.888027 1.511633 34.000000
2.633089 -0.918069 1.507511 32.000000
2.618891 -0.947916 1.503298 32.000000
2.603952 -0.977856 1.499476 30.000000
2.581131 -1.003928 1.490247 21.000000
2.557549 -1.029992 1.481420 32.000000
2.554220 -1.064043 1.484332 35.000000
2.538386 -1.092868 1.479960 34.000000
2.530264 -1.124988 1.480308 35.000000
2.513989 -1.153333 1.475750 33.000000
2.505254 -1.185262 1.475804 33.000000
2.484476 -1.211194 1.468716 32.000000
2.458880 -1.235334 1.459681 25.000000
2.461273 -1.272637 1.466374 33.000000
2.458726 -1.308527 1.471275 37.000000
2.456429 -1.344024 1.475384 37.000000
2.429887 -1.367070 1.465892 36.000000
2.410866 -1.394077 1.461070 32.000000
2.387892 -1.418538 1.453841 33.000000
2.376081 -1.449548 1.453381 33.000000
2.322686 -1.454473 1.427503 21.000000
2.340343 -1.503878 1.445326 32.000000
2.319608 -1.530040 1.440633 28.000000
2.310345 -1.562717 1.442073 27.000000
2.322696 -1.610574 1.457144 26.000000
2.271937 -1.615623 1.433845 18.000000
2.276196 -1.658418 1.444089 26.000000
2.261218 -1.688803 1.443468 29.000000
2.228206 -1.705545 1.431285 19.000000
2.227674 -1.745630 1.438963 32.000000
2.211773 -1.775552 1.437929 32.000000
2.188723 -1.799599 1.432374 32.000000
2.179106 -1.834776 1.435636 33.000000
2.152187 -1.855323 1.427642 30.000000
2.148567 -1.896220 1.435247 30.000000
2.141109 -1.934232 1.440463 31.000000
2.096942 -1.938844 1.421034 18.000000
2.092085 -1.979646 1.428344 29.000000
2.077137 -2.011098 1.428751 30.000000
2.058573 -2.039351 1.426925 29.000000
2.049103 -2.076973 1.431595 33.000000
2.036141 -2.111369 1.433918 28.000000
2.021472 -2.146494 1.436702 29.000000
1.998550 -2.170918 1.432297 27.000000
1.960271 -2.178212 1.416910 14.000000
1.965470 -2.236382 1.434641 30.000000
1.950581 -2.270342 1.436390 30.000000
1.925049 -2.294658 1.432236 27.000000
1.909422 -2.328129 1.433822 30.000000
1.903133 -2.376730 1.444447 26.000000
1.886501 -2.410242 1.445815 27.000000
1.851299 -2.422907 1.434780 21.000000
1.767412 -2.369835 1.385692 9.000000
1.718683 -2.358104 1.361582 21.000000
1.645141 -2.313113 1.319036 17.000000
1.578148 -2.274004 1.280948 17.000000
1.518829 -2.240275 1.246820 22.000000
1.464010 -2.213882 1.217439 19.000000
1.412478 -2.190106 1.190136 20.000000
1.351917 -2.150057 1.154809 19.000000
1.291650 -2.104203 1.117147 10.000000
1.266070 -2.116501 1.110959 19.000000
1.222035 -2.097039 1.088337 17.000000
0.643125 1.130192 0.594815 25.000000
0.653313 1.117891 0.594997 21.000000
0.672671 1.121045 0.603545 18.000000
0.680262 1.104619 0.601579 13.000000
0.684311 1.084741 0.597687 14.000000
0.698690 1.079691 0.601966 23.000000
0.713109 1.074490 0.606216 22.000000
0.727481 1.069052 0.610482 23.000000
0.748851 1.074933 0.621365 28.000000
0.745015 1.043289 0.610590 21.000000
0.771817 1.055949 0.625790 29.000000
0.783543 1.046082 0.627826 18.000000
0.786955 1.025319 0.623346 18.000000
0.803199 1.022763 0.629894 32.000000
0.820214 1.019495 0.636207 27.000000
0.839481 1.019821 0.644964 24.000000
0.847311 1.006070 0.644916 31.000000
0.855647 0.991898 0.644587 24.000000
0.875016 0.991466 0.653325 31.000000
0.891553 0.987356 0.659839 10.000000
0.893493 0.966168 0.654968 24.000000
0.913034 0.964924 0.663646 31.000000
0.932648 0.963318 0.672363 29.000000
0.958663 0.967738 0.685571 33.000000
0.962687 0.949649 0.683017 31.000000
0.976116 0.940862 0.687219 31.000000
0.995961 0.938014 0.695875 34.000000
1.009403 0.928756 0.700021 13.000000
1.016150 0.913327 0.699575 18.000000
1.032766 0.906641 0.705925 30.000000
1.056117 0.905482 0.716830 28.000000
1.062598 0.889592 0.716254 28.000000
1.086057 0.887689 0.727124 30.000000
1.098829 0.877390 0.731360 29.000000
1.111952 0.866523 0.735317 32.000000
1.128564 0.858154 0.741504 10.000000
1.141153 0.847121 0.745633 26.000000
1.164894 0.843395 0.756462 32.000000
1.170209 0.826760 0.755865 29.000000
1.182648 0.815079 0.759884 29.000000
1.217036 0.817994 0.777973 30.000000
1.237286 0.810152 0.786332 27.000000
1.257133 0.802245 0.794972 27.000000
1.247073 0.775286 0.784737 10.000000
1.285618 0.778406 0.805098 24.000000
1.316817 0.776165 0.820747 29.000000
1.328736 0.762578 0.824865 26.000000
1.348599 0.752816 0.833368 30.000000
1.360713 0.738472 0.837031 31.000000
1.376222 0.726193 0.843408 29.000000
1.419464 0.727429 0.866069 33.000000
1.419300 0.706400 0.862784 10.000000
1.434752 0.693088 0.869004 22.000000
1.466011 0.686976 0.884719 26.000000
1.501338 0.681936 0.902822 23.000000
1.520719 0.669102 0.911298 23.000000
1.536069 0.654088 0.917328 24.000000
1.551262 0.638820 0.923312 23.000000
1.578618 0.628155 0.936431 23.000000
1.597446 0.613921 0.944984 17.000000
1.624460 0.602375 0.958398 23.000000
1.660001 0.592915 0.976200 25.000000
1.687009 0.580038 0.989432 24.000000
1.726436 0.570718 1.009912 24.000000
1.736440 0.551474 1.013740 22.000000
1.759135 0.535629 1.024363 21.000000
1.790200 0.521696 1.039744 22.000000
1.820838 0.507290 1.055543 14.000000
1.838843 0.488850 1.063854 16.000000
1.873706 0.474257 1.081881 23.000000
1.904221 0.457865 1.097356 16.000000
1.943101 0.442733 1.117675 16.000000
1.977537 0.425937 1.135857 21.000000
1.990753 0.403882 1.141251 16.000000
2.016354 0.384139 1.154358 10.000000
2.067563 0.368399 1.182053 17.000000
2.088726 0.346465 1.192456 12.000000
2.122346 0.326104 1.210534 14.000000
2.194876 0.310436 1.250209 20.000000
2.228210 0.288093 1.268112 15.000000
2.248498 0.263428 1.278497 15.000000
2.294569 0.241078 1.303488 18.000000
2.279820 0.211970 1.293891 9.000000
2.398955 0.194245 1.360898 13.000000
2.431201 0.167651 1.378638 13.000000
2.480700 0.141321 1.406067 12.000000
2.547297 0.114543 1.443182 16.000000
2.596298 0.085629 1.470273 14.000000
2.636085 0.055481 1.492808 10.000000
2.736519 0.024858 1.549657 20.000000
2.801876 -0.008058 1.586613 23.000000
2.871286 -0.042599 1.625830 26.000000
2.927328 -0.078354 1.657546 24.000000
2.969678 -0.115056 1.682175 22.000000
2.976807 -0.151035 1.686996 31.000000
2.948971 -0.184939 1.671805 29.000000
2.946795 -0.220165 1.671287 25.000000
2.922730 -0.253511 1.658363 24.000000
2.902318 -0.286664 1.648215 24.000000
2.903271 -0.321903 1.650163 29.000000
2.877979 -0.353955 1.637155 28.000000
2.865385 -0.387137 1.631428 24.000000
2.860825 -0.421383 1.630922 28.000000
2.843361 -0.453469 1.622443 27.000000
2.829629 -0.485984 1.616730 22.000000
2.781245 -0.511983 1.591306 23.000000
2.762770 -0.542638 1.582767 22.000000
2.764995 -0.577540 1.586975 27.000000
2.750153 -0.608681 1.580697 28.000000
2.726267 -0.637631 1.569930 26.000000
2.714880 -0.669208 1.566311 28.000000
2.698999 -0.699491 1.560059 27.000000
2.682873 -0.729475 1.553718 16.000000
2.674902 -0.761453 1.552163 26.000000
2.653598 -0.789888 1.543692 25.000000
2.653041 -0.824405 1.547203 26.000000
2.640052 -0.854599 1.542735 26.000000
2.622271 -0.883395 1.536234 24.000000
2.612516 -0.914786 1.534496 26.000000
2.597877 -0.944875 1.530818 26.000000
2.571277 -0.969751 1.519117 15.000000
2.577047 -1.006787 1.526575 27.000000
2.541310 -1.027986 1.510458 28.000000
2.541972 -1.063722 1.515873 32.000000
2.509959 -1.085640 1.501919 27.000000
2.529986 -1.130128 1.519053 29.000000
2.501517 -1.153160 1.507234 30.000000
2.500757 -1.188806 1.512124 28.000000
2.456218 -1.203393 1.490576 13.000000
2.466725 -1.244640 1.502340 29.000000
2.448717 -1.272559 1.497844 29.000000
2.442769 -1.305931 1.499826 29.000000
2.432011 -1.337659 1.499896 30.000000
2.405596 -1.360622 1.490369 27.000000
2.387319 -1.386966 1.484935 29.000000
2.364349 -1.411343 1.477528 28.000000
2.363837 -1.449073 1.484296 14.000000
2.332973 -1.468182 1.471996 24.000000
2.309537 -1.491527 1.464339 23.000000
2.318280 -1.537028 1.478389 28.000000
2.308860 -1.569874 1.479900 26.000000
2.281008 -1.589968 1.469612 15.000000
2.274625 -1.625132 1.473246 16.000000
2.252829 -1.650386 1.468026 17.000000
2.238655 -1.680004 1.466785 10.000000
2.223362 -1.710093 1.466015 24.000000
2.200756 -1.734586 1.460516 24.000000
2.189339 -1.766389 1.461365 28.000000
2.162856 -1.787529 1.453380 24.000000
2.156651 -1.825433 1.459085 26.000000
2.149902 -1.863379 1.464746 26.000000
2.126165 -1.886696 1.458752 23.000000
2.128460 -1.933584 1.470987 14.000000
2.081171 -1.935242 1.448973 21.000000
2.085976 -1.985137 1.463101 21.000000
2.070681 -2.016793 1.463577 28.000000
2.055153 -2.048309 1.464027 22.000000
2.042418 -2.082772 1.466500 24.000000
2.016807 -2.104356 1.459976 26.000000
1.991164 -2.125564 1.453366 20.000000
1.994220 -2.180328 1.469431 13.000000
1.964883 -2.197818 1.460460 21.000000
1.944340 -2.224990 1.457953 18.000000
1.925126 -2.256251 1.458242 25.000000
1.903997 -2.282999 1.455600 19.000000
1.896893 -2.326931 1.463900 21.000000
1.887500 -2.371794 1.472524 28.000000
1.879089 -2.415942 1.480444 17.000000
1.865626 -2.457538 1.486626 10.000000
1.763001 -2.379640 1.421348 10.000000
1.698455 -2.346176 1.383803 10.000000
1.643646 -2.326967 1.355568 14.000000
1.565489 -2.268791 1.305521 12.000000
1.509965 -2.243504 1.275458 10.000000
1.452770 -2.213388 1.243357 16.000000
1.401455 -2.189811 1.215598 10.000000
1.357238 -2.172115 1.191797 10.000000
1.290628 -2.119608 1.149571 10.000000
1.246243 -2.100906 1.126470 10.000000
1.209290 -2.093224 1.109767 15.000000
0.655559 1.131376 0.614945 14.000000
0.688889 1.157742 0.636460 15.000000
0.675766 1.106292 0.615244 10.000000
0.695219 1.108961 0.623932 21.000000
0.704199 1.096494 0.624250 17.000000
0.716282 1.087366 0.626455 20.000000
0.727527 1.078502 0.628880 21.000000
0.742081 1.072720 0.633224 15.000000
0.761784 1.074116 0.641921 23.000000
0.772961 1.064682 0.644291 18.000000
0.779452 1.047513 0.641980 12.000000
0.790419 1.037833 0.644244 28.000000
0.799208 1.024133 0.644066 26.000000
0.815591 1.021216 0.650735 25.000000
0.829830 1.014162 0.654931 29.000000
0.840515 1.003924 0.657122 26.000000
0.856966 1.000288 0.663768 27.000000
0.874060 0.995967 0.670171 24.000000
0.902536 1.005084 0.685883 11.000000
0.901161 0.980774 0.678882 35.000000
0.911654 0.969597 0.680981 30.000000
0.934346 0.971102 0.692125 33.000000
0.950984 0.965877 0.698741 35.000000
0.958257 0.950928 0.698398 28.000000
0.974880 0.945231 0.704954 34.000000
0.985106 0.933091 0.706869 30.000000
1.014705 0.938914 0.722633 18.000000
1.011800 0.914469 0.715248 28.000000
1.025081 0.904802 0.719362 31.000000
1.044983 0.900732 0.728108 32.000000
1.064980 0.896271 0.736887 32.000000
1.074353 0.883390 0.738858 32.000000
1.094387 0.878265 0.747593 45.000000
1.100135 0.862298 0.747177 35.000000
1.141169 0.872653 0.769982 21.000000
1.143364 0.853506 0.767137 36.000000
1.149298 0.836677 0.766248 34.000000
1.165390 0.827774 0.772778 38.000000
1.192282 0.826057 0.786429 36.000000
1.215653 0.821342 0.797643 42.000000
1.224928 0.806154 0.799019 53.000000
1.252059 0.803015 0.812584 35.000000
1.268187 0.792350 0.818939 25.000000
1.287638 0.783994 0.828033 44.000000
1.318802 0.781593 0.843971 42.000000
1.331139 0.767598 0.847829 36.000000
1.347181 0.755544 0.854006 49.000000
1.351260 0.737183 0.853252 34.000000
1.378734 0.730821 0.866679 36.000000
1.386469 0.714098 0.868205 37.000000
1.425336 0.712946 0.889164 29.000000
1.448670 0.703305 0.900372 36.000000
1.464107 0.689398 0.906611 36.000000
1.487389 0.678864 0.917702 35.000000
1.506728 0.666068 0.926312 35.000000
1.534022 0.656236 0.939792 35.000000
1.553223 0.642587 0.948273 36.000000
1.576163 0.630322 0.959528 36.000000
1.587185 0.612668 0.963002 25.000000
1.614067 0.601106 0.976586 38.000000
1.645025 0.590401 0.992609 57.000000
1.651343 0.570526 0.993775 35.000000
1.706954 0.566963 1.024450 52.000000
1.729633 0.551584 1.035369 37.000000
1.751980 0.535871 1.046565 35.000000
1.782833 0.521938 1.062228 36.000000
1.796675 0.502856 1.068307 25.000000
1.848154 0.493514 1.096646 36.000000
1.878619 0.477584 1.112521 35.000000
1.900592 0.459010 1.123302 34.000000
1.934843 0.443003 1.141925 37.000000
1.956605 0.423256 1.152533 37.000000
2.003494 0.408362 1.178415 37.000000
2.029011 0.388378 1.191699 33.000000
2.067259 0.370026 1.212426 26.000000
2.096804 0.349355 1.228024 35.000000
2.134775 0.329387 1.248566 54.000000
2.163834 0.307380 1.264349 37.000000
2.209904 0.286984 1.290015 39.000000
2.260156 0.265986 1.318130 42.000000
2.293081 0.241955 1.336079 50.000000
2.321526 0.216797 1.351448 32.000000
2.388246 0.194174 1.389649 31.000000
2.433248 0.168505 1.415164 33.000000
2.469508 0.141219 1.435586 33.000000
2.509782 0.113299 1.458351 33.000000
2.580083 0.085447 1.498512 35.000000
2.628271 0.055479 1.526494 32.000000
2.680524 0.024408 1.556811 32.000000
2.728178 -0.007895 1.584432 32.000000
2.797157 -0.041662 1.624411 32.000000
2.861501 -0.076972 1.661768 31.000000
2.920882 -0.113671 1.696911 28.000000
2.927972 -0.149182 1.701828 34.000000
2.904633 -0.182997 1.688970 35.000000
2.915415 -0.218780 1.695983 32.000000
2.908733 -0.253372 1.692753 33.000000
2.853987 -0.283264 1.662356 32.000000
2.850649 -0.317458 1.661850 33.000000
2.842713 -0.351223 1.658737 35.000000
2.825909 -0.383518 1.650416 34.000000
2.830249 -0.418672 1.654416 36.000000
2.803936 -0.449338 1.641301 32.000000
2.803097 -0.483707 1.643001 33.000000
2.772034 -0.512666 1.627103 25.000000
2.766372 -0.545944 1.626010 32.000000
2.768793 -0.580901 1.629710 36.000000
2.757888 -0.613339 1.626418 36.000000
2.734343 -0.642404 1.614858 34.000000
2.706083 -0.670021 1.601221 34.000000
2.694429 -0.701502 1.597457 34.000000
2.674135 -0.730400 1.588530 31.000000
2.645181 -0.756512 1.574552 20.000000
2.644889 -0.791021 1.578257 32.000000
2.644639 -0.825245 1.581371 32.000000
2.635391 -0.857079 1.579911 37.000000
2.609291 -0.883339 1.568361 31.000000
2.603620 -0.916126 1.569090 33.000000
2.593543 -0.947423 1.567249 33.000000
2.583176 -0.978622 1.565215 30.000000
2.535579 -0.995605 1.541502 19.000000
2.528818 -1.027715 1.541764 35.000000
2.505198 -1.053267 1.532578 31.000000
2.513370 -1.092227 1.542843 35.000000
2.497300 -1.120867 1.538378 36.000000
2.492757 -1.154718 1.541066 33.000000
2.476131 -1.182926 1.536316 35.000000
2.459258 -1.210847 1.531478 27.000000
2.422664 -1.228606 1.514284 16.000000
2.432618 -1.269875 1.526208 34.000000
2.418245 -1.299581 1.524004 34.000000
2.408082 -1.330636 1.523551 36.000000
2.381792 -1.353519 1.513897 34.000000
2.378042 -1.389182 1.518561 34.000000
2.362589 -1.418072 1.515969 36.000000
2.332687 -1.437092 1.502991 29.000000
2.313149 -1.463071 1.497729 12.000000
2.319145 -1.505401 1.509151 33.000000
2.301842 -1.534145 1.506651 30.000000
2.274329 -1.554584 1.496320 32.000000
2.282597 -1.599705 1.509736 28.000000
2.251085 -1.617009 1.496750 16.000000
2.257532 -1.663066 1.510464 26.000000
2.229100 -1.682321 1.499771 28.000000
2.178860 -1.685524 1.475430 10.000000
2.185133 -1.730922 1.488193 35.000000
2.172603 -1.763390 1.489614 29.000000
2.160727 -1.795058 1.490237 32.000000
2.144199 -1.824513 1.489178 29.000000
2.127413 -1.853759 1.487816 28.000000
2.129988 -1.900573 1.500499 32.000000
2.089406 -1.908829 1.482738 25.000000
2.081489 -1.946582 1.488095 13.000000
2.088935 -1.999695 1.504944 30.000000
2.067147 -2.025362 1.500766 28.000000
2.051434 -2.056923 1.501178 30.000000
2.016670 -2.069336 1.487732 27.000000
2.012664 -2.113362 1.497061 27.000000
1.995908 -2.144504 1.497107 30.000000
1.966919 -2.162310 1.488052 23.000000
1.958511 -2.202896 1.494754 10.000000
1.936423 -2.231078 1.492773 29.000000
1.915473 -2.258121 1.490273 24.000000
1.902908 -2.295255 1.494277 28.000000
1.891025 -2.336763 1.501069 27.000000
1.871765 -2.366857 1.500395 25.000000
1.861554 -2.411896 1.509082 29.000000
1.836133 -2.434515 1.503790 18.000000
1.792884 -2.436174 1.485791 15.000000
1.717456 -2.388787 1.438609 18.000000
1.644307 -2.344330 1.394409 16.000000
1.582501 -2.313340 1.359200 17.000000
1.505919 -2.254009 1.308424 15.000000
1.463622 -2.246684 1.288670 15.000000
1.401559 -2.203674 1.249069 18.000000
1.350924 -2.179402 1.221006 14.000000
1.300964 -2.154193 1.192940 9.000000
1.254070 -2.131961 1.167183 15.000000
0.648548 1.129127 0.626411 25.000000
0.665691 1.128282 0.633099 17.000000
0.680588 1.123293 0.637592 13.000000
0.683525 1.099072 0.631143 22.000000
0.699689 1.098032 0.638048 25.000000
0.711902 1.088872 0.640305 27.000000
0.720692 1.076209 0.640566 23.000000
0.737713 1.074155 0.647175 27.000000
0.748902 1.064919 0.649617 28.000000
0.766031 1.062402 0.656228 21.000000
0.769162 1.042055 0.651854 22.000000
0.775459 1.024893 0.649380 25.000000
0.791685 1.022275 0.656190 26.000000
0.816994 1.029412 0.669530 33.000000
0.822274 1.012329 0.667271 29.000000
0.838645 1.008886 0.674031 35.000000
0.844271 0.991271 0.671384 36.000000
0.866446 0.994109 0.682725 30.000000
0.880004 0.986588 0.687161 24.000000
0.893542 0.978858 0.691611 31.000000
0.913060 0.977436 0.700670 36.000000
0.926624 0.969206 0.705070 45.000000
0.940166 0.960762 0.709438 42.000000
0.956764 0.955269 0.716114 52.000000
0.970290 0.946399 0.720421 36.000000
0.980549 0.934266 0.722389 42.000000
0.993941 0.924996 0.726622 24.000000
1.007258 0.915505 0.730867 26.000000
1.023838 0.908760 0.737448 34.000000
1.043776 0.904542 0.746334 47.000000
1.056569 0.894685 0.750778 32.000000
1.069808 0.884266 0.754897 44.000000
1.082529 0.873956 0.759270 34.000000
1.092203 0.860364 0.760914 32.000000
1.111670 0.855029 0.770019 25.000000
1.121240 0.841064 0.771582 30.000000
1.147835 0.840271 0.785473 40.000000
1.160370 0.828729 0.789680 34.000000
1.187157 0.826944 0.803560 36.000000
1.203273 0.817256 0.810143 61.000000
1.219344 0.807290 0.816644 35.000000
1.231750 0.794626 0.820723 30.000000
1.251438 0.786410 0.829602 29.000000
1.278610 0.782367 0.843413 35.000000
1.302133 0.775481 0.854707 56.000000
1.325693 0.768120 0.865981 63.000000
1.337593 0.754197 0.870165 35.000000
1.345888 0.737661 0.871458 47.000000
1.376707 0.733546 0.887914 54.000000
1.380684 0.714787 0.886970 34.000000
1.399966 0.703811 0.895890 27.000000
1.430906 0.698149 0.912236 32.000000
1.450168 0.686241 0.921104 32.000000
1.473378 0.675741 0.932375 35.000000
1.504495 0.668259 0.948608 29.000000
1.523678 0.654950 0.957325 35.000000
1.550555 0.644851 0.971302 35.000000
1.561674 0.627400 0.974874 27.000000
1.580417 0.613158 0.983768 32.000000
1.599082 0.598563 0.992563 35.000000
1.617664 0.583494 1.001255 30.000000
1.644382 0.570900 1.015002 52.000000
1.671010 0.557750 1.028654 36.000000
1.705821 0.546613 1.047252 35.000000
1.736265 0.533573 1.063678 34.000000
1.750452 0.514873 1.069505 28.000000
1.805685 0.507708 1.100974 30.000000
1.831879 0.491388 1.114636 35.000000
1.858060 0.474496 1.128253 35.000000
1.883812 0.457237 1.142097 32.000000
1.914009 0.440164 1.158091 36.000000
1.935361 0.420721 1.169302 30.000000
1.990602 0.407498 1.200310 35.000000
2.011829 0.386692 1.211281 26.000000
2.054012 0.369212 1.234923 30.000000
2.083169 0.348756 1.251175 35.000000
2.108242 0.326802 1.264446 33.000000
2.149887 0.306841 1.288160 31.000000
2.204129 0.287547 1.319401 37.000000
2.237010 0.264495 1.337825 35.000000
2.278279 0.241548 1.361209 35.000000
2.289440 0.214780 1.366562 25.000000
2.355812 0.192436 1.405548 28.000000
2.413385 0.167862 1.439200 33.000000
2.453623 0.140958 1.462556 32.000000
2.485152 0.112733 1.480542 30.000000
2.563595 0.085265 1.526569 33.000000
2.602889 0.055204 1.549953 32.000000
2.646217 0.024156 1.575718 27.000000
2.715046 -0.007908 1.616645 29.000000
2.787879 -0.041790 1.660032 28.000000
2.851808 -0.077103 1.697994 29.000000
2.902109 -0.113568 1.728784 29.000000
2.922119 -0.149634 1.741363 32.000000
2.915961 -0.184589 1.738495 36.000000
2.905315 -0.219117 1.732864 31.000000
2.851455 -0.249587 1.701584 25.000000
2.848406 -0.284038 1.701280 33.000000
2.840780 -0.317908 1.698218 30.000000
2.824329 -0.350617 1.689951 32.000000
2.824649 -0.385239 1.691694 35.000000
2.803384 -0.416702 1.680482 29.000000
2.785718 -0.448538 1.672231 31.000000
2.776674 -0.481235 1.668383 29.000000
2.750122 -0.510887 1.654755 23.000000
2.757036 -0.546525 1.661296 33.000000
2.733809 -0.576352 1.650426 33.000000
2.723269 -0.608390 1.646499 32.000000
2.712057 -0.640326 1.642971 33.000000
2.684339 -0.667705 1.628511 30.000000
2.672724 -0.699040 1.624703 29.000000
2.681529 -0.735880 1.633365 32.000000
2.623720 -0.753967 1.601431 24.000000
2.631552 -0.790807 1.610384 30.000000
2.618881 -0.821105 1.606012 33.000000
2.605461 -0.851595 1.602034 29.000000
2.600054 -0.884476 1.602907 34.000000
2.586082 -0.914576 1.598740 31.000000
2.567892 -0.942893 1.591772 29.000000
2.557557 -0.973898 1.589841 30.000000
2.530838 -0.998361 1.577683 26.000000
2.515411 -1.027629 1.573450 33.000000
2.516355 -1.062964 1.578559 35.000000
2.504416 -1.093582 1.576633 31.000000
2.488238 -1.122322 1.572116 36.000000
2.479671 -1.154336 1.572397 31.000000
2.455233 -1.178841 1.562621 29.000000
2.461645 -1.218266 1.572551 30.000000
2.413506 -1.230366 1.547717 27.000000
2.411715 -1.265557 1.552384 33.000000
2.401762 -1.296802 1.552081 35.000000
2.387197 -1.326221 1.549781 35.000000
2.372919 -1.354968 1.546810 36.000000
2.350270 -1.379691 1.539305 33.000000
2.334891 -1.408443 1.536631 31.000000
2.341455 -1.450776 1.548658 32.000000
2.303274 -1.465373 1.531090 27.000000
2.290785 -1.495937 1.530475 32.000000
2.274425 -1.523873 1.527413 33.000000
2.254081 -1.549144 1.521825 32.000000
2.255139 -1.589150 1.530610 34.000000
2.241451 -1.619153 1.529661 22.000000
2.234554 -1.654163 1.533337 23.000000
2.226224 -1.689820 1.537563 30.000000
2.180429 -1.695259 1.514534 27.000000
2.178549 -1.736037 1.523357 34.000000
2.163444 -1.765168 1.521777 33.000000
2.150485 -1.797588 1.523155 32.000000
2.148206 -1.837774 1.530873 42.000000
2.127799 -1.864461 1.527243 34.000000
2.103918 -1.887815 1.521145 31.000000
2.092786 -1.922816 1.524415 32.000000
2.065202 -1.942657 1.515763 21.000000
2.059706 -1.983472 1.523496 33.000000
2.060068 -2.030584 1.535756 34.000000
2.028546 -2.046653 1.524444 33.000000
2.009338 -2.074801 1.522398 35.000000
1.995947 -2.109258 1.524988 31.000000
1.979141 -2.140388 1.525119 31.000000
1.967939 -2.177844 1.529744 30.000000
1.935692 -2.192209 1.518085 22.000000
1.923768 -2.229390 1.522444 32.000000
1.901239 -2.257373 1.520485 35.000000
1.894087 -2.301387 1.529214 32.000000
1.877922 -2.335105 1.530927 35.000000
1.859784 -2.369548 1.533110 32.000000
1.848185 -2.410143 1.539150 30.000000
1.829086 -2.444557 1.541129 25.000000
1.769034 -2.420212 1.506412 10.000000
1.702761 -2.388230 1.468032 21.000000
1.626586 -2.335798 1.418035 19.000000
1.580253 -2.327019 1.395502 22.000000
1.511410 -2.279216 1.350291 24.000000
1.456676 -2.253450 1.319166 21.000000
1.397364 -2.214361 1.281095 21.000000
1.346647 -2.190298 1.252385 23.000000
1.280516 -2.138280 1.208578 10.000000
1.240716 -2.127704 1.188967 20.000000
0.660894 1.129753 0.646815 27.000000
0.659621 1.097898 0.635837 10.000000
0.682742 1.108567 0.649528 18.000000
0.692741 1.095686 0.649597 28.000000
0.700093 1.079033 0.647402 18.000000
0.723603 1.088735 0.661146 26.000000
0.730741 1.071846 0.658853 29.000000
0.744481 1.066262 0.663567 22.000000
0.764193 1.067313 0.672591 27.000000
0.759630 1.036124 0.661292 10.000000
0.781187 1.040763 0.672814 29.000000
0.792901 1.030525 0.674916 36.000000
0.801066 1.017027 0.674885 27.000000
0.825705 1.024155 0.688752 34.000000
0.826030 0.999721 0.681443 30.000000
0.839481 0.992681 0.686012 26.000000
0.858742 0.992115 0.695187 32.000000
0.869347 0.981329 0.697363 13.000000
0.894673 0.986698 0.711269 33.000000
0.902274 0.972224 0.711026 51.000000
0.924876 0.973602 0.722616 33.000000
0.938460 0.965121 0.727039 55.000000
0.948919 0.953262 0.729094 34.000000
0.968690 0.950537 0.738269 35.000000
0.975847 0.935289 0.737854 52.000000
0.979643 0.916982 0.734977 21.000000
1.005853 0.919437 0.748885 33.000000
1.015391 0.907099 0.751020 34.000000
1.028654 0.897162 0.755244 29.000000
1.048542 0.892715 0.764284 36.000000
1.061273 0.882626 0.768784 35.000000
1.081230 0.877474 0.777786 34.000000
1.087060 0.861428 0.777289 35.000000
1.120312 0.866703 0.796383 21.000000
1.123028 0.847323 0.793059 34.000000
1.142612 0.841165 0.802266 52.000000
1.148083 0.824551 0.801590 35.000000
1.160470 0.812811 0.805797 53.000000
1.194331 0.815630 0.824878 39.000000
1.206785 0.803198 0.828986 33.000000
1.230057 0.797706 0.840565 45.000000
1.231443 0.777810 0.837180 17.000000
1.265786 0.778418 0.856139 36.000000
1.277612 0.765203 0.860472 36.000000
1.297279 0.755886 0.869406 30.000000
1.324028 0.750664 0.883652 35.000000
1.339924 0.738400 0.889969 48.000000
1.351563 0.724019 0.894109 36.000000
1.370796 0.713422 0.903249 45.000000
1.386145 0.700488 0.909778 17.000000
1.405340 0.689155 0.918799 35.000000
1.440005 0.684886 0.937872 35.000000
1.459194 0.672568 0.946843 30.000000
1.494058 0.666867 0.965829 33.000000
1.516816 0.655547 0.977578 34.000000
1.539958 0.643489 0.988886 32.000000
1.558726 0.629552 0.997964 32.000000
1.581724 0.616524 1.009198 14.000000
1.592314 0.598749 1.013022 34.000000
1.610892 0.583681 1.021853 37.000000
1.637120 0.571269 1.036199 37.000000
1.651481 0.553963 1.042382 35.000000
1.706544 0.549480 1.074148 45.000000
1.720477 0.531281 1.080505 32.000000
1.746601 0.516464 1.094601 34.000000
1.793605 0.506646 1.121020 21.000000
1.819659 0.490381 1.134912 30.000000
1.845362 0.473750 1.149167 35.000000
1.867156 0.455262 1.160250 35.000000
1.897106 0.438226 1.176518 32.000000
1.926766 0.420722 1.193018 34.000000
1.947954 0.400745 1.204292 31.000000
1.989923 0.384416 1.228396 27.000000
2.036114 0.367786 1.255050 29.000000
2.065393 0.347298 1.271207 32.000000
2.102609 0.327512 1.292873 45.000000
2.140092 0.306753 1.313951 36.000000
2.185615 0.286360 1.340548 31.000000
2.222538 0.263855 1.361891 36.000000
2.258987 0.240608 1.383577 34.000000
2.299844 0.216776 1.407231 28.000000
2.336031 0.191667 1.428626 28.000000
2.393577 0.167221 1.462455 30.000000
2.433302 0.140450 1.486660 29.000000
2.481599 0.113050 1.515477 33.000000
2.546833 0.085083 1.554445 30.000000
2.577249 0.054929 1.573040 28.000000
2.633096 0.024196 1.607085 29.000000
2.684403 -0.007870 1.638437 24.000000
2.765292 -0.041627 1.687731 30.000000
2.833064 -0.077002 1.729099 29.000000
2.883129 -0.113361 1.760348 26.000000
2.907158 -0.149541 1.775868 32.000000
2.888659 -0.183632 1.764521 32.000000
2.890433 -0.219026 1.767228 30.000000
2.858174 -0.251426 1.748291 23.000000
2.846600 -0.285233 1.742883 30.000000
2.822414 -0.317198 1.728760 31.000000
2.814523 -0.350865 1.725553 33.000000
2.793640 -0.382690 1.714352 31.000000
2.793233 -0.417260 1.716546 35.000000
2.767600 -0.447637 1.702461 32.000000
2.766606 -0.481903 1.704254 31.000000
2.731674 -0.509995 1.685204 23.000000
2.717534 -0.541450 1.678931 29.000000
2.724155 -0.577035 1.685511 34.000000
2.701098 -0.606168 1.673773 32.000000
2.685761 -0.637067 1.667615 33.000000
2.674325 -0.668704 1.663948 34.000000
2.654825 -0.697670 1.654241 32.000000
2.642969 -0.728809 1.650293 27.000000
2.601542 -0.751619 1.628700 18.000000
2.613765 -0.789252 1.639836 32.000000
2.605211 -0.820841 1.637892 31.000000
2.604030 -0.855302 1.641669 35.000000
2.574077 -0.880147 1.627276 29.000000
2.572881 -0.914075 1.629983 33.000000
2.558662 -0.943838 1.625579 31.000000
2.536255 -0.970334 1.615970 23.000000
2.493105 -0.988806 1.593992 24.000000
2.510193 -1.030420 1.609562 33.000000
2.494583 -1.059549 1.605281 31.000000
2.487085 -1.091367 1.605229 33.000000
2.474857 -1.121889 1.603208 30.000000
2.462340 -1.152122 1.600993 32.000000
2.449535 -1.182162 1.598682 32.000000
2.432675 -1.210185 1.593745 24.000000
2.392527 -1.226018 1.573470 24.000000
2.394398 -1.263261 1.580894 33.000000
2.380621 -1.292346 1.578024 35.000000
2.377304 -1.328137 1.583267 45.000000
2.347977 -1.348265 1.570253 32.000000
2.344065 -1.383904 1.575187 36.000000
2.325582 -1.409972 1.569425 36.000000
2.313545 -1.440914 1.569141 26.000000
2.282906 -1.459980 1.556301 24.000000
2.274042 -1.492875 1.558220 31.000000
2.257586 -1.520812 1.555158 33.000000
2.244514 -1.550931 1.554380 34.000000
2.245288 -1.591000 1.563472 29.000000
2.231518 -1.621084 1.562459 23.000000
2.206927 -1.643165 1.553962 20.000000
2.195144 -1.676033 1.555881 22.000000
2.173716 -1.700144 1.549563 29.000000
2.162368 -1.732162 1.550681 32.000000
2.153016 -1.767409 1.554599 34.000000
2.140918 -1.799219 1.555371 34.000000
2.127428 -1.831683 1.556607 34.000000
2.106954 -1.858230 1.552885 34.000000
2.080957 -1.877832 1.543750 31.000000
2.066594 -1.909758 1.544656 25.000000
2.045532 -1.935522 1.540737 26.000000
2.043094 -1.979319 1.550984 32.000000
2.021342 -2.004730 1.546831 31.000000
2.014818 -2.045507 1.554482 33.000000
1.998601 -2.076958 1.554845 29.000000
1.979031 -2.105054 1.552715 31.000000
1.959090 -2.132824 1.550470 29.000000
1.944873 -2.167035 1.552817 24.000000
1.921509 -2.191205 1.548083 24.000000
1.912220 -2.231853 1.554941 29.000000
1.896791 -2.265773 1.556961 35.000000
1.879406 -2.300419 1.559448 33.000000
1.865891 -2.337616 1.563595 30.000000
1.846420 -2.367785 1.562856 32.000000
1.830312 -2.405675 1.567310 29.000000
1.818000 -2.446261 1.573374 21.000000
1.750346 -2.411288 1.531259 10.000000
1.687146 -2.383025 1.494358 15.000000
1.634152 -2.363635 1.463985 22.000000
1.560224 -2.314545 1.416084 19.000000
1.506612 -2.289196 1.383692 21.000000
1.451998 -2.263654 1.351965 24.000000
1.386179 -2.218119 1.309145 21.000000
1.344420 -2.204866 1.286223 15.000000
1.280798 -2.156995 1.243799 13.000000
0.689149 1.156831 0.683251 10.000000
0.673360 1.102324 0.658713 17.000000
0.683297 1.089527 0.658778 15.000000
0.704289 1.095710 0.670445 19.000000
0.711692 1.078861 0.668177 21.000000
0.727895 1.077156 0.675318 17.000000
0.742492 1.071097 0.679866 26.000000
0.751188 1.058021 0.680012 20.000000
0.791728 1.087397 0.707815 14.000000
0.774123 1.038349 0.684573 27.000000
0.782442 1.024958 0.684598 22.000000
0.799465 1.021571 0.691395 27.000000
0.810321 1.011432 0.693683 33.000000
0.823881 1.004520 0.698338 23.000000
0.843081 1.004140 0.707714 28.000000
0.848082 0.986787 0.705177 27.000000
0.881904 1.002371 0.726462 20.000000
0.883857 0.981410 0.721498 25.000000
0.891449 0.966934 0.721252 27.000000
0.916964 0.971555 0.735414 29.000000
0.921400 0.953579 0.732672 32.000000
0.937907 0.948099 0.739556 29.000000
0.954456 0.942324 0.746420 35.000000
0.964715 0.930191 0.748387 29.000000
0.997157 0.938895 0.767464 30.000000
0.997263 0.917729 0.762314 21.000000
1.010563 0.907969 0.766670 29.000000
1.023879 0.897984 0.770942 29.000000
1.033288 0.885327 0.773044 31.000000
1.043126 0.872193 0.774811 26.000000
1.069106 0.872976 0.789177 34.000000
1.098721 0.875951 0.806094 24.000000
1.105088 0.859299 0.805233 27.000000
1.128054 0.856070 0.817151 21.000000
1.112842 0.824023 0.801514 29.000000
1.132245 0.817751 0.810802 32.000000
1.172811 0.826049 0.835218 32.000000
1.192456 0.818791 0.844503 29.000000
1.204937 0.806316 0.848716 35.000000
1.220928 0.795952 0.855418 27.000000
1.244196 0.789977 0.867159 29.000000
1.248779 0.772474 0.866497 24.000000
1.275696 0.767962 0.880680 32.000000
1.291194 0.756630 0.887576 31.000000
1.303371 0.742562 0.891458 29.000000
1.318714 0.730697 0.898227 28.000000
1.352988 0.728717 0.917779 31.000000
1.383607 0.723934 0.934772 28.000000
1.399027 0.710767 0.941416 27.000000
1.402891 0.691560 0.940292 25.000000
1.422002 0.679780 0.949368 29.000000
1.452720 0.672944 0.966216 25.000000
1.483505 0.665475 0.982935 26.000000
1.510075 0.655844 0.997454 25.000000
1.525241 0.640414 1.003758 24.000000
1.539950 0.624967 1.010370 24.000000
1.562501 0.612323 1.022138 20.000000
1.581015 0.597601 1.031210 25.000000
1.603516 0.584045 1.042786 29.000000
1.617913 0.567153 1.049104 27.000000
1.664131 0.561018 1.076647 28.000000
