x y z intensity
1.425669 1.307338 0.867461 54.000000
1.433497 1.283785 0.865430 24.000000
1.460930 1.278728 0.875973 32.000000
1.467657 1.255386 0.874189 35.000000
1.491594 1.246611 0.882655 35.000000
1.501491 1.225881 0.882798 40.000000
1.521798 1.213611 0.889098 49.000000
1.534925 1.195456 0.891253 37.000000
1.558771 1.185290 0.899539 55.000000
1.560656 1.158492 0.895302 23.000000
1.576936 1.142477 0.899358 34.000000
1.593078 1.126178 0.903357 62.000000
1.612881 1.112168 0.909404 48.000000
1.632069 1.098311 0.915800 52.000000
1.651699 1.083680 0.921816 43.000000
1.667423 1.066228 0.925598 39.000000
1.686442 1.051414 0.931843 60.000000
1.713502 1.040512 0.941956 27.000000
1.720695 1.017998 0.941718 50.000000
1.727636 0.995372 0.941405 85.000000
1.765928 0.990391 0.958125 42.000000
1.784454 0.973801 0.964119 69.000000
1.802938 0.956886 0.970128 73.000000
1.813283 0.935505 0.971714 37.000000
1.835524 0.919984 0.979691 52.000000
1.869858 0.910028 0.994088 29.000000
1.871621 0.883948 0.991175 35.000000
1.885034 0.863834 0.995019 62.000000
1.902747 0.845031 1.000615 35.000000
1.919976 0.826245 1.006504 35.000000
1.949610 0.812248 1.018853 45.000000
1.962445 0.790959 1.022459 35.000000
1.987681 0.774329 1.032463 36.000000
1.996071 0.750895 1.033765 35.000000
2.016856 0.731847 1.041472 38.000000
2.041769 0.713911 1.051307 71.000000
2.057776 0.692853 1.057078 45.000000
2.078196 0.672610 1.064534 62.000000
2.093897 0.650880 1.070106 56.000000
2.139566 0.637782 1.090979 39.000000
2.155029 0.615070 1.096436 37.000000
2.178981 0.594442 1.106146 37.000000
2.193887 0.571146 1.111777 37.000000
2.213121 0.548494 1.119156 62.000000
2.240774 0.527669 1.131111 59.000000
2.281363 0.509187 1.149704 38.000000
2.277990 0.480544 1.146083 42.000000
2.322729 0.461645 1.166682 48.000000
2.336299 0.436060 1.172072 35.000000
2.380578 0.415666 1.192797 34.000000
2.393951 0.389058 1.197636 42.000000
2.415560 0.363744 1.207489 61.000000
2.441666 0.338463 1.219070 89.000000
2.454166 0.310887 1.223840 44.000000
2.475089 0.284210 1.233303 53.000000
2.513714 0.258867 1.251564 50.000000
2.529767 0.230569 1.258568 35.000000
2.563451 0.203373 1.274368 35.000000
2.592193 0.175232 1.288132 52.000000
2.620708 0.146285 1.301815 40.000000
2.671360 0.117786 1.326525 54.000000
2.694927 0.087173 1.337635 37.000000
2.713574 0.056036 1.346893 42.000000
2.749771 0.024547 1.364861 57.000000
2.758822 -0.007708 1.369307 30.000000
2.780931 -0.040272 1.380326 36.000000
2.793889 -0.073220 1.386614 33.000000
2.833123 -0.107503 1.406613 35.000000
2.885454 -0.143298 1.433082 34.000000
2.906136 -0.178429 1.443893 31.000000
2.971069 -0.217351 1.476707 30.000000
2.977359 -0.252914 1.480944 19.000000
3.032379 -0.293433 1.509393 32.000000
3.064590 -0.332788 1.526626 34.000000
3.127650 -0.376622 1.559159 35.000000
3.158686 -0.418012 1.576468 31.000000
3.229322 -0.465997 1.613495 36.000000
3.250898 -0.507806 1.625561 34.000000
3.302320 -0.555668 1.653895 32.000000
3.278515 -0.591126 1.643906 25.000000
3.214803 -0.618321 1.613806 32.000000
3.190208 -0.652487 1.604077 32.000000
3.187281 -0.690881 1.605177 34.000000
3.162132 -0.724147 1.595132 31.000000
3.149716 -0.760052 1.591604 34.000000
3.123721 -0.792762 1.581800 32.000000
3.080357 -0.819897 1.562442 29.000000
2.997614 -0.835584 1.523762 17.000000
3.018494 -0.879593 1.537766 32.000000
2.982984 -0.907105 1.523102 32.000000
2.964357 -0.939230 1.517023 32.000000
2.949529 -0.972879 1.513566 32.000000
2.921867 -1.001421 1.502917 32.000000
2.902177 -1.032893 1.496974 33.000000
2.882136 -1.063853 1.490936 28.000000
2.824131 -1.080146 1.465181 23.000000
2.808052 -1.111610 1.461157 30.000000
2.791598 -1.142873 1.457037 31.000000
2.770830 -1.172078 1.450649 35.000000
2.745601 -1.199082 1.441902 33.000000
2.732105 -1.231553 1.440177 35.000000
2.702459 -1.255815 1.429094 33.000000
2.676237 -1.281943 1.420600 25.000000
2.649843 -1.307581 1.412124 25.000000
2.643398 -1.342952 1.414230 36.000000
2.608557 -1.363672 1.401179 32.000000
2.597512 -1.396553 1.400937 46.000000
2.574259 -1.422771 1.394262 34.000000
2.546873 -1.446273 1.385266 36.000000
2.511621 -1.464842 1.371928 32.000000
2.487963 -1.489629 1.365020 28.000000
2.463430 -1.514524 1.358421 25.000000
2.458538 -1.550631 1.361958 32.000000
2.437396 -1.577461 1.357391 33.000000
2.416015 -1.604004 1.352734 36.000000
2.387583 -1.624478 1.343283 32.000000
2.373322 -1.655455 1.342666 36.000000
2.347540 -1.678409 1.335643 35.000000
2.303371 -1.687577 1.318159 24.000000
2.295648 -1.723014 1.321456 27.000000
2.280349 -1.753075 1.320553 29.000000
2.253984 -1.774495 1.313300 21.000000
2.234535 -1.801165 1.310122 22.000000
2.218403 -1.830443 1.309016 32.000000
2.188102 -1.847860 1.299443 35.000000
2.161149 -1.867721 1.291963 36.000000
2.147791 -1.899208 1.292629 26.000000
2.112770 -1.913071 1.281357 25.000000
2.088823 -1.934766 1.275784 32.000000
2.081323 -1.971891 1.280320 35.000000
2.052630 -1.990733 1.272995 33.000000
2.028084 -2.011585 1.267147 29.000000
2.021525 -2.052480 1.273920 41.000000
1.993451 -2.069537 1.265947 32.000000
1.970358 -2.093685 1.262401 27.000000
1.942017 -2.110037 1.254369 27.000000
1.915455 -2.130127 1.248741 30.000000
1.897858 -2.160096 1.249006 31.000000
1.881165 -2.189253 1.248767 35.000000
1.850978 -2.204967 1.240969 29.000000
1.835321 -2.238011 1.243062 35.000000
1.814934 -2.262938 1.240606 31.000000
1.781486 -2.274028 1.230683 25.000000
1.762070 -2.302899 1.230565 21.000000
1.742205 -2.331619 1.230325 24.000000
1.730230 -2.371351 1.235879 32.000000
1.706856 -2.396102 1.233535 31.000000
1.684961 -2.419651 1.230594 29.000000
1.648058 -2.424755 1.218530 10.000000
1.583206 -2.387060 1.185489 16.000000
1.509470 -2.332525 1.144941 16.000000
1.213455 -1.970749 0.945358 10.000000
1.144336 -1.906055 0.904101 19.000000
1.051042 -1.796041 0.842423 22.000000
1.026853 -1.800796 0.835328 25.000000
0.971631 1.745046 0.822327 16.000000
0.988322 1.728775 0.823646 25.000000
1.004794 1.712363 0.825015 20.000000
1.020983 1.695747 0.826239 16.000000
1.039377 1.682982 0.829446 26.000000
1.062571 1.677806 0.836470 10.000000
1.075773 1.656863 0.835665 26.000000
1.073378 1.612797 0.823101 29.000000
1.106463 1.622230 0.837894 21.000000
1.121552 1.604715 0.838856 29.000000
1.133755 1.583271 0.837830 22.000000
1.158065 1.580922 0.847015 22.000000
1.164386 1.551912 0.841921 28.000000
1.192533 1.551993 0.852749 13.000000
1.203873 1.530003 0.851479 30.000000
1.205347 1.497903 0.844537 26.000000
1.230544 1.493564 0.853216 27.000000
1.244055 1.474836 0.853839 33.000000
1.265349 1.466946 0.860862 28.000000
1.278501 1.447866 0.861413 29.000000
1.291512 1.428667 0.861824 31.000000
1.325026 1.433437 0.876951 18.000000
1.331497 1.407112 0.873268 34.000000
1.346348 1.391224 0.875992 33.000000
1.364206 1.378377 0.880718 35.000000
1.366593 1.348757 0.874766 35.000000
1.387433 1.338716 0.881500 32.000000
1.415673 1.334039 0.892037 35.000000
1.413141 1.301673 0.884068 35.000000
1.447325 1.302985 0.899096 24.000000
1.447643 1.273651 0.893112 33.000000
1.461262 1.256271 0.895447 30.000000
1.485226 1.247441 0.904053 33.000000
1.491676 1.223866 0.902104 35.000000
1.504871 1.205860 0.904314 33.000000
1.521565 1.190578 0.908587 34.000000
1.541653 1.177695 0.914937 37.000000
1.572601 1.172613 0.927654 25.000000
1.574423 1.145699 0.923214 33.000000
1.583237 1.124078 0.923041 32.000000
1.602466 1.110520 0.929575 35.000000
1.622202 1.096258 0.935667 36.000000
1.645551 1.084098 0.943935 34.000000
1.653229 1.062191 0.943837 34.000000
1.675925 1.049739 0.952341 35.000000
1.679892 1.024752 0.949603 24.000000
1.717912 1.020910 0.966711 34.000000
1.728887 1.000450 0.968608 49.000000
1.755332 0.988750 0.979111 35.000000
1.773811 0.972153 0.985268 36.000000
1.792316 0.955231 0.991302 40.000000
1.802662 0.933850 0.992888 33.000000
1.824832 0.918317 1.001006 33.000000
1.834830 0.896517 1.002463 30.000000
1.872645 0.888386 1.019719 32.000000
1.882374 0.865968 1.021058 33.000000
1.895703 0.845588 1.024893 33.000000
1.917017 0.828456 1.033098 33.000000
1.930038 0.807502 1.036812 29.000000
1.951114 0.789668 1.044835 32.000000
1.972157 0.771396 1.052875 29.000000
1.988831 0.751175 1.058559 22.000000
2.009633 0.732142 1.066412 35.000000
2.025732 0.711401 1.072339 31.000000
2.041969 0.690168 1.077837 32.000000
2.070582 0.673028 1.090281 32.000000
2.103314 0.656571 1.104917 30.000000
2.127432 0.636796 1.115019 33.000000
2.134333 0.611619 1.116081 28.000000
2.132316 0.584006 1.112496 11.000000
2.185877 0.571350 1.138376 31.000000
2.192131 0.545408 1.139149 26.000000
2.250047 0.531943 1.167191 31.000000
2.268722 0.508312 1.174826 32.000000
2.278493 0.482445 1.177877 27.000000
2.296555 0.458302 1.185688 29.000000
2.310289 0.432868 1.190848 25.000000
2.314792 0.405688 1.191652 10.000000
2.371860 0.387044 1.219527 29.000000
2.393605 0.361746 1.229157 29.000000
2.419492 0.336563 1.240977 29.000000
2.427341 0.308695 1.243996 30.000000
2.461515 0.283701 1.260451 29.000000
2.499858 0.258437 1.279017 27.000000
2.533586 0.231847 1.295327 28.000000
2.544908 0.202669 1.300039 10.000000
2.564699 0.173973 1.309643 28.000000
2.615297 0.146605 1.334969 26.000000
2.621183 0.116028 1.337419 21.000000
2.653517 0.086213 1.353314 26.000000
2.689780 0.055759 1.371848 26.000000
2.739141 0.024586 1.397019 24.000000
2.721419 -0.007645 1.387933 29.000000
2.756862 -0.040142 1.406011 27.000000
2.787561 -0.073359 1.421529 27.000000
2.835474 -0.107988 1.446508 30.000000
2.856261 -0.142436 1.457764 27.000000
2.899060 -0.178779 1.480073 29.000000
2.932617 -0.215414 1.497729 24.000000
2.947655 -0.251371 1.506604 14.000000
3.020109 -0.293448 1.544761 29.000000
3.065513 -0.334195 1.569185 26.000000
3.105956 -0.375551 1.591111 27.000000
3.150382 -0.418426 1.615173 29.000000
3.194014 -0.462553 1.639539 27.000000
3.246079 -0.509094 1.668191 31.000000
3.279914 -0.553900 1.687538 23.000000
3.264990 -0.590900 1.681879 21.000000
3.227524 -0.623463 1.665380 26.000000
3.185704 -0.654071 1.645856 26.000000
3.169643 -0.689660 1.640232 27.000000
3.144591 -0.722934 1.629993 26.000000
3.110508 -0.753585 1.615154 24.000000
3.119170 -0.794755 1.623174 29.000000
3.080280 -0.823209 1.605781 24.000000
3.015104 -0.843947 1.575260 10.000000
3.005692 -0.879459 1.573870 29.000000
2.970315 -0.907034 1.558808 26.000000
2.943203 -0.936502 1.548255 29.000000
2.937220 -0.972491 1.548701 28.000000
2.900762 -0.998602 1.533912 24.000000
2.889980 -1.032622 1.531818 28.000000
2.861578 -1.060526 1.521325 23.000000
2.799573 -1.075091 1.492819 10.000000
2.808517 -1.116383 1.502106 29.000000
2.767161 -1.137626 1.484592 29.000000
2.750500 -1.168492 1.480232 26.000000
2.721359 -1.193655 1.469230 27.000000
2.708309 -1.225623 1.466904 29.000000
2.694550 -1.257794 1.464981 28.000000
2.656732 -1.277689 1.449217 22.000000
2.630330 -1.303290 1.440604 10.000000
2.619860 -1.336565 1.440608 32.000000
2.585182 -1.357109 1.427330 27.000000
2.570107 -1.387756 1.424950 29.000000
2.562793 -1.422569 1.426847 32.000000
2.523733 -1.439444 1.411252 27.000000
2.515726 -1.473860 1.412952 31.000000
2.480420 -1.491922 1.399302 26.000000
2.452051 -1.514551 1.390527 10.000000
2.443256 -1.548182 1.391934 28.000000
2.422725 -1.574429 1.386734 27.000000
2.405119 -1.603478 1.384191 31.000000
2.376048 -1.624692 1.375084 28.000000
2.343931 -1.642077 1.363173 28.000000
2.325647 -1.670132 1.360368 28.000000
2.303530 -1.695218 1.355325 26.000000
2.281183 -1.720024 1.350290 12.000000
2.272923 -1.755513 1.353600 30.000000
2.232347 -1.765799 1.337738 16.000000
2.230551 -1.806633 1.345083 14.000000
2.203841 -1.827453 1.337561 32.000000
2.163146 -1.836086 1.321519 24.000000
2.156877 -1.873581 1.326599 29.000000
2.119637 -1.884174 1.312542 22.000000
2.079075 -1.890927 1.296447 10.000000
2.085280 -1.940336 1.309567 31.000000
2.053499 -1.956379 1.300063 24.000000
2.045485 -1.993356 1.304660 29.000000
2.019840 -2.015056 1.299234 29.000000
2.001501 -2.042131 1.297377 26.000000
1.979748 -2.065704 1.293353 30.000000
1.947308 -2.079868 1.283646 21.000000
1.909875 -2.085934 1.269308 10.000000
1.907903 -2.133021 1.279908 29.000000
1.890090 -2.163147 1.280248 25.000000
1.861502 -2.178370 1.271872 28.000000
1.843061 -2.208161 1.272089 28.000000
1.827261 -2.241258 1.274203 24.000000
1.803923 -2.262667 1.269670 27.000000
1.776035 -2.281039 1.263521 19.000000
1.748035 -2.299054 1.257385 10.000000
1.725487 -2.324078 1.255241 26.000000
1.712202 -2.359061 1.258450 19.000000
1.699512 -2.398730 1.263965 27.000000
1.670530 -2.415751 1.257602 26.000000
1.646680 -2.439941 1.255078 10.000000
1.571831 -2.387026 1.213459 10.000000
1.493500 -2.324890 1.168121 9.000000
1.214108 -1.987297 0.975771 10.000000
1.130988 -1.899160 0.922025 10.000000
1.068510 -1.841228 0.883930 15.000000
1.018760 -1.802090 0.855654 21.000000
0.977368 1.721352 0.839056 24.000000
0.996133 1.708951 0.842337 26.000000
1.009982 1.688463 0.841685 29.000000
1.052427 1.714814 0.864625 14.000000
1.036838 1.647192 0.840159 27.000000
1.054760 1.634188 0.843264 29.000000
1.071387 1.621572 0.846693 25.000000
1.086545 1.604258 0.847730 29.000000
1.098881 1.583118 0.846741 23.000000
1.124180 1.580554 0.855751 27.000000
1.138762 1.562820 0.856637 34.000000
1.157628 1.552799 0.861897 19.000000
1.174708 1.538371 0.864744 35.000000
1.185973 1.516498 0.863433 29.000000
1.207380 1.509387 0.870631 33.000000
1.218298 1.487264 0.869293 37.000000
1.237580 1.475620 0.873999 31.000000
1.261892 1.471135 0.883253 45.000000
1.272207 1.448572 0.881694 34.000000
1.293419 1.440064 0.888778 26.000000
1.287893 1.400545 0.876667 42.000000
1.315098 1.398296 0.887812 34.000000
1.333799 1.385233 0.892369 40.000000
1.338944 1.359501 0.888754 62.000000
1.353398 1.343377 0.891387 35.000000
1.381367 1.339149 0.902126 49.000000
1.392350 1.319371 0.902592 36.000000
1.429739 1.324120 0.920058 30.000000
1.427129 1.291663 0.911854 36.000000
1.454504 1.286404 0.922909 31.000000
1.461584 1.262919 0.920968 36.000000
1.482062 1.251105 0.927634 50.000000
1.495578 1.233127 0.929930 34.000000
1.498435 1.206541 0.925658 48.000000
1.518611 1.193994 0.932219 42.000000
1.531638 1.175534 0.934313 32.000000
1.562469 1.170428 0.947256 36.000000
1.575316 1.151488 0.949309 34.000000
1.587369 1.132813 0.951627 38.000000
1.607191 1.118674 0.957941 47.000000
1.622747 1.102102 0.962406 35.000000
1.642365 1.087318 0.968552 48.000000
1.665256 1.075055 0.977329 54.000000
1.669605 1.049982 0.974585 32.000000
1.684637 1.032382 0.978751 36.000000
1.699517 1.014558 0.982927 37.000000
1.710443 0.994257 0.984748 37.000000
1.728955 0.978160 0.991033 56.000000
1.755195 0.966055 1.001670 36.000000
1.781419 0.953506 1.012338 61.000000
1.799693 0.936181 1.018410 46.000000
1.813515 0.916929 1.022597 42.000000
1.835606 0.901031 1.030807 33.000000
1.849489 0.880936 1.034459 35.000000
1.866974 0.862687 1.040655 37.000000
1.880188 0.842352 1.044533 35.000000
1.917836 0.832429 1.061934 36.000000
1.922673 0.807874 1.061169 49.000000
1.951948 0.793337 1.073950 36.000000
1.968826 0.773354 1.079796 31.000000
1.989722 0.754533 1.087855 33.000000
2.014683 0.736871 1.098136 54.000000
2.026601 0.714521 1.101888 52.000000
2.055250 0.697717 1.114709 71.000000
2.062920 0.673070 1.115603 46.000000
2.074310 0.649975 1.119083 52.000000
2.102606 0.631747 1.131656 60.000000
2.117703 0.609404 1.137600 35.000000
2.149984 0.591269 1.152281 36.000000
2.164779 0.568169 1.158102 56.000000
2.183931 0.545557 1.165691 37.000000
2.211250 0.524844 1.178203 35.000000
2.229865 0.501594 1.185971 45.000000
2.247992 0.478037 1.194065 38.000000
2.274878 0.455758 1.206229 62.000000
2.301379 0.432964 1.218728 30.000000
2.323360 0.408887 1.228773 34.000000
2.349539 0.384953 1.241059 44.000000
2.379933 0.361166 1.255505 69.000000
2.423339 0.338514 1.276820 53.000000
2.444377 0.312122 1.286751 71.000000
2.465124 0.285315 1.296692 71.000000
2.481337 0.257549 1.304068 45.000000
2.484000 0.228169 1.304412 29.000000
2.543818 0.203379 1.334795 37.000000
2.567939 0.174913 1.346825 39.000000
2.587315 0.145589 1.356454 37.000000
2.624144 0.116544 1.375185 40.000000
2.643029 0.086176 1.384552 54.000000
2.670237 0.055482 1.398744 42.000000
2.706035 0.024333 1.417487 34.000000
2.745990 -0.007758 1.438367 42.000000
2.767944 -0.040436 1.449871 41.000000
2.785179 -0.073615 1.458862 36.000000
2.832812 -0.108301 1.484375 57.000000
2.880011 -0.144234 1.509689 51.000000
2.904851 -0.179849 1.523302 65.000000
2.955764 -0.218046 1.550615 35.000000
2.984009 -0.255604 1.566633 31.000000
3.016296 -0.294219 1.584756 36.000000
3.070684 -0.372879 1.615914 36.000000
3.145720 -0.419531 1.656711 44.000000
3.189056 -0.463804 1.681609 42.000000
3.240661 -0.510376 1.710889 37.000000
3.265503 -0.553844 1.726161 33.000000
3.241895 -0.589198 1.715784 28.000000
3.213547 -0.623183 1.702999 34.000000
3.180384 -0.655869 1.688260 31.000000
3.164677 -0.691281 1.681976 33.000000
3.152556 -0.727710 1.678560 42.000000
3.118555 -0.758568 1.663310 33.000000
3.079731 -0.787932 1.646223 32.000000
3.041075 -0.816146 1.628506 28.000000
3.010498 -0.846162 1.615840 27.000000
2.971524 -0.872739 1.597859 30.000000
2.966095 -0.909245 1.598660 33.000000
2.930568 -0.936168 1.583229 32.000000
2.924017 -0.972522 1.584248 34.000000
2.896626 -1.001182 1.573211 33.000000
2.868939 -1.029235 1.561987 30.000000
2.853270 -1.061757 1.558141 31.000000
2.795677 -1.078057 1.531338 24.000000
2.791935 -1.114529 1.534035 30.000000
2.767222 -1.142593 1.525269 34.000000
2.742312 -1.170056 1.516418 31.000000
2.725370 -1.200720 1.511909 33.000000
2.712221 -1.232930 1.509564 34.000000
2.682708 -1.257259 1.498093 31.000000
2.656466 -1.283552 1.489408 29.000000
2.622158 -1.305374 1.476040 28.000000
2.596217 -1.329993 1.466599 31.000000
2.597183 -1.369318 1.473278 37.000000
2.566325 -1.391670 1.461916 32.000000
2.554787 -1.424438 1.461661 33.000000
2.531355 -1.450326 1.454604 32.000000
2.511579 -1.478101 1.449691 32.000000
2.487820 -1.503268 1.442464 31.000000
2.437207 -1.511523 1.419629 26.000000
2.420019 -1.540918 1.417187 29.000000
2.410929 -1.574436 1.418579 30.000000
2.382015 -1.596037 1.409415 29.000000
2.375957 -1.631743 1.412800 32.000000
2.346718 -1.652590 1.403468 33.000000
2.318135 -1.672295 1.393482 31.000000
2.314062 -1.710840 1.399316 29.000000
2.270014 -1.719655 1.381017 24.000000
2.261655 -1.755172 1.384457 28.000000
2.238720 -1.779446 1.379082 21.000000
2.208663 -1.797751 1.369288 15.000000
2.178600 -1.815612 1.359525 28.000000
2.155300 -1.838694 1.353914 32.000000
2.128377 -1.858533 1.346164 27.000000
2.128429 -1.902095 1.355498 25.000000
2.081111 -1.903059 1.334722 21.000000
2.063847 -1.931000 1.333237 24.000000
2.056036 -1.968024 1.337930 34.000000
2.027303 -1.986929 1.330423 27.000000
2.005968 -2.011038 1.326501 26.000000
1.994032 -2.044597 1.328810 32.000000
1.958447 -2.055973 1.316839 25.000000
1.939666 -2.082506 1.314829 24.000000
1.907153 -2.096250 1.304919 18.000000
1.894031 -2.129003 1.306888 24.000000
1.879156 -2.162549 1.309392 30.000000
1.850480 -2.177915 1.300827 24.000000
1.829145 -2.204130 1.298963 26.000000
1.807443 -2.230128 1.296991 28.000000
1.784083 -2.251469 1.292473 24.000000
1.761978 -2.276996 1.290384 21.000000
1.731247 -2.291278 1.282071 12.000000
1.723732 -2.333772 1.289456 19.000000
1.703209 -2.362409 1.289241 25.000000
1.682523 -2.390887 1.288803 23.000000
1.650916 -2.404010 1.280298 20.000000
1.614277 -2.409198 1.267816 10.000000
1.559417 -2.382098 1.238759 10.000000
1.513606 -2.370399 1.218311 19.000000
1.443921 -2.318953 1.178179 13.000000
1.220625 -2.010859 1.010078 9.000000
1.135387 -1.919101 0.953112 10.000000
1.050034 -1.821626 0.894670 10.000000
0.968576 1.717808 0.856247 31.000000
0.981443 1.698063 0.855922 29.000000
1.000055 1.685524 0.859187 27.000000
1.025677 1.684514 0.868498 30.000000
1.027069 1.644346 0.857627 27.000000
1.044990 1.631277 0.860797 30.000000
1.057833 1.610446 0.859892 35.000000
1.080574 1.604622 0.867073 32.000000
1.097007 1.591553 0.870437 35.000000
1.106654 1.566545 0.867298 42.000000
1.126540 1.556228 0.872320 32.000000
1.143668 1.542062 0.875217 32.000000
1.156825 1.524596 0.876355 32.000000
1.173720 1.510078 0.879182 33.000000
1.183680 1.488775 0.878138 63.000000
1.197311 1.470360 0.878785 33.000000
1.219446 1.462335 0.885681 60.000000
1.231759 1.444149 0.886577 61.000000
1.268653 1.452544 0.904054 42.000000
1.265845 1.416962 0.894269 52.000000
1.274678 1.394970 0.892817 32.000000
1.308761 1.398819 0.908155 62.000000
1.317333 1.376445 0.906641 66.000000
1.335042 1.363700 0.911564 45.000000
1.353531 1.350167 0.916113 85.000000
1.367959 1.333734 0.918766 58.000000
1.391972 1.326426 0.927873 57.000000
1.412762 1.315685 0.934837 65.000000
1.416923 1.289388 0.930770 29.000000
1.434193 1.275149 0.935431 35.000000
1.451331 1.260633 0.940103 52.000000
1.468403 1.245904 0.944656 33.000000
1.485342 1.230830 0.949155 45.000000
1.498727 1.212787 0.951451 50.000000
1.511981 1.194481 0.953616 36.000000
1.528585 1.178779 0.958004 36.000000
1.545051 1.162793 0.962336 26.000000
1.568060 1.152349 0.971409 40.000000
1.580738 1.133166 0.973400 49.000000
1.600008 1.119439 0.980209 39.000000
1.616101 1.102352 0.984324 52.000000
1.627797 1.083037 0.986529 37.000000
1.646845 1.068378 0.993115 37.000000
1.666268 1.052933 0.999316 36.000000
1.662350 1.023555 0.992277 24.000000
1.696300 1.017319 1.007834 49.000000
1.703430 0.994682 1.007457 60.000000
1.721917 0.978598 1.013771 47.000000
1.748083 0.966430 1.024665 52.000000
1.782134 0.957960 1.040024 54.000000
1.792132 0.936854 1.042037 38.000000
1.806368 0.917205 1.045858 48.000000
1.827988 0.901597 1.054630 29.000000
1.837933 0.879465 1.056031 33.000000
1.855368 0.861280 1.062391 39.000000
1.864582 0.839122 1.064008 33.000000
1.906028 0.830998 1.084047 35.000000
1.910890 0.806446 1.083235 36.000000
1.927806 0.786943 1.089227 35.000000
1.956940 0.771904 1.102192 35.000000
1.973622 0.751572 1.108070 30.000000
2.006481 0.737294 1.123556 42.000000
2.022930 0.716148 1.129318 57.000000
2.043038 0.696377 1.137644 48.000000
2.063090 0.676159 1.145911 59.000000
2.074574 0.652912 1.149446 52.000000
2.090017 0.630691 1.155250 35.000000
2.096575 0.605892 1.156606 35.000000
2.128754 0.587921 1.171570 32.000000
2.156283 0.568294 1.184518 39.000000
2.170779 0.544784 1.190293 34.000000
2.198047 0.524063 1.202969 34.000000
2.225192 0.502753 1.215584 35.000000
2.234871 0.477168 1.218726 58.000000
2.253061 0.453140 1.226420 34.000000
2.270752 0.428884 1.234442 34.000000
2.314308 0.408843 1.256457 32.000000
2.336019 0.384215 1.266624 35.000000
2.357547 0.359093 1.276636 36.000000
2.400459 0.336700 1.298714 40.000000
2.417265 0.309847 1.306135 35.000000
2.442272 0.283700 1.318541 42.000000
2.462780 0.256577 1.328421 40.000000
2.478341 0.228635 1.336288 32.000000
2.520359 0.202322 1.357750 30.000000
2.539863 0.173658 1.367740 34.000000
2.576715 0.145570 1.387029 35.000000
2.604634 0.116167 1.401411 35.000000
2.649825 0.086714 1.425084 35.000000
2.668079 0.055666 1.434922 35.000000
2.690466 0.024240 1.446855 35.000000
2.716980 -0.007720 1.461157 32.000000
2.760824 -0.040565 1.484648 44.000000
2.791066 -0.074103 1.500932 35.000000
2.825207 -0.108541 1.519872 32.000000
2.859024 -0.143715 1.538712 35.000000
2.883613 -0.179275 1.552515 34.000000
2.947502 -0.218288 1.587502 36.000000
2.953515 -0.254059 1.592131 27.000000
2.990306 -0.292839 1.612486 32.000000
3.030668 -0.333033 1.635602 35.000000
3.083730 -0.375865 1.665575 33.000000
3.127365 -0.418876 1.691235 36.000000
3.179475 -0.464190 1.720830 36.000000
3.213322 -0.508096 1.741399 34.000000
3.246582 -0.552818 1.761610 32.000000
3.244765 -0.592136 1.762941 29.000000
3.186308 -0.620371 1.733310 28.000000
3.170482 -0.656429 1.727816 33.000000
3.141543 -0.689333 1.714934 33.000000
3.116562 -0.722721 1.704418 31.000000
3.074186 -0.751288 1.684298 32.000000
3.061595 -0.786621 1.680419 33.000000
3.010325 -0.811292 1.655334 26.000000
2.988308 -0.843566 1.647120 24.000000
2.949631 -0.870106 1.628701 27.000000
2.948309 -0.907754 1.631997 29.000000
2.929772 -0.940093 1.625621 33.000000
2.890002 -0.965016 1.607484 28.000000
2.883563 -1.000740 1.607922 32.000000
2.851484 -1.027772 1.594807 33.000000
2.836154 -1.059878 1.590287 25.000000
2.782965 -1.077705 1.565289 21.000000
2.770932 -1.110923 1.563541 30.000000
2.742219 -1.137148 1.552217 28.000000
2.737690 -1.173355 1.554800 34.000000
2.700442 -1.195093 1.538682 29.000000
2.687333 -1.227206 1.536446 31.000000
2.670005 -1.257123 1.531704 32.000000
2.647812 -1.285412 1.525074 26.000000
2.598097 -1.298799 1.501777 23.000000
2.587478 -1.332068 1.501874 31.000000
2.573286 -1.362551 1.498976 30.000000
2.562000 -1.395561 1.498962 35.000000
2.534938 -1.419669 1.489517 33.000000
2.511480 -1.445519 1.482372 32.000000
2.507087 -1.482317 1.486509 55.000000
2.448926 -1.486820 1.458759 25.000000
2.413820 -1.504171 1.444495 19.000000
2.426837 -1.552801 1.460242 31.000000
2.391328 -1.569343 1.445908 31.000000
2.378014 -1.600298 1.444931 33.000000
2.330677 -1.608798 1.424314 31.000000
2.327956 -1.646693 1.429990 33.000000
2.309557 -1.674925 1.427069 35.000000
2.280965 -1.694180 1.416871 25.000000
2.251384 -1.713660 1.407187 23.000000
2.246515 -1.751872 1.412891 32.000000
2.213099 -1.767760 1.400823 22.000000
2.207503 -1.805830 1.406389 23.000000
2.170507 -1.818015 1.391963 32.000000
2.130032 -1.826668 1.375389 33.000000
2.123605 -1.864177 1.380640 33.000000
2.103257 -1.889707 1.376993 26.000000
2.066162 -1.899822 1.362429 22.000000
2.058613 -1.936915 1.367425 31.000000
2.034478 -1.958514 1.361421 30.000000
2.016545 -1.985977 1.359664 32.000000
1.994026 -2.010988 1.356214 28.000000
1.978747 -2.041328 1.356496 32.000000
1.953724 -2.061699 1.350215 32.000000
1.936635 -2.092518 1.350850 26.000000
1.899225 -2.098861 1.335943 21.000000
1.882965 -2.128278 1.335899 32.000000
1.865025 -2.158415 1.336212 31.000000
1.845167 -2.184083 1.333904 32.000000
1.814940 -2.199907 1.325645 31.000000
1.801755 -2.236498 1.330019 30.000000
1.775571 -2.254374 1.323192 31.000000
1.747632 -2.272759 1.316958 23.000000
1.721214 -2.289922 1.310065 16.000000
1.709295 -2.329509 1.316102 23.000000
1.680773 -2.347027 1.309579 25.000000
1.662677 -2.379127 1.311305 29.000000
1.645801 -2.410156 1.312402 29.000000
1.614081 -2.422971 1.303725 16.000000
1.552573 -2.389416 1.270547 11.000000
1.501928 -2.370143 1.245595 21.000000
1.418193 -2.295505 1.192496 14.000000
1.206389 -2.003501 1.029002 10.000000
1.128625 -1.923745 0.976957 13.000000
1.049799 -1.833843 0.920931 21.000000
0.979510 1.706349 0.879086 26.000000
0.993620 1.685862 0.878345 34.000000
1.012080 1.673032 0.881683 25.000000
1.031564 1.664531 0.887347 18.000000
1.035221 1.628301 0.878201 33.000000
1.053013 1.615038 0.881371 30.000000
1.070740 1.601645 0.884541 32.000000
1.084673 1.584830 0.885876 34.000000
1.102165 1.571018 0.888974 29.000000
1.119463 1.556947 0.891943 36.000000
1.135599 1.543328 0.895299 24.000000
1.158154 1.536098 0.902451 20.000000
1.158554 1.499963 0.892587 42.000000
1.185363 1.500018 0.904335 32.000000
1.190649 1.470937 0.898533 41.000000
1.200300 1.449536 0.897298 50.000000
1.228067 1.448087 0.908668 35.000000
1.237449 1.426311 0.907292 62.000000
1.274243 1.434279 0.925115 33.000000
1.286362 1.415413 0.925926 22.000000
1.298345 1.396426 0.926594 62.000000
1.307739 1.373483 0.924735 37.000000
1.325490 1.360795 0.929702 58.000000
1.333676 1.338237 0.928004 43.000000
1.348002 1.321921 0.930702 37.000000
1.378312 1.320980 0.944420 69.000000
1.389278 1.301018 0.944798 33.000000
1.399984 1.281006 0.945098 23.000000
1.430502 1.278765 0.958796 59.000000
1.447746 1.264162 0.963458 44.000000
1.464858 1.249345 0.968132 51.000000
1.474975 1.228468 0.968248 58.000000
1.491888 1.213174 0.972736 34.000000
1.501614 1.192119 0.972710 54.000000
1.514081 1.174141 0.975268 31.000000
1.534109 1.160881 0.981914 24.000000
1.557639 1.149960 0.990857 44.000000
1.573395 1.133842 0.995463 35.000000
1.585902 1.114549 0.997459 62.000000
1.601409 1.097968 1.002014 35.000000
1.613078 1.078630 1.004214 33.000000
1.647460 1.073296 1.019760 54.000000
1.647717 1.046289 1.014935 33.000000
1.658929 1.026416 1.016950 25.000000
1.681394 1.013203 1.025844 45.000000
1.707625 1.001821 1.037016 42.000000
1.718538 0.981086 1.038789 62.000000
1.736915 0.964580 1.045218 57.000000
1.762550 0.952298 1.056604 35.000000
1.784799 0.937035 1.065271 62.000000
1.790674 0.913666 1.064879 27.000000
1.804768 0.893826 1.068680 24.000000
1.830145 0.879907 1.079880 35.000000
1.843550 0.859803 1.083916 33.000000
1.856784 0.839462 1.087888 33.000000
1.886000 0.825958 1.101230 37.000000
1.915195 0.811898 1.114532 35.000000
1.932134 0.792122 1.120629 52.000000
1.936719 0.767210 1.119636 29.000000
1.965288 0.751981 1.133076 28.000000
1.994173 0.735894 1.146108 54.000000
2.001986 0.712089 1.147582 35.000000
2.022058 0.692411 1.156044 37.000000
2.046178 0.673660 1.166905 56.000000
2.057621 0.650461 1.170410 42.000000
2.072998 0.628286 1.176306 54.000000
2.083761 0.604836 1.180049 30.000000
2.107321 0.584506 1.190516 26.000000
2.134695 0.564969 1.203620 35.000000
2.157705 0.543778 1.214275 34.000000
2.189111 0.524147 1.229663 36.000000
2.211860 0.501806 1.240118 45.000000
2.225802 0.477218 1.245628 32.000000
2.243685 0.453293 1.253864 36.000000
2.269921 0.430616 1.266839 27.000000
2.291687 0.406660 1.277265 29.000000
2.317601 0.382845 1.289946 42.000000
2.347763 0.359178 1.304965 42.000000
2.390363 0.336724 1.327475 46.000000
2.407097 0.309816 1.335041 49.000000
2.423361 0.282682 1.342865 34.000000
2.448116 0.256063 1.355434 36.000000
2.454878 0.227396 1.358533 28.000000
2.487923 0.200565 1.375598 27.000000
2.520413 0.173093 1.393020 33.000000
2.557054 0.145054 1.412601 35.000000
2.575976 0.115399 1.422530 32.000000
2.638493 0.086674 1.456342 42.000000
2.656644 0.055665 1.466373 35.000000
2.674523 0.024240 1.476130 33.000000
2.709636 -0.007745 1.495551 39.000000
2.735710 -0.040340 1.509857 35.000000
2.770148 -0.073890 1.528894 45.000000
2.812831 -0.108514 1.553047 39.000000
2.846436 -0.143737 1.572170 35.000000
2.879606 -0.179793 1.591189 42.000000
2.934360 -0.218306 1.622065 31.000000
2.935954 -0.253648 1.624377 24.000000
2.994303 -0.294462 1.657224 36.000000
3.008258 -0.332025 1.666346 33.000000
3.078378 -0.376816 1.706693 37.000000
3.108573 -0.418220 1.725541 37.000000
3.143002 -0.460869 1.746235 32.000000
3.211265 -0.510057 1.786388 42.000000
3.240051 -0.554237 1.804733 34.000000
3.207887 -0.588062 1.789274 19.000000
3.184204 -0.622726 1.778299 33.000000
3.151554 -0.655197 1.762536 30.000000
3.122744 -0.688109 1.749529 33.000000
3.110685 -0.724379 1.745907 36.000000
3.081267 -0.756251 1.732592 31.000000
3.034631 -0.783008 1.709608 32.000000
3.017548 -0.816775 1.703081 33.000000
2.949054 -0.836181 1.668528 17.000000
2.944213 -0.872363 1.668999 30.000000
2.926005 -0.904964 1.662735 32.000000
2.899167 -0.934560 1.651500 29.000000
2.888804 -0.969138 1.649703 32.000000
2.857358 -0.996265 1.635911 31.000000
2.858852 -1.034771 1.641041 35.000000
2.818202 -1.058313 1.622851 29.000000
2.765790 -1.075751 1.596862 21.000000
2.761826 -1.112260 1.599744 33.000000
2.741313 -1.141982 1.593057 33.000000
2.720566 -1.171304 1.586177 33.000000
2.699486 -1.200226 1.579309 35.000000
2.670362 -1.225072 1.567543 32.000000
2.660835 -1.258869 1.567454 33.000000
2.639259 -1.286651 1.560217 31.000000
2.585179 -1.298786 1.534656 24.000000
2.582963 -1.335558 1.538874 33.000000
2.568003 -1.366683 1.536665 35.000000
2.545684 -1.392859 1.528992 32.000000
2.530169 -1.423489 1.526389 36.000000
2.502854 -1.447269 1.516818 33.000000
2.467870 -1.466049 1.502534 34.000000
2.455536 -1.498020 1.501981 33.000000
2.394096 -1.499189 1.471391 19.000000
2.388867 -1.535058 1.475293 32.000000
2.375190 -1.566702 1.475153 29.000000
2.354492 -1.592578 1.469629 30.000000
2.326349 -1.613106 1.459435 35.000000
2.300925 -1.636237 1.452140 30.000000
2.286983 -1.666278 1.450933 31.000000
2.275484 -1.699458 1.452575 31.000000
2.228206 -1.705545 1.431285 19.000000
2.238199 -1.753877 1.445761 32.000000
2.201340 -1.767177 1.431146 22.000000
2.171489 -1.785429 1.421095 18.000000
2.158613 -1.817521 1.422135 31.000000
2.118347 -1.826152 1.405195 29.000000
2.108344 -1.860721 1.408378 29.000000
2.094636 -1.892249 1.409197 31.000000
2.050928 -1.896299 1.389851 20.000000
2.046534 -1.936544 1.397245 31.000000
2.025611 -1.961210 1.393309 30.000000
2.001213 -1.982527 1.387165 30.000000
1.986053 -2.013066 1.387546 34.000000
1.958188 -2.030536 1.379020 28.000000
1.935190 -2.054875 1.375379 29.000000
1.916292 -2.081566 1.373346 29.000000
1.881981 -2.091217 1.360321 17.000000
1.864372 -2.121349 1.360847 32.000000
1.850702 -2.154089 1.362840 31.000000
1.832275 -2.184072 1.363213 30.000000
1.800639 -2.195492 1.352135 30.000000
1.778892 -2.221573 1.350151 26.000000
1.758319 -2.246474 1.347576 28.000000
1.733190 -2.268330 1.343244 26.000000
1.707867 -2.289994 1.339007 13.000000
1.689326 -2.317826 1.338325 28.000000
1.674049 -2.353759 1.342214 25.000000
1.655762 -2.385840 1.343945 27.000000
1.623312 -2.394387 1.332591 29.000000
1.594367 -2.411008 1.325841 13.000000
1.545591 -2.396503 1.302296 10.000000
1.468211 -2.335009 1.254147 18.000000
1.463234 -2.383728 1.265550 9.000000
1.207564 -2.018696 1.059620 11.000000
1.125558 -1.931484 1.002416 15.000000
0.969184 1.703192 0.896382 23.000000
0.985701 1.686642 0.897714 26.000000
1.009006 1.681567 0.905317 18.000000
1.018015 1.653066 0.900265 19.000000
1.027676 1.629028 0.897587 22.000000
1.043114 1.611932 0.898710 25.000000
1.060906 1.598540 0.901880 28.000000
1.081047 1.588627 0.907185 27.000000
1.100036 1.579039 0.912764 29.000000
1.112275 1.557587 0.911584 32.000000
1.133772 1.551153 0.919264 24.000000
1.153700 1.540265 0.924420 29.000000
1.162610 1.514757 0.920901 27.000000
1.178396 1.500524 0.924136 32.000000
1.195088 1.485449 0.926982 34.000000
1.216391 1.477700 0.934540 27.000000
1.231926 1.462750 0.937660 35.000000
1.242446 1.440290 0.935975 30.000000
1.266549 1.435105 0.945660 29.000000
1.272789 1.409559 0.941992 32.000000
1.291615 1.396671 0.946808 29.000000
1.294233 1.367787 0.940723 31.000000
1.318142 1.361489 0.950273 41.000000
1.335842 1.348488 0.955303 32.000000
1.343949 1.325748 0.953519 35.000000
1.361424 1.312255 0.958490 34.000000
1.388505 1.307720 0.970145 32.000000
1.402677 1.290609 0.972757 31.000000
1.406723 1.264378 0.968468 23.000000
1.430498 1.255800 0.977786 34.000000
1.450896 1.243953 0.984782 32.000000
1.467883 1.228892 0.989440 31.000000
1.484736 1.213550 0.994043 33.000000
1.493992 1.192918 0.994373 34.000000
1.510576 1.177163 0.998921 31.000000
1.516508 1.153145 0.996396 26.000000
1.539312 1.142690 1.005792 31.000000
1.566334 1.134042 1.017151 34.000000
1.574725 1.112553 1.017151 33.000000
1.593845 1.098475 1.024090 30.000000
1.605608 1.079160 1.026362 34.000000
1.625092 1.064081 1.032794 30.000000
1.632786 1.041968 1.032524 27.000000
1.651529 1.026730 1.039246 26.000000
1.666403 1.008960 1.043559 29.000000
1.688713 0.995370 1.052543 31.000000
1.725829 0.990474 1.071376 30.000000
1.740500 0.971583 1.075543 33.000000
1.755010 0.952461 1.079580 35.000000
1.768873 0.933383 1.084041 31.000000
1.790949 0.917803 1.092726 33.000000
1.812458 0.902079 1.101783 22.000000
1.830000 0.884021 1.108400 28.000000
1.847413 0.865702 1.114890 29.000000
1.864694 0.846979 1.121325 28.000000
1.885852 0.829758 1.130105 27.000000
1.890857 0.805163 1.129204 26.000000
1.911738 0.787267 1.137867 28.000000
1.924449 0.765767 1.141577 25.000000
1.944717 0.747382 1.150416 27.000000
1.969043 0.730151 1.161694 28.000000
1.993649 0.712086 1.172409 30.000000
2.009526 0.690927 1.178589 29.000000
2.029392 0.670868 1.187132 27.000000
2.048749 0.650660 1.196067 29.000000
2.059984 0.627233 1.199551 28.000000
2.087867 0.608442 1.212629 23.000000
2.102585 0.585785 1.218872 24.000000
2.121417 0.563972 1.227337 24.000000
2.140169 0.541702 1.235738 27.000000
2.171406 0.522109 1.251328 25.000000
2.168449 0.494078 1.247296 27.000000
2.224729 0.479180 1.277839 24.000000
2.247074 0.455884 1.288193 24.000000
2.234685 0.425734 1.279352 11.000000
2.264883 0.403557 1.294863 20.000000
2.312211 0.383535 1.320044 23.000000
2.324680 0.357193 1.325940 23.000000
2.363049 0.334222 1.346002 24.000000
2.379349 0.307634 1.354127 21.000000
2.399840 0.281158 1.364550 24.000000
2.428780 0.255179 1.379730 24.000000
2.418516 0.224865 1.372607 10.000000
2.472702 0.200217 1.402734 18.000000
2.496323 0.172142 1.415565 19.000000
2.554555 0.145529 1.447928 21.000000
2.573379 0.115715 1.457959 23.000000
2.591949 0.085486 1.467810 21.000000
2.614335 0.055023 1.480491 19.000000
2.662559 0.024186 1.507775 27.000000
2.693107 -0.007745 1.525020 27.000000
2.727722 -0.040470 1.544539 29.000000
2.766390 -0.074046 1.566418 27.000000
2.787063 -0.107981 1.578732 27.000000
2.837744 -0.143980 1.608188 32.000000
2.857766 -0.179219 1.620100 26.000000
2.907736 -0.217247 1.649135 25.000000
2.927067 -0.253887 1.660824 24.000000
2.949968 -0.291370 1.675275 24.000000
3.024421 -0.335336 1.719022 31.000000
3.046509 -0.374682 1.733024 26.000000
3.107043 -0.419788 1.769019 25.000000
3.149493 -0.463902 1.795488 28.000000
3.170283 -0.505608 1.808988 29.000000
3.224661 -0.553830 1.842434 26.000000
3.192646 -0.587715 1.826691 20.000000
3.147676 -0.618237 1.803276 21.000000
3.119153 -0.651515 1.790245 26.000000
3.103500 -0.686886 1.783790 27.000000
3.070235 -0.718080 1.768005 24.000000
3.053710 -0.752729 1.761794 29.000000
3.020006 -0.782686 1.745605 26.000000
3.007176 -0.817653 1.741530 18.000000
2.952051 -0.840348 1.712983 24.000000
2.921469 -0.869624 1.699522 24.000000
2.911670 -0.904771 1.698031 26.000000
2.885348 -0.934003 1.686076 24.000000
2.854257 -0.961547 1.672141 24.000000
2.847766 -0.997160 1.672673 26.000000
2.832179 -1.030094 1.668882 27.000000
2.788280 -1.051593 1.647323 18.000000
2.764617 -1.080066 1.637686 26.000000
2.744290 -1.110094 1.631102 26.000000
2.723830 -1.139823 1.624322 29.000000
2.690965 -1.163931 1.610230 26.000000
2.670097 -1.192714 1.603178 26.000000
2.656866 -1.224774 1.600837 28.000000
2.635505 -1.252862 1.593601 25.000000
2.594208 -1.270999 1.574316 15.000000
2.580453 -1.302024 1.571606 26.000000
2.557895 -1.329297 1.564626 27.000000
2.551336 -1.363972 1.566485 26.000000
2.524512 -1.388537 1.556944 27.000000
2.497529 -1.412620 1.547326 26.000000
2.474892 -1.437843 1.539406 30.000000
2.447574 -1.461022 1.529536 27.000000
2.412692 -1.479022 1.514974 12.000000
2.403896 -1.512814 1.516745 24.000000
2.376266 -1.534621 1.506647 22.000000
2.380837 -1.578504 1.518282 32.000000
2.341739 -1.592230 1.500974 27.000000
2.310019 -1.610190 1.488303 25.000000
2.296220 -1.640560 1.487232 31.000000
2.267110 -1.660848 1.477332 25.000000
2.245739 -1.685320 1.471426 10.000000
2.226875 -1.712794 1.468331 24.000000
2.211202 -1.742820 1.467449 25.000000
2.178980 -1.758031 1.454450 17.000000
2.156012 -1.781873 1.448781 10.000000
2.143087 -1.813953 1.449908 23.000000
2.119669 -1.837175 1.444148 26.000000
2.092891 -1.857170 1.435924 24.000000
2.069153 -1.879707 1.429999 13.000000
2.035503 -1.892776 1.417178 21.000000
2.014936 -1.917532 1.413274 19.000000
2.013162 -1.960771 1.422922 29.000000
1.979270 -1.972679 1.409971 21.000000
1.967353 -2.006224 1.412601 24.000000
1.942568 -2.026894 1.406235 26.000000
1.917757 -2.047202 1.399786 22.000000
1.915660 -2.094437 1.411544 14.000000
1.875299 -2.097613 1.393873 21.000000
1.858777 -2.127077 1.393794 20.000000
1.837753 -2.153850 1.392059 26.000000
1.797581 -2.155399 1.374245 21.000000
1.788986 -2.194560 1.380624 22.000000
1.772682 -2.227515 1.382949 29.000000
1.749211 -2.248958 1.378119 18.000000
1.759408 -2.317620 1.401986 16.000000
1.701282 -2.296335 1.371590 16.000000
1.679936 -2.320595 1.368715 18.000000
1.667090 -2.360156 1.374902 22.000000
1.637348 -2.372932 1.365446 21.000000
1.623591 -2.412329 1.371438 24.000000
1.586872 -2.417701 1.358128 10.000000
1.538182 -2.403451 1.334193 9.000000
1.486956 -2.379716 1.305703 9.000000
1.202231 -2.026710 1.086688 9.000000
1.122912 -1.943708 1.030498 10.000000
0.982205 1.695106 0.921354 17.000000
1.017151 1.709418 0.939740 15.000000
1.014826 1.661365 0.923938 21.000000
1.033240 1.648146 0.927292 25.000000
1.047771 1.631462 0.928815 27.000000
1.063270 1.614118 0.929928 24.000000
1.077445 1.597228 0.931352 25.000000
1.092650 1.579488 0.932368 24.000000
1.117976 1.576347 0.942068 25.000000
1.134380 1.562503 0.945546 23.000000
1.146410 1.540672 0.944217 24.000000
1.157108 1.519302 0.943120 32.000000
1.171253 1.500885 0.943890 36.000000
1.195456 1.496850 0.953818 29.000000
1.212175 1.481438 0.956691 35.000000
1.224915 1.463056 0.957649 32.000000
1.246231 1.454657 0.965276 31.000000
1.259588 1.435265 0.965769 30.000000
1.283806 1.429674 0.975629 26.000000
1.283928 1.397357 0.967236 59.000000
1.292781 1.374946 0.965671 45.000000
1.316718 1.368516 0.975371 36.000000
1.328260 1.349061 0.975947 50.000000
1.336516 1.326294 0.974082 35.000000
1.357186 1.315909 0.981407 34.000000
1.374641 1.302058 0.986382 40.000000
1.398471 1.294015 0.995937 22.000000
1.402723 1.267787 0.991594 34.000000
1.419853 1.253253 0.996398 40.000000
1.440201 1.241394 1.003482 32.000000
1.463925 1.232018 1.012928 41.000000
1.473398 1.211506 1.013291 35.000000
1.493597 1.198639 1.020300 42.000000
1.499238 1.175120 1.018235 53.000000
1.526226 1.167106 1.029792 26.000000
1.542129 1.151179 1.034688 53.000000
1.558490 1.134565 1.039060 44.000000
1.570587 1.115585 1.041466 37.000000
1.578871 1.093900 1.041422 37.000000
1.605098 1.084466 1.053175 62.000000
1.613678 1.062000 1.052600 47.000000
1.639865 1.051736 1.064269 48.000000
1.654966 1.034006 1.068703 24.000000
1.665694 1.014178 1.071148 71.000000
1.688066 1.000439 1.080283 68.000000
1.710381 0.986287 1.089375 67.000000
1.725002 0.967438 1.093515 78.000000
1.754334 0.957081 1.107773 58.000000
1.772658 0.939628 1.114302 55.000000
1.790371 0.922127 1.121127 60.000000
1.808029 0.904368 1.127898 25.000000
1.813781 0.880561 1.127295 55.000000
1.827174 0.860354 1.131431 61.000000
1.856261 0.847222 1.145292 41.000000
1.869459 0.826418 1.149313 57.000000
1.894497 0.810443 1.160631 47.000000
1.911350 0.790749 1.166916 44.000000
1.927768 0.770933 1.173576 52.000000
1.924106 0.742722 1.167425 27.000000
1.968673 0.733167 1.191139 85.000000
1.980577 0.710831 1.195082 66.000000
2.000508 0.691160 1.203901 69.000000
2.020308 0.671043 1.212514 71.000000
2.044112 0.651873 1.223618 79.000000
2.055048 0.628569 1.227605 55.000000
2.078583 0.608522 1.238439 43.000000
2.110049 0.590564 1.254640 28.000000
2.133131 0.569611 1.265743 56.000000
2.160202 0.549168 1.279275 65.000000
2.170299 0.524147 1.282706 44.000000
2.192541 0.502005 1.294016 67.000000
2.210710 0.478224 1.302212 56.000000
2.232707 0.455081 1.313234 66.000000
2.275726 0.435602 1.336602 45.000000
2.280379 0.408173 1.337418 29.000000
2.306058 0.384219 1.350577 68.000000
2.335846 0.360412 1.366166 71.000000
2.365221 0.335988 1.382021 73.000000
2.390130 0.310389 1.395220 76.000000
2.410547 0.283684 1.405838 62.000000
2.426450 0.256027 1.413787 72.000000
2.450739 0.228864 1.426667 47.000000
2.487397 0.202235 1.447342 36.000000
2.497962 0.172986 1.452801 45.000000
2.525633 0.144429 1.468213 47.000000
2.557300 0.115444 1.485962 52.000000
2.584405 0.085590 1.501022 74.000000
2.619626 0.055296 1.521473 48.000000
2.645936 0.024093 1.536724 50.000000
2.663324 -0.007708 1.546768 35.000000
2.710692 -0.040374 1.574197 36.000000
2.727504 -0.073368 1.583951 36.000000
2.752369 -0.107113 1.599012 35.000000
2.807053 -0.143021 1.631546 37.000000
2.844210 -0.179190 1.653835 36.000000
2.863662 -0.214896 1.665876 33.000000
2.891496 -0.251871 1.682722 26.000000
2.944385 -0.292236 1.715010 32.000000
2.975338 -0.331344 1.734540 35.000000
3.044537 -0.376159 1.776503 51.000000
3.061759 -0.415527 1.788159 35.000000
3.104282 -0.459209 1.814602 36.000000
3.150153 -0.504821 1.843962 34.000000
3.191350 -0.550705 1.870571 35.000000
3.172297 -0.586692 1.862045 29.000000
3.140321 -0.619742 1.845809 30.000000
3.129203 -0.656515 1.841847 35.000000
3.104738 -0.690477 1.830968 34.000000
3.071916 -0.721713 1.814224 33.000000
3.013305 -0.746088 1.783008 32.000000
3.017593 -0.785638 1.789052 34.000000
2.983816 -0.814985 1.772491 32.000000
2.941408 -0.841232 1.750882 21.000000
2.911041 -0.870621 1.737076 31.000000
2.905787 -0.906735 1.737525 32.000000
2.879102 -0.936338 1.726015 34.000000
2.856227 -0.966936 1.716786 30.000000
2.845531 -1.001247 1.714880 35.000000
2.814096 -1.027991 1.700527 33.000000
2.790643 -1.057220 1.690925 28.000000
2.742152 -1.076717 1.667088 18.000000
2.738545 -1.112948 1.669630 34.000000
2.709949 -1.139351 1.657837 33.000000
2.697178 -1.172104 1.655674 35.000000
2.676247 -1.201184 1.648612 35.000000
2.647070 -1.226201 1.636465 31.000000
2.625722 -1.254391 1.629130 34.000000
2.600234 -1.280259 1.619270 29.000000
2.555093 -1.295764 1.597058 15.000000
2.552700 -1.332560 1.601546 33.000000
2.529915 -1.359594 1.594380 33.000000
2.511450 -1.387754 1.588950 36.000000
2.480716 -1.409735 1.576774 33.000000
2.461216 -1.437771 1.571674 34.000000
2.441467 -1.465416 1.566582 37.000000
2.414798 -1.487677 1.555896 30.000000
2.365047 -1.495897 1.531332 12.000000
2.385406 -1.548413 1.552269 34.000000
2.349340 -1.565802 1.537741 31.000000
2.325112 -1.589296 1.529730 32.000000
2.293398 -1.607274 1.516880 28.000000
2.276097 -1.634976 1.513380 29.000000
2.271708 -1.673509 1.519949 35.000000
2.239647 -1.690282 1.506868 30.000000
2.178860 -1.685524 1.475430 10.000000
2.195505 -1.739138 1.495257 34.000000
2.165749 -1.757827 1.484914 19.000000
2.153932 -1.789413 1.485550 17.000000
2.127368 -1.810192 1.477489 26.000000
2.114075 -1.842137 1.478488 30.000000
2.090360 -1.865213 1.472583 31.000000
2.056708 -1.878957 1.459534 27.000000
2.023220 -1.892090 1.446438 12.000000
2.024857 -1.938354 1.458780 32.000000
2.003738 -1.963235 1.454730 29.000000
1.976152 -1.981439 1.446089 30.000000
1.948414 -1.999297 1.437378 28.000000
1.935961 -2.032822 1.440008 28.000000
1.914009 -2.056508 1.435675 29.000000
1.885963 -2.073312 1.426806 24.000000
1.875548 -2.109581 1.431436 12.000000
1.842819 -2.123231 1.420615 29.000000
1.820132 -2.145726 1.416096 26.000000
1.803055 -2.174814 1.415867 28.000000
1.778464 -2.197670 1.411720 29.000000
1.755127 -2.219368 1.406898 27.000000
1.738363 -2.252285 1.409216 31.000000
1.711924 -2.269827 1.402063 24.000000
1.686481 -2.291594 1.397613 11.000000
1.670259 -2.323141 1.399075 24.000000
1.652051 -2.355371 1.400976 23.000000
1.630764 -2.383891 1.400653 26.000000
1.603478 -2.400033 1.393189 26.000000
1.591535 -2.443033 1.401294 14.000000
1.529853 -2.405392 1.363406 10.000000
1.476979 -2.382761 1.334938 20.000000
1.429426 -2.366905 1.310735 17.000000
1.196754 -2.034522 1.113838 9.000000
0.976188 1.699551 0.942867 28.000000
0.997393 1.690485 0.948561 22.000000
1.013889 1.673398 0.949837 20.000000
1.015795 1.633343 0.937948 29.000000
1.039882 1.631902 0.948271 29.000000
1.058033 1.618289 0.951625 32.000000
1.064829 1.590109 0.946442 29.000000
1.087556 1.583548 0.954082 29.000000
1.104052 1.569932 0.957683 34.000000
1.116366 1.548279 0.956345 21.000000
1.129872 1.530742 0.957551 26.000000
1.144341 1.512428 0.958286 35.000000
1.162959 1.501686 0.963921 32.000000
1.177025 1.483051 0.964577 37.000000
1.195525 1.471850 0.970161 32.000000
1.213903 1.460320 0.975631 35.000000
1.230388 1.444617 0.978433 60.000000
1.248616 1.432588 0.983859 30.000000
1.252086 1.403736 0.977705 34.000000
1.270084 1.391354 0.983059 40.000000
1.287958 1.378767 0.988362 35.000000
1.311953 1.372242 0.998268 71.000000
1.317469 1.346331 0.994147 52.000000
1.335092 1.333007 0.999283 51.000000
1.352717 1.319410 1.004366 57.000000
1.367019 1.302495 1.007109 34.000000
1.374737 1.279378 1.005003 27.000000
1.401686 1.274004 1.017064 37.000000
1.412304 1.253563 1.017252 35.000000
1.436023 1.244465 1.026804 67.000000
1.449009 1.226997 1.029639 35.000000
1.472678 1.217265 1.039178 46.000000
1.482074 1.196520 1.039505 49.000000
1.491873 1.175197 1.039356 31.000000
1.514650 1.164977 1.049152 31.000000
1.524186 1.143322 1.048869 51.000000
1.550460 1.135012 1.060993 46.000000
1.562584 1.115988 1.063404 36.000000
1.570921 1.094265 1.063321 41.000000
1.582684 1.074950 1.065593 42.000000
1.605166 1.062731 1.075045 50.000000
1.616673 1.042947 1.077199 32.000000
