x y z intensity
0.763381 0.164477 -0.731511 100.000000
0.765373 0.154028 -0.731707 98.000000
0.749085 0.140256 -0.714993 95.000000
0.750328 0.130115 -0.715599 103.000000
0.766184 0.122205 -0.729555 98.000000
0.767581 0.111772 -0.729750 103.000000
0.775871 0.102323 -0.737028 108.000000
0.769629 0.090938 -0.730497 103.000000
0.784976 0.081984 -0.744514 103.000000
0.782216 0.070994 -0.741280 98.000000
0.775724 0.059822 -0.734547 95.000000
0.765525 0.048616 -0.724314 98.000000
0.762506 0.038036 -0.720882 103.000000
0.770027 0.027982 -0.727941 98.000000
0.759290 0.017285 -0.717768 104.000000
0.773952 0.007118 -0.731570 98.000000
0.766717 -0.003348 -0.724701 100.000000
0.770286 -0.013813 -0.728038 105.000000
0.777454 -0.024490 -0.734743 103.000000
0.769994 -0.034678 -0.727682 103.000000
0.769477 -0.045126 -0.727650 103.000000
0.772489 -0.055837 -0.731017 89.000000
0.786300 -0.067548 -0.744580 98.000000
0.781886 -0.077849 -0.740951 100.000000
0.781029 -0.088462 -0.740654 103.000000
0.783718 -0.099500 -0.743686 105.000000
0.782724 -0.110096 -0.743255 103.000000
0.781367 -0.120758 -0.743057 100.000000
0.779910 -0.131354 -0.742759 100.000000
0.775096 -0.141262 -0.738710 52.000000
0.773514 -0.151776 -0.738281 100.000000
0.767998 -0.161571 -0.734634 103.000000
0.769823 -0.172804 -0.737490 98.000000
0.775122 -0.184915 -0.743687 105.000000
0.769380 -0.194597 -0.739878 100.000000
0.774500 -0.206917 -0.745895 103.000000
0.772127 -0.217476 -0.745361 98.000000
0.783746 -0.232133 -0.758328 91.000000
0.784697 -0.243906 -0.761011 100.000000
0.785557 -0.255707 -0.763653 100.000000
0.786289 -0.267568 -0.766185 103.000000
0.786617 -0.279593 -0.768951 98.000000
0.780255 -0.289018 -0.764598 98.000000
0.780382 -0.301034 -0.767220 100.000000
0.776987 -0.311737 -0.766388 98.000000
0.776896 -0.323791 -0.768895 77.000000
0.777089 -0.335764 -0.770974 98.000000
0.769695 -0.345013 -0.766912 100.000000
0.779410 -0.361792 -0.779269 98.000000
0.772209 -0.370842 -0.774747 98.000000
0.768332 -0.381346 -0.773478 100.000000
0.770540 -0.395385 -0.779215 100.000000
0.762772 -0.404308 -0.774808 95.000000
0.758630 -0.414680 -0.773392 72.000000
0.773529 -0.436154 -0.792195 100.000000
0.775159 -0.450623 -0.797534 103.000000
0.770251 -0.461316 -0.796216 103.000000
0.771611 -0.475869 -0.801411 105.000000
0.763348 -0.484493 -0.796628 98.000000
0.755017 -0.492957 -0.791821 98.000000
0.752463 -0.505638 -0.793833 100.000000
0.750268 -0.518149 -0.795466 95.000000
0.738245 -0.524304 -0.787500 95.000000
0.748055 -0.545583 -0.802112 95.000000
0.738932 -0.553818 -0.797311 98.000000
0.750809 -0.578041 -0.815277 98.000000
0.753371 -0.595632 -0.823362 98.000000
0.746809 -0.606210 -0.821586 95.000000
0.746059 -0.621547 -0.826252 95.000000
0.730629 -0.624578 -0.814647 66.000000
0.732557 -0.642364 -0.822400 69.000000
0.728516 -0.655195 -0.823633 98.000000
0.730018 -0.673228 -0.831190 95.000000
0.719523 -0.681061 -0.826170 95.000000
0.715119 -0.693857 -0.827199 91.000000
0.713353 -0.709291 -0.831316 95.000000
0.729671 -0.744379 -0.857922 98.000000
0.726609 -0.760476 -0.862161 80.000000
0.710878 -0.762186 -0.850148 35.000000
0.704993 -0.775319 -0.851125 88.000000
0.704161 -0.794223 -0.858249 81.000000
0.700466 -0.810322 -0.862186 81.000000
0.692368 -0.820141 -0.859459 95.000000
0.693328 -0.842245 -0.869448 71.000000
0.686670 -0.855347 -0.870001 57.000000
0.687076 -0.877706 -0.879786 32.000000
0.677585 -0.887673 -0.877100 26.000000
0.667228 -0.897900 -0.874673 81.000000
0.673772 -0.930022 -0.893390 58.000000
0.668388 -0.946339 -0.896624 80.000000
0.419845 0.610369 -0.562206 26.000000
0.433711 0.613696 -0.572947 37.000000
0.440229 0.607323 -0.574792 30.000000
0.444268 0.597684 -0.573558 30.000000
0.446382 0.584684 -0.569018 30.000000
0.435564 0.556425 -0.549269 14.000000
0.431652 0.537769 -0.538597 45.000000
0.442419 0.537568 -0.546346 49.000000
0.438070 0.519164 -0.535530 32.000000
0.451387 0.521694 -0.546348 71.000000
0.451859 0.509288 -0.541599 38.000000
0.459610 0.505833 -0.546368 39.000000
0.470453 0.504889 -0.554043 91.000000
0.457191 0.478384 -0.533481 24.000000
0.465204 0.474571 -0.537924 43.000000
1.051395 0.946284 -1.168883 30.000000
1.084499 0.951862 -1.197281 10.000000
1.150028 0.984098 -1.260889 10.000000
1.169325 0.975357 -1.273397 14.000000
1.167858 0.949338 -1.263326 10.000000
1.181110 0.935341 -1.269246 13.000000
1.194234 0.921080 -1.275119 11.000000
1.186006 0.890647 -1.258243 11.000000
1.201948 0.878521 -1.267099 13.000000
1.180626 0.839600 -1.236959 9.000000
1.201715 0.832083 -1.252648 16.000000
1.207852 0.813105 -1.251504 19.000000
1.219515 0.798598 -1.257230 18.000000
1.234236 0.785857 -1.266242 22.000000
1.227149 0.758626 -1.251631 17.000000
1.228726 0.737839 -1.247281 16.000000
1.243120 0.724760 -1.255944 19.000000
1.195261 0.676132 -1.202000 9.000000
1.222382 0.670490 -1.223627 20.000000
1.215867 0.646853 -1.212619 26.000000
1.196375 0.616374 -1.187774 24.000000
1.169706 0.583122 -1.156180 33.000000
0.707962 0.307645 -0.689452 73.000000
0.711247 0.298011 -0.690305 55.000000
0.735178 0.296639 -0.711127 98.000000
0.751964 0.292110 -0.725541 98.000000
0.762169 0.284443 -0.732963 98.000000
0.765344 0.274017 -0.733598 100.000000
0.764643 0.262454 -0.731113 103.000000
0.770891 0.253266 -0.735269 100.000000
0.766467 0.240622 -0.729282 98.000000
0.751588 0.224823 -0.712867 95.000000
0.760834 0.216756 -0.720441 100.000000
0.759618 0.205440 -0.717627 103.000000
0.769047 0.196970 -0.724824 100.000000
0.771016 0.186603 -0.725513 100.000000
0.769552 0.175318 -0.722433 100.000000
0.771348 0.164934 -0.722988 100.000000
0.776659 0.155240 -0.726858 103.000000
0.767439 0.142722 -0.717104 91.000000
0.776246 0.133619 -0.724196 100.000000
0.781350 0.123713 -0.727875 103.000000
0.771580 0.111603 -0.718172 105.000000
0.787489 0.103096 -0.731854 108.000000
0.795779 0.093339 -0.738997 105.000000
0.774782 0.080354 -0.718916 108.000000
0.775623 0.069905 -0.719110 108.000000
0.787353 0.060298 -0.729417 100.000000
0.777046 0.048976 -0.719304 98.000000
0.770293 0.038164 -0.712518 100.000000
0.785226 0.028344 -0.726286 103.000000
0.785422 0.017764 -0.726417 103.000000
0.781849 0.007150 -0.723087 108.000000
0.781882 -0.003380 -0.723087 105.000000
0.781849 -0.013878 -0.723022 105.000000
0.778049 -0.024294 -0.719466 105.000000
0.781524 -0.034939 -0.722632 105.000000
0.781004 -0.045437 -0.722632 103.000000
0.784051 -0.056230 -0.725927 103.000000
0.794347 -0.067713 -0.735971 103.000000
0.793585 -0.078408 -0.735739 103.000000
0.796377 -0.089481 -0.738830 105.000000
0.799095 -0.100651 -0.741852 103.000000
0.794149 -0.110936 -0.738331 103.000000
0.785775 -0.120498 -0.731030 100.000000
0.787989 -0.131685 -0.734117 100.000000
0.786466 -0.142314 -0.733786 95.000000
0.781293 -0.152205 -0.729943 100.000000
0.779612 -0.162751 -0.729448 103.000000
0.781499 -0.174034 -0.732262 103.000000
0.772197 -0.182928 -0.725185 100.000000
0.781076 -0.195992 -0.734572 100.000000
0.800249 -0.212256 -0.754312 100.000000
0.804946 -0.225083 -0.760460 100.000000
0.802739 -0.235876 -0.759529 85.000000
0.792764 -0.244624 -0.752397 80.000000
0.800714 -0.258742 -0.761678 98.000000
0.794428 -0.268361 -0.757460 98.000000
0.798640 -0.281521 -0.763259 98.000000
0.791881 -0.291128 -0.759218 98.000000
0.788591 -0.301900 -0.758456 98.000000
0.788969 -0.313876 -0.760649 95.000000
0.782044 -0.323167 -0.756447 52.000000
0.785370 -0.336707 -0.762134 74.000000
0.785115 -0.348882 -0.764444 98.000000
0.774218 -0.356528 -0.756996 93.000000
0.780598 -0.371829 -0.765794 98.000000
0.783410 -0.385714 -0.771180 95.000000
0.779001 -0.396451 -0.770184 95.000000
0.774522 -0.407153 -0.769153 95.000000
0.773668 -0.419398 -0.771026 56.000000
0.782172 -0.437316 -0.782971 56.000000
0.790444 -0.455559 -0.794838 98.000000
0.782250 -0.464452 -0.790230 71.000000
0.780437 -0.477124 -0.792068 95.000000
0.778100 -0.489997 -0.794192 95.000000
0.766547 -0.496481 -0.786111 86.000000
0.764448 -0.509066 -0.787785 89.000000
0.758687 -0.519663 -0.786419 64.000000
0.759484 -0.534383 -0.791205 32.000000
0.772057 -0.558357 -0.809174 71.000000
0.768902 -0.571353 -0.810802 61.000000
0.768659 -0.586676 -0.815641 87.000000
0.765225 -0.599692 -0.817159 37.000000
0.755688 -0.607909 -0.812166 52.000000
0.755008 -0.623298 -0.816758 55.000000
0.742408 -0.628794 -0.808499 31.000000
0.738598 -0.641627 -0.809757 31.000000
0.754825 -0.672430 -0.833222 55.000000
0.739147 -0.675046 -0.821587 49.000000
0.734265 -0.688205 -0.822974 62.000000
0.746660 -0.717204 -0.842849 35.000000
0.746851 -0.736015 -0.850342 56.000000
0.741967 -0.749120 -0.851093 54.000000
0.733572 -0.759706 -0.848984 33.000000
0.730488 -0.775852 -0.853083 34.000000
0.735086 -0.800667 -0.866417 34.000000
0.713909 -0.796306 -0.848251 35.000000
0.712952 -0.815374 -0.855172 51.000000
0.704024 -0.825566 -0.852772 31.000000
0.707645 -0.850769 -0.865733 35.000000
0.703398 -0.867059 -0.869304 29.000000
0.701428 -0.886418 -0.875858 26.000000
0.701591 -0.909038 -0.885408 28.000000
0.705312 -0.938505 -0.901197 31.000000
0.692982 -0.945462 -0.895272 34.000000
0.685214 -0.958739 -0.895416 30.000000
0.680935 -0.978813 -0.901800 30.000000
0.412850 0.608231 -0.544817 37.000000
0.419217 0.602228 -0.546632 95.000000
0.426086 0.595889 -0.548252 68.000000
0.432341 0.589718 -0.550011 95.000000
0.431378 0.573898 -0.542725 95.000000
0.432560 0.561356 -0.538378 88.000000
0.436531 0.551802 -0.536812 43.000000
0.432421 0.533207 -0.526238 17.000000
0.430499 0.517839 -0.518643 95.000000
0.430946 0.505646 -0.514003 95.000000
0.441576 0.505414 -0.521600 84.000000
0.441790 0.493213 -0.516874 103.000000
0.444486 0.483983 -0.515173 98.000000
0.444399 0.471918 -0.510338 98.000000
0.492712 0.510913 -0.561455 87.000000
1.139805 1.069011 -1.256184 21.000000
1.153750 1.055851 -1.262568 15.000000
1.159851 1.034241 -1.258972 10.000000
1.156021 1.005461 -1.246249 10.000000
1.175550 0.996883 -1.258690 10.000000
1.174136 0.970752 -1.248925 10.000000
1.175518 0.947192 -1.242160 14.000000
1.185660 0.930904 -1.244845 10.000000
1.186509 0.907421 -1.237898 13.000000
1.199421 0.893199 -1.243582 16.000000
1.193672 0.865312 -1.229941 10.000000
1.200031 0.846520 -1.229018 10.000000
1.205524 0.828047 -1.228490 11.000000
1.224274 0.817690 -1.240194 19.000000
1.229531 0.798926 -1.239492 19.000000
1.232104 0.777744 -1.234960 12.000000
1.246758 0.764941 -1.243711 20.000000
1.245040 0.742106 -1.236204 20.000000
1.249658 0.723169 -1.235046 14.000000
1.250810 0.702405 -1.230507 10.000000
1.255094 0.683462 -1.229150 12.000000
1.265864 0.668087 -1.234199 18.000000
1.259773 0.643897 -1.222793 14.000000
1.259564 0.623538 -1.218298 12.000000
1.259737 0.603023 -1.213216 18.000000
1.235209 0.571774 -1.185468 21.000000
0.739543 0.318962 -0.704408 10.000000
0.753354 0.313302 -0.715177 73.000000
0.753245 0.301707 -0.712738 95.000000
0.760043 0.292872 -0.716799 98.000000
0.755925 0.280068 -0.711177 98.000000
0.762572 0.271088 -0.715111 98.000000
0.765341 0.260837 -0.715968 100.000000
0.768307 0.250455 -0.716495 98.000000
0.770911 0.240139 -0.717220 98.000000
0.769868 0.228693 -0.714556 65.000000
0.772328 0.218327 -0.715147 95.000000
0.778293 0.208894 -0.719033 95.000000
0.776987 0.197494 -0.716164 98.000000
0.778922 0.187128 -0.716853 95.000000
0.781087 0.176630 -0.717181 95.000000
0.775577 0.164619 -0.711029 98.000000
0.791896 0.157114 -0.724878 98.000000
0.789895 0.145843 -0.721934 36.000000
0.780452 0.133353 -0.712264 98.000000
0.785585 0.123464 -0.715869 95.000000
0.786728 0.112982 -0.716359 98.000000
0.810162 0.105307 -0.736578 98.000000
0.785359 0.091458 -0.713499 98.000000
0.782578 0.080580 -0.710408 98.000000
0.790777 0.070761 -0.717306 91.000000
0.791561 0.060181 -0.717437 52.000000
0.799618 0.050065 -0.724208 75.000000
0.796539 0.039204 -0.720855 86.000000
0.807920 0.028940 -0.731113 93.000000
0.800705 0.017996 -0.724537 91.000000
0.800804 0.007284 -0.724603 95.000000
0.800837 -0.003395 -0.724603 95.000000
0.789682 -0.013911 -0.714442 100.000000
0.785845 -0.024359 -0.710958 100.000000
0.781945 -0.034675 -0.707379 100.000000
0.792541 -0.045748 -0.717437 98.000000
0.799321 -0.056887 -0.724043 98.000000
0.794932 -0.067253 -0.720527 98.000000
0.801565 -0.078607 -0.727031 98.000000
0.800704 -0.089302 -0.726733 100.000000
0.803463 -0.100458 -0.729716 100.000000
0.802165 -0.111202 -0.729550 103.000000
0.793718 -0.120795 -0.722362 103.000000
0.795969 -0.132016 -0.725408 98.000000
0.794479 -0.142678 -0.725044 95.000000
0.792890 -0.153307 -0.724614 98.000000
0.816758 -0.169189 -0.747476 100.000000
0.811308 -0.179289 -0.743560 100.000000
0.812793 -0.191064 -0.746519 100.000000
0.818084 -0.203702 -0.752425 98.000000
0.808520 -0.212769 -0.745288 98.000000
0.809692 -0.224636 -0.748032 95.000000
0.796458 -0.232345 -0.737414 81.000000
0.797493 -0.244110 -0.740021 98.000000
0.798437 -0.255937 -0.742588 95.000000
0.795395 -0.266738 -0.742041 98.000000
0.796131 -0.278606 -0.744427 98.000000
0.789414 -0.288066 -0.740435 98.000000
0.793497 -0.301260 -0.745977 95.000000
0.793613 -0.313365 -0.748481 95.000000
0.797111 -0.326888 -0.754167 78.000000
0.790082 -0.336141 -0.749899 98.000000
0.793362 -0.349829 -0.755460 95.000000
0.789256 -0.360638 -0.754652 98.000000
0.785466 -0.371237 -0.753494 95.000000
0.784581 -0.383602 -0.755854 98.000000
0.784012 -0.395812 -0.757816 90.000000
0.782912 -0.408219 -0.760016 70.000000
0.798405 -0.429635 -0.778457 35.000000
0.790343 -0.438660 -0.774001 78.000000
0.785550 -0.449373 -0.772730 98.000000
0.787244 -0.463916 -0.777869 95.000000
0.795264 -0.482482 -0.789418 95.000000
0.790126 -0.493242 -0.787929 95.000000
0.778036 -0.500019 -0.780252 98.000000
0.782373 -0.516872 -0.788280 95.000000
0.763826 -0.519024 -0.774086 37.000000
0.758457 -0.529320 -0.772394 91.000000
0.765064 -0.548723 -0.783719 77.000000
0.777558 -0.572961 -0.801342 87.000000
0.774349 -0.585972 -0.802919 88.000000
0.767928 -0.596624 -0.801227 70.000000
0.767473 -0.612017 -0.805804 58.000000
0.763840 -0.625010 -0.807186 44.000000
0.757148 -0.635516 -0.805280 40.000000
0.759206 -0.653503 -0.812824 91.000000
0.752277 -0.663936 -0.810817 79.000000
0.744679 -0.674526 -0.809045 80.000000
0.746209 -0.692684 -0.816342 59.000000
0.738364 -0.703198 -0.814470 83.000000
0.736718 -0.718820 -0.818424 83.000000
0.723110 -0.723628 -0.810249 64.000000
0.726025 -0.745070 -0.820604 38.000000
0.748244 -0.786400 -0.852140 39.000000
0.731530 -0.788266 -0.840670 60.000000
0.730851 -0.807372 -0.847592 78.000000
0.727239 -0.823658 -0.851400 75.000000
0.720872 -0.836923 -0.852036 76.000000
0.719458 -0.856250 -0.858702 76.000000
0.712768 -0.869520 -0.859200 32.000000
0.705926 -0.882733 -0.859592 37.000000
0.712847 -0.915103 -0.878382 26.000000
0.688625 -0.906150 -0.857531 42.000000
0.686118 -0.925620 -0.863789 44.000000
0.695150 -0.961359 -0.884893 38.000000
0.695594 -0.988070 -0.897176 43.000000
0.694320 -1.011299 -0.906027 35.000000
0.414236 0.619445 -0.539540 79.000000
0.416093 0.606796 -0.535480 68.000000
0.427628 0.607175 -0.543021 93.000000
0.433945 0.601027 -0.544818 90.000000
0.433609 0.584903 -0.537482 95.000000
0.437283 0.575519 -0.536243 95.000000
0.448252 0.575609 -0.543895 78.000000
0.439839 0.550242 -0.527388 62.000000
0.433006 0.528556 -0.513971 95.000000
0.436076 0.519344 -0.512469 76.000000
0.446823 0.519181 -0.519994 98.000000
0.447127 0.506866 -0.515401 95.000000
0.449938 0.497593 -0.513787 98.000000
0.455301 0.491223 -0.515180 100.000000
0.477020 0.501987 -0.534859 53.000000
1.153029 1.098832 -1.250484 29.000000
1.170026 1.088360 -1.260075 18.000000
1.170579 1.061306 -1.250397 21.000000
1.175722 1.040069 -1.247373 10.000000
1.193331 1.028592 -1.256177 10.000000
1.192202 1.002188 -1.246692 14.000000
1.202796 0.985811 -1.249615 14.000000
1.201105 0.959594 -1.239860 16.000000
1.214418 0.945467 -1.245657 19.000000
1.215292 0.921693 -1.238859 18.000000
1.225247 0.904963 -1.241318 23.000000
1.219368 0.876872 -1.227952 13.000000
1.232126 0.862275 -1.233432 13.000000
1.235240 0.841012 -1.229275 16.000000
1.240647 0.822229 -1.228691 19.000000
1.253014 0.807234 -1.233881 24.000000
1.251621 0.784160 -1.226719 24.000000
1.257186 0.764936 -1.225336 19.000000
1.258644 0.744024 -1.221146 24.000000
1.256578 0.721266 -1.213607 15.000000
1.277686 0.711703 -1.228432 15.000000
1.281957 0.692574 -1.227134 16.000000
1.282745 0.671647 -1.222486 15.000000
1.279878 0.649119 -1.214473 19.000000
1.283054 0.630283 -1.213303 20.000000
1.283155 0.609620 -1.208311 16.000000
1.275644 0.586078 -1.197155 24.000000
0.732980 0.302612 -0.680551 16.000000
0.760891 0.302563 -0.704202 98.000000
0.760616 0.290993 -0.701696 98.000000
0.770937 0.283369 -0.708919 100.000000
0.773751 0.273137 -0.709846 100.000000
0.769671 0.260286 -0.703894 100.000000
0.775920 0.251180 -0.707959 100.000000
0.782161 0.241946 -0.711998 98.000000
0.770506 0.227151 -0.699231 95.000000
0.780169 0.218917 -0.706420 95.000000
0.782268 0.208550 -0.707240 93.000000
0.784565 0.198118 -0.707700 95.000000
0.783104 0.186747 -0.704800 98.000000
0.788633 0.177155 -0.708717 98.000000
0.790700 0.166624 -0.708979 98.000000
0.799777 0.157545 -0.716071 95.000000
0.801432 0.146916 -0.716468 73.000000
0.814124 0.138138 -0.726743 93.000000
0.785975 0.122666 -0.700574 98.000000
0.787107 0.112250 -0.701060 100.000000
0.788401 0.101769 -0.701189 98.000000
0.789371 0.091288 -0.701545 100.000000
0.797732 0.081569 -0.708424 100.000000
0.791086 0.070326 -0.701998 100.000000
0.791830 0.059813 -0.702127 88.000000
0.807462 0.050229 -0.715441 87.000000
0.811796 0.039668 -0.718753 95.000000
0.815837 0.029040 -0.722265 98.000000
0.812260 0.018145 -0.719084 103.000000
0.804905 0.007283 -0.712522 100.000000
0.797450 -0.003348 -0.705894 105.000000
0.793674 -0.013878 -0.702515 98.000000
0.789801 -0.024276 -0.699040 103.000000
0.785866 -0.034575 -0.695503 105.000000
0.792833 -0.045450 -0.702127 98.000000
0.795955 -0.056227 -0.705341 95.000000
0.802740 -0.067417 -0.711833 100.000000
0.801985 -0.078079 -0.711604 103.000000
0.801132 -0.088708 -0.711308 103.000000
0.803935 -0.099767 -0.714254 103.000000
0.802650 -0.110479 -0.714089 103.000000
0.805306 -0.121652 -0.716899 100.000000
0.800178 -0.131737 -0.713298 100.000000
0.802360 -0.143042 -0.716236 76.000000
0.830292 -0.159336 -0.742195 100.000000
0.802797 -0.165057 -0.718572 100.000000
0.826515 -0.181412 -0.741371 98.000000
0.824627 -0.192364 -0.740685 100.000000
0.818706 -0.202480 -0.736948 100.000000
0.820026 -0.214336 -0.739758 98.000000
0.817932 -0.225185 -0.738865 100.000000
0.815426 -0.236069 -0.738213 80.000000
0.808965 -0.245889 -0.734522 95.000000
0.806333 -0.256655 -0.733735 98.000000
0.803599 -0.267354 -0.732915 98.000000
0.807670 -0.280638 -0.738804 98.000000
0.804773 -0.291328 -0.737838 98.000000
0.797916 -0.300751 -0.733818 100.000000
0.794586 -0.311428 -0.732994 98.000000
0.794669 -0.323503 -0.735355 72.000000
0.801654 -0.338559 -0.744173 95.000000
0.801504 -0.350777 -0.746370 98.000000
0.804368 -0.364730 -0.752046 100.000000
0.797059 -0.373838 -0.747641 98.000000
0.792794 -0.384589 -0.746725 100.000000
0.792225 -0.396838 -0.748647 95.000000
0.794592 -0.411042 -0.754030 95.000000
0.790057 -0.421754 -0.752923 95.000000
0.808911 -0.445329 -0.774233 95.000000
0.800720 -0.454321 -0.769739 95.000000
0.792497 -0.463150 -0.765182 100.000000
0.794128 -0.477727 -0.770188 95.000000
0.795156 -0.492630 -0.775393 98.000000
0.796467 -0.507451 -0.780242 95.000000
0.793975 -0.520445 -0.782113 95.000000
0.785326 -0.528909 -0.777251 90.000000
0.763513 -0.528625 -0.759997 72.000000
0.767124 -0.545764 -0.768051 95.000000
0.783043 -0.572243 -0.788612 95.000000
0.782963 -0.587587 -0.793306 89.000000
0.776580 -0.598277 -0.791614 92.000000
0.776193 -0.613683 -0.796153 82.000000
0.769604 -0.624225 -0.794331 67.000000
0.768945 -0.639727 -0.798711 65.000000
0.765126 -0.652696 -0.799870 35.000000
0.760623 -0.665944 -0.801329 95.000000
0.756536 -0.678919 -0.802340 81.000000
0.751761 -0.692133 -0.803653 92.000000
0.750308 -0.707731 -0.807636 80.000000
0.748059 -0.723688 -0.811868 52.000000
0.740002 -0.734121 -0.809894 82.000000
0.751932 -0.763883 -0.828970 52.000000
0.748984 -0.780101 -0.832922 26.000000
0.745869 -0.796349 -0.836800 76.000000
0.739821 -0.809689 -0.837526 59.000000
0.738965 -0.828962 -0.844288 69.000000
0.737832 -0.848332 -0.850914 52.000000
0.726125 -0.855614 -0.845453 41.000000
0.719458 -0.868857 -0.845923 40.000000
0.710207 -0.878926 -0.843341 35.000000
0.700052 -0.889253 -0.841017 27.000000
0.705322 -0.918193 -0.856187 46.000000
0.702901 -0.937793 -0.862308 39.000000
0.704048 -0.964340 -0.874550 48.000000
0.707997 -0.994025 -0.889282 41.000000
0.696661 -1.004393 -0.886609 35.000000
0.697514 -1.031047 -0.898149 52.000000
0.413309 0.627194 -0.531201 42.000000
0.417513 0.617921 -0.530157 29.000000
0.436064 0.628464 -0.546335 54.000000
0.431336 0.605495 -0.533424 62.000000
0.437618 0.599380 -0.535183 40.000000
0.446271 0.596450 -0.539877 95.000000
0.455471 0.593143 -0.544363 40.000000
0.454195 0.577192 -0.537230 62.000000
0.429903 0.533170 -0.503390 33.000000
0.438563 0.530017 -0.507682 78.000000
0.451966 0.533050 -0.518129 95.000000
0.455017 0.523678 -0.516656 87.000000
0.457951 0.514299 -0.515113 100.000000
0.460794 0.504943 -0.513553 98.000000
0.479854 0.513047 -0.529993 98.000000
1.151785 1.115044 -1.229026 24.000000
1.177523 1.112992 -1.247670 23.000000
1.181090 1.088535 -1.241368 22.000000
1.192303 1.072490 -1.244651 16.000000
1.201293 1.053225 -1.244243 20.000000
1.185293 1.013868 -1.219614 9.000000
1.220889 1.017459 -1.246780 18.000000
1.213324 0.986012 -1.231118 24.000000
1.220695 0.967058 -1.230811 16.000000
1.224731 0.945671 -1.227323 18.000000
1.234857 0.928976 -1.229915 21.000000
1.238559 0.907541 -1.226206 18.000000
1.245217 0.888364 -1.225478 20.000000
1.229297 0.853652 -1.202754 10.000000
1.251516 0.845612 -1.217473 17.000000
1.254370 0.824232 -1.213259 21.000000
1.266123 0.809537 -1.218941 20.000000
1.265215 0.786152 -1.211367 22.000000
1.273476 0.769219 -1.213652 22.000000
1.288178 0.756027 -1.222212 19.000000
1.293477 0.736562 -1.220690 22.000000
1.281010 0.707965 -1.203633 10.000000
1.295386 0.694434 -1.211903 20.000000
1.299466 0.675217 -1.210519 21.000000
1.306250 0.657996 -1.212723 18.000000
1.306585 0.637056 -1.207897 20.000000
1.313622 0.619464 -1.209397 20.000000
1.306055 0.595674 -1.198482 18.000000
1.288218 0.567222 -1.177283 22.000000
0.768439 0.303420 -0.695566 78.000000
0.782420 0.297242 -0.706029 98.000000
0.778486 0.284197 -0.700277 100.000000
0.774428 0.271276 -0.694479 100.000000
0.784413 0.263469 -0.701800 100.000000
0.787360 0.253006 -0.702330 98.000000
0.789976 0.242575 -0.703058 98.000000
0.774264 0.226764 -0.687505 76.000000
0.787682 0.219540 -0.697858 95.000000
0.790011 0.209108 -0.698382 98.000000
0.792307 0.198610 -0.698875 95.000000
0.805625 0.190737 -0.709026 98.000000
0.800079 0.178440 -0.703147 98.000000
0.794467 0.166338 -0.697159 98.000000
0.811313 0.158703 -0.710423 95.000000
0.812976 0.147992 -0.710822 72.000000
0.818276 0.137878 -0.714450 98.000000
0.823288 0.127698 -0.718283 98.000000
0.802206 0.113603 -0.698889 98.000000
0.799757 0.102509 -0.695754 103.000000
0.830807 0.095433 -0.722256 103.000000
0.805406 0.081798 -0.699640 98.000000
0.806222 0.071185 -0.699869 103.000000
0.799432 0.059974 -0.693458 73.000000
0.815207 0.050361 -0.706608 85.000000
0.823355 0.039984 -0.713150 95.000000
0.823621 0.029139 -0.713350 95.000000
0.820041 0.018211 -0.710210 98.000000
0.816394 0.007383 -0.707003 103.000000
0.827766 -0.003442 -0.716823 103.000000
0.801243 -0.013878 -0.693813 100.000000
0.801146 -0.024423 -0.693684 103.000000
0.800920 -0.034969 -0.693458 103.000000
0.800402 -0.045547 -0.693458 100.000000
0.799820 -0.056093 -0.693361 95.000000
0.806680 -0.067267 -0.699738 98.000000
0.817227 -0.078971 -0.709316 103.000000
0.812604 -0.089319 -0.705751 103.000000
0.807923 -0.099567 -0.702122 100.000000
0.814180 -0.111255 -0.708488 103.000000
0.820314 -0.123107 -0.714784 100.000000
0.811664 -0.132678 -0.707694 100.000000
0.810174 -0.143373 -0.707329 57.000000
0.834668 -0.159038 -0.729702 100.000000
0.840120 -0.171597 -0.735976 98.000000
0.834618 -0.181858 -0.732101 100.000000
0.836430 -0.193701 -0.734700 103.000000
0.834154 -0.204771 -0.734252 100.000000
0.835525 -0.216761 -0.736981 103.000000
0.829430 -0.226807 -0.733148 98.000000
0.826947 -0.237773 -0.732493 83.000000
0.824361 -0.248670 -0.731769 95.000000
0.825341 -0.260716 -0.734245 100.000000
0.811426 -0.268105 -0.723960 95.000000
0.815843 -0.281259 -0.729493 98.000000
0.809040 -0.290829 -0.725578 98.000000
0.812941 -0.304255 -0.731266 98.000000
0.806015 -0.313674 -0.727217 95.000000
0.806117 -0.325800 -0.729569 47.000000
0.816762 -0.342397 -0.741437 95.000000
0.823656 -0.357805 -0.749995 98.000000
0.815976 -0.367262 -0.746008 100.000000
0.808651 -0.376412 -0.741603 100.000000
0.807835 -0.388914 -0.743875 98.000000
0.803497 -0.399722 -0.742879 98.000000
0.802840 -0.412078 -0.744711 95.000000
0.808504 -0.428210 -0.753101 42.000000
0.817405 -0.446432 -0.764598 95.000000
0.812551 -0.457317 -0.763311 98.000000
0.807256 -0.468350 -0.762282 98.000000
0.808912 -0.483063 -0.767161 98.000000
0.800488 -0.491821 -0.762564 98.000000
0.798196 -0.504717 -0.764455 98.000000
0.799420 -0.519563 -0.769139 95.000000
0.783908 -0.523873 -0.758392 56.000000
0.790934 -0.543305 -0.769501 52.000000
0.781738 -0.551751 -0.764915 95.000000
0.794678 -0.576102 -0.782077 95.000000
0.797819 -0.593840 -0.789797 95.000000
0.794463 -0.606995 -0.791194 95.000000
0.791016 -0.620156 -0.792539 95.000000
0.784375 -0.630820 -0.790742 93.000000
0.777656 -0.641367 -0.788867 32.000000
0.779379 -0.659751 -0.796452 67.000000
0.775406 -0.672852 -0.797543 81.000000
0.770742 -0.686152 -0.798858 95.000000
0.763613 -0.696547 -0.796748 95.000000
0.761599 -0.712479 -0.800967 95.000000
0.762899 -0.730956 -0.807830 75.000000
0.777482 -0.763810 -0.830078 72.000000
0.771885 -0.777340 -0.831009 35.000000
0.768918 -0.793771 -0.834855 34.000000
0.762998 -0.807284 -0.835620 49.000000
0.756888 -0.820789 -0.836327 68.000000
0.753352 -0.837220 -0.839964 55.000000
0.744348 -0.847639 -0.837563 54.000000
0.737832 -0.861026 -0.838091 60.000000
0.728666 -0.871224 -0.835552 35.000000
0.726242 -0.891060 -0.842180 36.000000
0.729381 -0.916914 -0.854256 31.000000
0.729662 -0.939835 -0.863302 37.000000
0.714049 -0.943867 -0.854934 72.000000
0.723450 -0.979935 -0.875427 39.000000
0.720328 -0.999906 -0.881223 35.000000
0.709000 -1.010308 -0.878541 36.000000
0.706790 -1.034092 -0.887328 34.000000
0.696062 -1.044023 -0.884236 31.000000
0.423393 0.635884 -0.530362 24.000000
0.432803 0.633082 -0.534897 27.000000
0.439308 0.626976 -0.536752 16.000000
0.446328 0.620585 -0.538378 32.000000
0.445990 0.604283 -0.531342 23.000000
0.459625 0.607801 -0.541802 29.000000
0.463950 0.597938 -0.540438 32.000000
0.452498 0.569235 -0.521765 14.000000
0.437989 0.537767 -0.499985 34.000000
0.438875 0.525263 -0.495478 24.000000
0.457594 0.534510 -0.511651 33.000000
0.463250 0.528165 -0.513164 44.000000
0.463489 0.515743 -0.508709 31.000000
0.501721 0.544846 -0.545717 35.000000
1.007215 1.041533 -1.076456 9.000000
1.114373 1.124378 -1.180913 10.000000
1.166539 1.148253 -1.225827 18.000000
1.181903 1.134857 -1.231889 21.000000
1.188527 1.113073 -1.228806 13.000000
1.199857 1.097135 -1.232106 10.000000
1.203085 1.072568 -1.225827 13.000000
1.212012 1.053337 -1.225451 9.000000
1.204761 1.021660 -1.210288 10.000000
1.221558 1.010437 -1.219360 10.000000
1.223663 0.986139 -1.212578 10.000000
1.234083 0.969662 -1.215364 10.000000
1.231783 0.943401 -1.205757 10.000000
1.254497 0.936224 -1.220634 10.000000
1.261307 0.916946 -1.220098 12.000000
1.258376 0.890817 -1.210166 9.000000
1.264772 0.871600 -1.209406 10.000000
1.258022 0.843609 -1.196119 10.000000
1.257420 0.820163 -1.188869 10.000000
1.279705 0.811545 -1.203293 12.000000
1.274719 0.786326 -1.193252 12.000000
1.293597 0.775110 -1.204424 15.000000
1.315155 0.765765 -1.219167 18.000000
1.306284 0.738676 -1.205651 13.000000
1.307270 0.717541 -1.201375 10.000000
1.304626 0.694641 -1.193878 11.000000
1.308653 0.675464 -1.192529 11.000000
1.315998 0.657999 -1.194206 14.000000
1.333701 0.645488 -1.205291 13.000000
1.330282 0.622722 -1.197329 16.000000
1.333117 0.603603 -1.196016 16.000000
1.325744 0.579581 -1.184672 13.000000
0.779183 0.293994 -0.687623 95.000000
0.782380 0.283678 -0.688348 98.000000
0.789115 0.274561 -0.692197 95.000000
0.795812 0.265315 -0.695953 100.000000
0.798506 0.254870 -0.696784 100.000000
0.797459 0.243271 -0.694317 98.000000
0.792898 0.230531 -0.688311 70.000000
0.799025 0.221122 -0.692139 95.000000
0.805108 0.211583 -0.695873 95.000000
0.807161 0.201053 -0.696634 98.000000
0.813109 0.191302 -0.700277 98.000000
0.815238 0.180558 -0.700610 100.000000
0.817068 0.169880 -0.701175 98.000000
0.818797 0.159169 -0.701641 98.000000
0.828223 0.149719 -0.708246 80.000000
0.829565 0.138910 -0.708884 95.000000
0.834854 0.128615 -0.712376 100.000000
0.832486 0.117123 -0.709387 100.000000
0.818668 0.104249 -0.696621 100.000000
0.846254 0.096569 -0.719571 100.000000
0.839575 0.084709 -0.713387 100.000000
0.836649 0.073383 -0.710394 100.000000
0.829808 0.061871 -0.704069 79.000000
0.830473 0.050994 -0.704136 94.000000
0.827259 0.039933 -0.700906 95.000000
0.835151 0.029373 -0.707566 100.000000
0.827723 0.018278 -0.701237 103.000000
0.827855 0.007450 -0.701303 103.000000
0.831704 -0.003426 -0.704535 105.000000
0.824008 -0.014172 -0.697972 103.000000
0.812465 -0.024603 -0.688148 108.000000
0.816051 -0.035397 -0.691150 103.000000
0.815529 -0.046075 -0.691150 100.000000
0.811133 -0.056487 -0.687823 100.000000
0.825670 -0.068342 -0.700575 103.000000
0.821107 -0.078805 -0.697115 103.000000
0.824048 -0.089931 -0.700045 105.000000
0.823121 -0.100725 -0.699681 103.000000
0.821862 -0.111520 -0.699515 105.000000
0.824319 -0.122845 -0.702506 103.000000
0.830438 -0.134882 -0.708649 98.000000
0.840469 -0.147678 -0.717632 92.000000
0.846119 -0.160194 -0.723896 100.000000
0.848155 -0.172010 -0.726596 98.000000
0.846362 -0.183115 -0.726010 98.000000
0.840454 -0.193359 -0.722420 100.000000
0.841948 -0.205323 -0.725182 98.000000
0.839879 -0.216324 -0.724355 100.000000
0.837499 -0.227324 -0.723768 98.000000
0.834982 -0.238325 -0.723113 55.000000
0.839484 -0.251567 -0.729095 95.000000
0.840475 -0.263712 -0.731489 100.000000
0.834056 -0.273519 -0.727425 95.000000
0.827281 -0.283265 -0.723576 98.000000
0.824094 -0.294176 -0.722884 95.000000
0.820804 -0.305052 -0.722122 98.000000
0.817444 -0.315859 -0.721290 95.000000
0.813980 -0.326631 -0.720390 35.000000
0.835474 -0.347737 -0.741605 95.000000
0.835280 -0.360267 -0.743734 83.000000
0.834693 -0.372927 -0.746071 95.000000
0.823727 -0.380621 -0.738570 81.000000
0.819443 -0.391583 -0.737606 76.000000
0.811603 -0.400718 -0.733458 84.000000
0.803695 -0.409724 -0.729248 66.000000
0.806053 -0.424004 -0.734428 35.000000
0.832272 -0.451398 -0.761414 69.000000
0.830820 -0.464351 -0.763282 73.000000
0.822446 -0.473386 -0.758782 95.000000
0.817403 -0.484213 -0.757373 80.000000
0.811916 -0.495225 -0.756186 95.000000
0.813364 -0.510068 -0.760877 86.000000
0.804311 -0.518857 -0.756469 60.000000
0.801813 -0.531825 -0.758223 35.000000
0.828392 -0.564700 -0.787692 48.000000
0.815757 -0.571311 -0.780009 52.000000
0.809503 -0.582237 -0.778426 72.000000
0.806346 -0.595429 -0.779875 35.000000
0.803062 -0.608590 -0.781272 46.000000
0.796525 -0.619329 -0.779521 36.000000
0.793008 -0.632422 -0.780742 34.000000
0.791920 -0.648307 -0.785267 35.000000
0.797282 -0.669072 -0.795483 33.000000
0.787229 -0.677112 -0.790455 37.000000
0.788584 -0.695771 -0.797769 41.000000
0.795597 -0.719949 -0.811031 32.000000
0.779378 -0.722392 -0.799794 63.000000
0.788782 -0.749561 -0.815842 36.000000
0.789131 -0.768738 -0.822784 35.000000
0.786332 -0.785191 -0.826655 33.000000
0.777794 -0.795969 -0.824499 25.000000
0.780193 -0.818268 -0.834133 33.000000
0.771361 -0.828945 -0.831860 28.000000
0.765113 -0.842480 -0.832454 30.000000
0.750714 -0.846887 -0.824158 28.000000
0.744305 -0.860245 -0.824657 27.000000
0.745594 -0.882841 -0.833874 31.000000
0.750989 -0.912217 -0.849120 24.000000
0.741309 -0.922518 -0.846456 10.000000
0.749229 -0.955122 -0.864044 26.000000
0.748318 -0.978726 -0.873107 27.000000
0.738088 -0.989002 -0.870204 28.000000
0.734204 -1.009438 -0.876149 27.000000
0.725172 -1.023300 -0.876313 22.000000
0.712238 -1.029961 -0.870425 24.000000
0.709885 -1.053795 -0.879011 21.000000
0.449621 0.685127 -0.555455 45.000000
0.424877 0.630619 -0.517865 12.000000
0.438338 0.634909 -0.528163 34.000000
0.443033 0.625213 -0.526985 79.000000
0.445120 0.612201 -0.522919 33.000000
0.451409 0.606052 -0.524687 70.000000
0.468135 0.612629 -0.537700 54.000000
0.466904 0.596530 -0.530842 42.000000
0.478742 0.596245 -0.538093 41.000000
0.466782 0.567581 -0.519571 31.000000
0.443852 0.526861 -0.489315 93.000000
0.444511 0.514383 -0.484798 98.000000
0.447245 0.505249 -0.483314 95.000000
0.482607 0.532167 -0.516826 98.000000
1.042035 1.067147 -1.085953 10.000000
1.193420 1.192719 -1.233347 14.000000
1.196760 1.168391 -1.228105 13.000000
1.203596 1.146438 -1.225212 10.000000
1.210248 1.124518 -1.222226 17.000000
1.210641 1.097178 -1.213187 15.000000
1.219747 1.077942 -1.212932 13.000000
1.233806 1.064264 -1.219087 19.000000
1.236486 1.039713 -1.212629 10.000000
1.241099 1.018127 -1.209631 10.000000
1.243161 0.993664 -1.202979 12.000000
1.241005 0.967309 -1.193631 11.000000
1.260694 0.957955 -1.205429 17.000000
1.261317 0.933978 -1.198935 10.000000
1.277698 0.921746 -1.207489 14.000000
1.287573 0.904663 -1.209912 15.000000
1.284314 0.878457 -1.200000 10.000000
1.280680 0.852481 -1.190042 14.000000
1.293315 0.837474 -1.195184 21.000000
1.292460 0.813789 -1.187998 21.000000
1.297484 0.794723 -1.187343 23.000000
1.319856 0.785403 -1.201492 21.000000
1.317853 0.762060 -1.194435 22.000000
1.322988 0.742421 -1.192998 23.000000
1.320478 0.719352 -1.185771 10.000000
1.331602 0.703711 -1.190742 14.000000
1.342648 0.687920 -1.195664 18.000000
1.346601 0.668379 -1.194316 19.000000
1.339764 0.643790 -1.183441 21.000000
1.346780 0.626047 -1.184949 20.000000
1.363900 0.613223 -1.196232 20.000000
1.360001 0.590445 -1.188138 18.000000
1.355361 0.568123 -1.180426 15.000000
1.260236 0.509473 -1.094193 33.000000
0.786830 0.294653 -0.678560 33.000000
0.786107 0.283119 -0.676402 98.000000
0.785520 0.271516 -0.673909 98.000000
0.788491 0.261165 -0.674497 100.000000
0.798563 0.253257 -0.681592 103.000000
0.790267 0.239371 -0.672580 100.000000
0.807657 0.233337 -0.685906 98.000000
0.791442 0.217642 -0.670684 95.000000
0.801259 0.209246 -0.677566 98.000000
0.807267 0.199693 -0.681192 98.000000
0.798170 0.186490 -0.672108 100.000000
0.800014 0.176106 -0.672722 100.000000
0.809586 0.167187 -0.679330 98.000000
0.803702 0.155176 -0.673466 100.000000
0.816715 0.146776 -0.683423 95.000000
0.822063 0.136747 -0.686964 100.000000
0.823546 0.126035 -0.687228 100.000000
0.828749 0.115824 -0.690641 105.000000
0.826018 0.104579 -0.687887 103.000000
0.808088 0.091630 -0.672028 103.000000
0.831994 0.083408 -0.691403 98.000000
0.828984 0.072246 -0.688447 100.000000
0.833584 0.061753 -0.691767 95.000000
0.834246 0.050892 -0.691866 95.000000
0.834842 0.040032 -0.691866 95.000000
0.842804 0.029474 -0.698443 100.000000
0.839188 0.018428 -0.695387 95.000000
0.839288 0.007518 -0.695421 88.000000
0.843171 -0.003409 -0.698611 95.000000
0.835438 -0.014238 -0.692164 89.000000
0.823758 -0.024752 -0.682432 95.000000
0.835074 -0.035959 -0.691800 98.000000
0.834544 -0.046820 -0.691767 98.000000
0.830105 -0.057415 -0.688480 91.000000
0.840966 -0.069139 -0.697875 95.000000
0.828655 -0.078970 -0.688085 98.000000
0.823998 -0.089332 -0.684604 100.000000
0.838125 -0.101921 -0.697240 98.000000
0.829478 -0.111785 -0.690442 100.000000
0.828120 -0.122579 -0.690211 95.000000
0.830540 -0.133955 -0.693092 100.000000
0.836649 -0.146094 -0.699081 95.000000
0.846424 -0.159111 -0.708138 98.000000
0.840935 -0.169373 -0.704454 100.000000
0.846460 -0.181973 -0.710493 100.000000
0.844580 -0.192944 -0.709810 98.000000
0.846119 -0.204895 -0.712532 103.000000
0.847569 -0.216875 -0.715182 98.000000
0.848895 -0.228954 -0.717757 100.000000
0.850129 -0.241060 -0.720258 95.000000
0.840120 -0.249912 -0.713216 83.000000
0.840893 -0.262102 -0.715852 98.000000
0.841815 -0.274215 -0.718136 95.000000
0.842397 -0.286530 -0.720657 98.000000
0.831853 -0.294938 -0.713635 92.000000
0.832491 -0.307057 -0.715735 95.000000
0.836108 -0.320876 -0.721452 95.000000
0.825394 -0.328905 -0.714274 94.000000
0.836263 -0.345649 -0.725814 95.000000
0.839759 -0.359626 -0.731036 98.000000
0.835653 -0.370695 -0.730179 98.000000
0.831761 -0.381585 -0.729036 98.000000
0.827476 -0.392547 -0.728072 98.000000
0.830156 -0.406885 -0.733287 95.000000
0.832651 -0.421337 -0.738412 81.000000
0.828076 -0.432305 -0.737249 85.000000
0.830273 -0.446924 -0.742236 76.000000
0.822037 -0.455893 -0.737867 98.000000
0.823620 -0.470777 -0.743012 98.000000
0.818619 -0.481551 -0.741615 95.000000
0.819925 -0.496560 -0.746583 100.000000
0.811381 -0.505188 -0.741996 86.000000
0.812427 -0.520235 -0.746826 87.000000
0.813231 -0.535422 -0.751596 81.000000
0.817183 -0.552856 -0.759318 49.000000
0.814362 -0.565987 -0.760880 98.000000
0.808220 -0.576820 -0.759354 92.000000
0.805172 -0.589890 -0.760782 70.000000
0.808361 -0.607754 -0.768170 93.000000
0.805046 -0.620885 -0.769444 95.000000
0.804694 -0.636500 -0.773674 95.000000
0.797478 -0.647402 -0.772145 37.000000
0.799884 -0.665591 -0.779214 37.000000
0.789338 -0.673860 -0.774518 95.000000
0.788424 -0.689538 -0.778468 75.000000
0.804628 -0.721673 -0.800482 86.000000
0.796665 -0.732551 -0.798594 79.000000
0.797373 -0.751636 -0.805508 75.000000
0.789114 -0.762427 -0.803516 88.000000
0.787140 -0.778527 -0.806999 34.000000
0.770127 -0.780506 -0.796054 33.000000
0.772305 -0.802937 -0.805916 92.000000
0.766395 -0.816343 -0.806614 54.000000
0.757635 -0.826745 -0.804340 86.000000
0.765070 -0.855217 -0.819416 67.000000
0.758628 -0.868657 -0.819904 76.000000
0.753987 -0.885450 -0.823480 64.000000
0.762882 -0.917713 -0.841122 32.000000
0.742939 -0.915337 -0.826963 32.000000
0.747830 -0.945038 -0.841769 76.000000
0.740471 -0.958471 -0.841886 78.000000
0.732186 -0.972153 -0.842166 95.000000
0.736752 -1.002043 -0.856333 63.000000
0.735164 -1.025821 -0.864967 86.000000
0.721313 -1.032847 -0.859441 51.000000
0.710655 -1.042713 -0.856370 34.000000
0.710527 -1.070071 -0.867570 25.000000
0.443315 0.686461 -0.540962 37.000000
0.439379 0.662741 -0.528911 30.000000
0.444327 0.653009 -0.527852 29.000000
0.437286 0.626267 -0.512811 32.000000
0.450865 0.630372 -0.522999 75.000000
0.452959 0.617306 -0.519014 67.000000
0.464761 0.617503 -0.526223 52.000000
0.471095 0.611168 -0.527992 73.000000
0.475359 0.601259 -0.526673 52.000000
0.471218 0.581997 -0.517013 55.000000
0.469897 0.565876 -0.509883 26.000000
0.443900 0.521977 -0.477179 62.000000
0.449786 0.515734 -0.478453 98.000000
0.477020 0.534058 -0.502842 100.000000
1.019444 1.060702 -1.045719 35.000000
1.196403 1.215072 -1.217054 10.000000
1.197900 1.187388 -1.208601 10.000000
1.228195 1.188110 -1.229223 19.000000
1.220408 1.151930 -1.211817 16.000000
1.226080 1.130397 -1.209357 16.000000
1.232390 1.108331 -1.206302 22.000000
1.232385 1.080977 -1.197321 14.000000
1.247344 1.066934 -1.202878 16.000000
1.242878 1.037510 -1.191168 10.000000
1.251289 1.018164 -1.190652 11.000000
1.261875 1.001582 -1.193528 19.000000
1.263548 0.977145 -1.186846 13.000000
1.277012 0.962797 -1.192507 16.000000
1.293692 0.950613 -1.201115 19.000000
1.297286 0.928824 -1.197621 17.000000
1.297381 0.904741 -1.191033 17.000000
1.284004 0.871831 -1.172295 10.000000
1.296767 0.856934 -1.177510 16.000000
1.299352 0.835429 -1.173544 21.000000
1.315274 0.822359 -1.181616 20.000000
1.334507 0.811054 -1.192684 26.000000
1.332591 0.787546 -1.185901 26.000000
1.331080 0.763890 -1.178550 20.000000
1.349432 0.752257 -1.189769 28.000000
1.339945 0.725165 -1.176572 10.000000
1.348228 0.707306 -1.177981 14.000000
1.366312 0.694997 -1.188996 21.000000
1.370231 0.675313 -1.187703 22.000000
1.359756 0.648810 -1.173932 21.000000
1.359189 0.627844 -1.169815 22.000000
1.362494 0.608380 -1.168125 21.000000
1.369260 0.590395 -1.169397 23.000000
1.295498 0.539400 -1.103096 17.000000
1.279295 0.513732 -1.086003 35.000000
0.789928 0.282455 -0.664178 63.000000
0.792736 0.272235 -0.665093 103.000000
0.791990 0.260660 -0.662570 100.000000
0.802346 0.252675 -0.669349 100.000000
0.801194 0.241148 -0.666954 100.000000
0.807693 0.231744 -0.670497 92.000000
0.802585 0.219221 -0.664845 98.000000
0.808704 0.209768 -0.668521 100.000000
0.807168 0.198322 -0.665852 98.000000
0.809085 0.187922 -0.666535 100.000000
0.814974 0.178224 -0.670023 100.000000
0.816998 0.167612 -0.670317 98.000000
0.818696 0.157065 -0.670807 100.000000
0.827996 0.147821 -0.677472 70.000000
0.829545 0.137109 -0.677834 100.000000
0.834842 0.126950 -0.681271 103.000000
0.836233 0.116122 -0.681502 103.000000
0.837325 0.105328 -0.681900 103.000000
0.830822 0.093597 -0.675713 100.000000
0.816266 0.081327 -0.663399 103.000000
0.844178 0.073115 -0.685641 103.000000
0.841067 0.061919 -0.682628 86.000000
0.837850 0.050823 -0.679548 95.000000
0.842325 0.040164 -0.682727 100.000000
0.842623 0.029304 -0.682926 98.000000
0.842822 0.018410 -0.683059 100.000000
0.846806 0.007551 -0.686240 98.000000
0.846839 -0.003393 -0.686240 98.000000
0.846806 -0.014337 -0.686173 98.000000
0.850556 -0.025397 -0.689154 100.000000
0.850323 -0.036357 -0.688953 100.000000
0.845941 -0.047135 -0.685774 98.000000
0.845342 -0.058046 -0.685674 52.000000
0.836894 -0.068357 -0.679219 98.000000
0.843879 -0.079867 -0.685275 98.000000
0.846881 -0.091194 -0.688118 100.000000
0.845711 -0.102155 -0.688017 98.000000
0.836961 -0.112016 -0.681304 100.000000
0.835637 -0.122844 -0.681072 98.000000
0.841935 -0.134903 -0.687015 100.000000
0.855782 -0.148426 -0.699189 48.000000
0.861809 -0.160915 -0.704979 95.000000
0.860092 -0.172039 -0.704464 103.000000
0.858032 -0.183197 -0.704155 98.000000
0.852100 -0.193457 -0.700615 100.000000
0.861537 -0.207167 -0.709271 103.000000
0.855431 -0.217393 -0.705629 100.000000
0.864341 -0.231495 -0.714402 103.000000
0.839244 -0.236318 -0.695038 52.000000
0.858960 -0.253893 -0.713249 95.000000
0.848791 -0.262690 -0.706223 100.000000
0.856955 -0.277357 -0.714995 98.000000
0.846407 -0.286009 -0.708116 98.000000
0.847184 -0.298200 -0.710209 98.000000
0.843864 -0.309207 -0.709440 98.000000
0.840475 -0.320144 -0.708602 98.000000
0.844044 -0.334079 -0.714156 77.000000
0.855002 -0.350980 -0.725518 98.000000
0.854931 -0.363600 -0.727561 100.000000
0.843580 -0.371624 -0.720574 100.000000
0.842953 -0.384292 -0.722757 95.000000
0.846150 -0.398520 -0.727642 98.000000
0.838186 -0.407858 -0.723564 98.000000
0.840750 -0.422354 -0.728606 98.000000
0.829147 -0.429680 -0.721331 36.000000
0.845095 -0.451867 -0.738747 95.000000
0.843729 -0.464783 -0.740502 105.000000
0.838761 -0.475759 -0.739167 100.000000
0.833384 -0.486845 -0.738055 100.000000
0.824859 -0.495624 -0.733540 98.000000
0.826091 -0.510704 -0.738374 98.000000
0.827119 -0.525888 -0.743113 98.000000
0.817963 -0.534592 -0.738746 44.000000
0.835296 -0.560978 -0.758430 85.000000
0.829182 -0.571976 -0.756931 95.000000
0.826219 -0.585209 -0.758351 95.000000
0.819926 -0.596096 -0.756730 95.000000
0.816733 -0.609265 -0.758054 87.000000
0.816641 -0.624844 -0.762266 95.000000
0.809531 -0.635820 -0.760781 95.000000
0.805988 -0.648970 -0.761910 35.000000
0.807977 -0.667496 -0.769177 95.000000
0.801035 -0.678049 -0.767194 95.000000
0.802652 -0.696748 -0.774320 95.000000
0.816106 -0.726334 -0.793076 95.000000
0.814058 -0.742754 -0.797041 95.000000
0.800533 -0.747839 -0.788915 85.000000
0.801179 -0.766979 -0.795681 74.000000
0.795752 -0.780576 -0.796505 63.000000
0.787265 -0.791237 -0.794373 54.000000
0.781578 -0.804741 -0.795132 79.000000
0.775113 -0.818491 -0.796086 95.000000
0.777460 -0.840906 -0.805316 56.000000
0.771232 -0.854328 -0.805834 81.000000
0.775747 -0.880091 -0.817729 95.000000
0.779096 -0.906400 -0.829760 64.000000
0.766905 -0.913684 -0.824342 44.000000
0.753942 -0.921161 -0.819207 52.000000
0.759782 -0.950639 -0.833514 68.000000
0.751608 -0.964430 -0.833855 95.000000
0.754153 -0.991009 -0.845093 47.000000
0.750537 -1.011462 -0.850918 81.000000
0.741697 -1.025354 -0.851018 88.000000
0.733576 -1.038708 -0.850820 43.000000
0.724403 -1.052408 -0.850836 50.000000
0.731312 -1.090311 -0.870124 18.000000
0.723814 -1.107584 -0.872698 33.000000
0.441490 0.694595 -0.531990 21.000000
0.444504 0.681291 -0.528337 29.000000
0.456624 0.681945 -0.535549 28.000000
0.435686 0.634128 -0.504416 16.000000
0.447432 0.634834 -0.511545 41.000000
0.454414 0.628533 -0.513163 29.000000
0.468232 0.632442 -0.523257 56.000000
0.470182 0.619243 -0.519318 47.000000
0.477030 0.612681 -0.520858 35.000000
0.480752 0.602990 -0.519776 79.000000
0.497961 0.609116 -0.532462 35.000000
0.477713 0.570685 -0.506030 27.000000
0.449149 0.523302 -0.470783 61.000000
0.481851 0.548237 -0.500486 103.000000
0.584507 0.648622 -0.601005 108.000000
0.761481 0.825132 -0.776185 105.000000
1.154602 1.163025 -1.146362 20.000000
1.222424 1.202029 -1.204011 12.000000
1.238287 1.188428 -1.210025 16.000000
1.242168 1.163459 -1.204373 21.000000
1.242731 1.135788 -1.195782 18.000000
1.248942 1.113669 -1.192813 18.000000
1.272559 1.108043 -1.207651 21.000000
1.272271 1.080430 -1.198708 13.000000
1.259190 1.042612 -1.177958 10.000000
1.273103 1.028679 -1.183779 17.000000
1.274969 1.004091 -1.177374 15.000000
1.291843 0.992250 -1.186014 21.000000
1.302973 0.974909 -1.188289 21.000000
1.303467 0.950623 -1.182007 16.000000
1.306970 0.928865 -1.178587 18.000000
1.313560 0.909327 -1.178049 16.000000
1.313313 0.885322 -1.171431 10.000000
1.319455 0.865804 -1.170676 14.000000
1.332251 0.850572 -1.175820 18.000000
1.351724 0.839360 -1.186832 24.000000
1.336935 0.807005 -1.167810 18.000000
1.349253 0.791415 -1.172654 22.000000
1.357486 0.773874 -1.174921 25.000000
1.348609 0.746308 -1.161546 18.000000
1.356442 0.728756 -1.163548 10.000000
1.378294 0.718455 -1.177510 18.000000
1.378804 0.696951 -1.173307 21.000000
1.389837 0.680703 -1.178112 26.000000
1.382830 0.655727 -1.167642 19.000000
1.371945 0.629410 -1.153986 21.000000
1.386044 0.614711 -1.161458 24.000000
1.396510 0.598145 -1.165843 13.000000
1.318469 0.545306 -1.097424 14.000000
1.327805 0.529745 -1.101960 32.000000
1.274693 0.489631 -1.054015 40.000000
0.800116 0.272855 -0.655950 85.000000
0.802826 0.262602 -0.656799 100.000000
0.813263 0.254509 -0.663497 103.000000
0.816097 0.243962 -0.663959 98.000000
0.814845 0.232368 -0.661574 77.000000
0.813472 0.220838 -0.659084 95.000000
0.815790 0.210356 -0.659640 103.000000
0.821866 0.200742 -0.663214 103.000000
0.820231 0.189261 -0.660554 98.000000
0.822288 0.178649 -0.660913 98.000000
0.827935 0.168887 -0.664559 98.000000
0.829871 0.158160 -0.664789 103.000000
0.835345 0.148184 -0.668276 70.000000
0.840769 0.138075 -0.671734 103.000000
0.842259 0.127248 -0.672032 103.000000
0.843650 0.116420 -0.672264 103.000000
0.844742 0.105593 -0.672695 100.000000
0.845934 0.094732 -0.672761 105.000000
0.835154 0.082712 -0.663754 103.000000
0.851596 0.073314 -0.676360 100.000000
0.848451 0.062084 -0.673423 80.000000
0.853026 0.051426 -0.676593 100.000000
0.849709 0.040297 -0.673489 98.000000
0.850007 0.029370 -0.673688 98.000000
0.850206 0.018476 -0.673820 98.000000
0.854257 0.007584 -0.676992 98.000000
0.862128 -0.003424 -0.683170 100.000000
0.850305 -0.014271 -0.673787 100.000000
0.858008 -0.025430 -0.679864 98.000000
0.861691 -0.036591 -0.682733 100.000000
0.853359 -0.047235 -0.676493 95.000000
0.856672 -0.058446 -0.679530 82.000000
0.859879 -0.069757 -0.682465 98.000000
0.855201 -0.080434 -0.679129 98.000000
0.854333 -0.091395 -0.678828 98.000000
0.853163 -0.102389 -0.678694 100.000000
0.856018 -0.113834 -0.681357 98.000000
0.858594 -0.125412 -0.684218 100.000000
0.849387 -0.135204 -0.677692 98.000000
0.867241 -0.149434 -0.692788 49.000000
0.873364 -0.162010 -0.698525 100.000000
0.871398 -0.173252 -0.698250 98.000000
0.869570 -0.184425 -0.697663 100.000000
0.871305 -0.196498 -0.700335 98.000000
