x y z intensity
1.858940 1.733405 0.259258 92.000000
1.881484 1.716172 0.260547 56.000000
1.903867 1.698702 0.261760 71.000000
1.922341 1.677645 0.262543 81.000000
1.929231 1.646745 0.261708 58.000000
1.950948 1.628610 0.262923 54.000000
1.972500 1.610234 0.264141 35.000000
1.990000 1.588437 0.264766 43.000000
2.006797 1.567031 0.265547 64.000000
2.027781 1.547861 0.266770 62.000000
2.036639 1.519526 0.266354 56.000000
2.053169 1.496992 0.266978 64.000000
2.069388 1.474380 0.267601 42.000000
2.089453 1.454375 0.268750 54.000000
2.109033 1.434593 0.269979 33.000000
2.132815 1.416847 0.271661 73.000000
2.148217 1.393351 0.272211 89.000000
2.171706 1.374938 0.273820 90.000000
2.186616 1.351035 0.274451 72.000000
2.205231 1.329936 0.275614 76.000000
2.228186 1.310712 0.277234 49.000000
2.233764 1.281247 0.276721 42.000000
2.286647 1.278499 0.282011 43.000000
2.287383 1.246195 0.280966 70.000000
2.318218 1.230732 0.283674 87.000000
2.331511 1.205193 0.284158 88.000000
2.344563 1.179573 0.284641 78.000000
2.365979 1.158566 0.286366 88.000000
2.369539 1.128252 0.285688 52.000000
2.386215 1.104317 0.286714 37.000000
2.434183 1.094714 0.291623 36.000000
2.450537 1.069991 0.292577 62.000000
2.471265 1.047025 0.294077 52.000000
2.496179 1.025831 0.296207 71.000000
2.511817 1.000244 0.297168 60.000000
2.536352 0.978300 0.299308 68.000000
2.551525 0.952244 0.300273 79.000000
2.556968 0.922795 0.300142 37.000000
2.562208 0.893115 0.300010 55.000000
2.585835 0.869959 0.302077 71.000000
2.609315 0.846244 0.304065 84.000000
2.632558 0.822219 0.306141 81.000000
2.655643 0.797885 0.308136 64.000000
2.668931 0.770143 0.309030 73.000000
2.691487 0.745034 0.311031 71.000000
2.718589 0.720800 0.313590 36.000000
2.750360 0.697196 0.316709 44.000000
2.767425 0.669561 0.318168 53.000000
2.789033 0.642656 0.320098 67.000000
2.810362 0.615435 0.322030 68.000000
2.826630 0.586709 0.323408 48.000000
2.852339 0.559774 0.325992 67.000000
2.897317 0.535850 0.330631 52.000000
2.922509 0.507672 0.333134 37.000000
2.962214 0.481276 0.337317 51.000000
2.952544 0.446788 0.335825 69.000000
3.016267 0.422784 0.342811 95.000000
3.030519 0.391132 0.344117 95.000000
3.049357 0.359752 0.345984 90.000000
3.067950 0.328144 0.347758 76.000000
3.036647 0.291279 0.344026 10.000000
3.039645 0.258113 0.344213 8.000000
3.141365 0.232274 0.355522 9.000000
3.143686 0.198028 0.355619 9.000000
3.160506 0.164460 0.357399 9.000000
3.211800 0.131994 0.363108 9.000000
3.227882 0.097397 0.364891 10.000000
3.298318 0.063527 0.372852 81.000000
3.338569 0.027891 0.377344 85.000000
3.343640 -0.008626 0.377905 52.000000
3.378107 -0.045551 0.381836 57.000000
3.432014 -0.083718 0.388013 42.000000
3.460751 -0.122200 0.391382 53.000000
3.449230 -0.159497 0.390259 14.000000
3.501883 -0.200265 0.396328 9.000000
3.578822 -0.243913 0.405200 35.000000
3.600722 -0.284872 0.408006 45.000000
3.587498 -0.323250 0.406773 74.000000
3.539358 -0.357803 0.401505 53.000000
3.461145 -0.388066 0.392986 39.000000
3.407447 -0.419750 0.387169 23.000000
3.368232 -0.452236 0.383143 9.000000
3.328700 -0.483970 0.379015 8.000000
3.293773 -0.515618 0.375451 8.000000
3.229136 -0.541692 0.368536 6.000000
3.164412 -0.566283 0.361627 9.000000
3.172737 -0.603622 0.363106 18.000000
3.161122 -0.637057 0.362250 62.000000
3.129693 -0.666346 0.359164 67.000000
3.078688 -0.690656 0.353854 75.000000
3.046756 -0.718478 0.350780 49.000000
3.034050 -0.750450 0.349935 37.000000
2.992027 -0.774748 0.345756 25.000000
2.945112 -0.796825 0.340934 26.000000
2.893265 -0.816717 0.335660 9.000000
2.831688 -0.832865 0.329194 10.000000
2.865299 -0.876676 0.333814 65.000000
2.822488 -0.897238 0.329575 79.000000
2.803137 -0.924953 0.328197 54.000000
2.788283 -0.953798 0.327192 57.000000
2.777697 -0.984201 0.326830 20.000000
2.822921 -1.034859 0.332983 35.000000
2.876533 -1.090353 0.340310 34.000000
2.938580 -1.150414 0.348622 34.000000
2.958141 -1.195521 0.351975 31.000000
3.023098 -1.260060 0.360793 18.000000
3.196335 -1.373489 0.382706 9.000000
3.208435 -1.420489 0.385447 8.000000
3.156848 -1.438688 0.380441 7.000000
3.136479 -1.470979 0.379364 9.000000
3.102300 -1.496692 0.376552 9.000000
3.054844 -1.514651 0.372121 9.000000
3.020381 -1.539016 0.369326 10.000000
2.981399 -1.560480 0.365999 10.000000
2.955700 -1.587902 0.364197 10.000000
2.929485 -1.615340 0.362502 9.000000
2.885760 -1.632693 0.358659 9.000000
2.867746 -1.664345 0.358048 9.000000
2.828066 -1.682981 0.354758 10.000000
2.792906 -1.702932 0.351812 10.000000
2.736186 -1.709844 0.346306 10.000000
2.721458 -1.742432 0.346146 19.000000
2.656487 -1.742195 0.339605 28.000000
2.624897 -1.763033 0.337332 28.000000
2.597779 -1.785447 0.335497 32.000000
2.573977 -1.811028 0.334292 90.000000
2.533906 -1.824703 0.330884 49.000000
2.517785 -1.855347 0.330643 53.000000
2.521164 -1.900950 0.333119 45.000000
2.504172 -1.931504 0.332867 34.000000
2.491214 -1.964350 0.332941 34.000000
2.481215 -2.000973 0.333724 30.000000
2.436188 -2.009180 0.329825 23.000000
2.421700 -2.042237 0.329989 30.000000
2.387851 -2.059029 0.327661 33.000000
2.361483 -2.081861 0.326275 35.000000
2.334897 -2.104320 0.324891 31.000000
2.322726 -2.139986 0.325562 35.000000
2.296431 -2.161091 0.323985 33.000000
2.269048 -2.182795 0.322604 27.000000
2.248641 -2.211009 0.322147 26.000000
2.220851 -2.232055 0.320769 33.000000
2.182439 -2.242041 0.317782 32.000000
2.161299 -2.269446 0.317326 36.000000
2.133010 -2.289358 0.315863 32.000000
2.114663 -2.320034 0.315904 32.000000
2.082622 -2.335619 0.313943 32.000000
2.058148 -2.357406 0.312792 27.000000
1.350444 -1.653067 0.211240 27.000000
1.307531 -1.636694 0.206594 36.000000
1.280482 -1.639127 0.204420 36.000000
1.256518 -1.645122 0.202744 35.000000
1.241596 -1.662757 0.202468 33.000000
1.229265 -1.684286 0.202736 31.000000
1.222412 -1.713855 0.203961 26.000000
1.203694 -1.727151 0.203187 33.000000
1.182110 -1.736075 0.201934 31.000000
1.165871 -1.753098 0.201638 32.000000
1.146765 -1.765749 0.200863 32.000000
1.117892 -1.760751 0.198132 31.000000
1.111758 -1.794055 0.199720 32.000000
1.089643 -1.801829 0.198475 24.000000
1.105369 -1.873667 0.204177 9.000000
1.366582 2.352895 0.276021 5.000000
1.369217 2.299323 0.272628 15.000000
1.400462 2.297698 0.275470 15.000000
1.414935 2.265305 0.274498 29.000000
1.434155 2.241194 0.274619 17.000000
1.444852 2.204559 0.273184 21.000000
1.463166 2.180288 0.273201 25.000000
1.492485 2.172292 0.275368 18.000000
1.504577 2.139524 0.274333 27.000000
1.545200 2.147044 0.278517 10.000000
1.539014 2.089959 0.274318 24.000000
1.564707 2.076885 0.275881 28.000000
1.587211 2.059648 0.276918 21.000000
1.600323 2.030377 0.276282 27.000000
1.621350 2.013476 0.277393 27.000000
1.646330 1.999382 0.278880 20.000000
1.655227 1.965966 0.277764 28.000000
1.657070 1.925061 0.275477 9.000000
1.684534 1.914200 0.277494 28.000000
1.718653 1.910350 0.280526 35.000000
1.729307 1.880363 0.279839 25.000000
1.749777 1.861226 0.280702 34.000000
1.766490 1.838271 0.281095 29.000000
1.785747 1.819484 0.282034 28.000000
1.812590 1.806696 0.283998 33.000000
1.800216 1.755435 0.279884 11.000000
1.837264 1.752664 0.283508 34.000000
1.852734 1.728923 0.283809 37.000000
1.856811 1.694980 0.282355 29.000000
1.893794 1.690988 0.285925 52.000000
1.904168 1.664098 0.285738 35.000000
1.914711 1.636594 0.285389 30.000000
1.943939 1.624956 0.287856 47.000000
1.961604 1.603400 0.288556 17.000000
1.979036 1.581688 0.289334 36.000000
2.000226 1.562879 0.290603 36.000000
2.020625 1.544375 0.292031 34.000000
2.037422 1.521953 0.292734 52.000000
2.053984 1.499453 0.293437 33.000000
2.066269 1.473834 0.293488 34.000000
2.094478 1.459507 0.295917 35.000000
2.089482 1.422864 0.293815 18.000000
2.129750 1.416297 0.297907 62.000000
2.145074 1.392801 0.298536 35.000000
2.160240 1.369069 0.299165 35.000000
2.175092 1.345180 0.299793 53.000000
2.202069 1.329383 0.302251 35.000000
2.216533 1.305038 0.302804 35.000000
2.239294 1.285559 0.304529 37.000000
2.239944 1.254003 0.303482 21.000000
2.279666 1.243577 0.307563 48.000000
2.301922 1.223099 0.309299 47.000000
2.310730 1.195503 0.309270 34.000000
2.341179 1.179331 0.312195 55.000000
2.353909 1.153550 0.312759 48.000000
2.366155 1.127930 0.313323 35.000000
2.387329 1.106081 0.314995 50.000000
2.385717 1.073685 0.313694 13.000000
2.433525 1.063698 0.319028 43.000000
2.454176 1.040798 0.320712 39.000000
2.483601 1.021639 0.323679 34.000000
2.503802 0.997991 0.325290 40.000000
2.532930 0.977883 0.328187 37.000000
2.538797 0.948352 0.328003 35.000000
2.553629 0.922378 0.329105 33.000000
2.535360 0.884524 0.325908 13.000000
2.572993 0.866373 0.329939 36.000000
2.605862 0.845991 0.333376 48.000000
2.619611 0.819003 0.334402 34.000000
2.647399 0.795945 0.337161 59.000000
2.684421 0.775310 0.341223 36.000000
2.702234 0.748666 0.342866 35.000000
2.724642 0.723000 0.345033 51.000000
2.727459 0.691966 0.344772 15.000000
2.744460 0.664540 0.346335 31.000000
2.780506 0.641365 0.350338 36.000000
2.792197 0.611982 0.351299 34.000000
2.813189 0.584425 0.353394 34.000000
2.858329 0.561419 0.358545 33.000000
2.878879 0.532959 0.360738 30.000000
2.904016 0.504849 0.363455 36.000000
2.933853 0.477109 0.366697 24.000000
2.963412 0.448834 0.370035 35.000000
3.002511 0.421219 0.374510 78.000000
3.011814 0.389037 0.375403 36.000000
3.035541 0.358494 0.378044 62.000000
3.059036 0.327426 0.380688 37.000000
3.052469 0.293082 0.379649 8.000000
3.060431 0.260121 0.380358 8.000000
3.097714 0.229248 0.384850 7.000000
3.139623 0.197932 0.389865 8.000000
3.156424 0.164363 0.391807 8.000000
3.182865 0.130974 0.394980 8.000000
3.243555 0.097996 0.402463 9.000000
3.289101 0.063431 0.408002 36.000000
3.314416 0.027725 0.411180 31.000000
3.354213 -0.008561 0.416105 39.000000
3.358865 -0.045350 0.416720 35.000000
3.422626 -0.083597 0.424722 43.000000
3.436449 -0.121499 0.426569 35.000000
3.420099 -0.158244 0.424617 9.000000
3.497359 -0.200157 0.434463 9.000000
3.539542 -0.241439 0.439893 26.000000
3.581224 -0.283586 0.445319 33.000000
3.568026 -0.321802 0.443979 57.000000
3.519959 -0.356195 0.438336 33.000000
3.456652 -0.387959 0.430744 37.000000
3.403019 -0.419539 0.424389 16.000000
3.363849 -0.452027 0.419881 8.000000
3.294899 -0.479476 0.411798 8.000000
3.294375 -0.516182 0.412207 7.000000
3.234700 -0.543033 0.405157 7.000000
3.155381 -0.565211 0.395766 8.000000
3.129574 -0.595899 0.393021 10.000000
3.122912 -0.629892 0.392727 55.000000
3.111006 -0.662948 0.391822 42.000000
3.050409 -0.684929 0.384810 34.000000
3.037985 -0.716954 0.383911 49.000000
2.996298 -0.741719 0.379259 32.000000
2.949610 -0.764408 0.374100 22.000000
2.945968 -0.797747 0.374334 30.000000
2.851181 -0.805553 0.363013 8.000000
2.847015 -0.838018 0.363257 9.000000
2.842453 -0.870586 0.363498 35.000000
2.813939 -0.895460 0.360708 34.000000
2.785282 -0.919830 0.357832 46.000000
2.765791 -0.946825 0.356172 33.000000
2.745920 -0.973795 0.354604 10.000000
2.819136 -1.034305 0.364924 35.000000
2.854097 -1.082744 0.370580 29.000000
2.893015 -1.133632 0.376635 30.000000
2.940320 -1.189545 0.383969 27.000000
2.986907 -1.246178 0.391184 10.000000
3.210195 -1.380801 0.421846 8.000000
3.195156 -1.415605 0.421201 7.000000
3.143342 -1.434034 0.415778 6.000000
3.109544 -1.460004 0.412860 8.000000
3.080188 -1.487107 0.410334 8.000000
3.050447 -1.514233 0.407920 8.000000
3.020745 -1.540439 0.405302 9.000000
2.994962 -1.568869 0.403492 9.000000
2.960119 -1.592297 0.400502 9.000000
2.929518 -1.617534 0.398007 8.000000
2.903291 -1.644214 0.396006 7.000000
2.833621 -1.646072 0.388229 10.000000
2.785632 -1.659303 0.383414 15.000000
2.716836 -1.658251 0.375586 27.000000
2.698546 -1.687985 0.374901 47.000000
2.642237 -1.693505 0.368866 35.000000
2.652587 -1.741513 0.372269 55.000000
2.616894 -1.759583 0.369164 27.000000
2.589818 -1.781955 0.367132 9.000000
2.602595 -1.833231 0.370989 29.000000
2.582349 -1.861791 0.370109 24.000000
2.565806 -1.893105 0.369902 29.000000
2.529083 -1.909249 0.366819 29.000000
2.504708 -1.933181 0.365175 24.000000
2.495019 -1.969922 0.366113 27.000000
2.461746 -1.987903 0.363522 22.000000
2.432216 -2.008598 0.361509 10.000000
2.421413 -2.044859 0.362243 32.000000
2.365084 -2.042215 0.356270 21.000000
2.361925 -2.083698 0.358037 26.000000
2.338997 -2.109625 0.357070 29.000000
2.308474 -2.128525 0.354979 19.000000
2.281425 -2.150383 0.353455 27.000000
2.250679 -2.168426 0.351375 19.000000
2.216160 -2.182632 0.348648 10.000000
2.202690 -2.217471 0.349359 29.000000
2.165413 -2.226448 0.345993 22.000000
2.151276 -2.260900 0.346600 26.000000
2.140001 -2.298927 0.347747 29.000000
2.101446 -2.307566 0.344492 23.000000
2.082664 -2.337987 0.344435 31.000000
2.034237 -2.334444 0.339562 18.000000
1.341216 -1.645099 0.230453 19.000000
1.308512 -1.639616 0.226918 26.000000
1.269202 -1.626413 0.222330 25.000000
1.251408 -1.640281 0.221571 24.000000
1.242468 -1.665851 0.222407 31.000000
1.221298 -1.675356 0.221048 26.000000
1.223231 -1.717001 0.223982 16.000000
1.204469 -1.730328 0.223141 30.000000
1.182781 -1.739285 0.221776 24.000000
1.158302 -1.743846 0.219892 26.000000
1.144635 -1.764845 0.220097 25.000000
1.130657 -1.785706 0.220295 23.000000
1.103294 -1.785335 0.217903 27.000000
1.084942 -1.796668 0.216937 17.000000
1.098120 -1.864162 0.222691 9.000000
1.362158 2.352477 0.300560 9.000000
1.367403 2.303103 0.297397 23.000000
1.389904 2.283643 0.298159 28.000000
1.398919 2.242914 0.295970 26.000000
1.423353 2.227328 0.297188 31.000000
1.439300 2.199108 0.296723 31.000000
1.457661 2.174872 0.296807 26.000000
1.481303 2.158709 0.297933 32.000000
1.504703 2.142304 0.299059 24.000000
1.513446 2.105412 0.297416 27.000000
1.538052 2.093484 0.299183 34.000000
1.557812 2.072436 0.299726 29.000000
1.577326 2.051294 0.300265 34.000000
1.593445 2.025997 0.300221 30.000000
1.615460 2.008337 0.301251 32.000000
1.630929 1.982769 0.301194 33.000000
1.655662 1.968504 0.302804 26.000000
1.670528 1.942637 0.302659 34.000000
1.687486 1.921113 0.303172 38.000000
1.695120 1.887634 0.301831 34.000000
1.715627 1.868843 0.302845 57.000000
1.735978 1.849817 0.303780 35.000000
1.749221 1.823394 0.303524 35.000000
1.782929 1.818154 0.306848 53.000000
1.785162 1.780899 0.304788 30.000000
1.800989 1.757589 0.305116 37.000000
1.819401 1.738325 0.306122 46.000000
1.831103 1.711356 0.305839 35.000000
1.868065 1.707834 0.309723 77.000000
1.879265 1.680440 0.309361 50.000000
1.897559 1.659589 0.310214 56.000000
1.915077 1.639202 0.311144 68.000000
1.925295 1.611593 0.310768 33.000000
1.969777 1.612205 0.315850 37.000000
1.983437 1.587266 0.316094 46.000000
1.996795 1.562255 0.316256 37.000000
2.017734 1.543125 0.317656 54.000000
2.030090 1.518357 0.317894 43.000000
2.046620 1.495823 0.318595 50.000000
2.070990 1.478899 0.320625 72.000000
2.066695 1.441772 0.318198 31.000000
2.110733 1.439008 0.323447 38.000000
2.109855 1.404595 0.321558 54.000000
2.141773 1.392015 0.324783 60.000000
2.144297 1.360391 0.323594 74.000000
2.141885 1.326663 0.321841 40.000000
2.177526 1.315846 0.325635 64.000000
2.196045 1.294255 0.326897 66.000000
2.227046 1.280298 0.330152 33.000000
2.249530 1.260565 0.332062 53.000000
2.276234 1.242859 0.334536 51.000000
2.289482 1.218120 0.335254 44.000000
2.311455 1.197384 0.337097 68.000000
2.328699 1.174463 0.338462 61.000000
2.336929 1.146595 0.338379 42.000000
2.367246 1.129339 0.341441 78.000000
2.370278 1.099418 0.340794 33.000000
2.413739 1.087539 0.345809 41.000000
2.429933 1.063208 0.347110 40.000000
2.445925 1.038369 0.348249 36.000000
2.461550 1.013594 0.349473 48.000000
2.481739 0.990146 0.351268 41.000000
2.496890 0.964874 0.352414 40.000000
2.511833 0.939420 0.353644 45.000000
2.526566 0.913451 0.354712 29.000000
2.550363 0.890731 0.357174 36.000000
2.569237 0.866039 0.358985 68.000000
2.578502 0.837994 0.359403 37.000000
2.601624 0.814224 0.361877 53.000000
2.629251 0.791489 0.364932 72.000000
2.632943 0.761202 0.364611 35.000000
2.669699 0.740545 0.368993 71.000000
2.677547 0.711289 0.369420 25.000000
2.733173 0.694146 0.376376 41.000000
2.750185 0.666614 0.378047 45.000000
2.771729 0.639899 0.380471 42.000000
2.802676 0.614905 0.384050 48.000000
2.823769 0.587275 0.386396 59.000000
2.859161 0.562196 0.390738 57.000000
2.869955 0.531786 0.391672 51.000000
2.851117 0.496172 0.388614 15.000000
2.910176 0.473741 0.396207 50.000000
2.924877 0.443359 0.397812 64.000000
2.939337 0.412763 0.399419 64.000000
2.938719 0.379955 0.398934 21.000000
2.952484 0.348999 0.400543 13.000000
3.005415 0.322052 0.407405 25.000000
3.028496 0.291092 0.410264 27.000000
2.986966 0.254145 0.404343 8.000000
3.083437 0.228420 0.417231 9.000000
3.100558 0.195650 0.419333 9.000000
3.102567 0.161782 0.419429 9.000000
3.148654 0.129653 0.425546 9.000000
3.204395 0.096849 0.433005 13.000000
3.249770 0.062761 0.439128 62.000000
3.279999 0.027476 0.443246 88.000000
3.319739 -0.008485 0.448602 44.000000
3.364022 -0.045380 0.454628 79.000000
3.412934 -0.083371 0.461324 71.000000
3.441489 -0.121744 0.465235 77.000000
3.430104 -0.158932 0.463896 13.000000
3.482510 -0.199482 0.471152 9.000000
3.564184 -0.243245 0.482420 66.000000
3.576142 -0.283365 0.484316 95.000000
3.558133 -0.321136 0.482200 81.000000
3.490305 -0.353481 0.473397 91.000000
3.446808 -0.387192 0.467834 62.000000
3.373580 -0.416294 0.458268 27.000000
3.344315 -0.449837 0.454720 9.000000
3.275479 -0.477026 0.445836 8.000000
3.270077 -0.512803 0.445632 9.000000
3.210614 -0.539547 0.437993 8.000000
3.170456 -0.568413 0.433128 8.000000
3.125067 -0.595605 0.427504 16.000000
3.133076 -0.632639 0.429108 52.000000
3.092065 -0.659553 0.424159 72.000000
3.065423 -0.688987 0.421209 80.000000
3.033666 -0.716666 0.417503 52.000000
2.996838 -0.742626 0.413141 65.000000
2.959785 -0.767861 0.408879 36.000000
2.932085 -0.794966 0.405854 32.000000
2.918617 -0.825419 0.404632 35.000000
2.866679 -0.844748 0.398405 37.000000
2.847817 -0.873126 0.396625 81.000000
2.824021 -0.899610 0.394189 91.000000
2.800048 -0.925693 0.391758 52.000000
2.780411 -0.952893 0.389989 54.000000
2.770005 -0.983115 0.389536 30.000000
2.814889 -1.034028 0.396957 32.000000
2.849874 -1.082181 0.402956 34.000000
2.884197 -1.131248 0.408936 27.000000
2.931338 -1.187002 0.416955 33.000000
3.005302 -1.255133 0.428670 18.000000
3.178149 -1.368500 0.454889 8.000000
3.158600 -1.400892 0.453492 8.000000
3.152092 -1.439682 0.454154 8.000000
3.096030 -1.454837 0.447464 8.000000
3.075457 -1.486581 0.446185 9.000000
3.019098 -1.500470 0.439734 9.000000
2.993976 -1.528645 0.437613 11.000000
2.919928 -1.531501 0.428512 15.000000
2.850897 -1.534853 0.419982 18.000000
2.846977 -1.573335 0.421211 29.000000
2.807994 -1.592335 0.417305 30.000000
2.777948 -1.615155 0.414492 55.000000
2.768570 -1.650787 0.415077 80.000000
2.754552 -1.683723 0.414921 36.000000
2.748983 -1.721321 0.415835 36.000000
2.734097 -1.754136 0.415672 35.000000
2.706419 -1.778771 0.413605 29.000000
2.719706 -1.830721 0.417865 19.000000
2.651021 -1.826105 0.409289 10.000000
2.642980 -1.863795 0.410286 29.000000
2.618364 -1.889942 0.408762 32.000000
2.581543 -1.906960 0.405362 28.000000
2.545274 -1.922642 0.401777 29.000000
2.500431 -1.932403 0.397153 32.000000
2.475253 -1.956736 0.395559 28.000000
2.472901 -1.999604 0.397789 25.000000
2.427953 -2.007823 0.393096 24.000000
2.409553 -2.037673 0.392745 26.000000
2.384060 -2.060049 0.390965 28.000000
2.335356 -2.063212 0.385601 24.000000
2.327279 -2.102198 0.387092 27.000000
2.304134 -2.127754 0.386031 29.000000
2.266266 -2.139393 0.382534 26.000000
2.268660 -2.187560 0.385538 24.000000
2.223325 -2.191461 0.380840 24.000000
2.188746 -2.205271 0.377973 23.000000
2.164484 -2.229246 0.376826 28.000000
2.133193 -2.245832 0.374480 26.000000
2.115291 -2.276433 0.374534 29.000000
2.100282 -2.310569 0.375177 30.000000
2.074944 -2.333604 0.374025 26.000000
2.050469 -2.355391 0.372682 28.000000
1.918430 -2.253007 0.352038 10.000000
1.329529 -1.632441 0.248761 23.000000
1.305485 -1.639229 0.246750 26.000000
1.290571 -1.657378 0.246496 24.000000
1.260401 -1.655643 0.243334 28.000000
1.242308 -1.669389 0.242439 26.000000
1.233752 -1.694349 0.243209 21.000000
1.223846 -1.719948 0.244030 20.000000
1.213546 -1.745542 0.244838 24.000000
1.180522 -1.738253 0.241139 24.000000
1.169784 -1.763516 0.241874 22.000000
1.150543 -1.776257 0.240964 23.000000
1.128452 -1.784668 0.239491 23.000000
1.111542 -1.801218 0.239079 19.000000
1.094409 -1.817565 0.238728 18.000000
1.094669 -1.863764 0.242205 8.000000
1.354267 2.342296 0.323743 8.000000
1.359462 2.293082 0.320384 31.000000
1.389527 2.286407 0.322893 31.000000
1.396078 2.241371 0.319999 33.000000
1.420431 2.225867 0.321298 34.000000
1.432390 2.194307 0.320251 30.000000
1.450722 2.170103 0.320323 36.000000
1.477121 2.158066 0.322218 36.000000
1.492060 2.129390 0.321583 29.000000
1.512276 2.108807 0.322167 33.000000
1.529309 2.083968 0.322127 31.000000
1.551966 2.067035 0.323320 38.000000
1.568340 2.041915 0.323266 36.000000
1.587529 2.020592 0.323829 35.000000
1.617711 2.015361 0.326976 45.000000
1.592445 1.939888 0.318721 39.000000
1.632656 1.945000 0.323594 33.000000
1.647368 1.919348 0.323419 36.000000
1.668224 1.901060 0.324509 42.000000
1.695547 1.889844 0.326797 47.000000
1.712742 1.867439 0.327250 49.000000
1.728845 1.845497 0.327777 52.000000
1.752352 1.829856 0.329433 69.000000
1.779250 1.817449 0.331740 63.000000
1.785026 1.783628 0.330163 45.000000
1.811533 1.770753 0.332474 67.000000
1.812878 1.733507 0.330148 57.000000
1.834718 1.717438 0.331883 94.000000
1.857096 1.700361 0.333468 67.000000
1.879314 1.682971 0.335056 84.000000
1.893915 1.658891 0.335328 91.000000
1.912054 1.637807 0.336259 60.000000
1.940733 1.626738 0.339258 95.000000
1.962266 1.608281 0.340781 35.000000
1.968243 1.577188 0.339639 41.000000
1.997109 1.564453 0.342500 91.000000
1.982208 1.518783 0.338071 41.000000
2.034435 1.523438 0.344891 85.000000
2.023043 1.480337 0.340957 62.000000
2.047239 1.463709 0.343157 36.000000
2.087184 1.458488 0.348073 67.000000
2.098935 1.432558 0.348179 35.000000
2.106269 1.403737 0.347523 65.000000
2.125391 1.383594 0.349063 77.000000
2.148751 1.365312 0.351132 52.000000
2.155156 1.336250 0.350469 62.000000
2.169375 1.312812 0.351328 70.000000
2.209262 1.303932 0.356078 51.000000
2.231995 1.284369 0.358166 52.000000
2.258598 1.267359 0.360951 35.000000
2.263714 1.237629 0.360207 54.000000
2.290021 1.219890 0.363080 75.000000
2.303214 1.194543 0.363640 49.000000
2.325007 1.173580 0.365670 65.000000
2.341972 1.150400 0.367089 69.000000
2.345501 1.120239 0.366257 36.000000
2.366418 1.098855 0.368295 36.000000
2.405315 1.084933 0.373058 32.000000
2.421480 1.060650 0.374409 35.000000
2.441918 1.038042 0.376384 52.000000
2.453122 1.011134 0.376957 36.000000
2.468515 0.986144 0.378234 34.000000
2.497469 0.966331 0.381629 61.000000
2.507870 0.938759 0.382042 36.000000
2.517859 0.911353 0.382619 33.000000
2.518256 0.880514 0.381698 32.000000
2.551079 0.860874 0.385737 35.000000
2.574412 0.837577 0.388365 43.000000
2.597511 0.813805 0.390999 55.000000
2.615632 0.788210 0.392842 42.000000
2.628809 0.760949 0.394060 56.000000
2.651215 0.736062 0.396537 45.000000
2.668585 0.709676 0.398474 35.000000
2.719326 0.691447 0.405247 33.000000
2.736298 0.663932 0.407111 35.000000
2.762616 0.638435 0.410322 37.000000
2.788681 0.612517 0.413627 37.000000
2.809640 0.584991 0.416132 37.000000
2.844965 0.560016 0.420794 51.000000
2.855731 0.529712 0.421781 36.000000
2.885747 0.502698 0.425645 44.000000
2.900753 0.472764 0.427445 42.000000
2.910630 0.441692 0.428437 53.000000
2.934859 0.412580 0.431500 88.000000
2.919527 0.377958 0.428891 17.000000
2.928345 0.346581 0.429885 9.000000
2.976165 0.319228 0.436561 18.000000
3.048435 0.293273 0.446852 70.000000
3.071176 0.261611 0.449930 59.000000
3.083706 0.228691 0.451565 34.000000
3.105745 0.196179 0.454551 28.000000
3.122486 0.162976 0.456912 21.000000
3.148745 0.129857 0.460624 10.000000
3.189569 0.096549 0.466409 13.000000
3.230026 0.062375 0.472293 52.000000
3.260208 0.027351 0.476733 59.000000
3.309782 -0.008473 0.483967 44.000000
3.344104 -0.045179 0.489031 69.000000
3.397786 -0.083129 0.496989 67.000000
3.441130 -0.121813 0.503394 71.000000
3.419876 -0.158597 0.500501 10.000000
3.482185 -0.199658 0.509795 9.000000
3.529178 -0.241112 0.516917 35.000000
3.565797 -0.282863 0.522591 35.000000
3.527996 -0.318691 0.517313 63.000000
3.484904 -0.353373 0.511425 62.000000
3.426824 -0.385320 0.503266 71.000000
3.373361 -0.416691 0.495836 26.000000
3.319610 -0.446988 0.488412 9.000000
3.275381 -0.477536 0.482334 9.000000
3.265082 -0.512599 0.481409 8.000000
3.244736 -0.545812 0.478943 7.000000
3.146017 -0.564619 0.464963 9.000000
3.110547 -0.593457 0.460352 13.000000
3.137855 -0.634304 0.465090 42.000000
3.072778 -0.656161 0.456174 37.000000
3.026794 -0.680998 0.450044 26.000000
2.985623 -0.706033 0.444546 19.000000
2.977676 -0.738672 0.444263 10.000000
2.883328 -0.748826 0.430997 7.000000
2.884612 -0.782741 0.431968 17.000000
2.894995 -0.819653 0.434365 70.000000
2.857424 -0.842888 0.429711 58.000000
2.838684 -0.871124 0.427826 54.000000
2.805405 -0.894643 0.423807 45.000000
2.795599 -0.925239 0.423262 81.000000
2.766705 -0.949229 0.419875 39.000000
2.737590 -0.972720 0.416586 13.000000
2.796522 -1.028166 0.426680 33.000000
2.822144 -1.073010 0.431792 34.000000
2.874917 -1.129058 0.441130 33.000000
2.908413 -1.178882 0.447523 31.000000
2.972989 -1.243273 0.458926 27.000000
3.113940 -1.342176 0.482163 9.000000
3.121825 -1.386085 0.484946 8.000000
3.070436 -1.403940 0.478699 8.000000
3.032740 -1.426704 0.474363 13.000000
3.003566 -1.453498 0.471541 21.000000
2.965564 -1.475075 0.467226 35.000000
2.922780 -1.494117 0.462328 42.000000
2.901907 -1.523986 0.460923 62.000000
2.863548 -1.543653 0.456540 62.000000
2.859402 -1.582324 0.457819 34.000000
2.820750 -1.601020 0.453451 22.000000
2.833016 -1.649545 0.457489 35.000000
2.818984 -1.683196 0.457370 30.000000
2.800774 -1.713647 0.456359 35.000000
2.769168 -1.736609 0.453488 31.000000
2.745867 -1.764446 0.451896 33.000000
2.714348 -1.785842 0.448838 35.000000
2.698636 -1.818539 0.448620 18.000000
2.641893 -1.822896 0.441584 9.000000
2.630310 -1.856987 0.441856 30.000000
2.605764 -1.883047 0.440186 32.000000
2.584968 -1.911765 0.439196 37.000000
2.544122 -1.925338 0.434830 32.000000
2.499878 -1.934366 0.429708 32.000000
2.474674 -1.958841 0.427965 33.000000
2.441446 -1.976703 0.424982 28.000000
2.400500 -1.987796 0.420575 19.000000
2.401985 -2.032725 0.423424 32.000000
2.379506 -2.059080 0.422358 31.000000
2.353121 -2.081957 0.420532 34.000000
2.311817 -2.091260 0.416160 27.000000
2.299602 -2.126789 0.416987 33.000000
2.269830 -2.144476 0.414418 30.000000
2.253313 -2.176261 0.414576 29.000000
2.204704 -2.176666 0.408840 22.000000
2.180767 -2.200890 0.407600 29.000000
2.166895 -2.235506 0.408407 31.000000
2.111567 -2.226892 0.401326 32.000000
2.098168 -2.260084 0.401942 31.000000
2.093397 -2.305075 0.404574 33.000000
2.071393 -2.331780 0.403875 32.000000
2.032757 -2.339554 0.400066 28.000000
1.933242 -2.274861 0.384150 18.000000
1.332615 -1.639557 0.270020 24.000000
1.300015 -1.634125 0.265823 28.000000
1.282156 -1.648321 0.264924 30.000000
1.252094 -1.646595 0.261516 26.000000
1.239942 -1.668238 0.261811 29.000000
1.224637 -1.685806 0.261539 22.000000
1.226283 -1.727520 0.264920 25.000000
1.187595 -1.712402 0.259616 26.000000
1.177230 -1.737672 0.260502 26.000000
1.166404 -1.762996 0.261375 26.000000
1.148203 -1.775087 0.260270 27.000000
1.134067 -1.796025 0.260447 26.000000
1.109202 -1.799983 0.258255 25.000000
1.094621 -1.820646 0.258422 21.000000
1.074702 -1.832597 0.257377 9.000000
1.341273 2.323454 0.345389 9.000000
1.352432 2.287994 0.343751 24.000000
1.367098 2.255902 0.342647 30.000000
1.383846 2.227925 0.342087 29.000000
1.413386 2.220872 0.344758 31.000000
1.423995 2.184309 0.342876 34.000000
1.445000 2.164295 0.343586 34.000000
1.474146 2.156377 0.346262 35.000000
1.489102 2.127711 0.345570 30.000000
1.505242 2.103978 0.345685 29.000000
1.525175 2.083173 0.346374 35.000000
1.544861 2.062195 0.346979 34.000000
1.567316 2.044977 0.348248 35.000000
1.580362 2.015824 0.347422 36.000000
1.605392 2.002096 0.349359 35.000000
1.608281 1.961250 0.346484 50.000000
1.622310 1.936546 0.346454 30.000000
1.659511 1.937301 0.351029 31.000000
1.667596 1.903852 0.349472 52.000000
1.688259 1.885295 0.350642 35.000000
1.702155 1.859198 0.350357 37.000000
1.722349 1.840247 0.351522 61.000000
1.738189 1.818261 0.351994 36.000000
1.761493 1.802423 0.353774 74.000000
1.777643 1.779271 0.354164 35.000000
1.793485 1.756041 0.354550 35.000000
1.809095 1.732581 0.354855 76.000000
1.823705 1.709738 0.355309 61.000000
1.849649 1.696086 0.357722 80.000000
1.864454 1.672203 0.358020 68.000000
1.879032 1.648170 0.358237 58.000000
1.903880 1.634273 0.360739 95.000000
1.917961 1.609895 0.360954 42.000000
1.950865 1.601065 0.364742 34.000000
1.945140 1.560773 0.361373 52.000000
1.981136 1.554976 0.365968 47.000000
1.982365 1.520795 0.364017 55.000000
2.026719 1.519531 0.369922 58.000000
2.034833 1.491650 0.369411 54.000000
2.039032 1.460364 0.368089 67.000000
2.046862 1.432025 0.367484 51.000000
2.074757 1.417588 0.370443 37.000000
2.089795 1.395031 0.371373 66.000000
2.096700 1.366376 0.370683 52.000000
2.132077 1.356876 0.375203 70.000000
2.151094 1.335781 0.376719 65.000000
2.186774 1.324686 0.381108 59.000000
2.188123 1.293314 0.379759 81.000000
2.215016 1.276407 0.382685 37.000000
2.245906 1.261956 0.386441 37.000000
2.259580 1.236993 0.387157 77.000000
2.281501 1.217003 0.389361 49.000000
2.277198 1.182591 0.387096 78.000000
2.316261 1.171028 0.392292 66.000000
2.328918 1.145393 0.392933 69.000000
2.350094 1.124185 0.395153 74.000000
2.357754 1.096047 0.394965 37.000000
2.391995 1.080457 0.399449 34.000000
2.412635 1.058257 0.401604 51.000000
2.419473 1.029646 0.401419 36.000000
2.448788 1.010725 0.405092 52.000000
2.450406 0.980228 0.404150 61.000000
2.474661 0.958694 0.407076 35.000000
2.498950 0.936530 0.409763 49.000000
2.508920 0.909174 0.410339 33.000000
2.523307 0.883286 0.411677 33.000000
2.542081 0.858794 0.413696 53.000000
2.565374 0.835463 0.416482 52.000000
2.583718 0.810344 0.418509 63.000000
2.606438 0.786446 0.421389 70.000000
2.619591 0.759152 0.422659 36.000000
2.646718 0.735723 0.426146 58.000000
2.664072 0.709335 0.428189 31.000000
2.709953 0.689795 0.434674 33.000000
2.726896 0.662418 0.436643 37.000000
2.757895 0.638172 0.440924 62.000000
2.769539 0.608982 0.442131 37.000000
2.804950 0.584726 0.447107 61.000000
2.815992 0.554883 0.448232 35.000000
2.846127 0.528541 0.452358 39.000000
2.851671 0.497335 0.452716 29.000000
2.886199 0.470901 0.457712 45.000000
2.910611 0.442253 0.461078 85.000000
2.915249 0.410332 0.461351 60.000000
2.929320 0.379681 0.463173 22.000000
2.933335 0.347562 0.463446 10.000000
2.966361 0.318516 0.468281 18.000000
3.043429 0.293179 0.480099 83.000000
3.046357 0.259743 0.480288 32.000000
3.093333 0.229693 0.487463 39.000000
3.110421 0.196706 0.489984 71.000000
3.156836 0.164941 0.497070 81.000000
3.178138 0.131186 0.500275 67.000000
3.194227 0.096849 0.502704 35.000000
3.175264 0.061419 0.499597 21.000000
3.225144 0.027102 0.507466 29.000000
3.304270 -0.008473 0.519900 37.000000
3.333595 -0.045113 0.524563 69.000000
3.372479 -0.082540 0.530780 70.000000
3.420693 -0.121288 0.538551 66.000000
3.409345 -0.158263 0.536891 10.000000
3.441859 -0.197569 0.542224 9.000000
3.528214 -0.241340 0.556097 39.000000
3.545068 -0.281580 0.559094 42.000000
3.522205 -0.318582 0.555879 73.000000
3.434951 -0.348668 0.542467 50.000000
3.406357 -0.383449 0.538375 68.000000
3.348092 -0.414056 0.529633 25.000000
3.289556 -0.443481 0.520796 9.000000
3.284531 -0.479473 0.520591 9.000000
3.235281 -0.508459 0.513315 10.000000
3.146707 -0.529922 0.499857 9.000000
3.155378 -0.566944 0.501882 24.000000
3.134484 -0.598626 0.499266 30.000000
3.055155 -0.618233 0.487288 9.000000
3.028995 -0.647512 0.483816 9.000000
3.002446 -0.676273 0.480350 9.000000
2.970900 -0.703379 0.476117 9.000000
2.953578 -0.733436 0.474106 9.000000
2.888022 -0.750853 0.464502 8.000000
2.889263 -0.784963 0.465578 19.000000
2.880571 -0.816587 0.465115 56.000000
2.866771 -0.846719 0.463886 90.000000
2.838555 -0.872026 0.460269 82.000000
2.795977 -0.892505 0.454455 56.000000
2.772026 -0.918478 0.451619 57.000000
2.747906 -0.943872 0.448788 21.000000
2.751465 -0.978898 0.450536 16.000000
2.782471 -1.024200 0.456757 29.000000
2.794118 -1.063661 0.460101 36.000000
2.782487 -1.094125 0.459455 39.000000
2.756748 -1.118921 0.456534 58.000000
2.867528 -1.200490 0.476338 36.000000
3.035694 -1.310418 0.506017 24.000000
3.066565 -1.363470 0.512752 35.000000
3.020185 -1.382432 0.506646 32.000000
3.013850 -1.419970 0.507433 80.000000
2.989424 -1.448364 0.505005 61.000000
2.968901 -1.479075 0.503537 43.000000
2.966028 -1.518084 0.504862 40.000000
2.940410 -1.546186 0.502544 33.000000
2.932295 -1.582773 0.503114 36.000000
2.927682 -1.622358 0.504527 34.000000
2.867135 -1.629639 0.496057 23.000000
2.844748 -1.658699 0.494500 32.000000
2.818271 -1.684519 0.492002 33.000000
2.791196 -1.710355 0.489611 32.000000
2.784769 -1.749055 0.490916 35.000000
2.732621 -1.757788 0.483908 32.000000
2.709043 -1.785242 0.482170 35.000000
2.685624 -1.811704 0.480336 27.000000
2.632979 -1.818799 0.473482 9.000000
2.616878 -1.850779 0.473225 30.000000
2.596410 -1.879651 0.472236 32.000000
2.556262 -1.892914 0.467415 29.000000
2.535364 -1.921072 0.466336 36.000000
2.478884 -1.921851 0.458744 31.000000
2.454401 -1.945382 0.456862 31.000000
2.440549 -1.978658 0.457143 31.000000
2.407320 -1.996119 0.453922 22.000000
2.381463 -2.019535 0.452048 30.000000
2.352319 -2.038472 0.449368 33.000000
2.329861 -2.064482 0.448216 29.000000
2.296110 -2.080139 0.444837 32.000000
2.280352 -2.112179 0.445108 29.000000
2.257929 -2.136518 0.443766 29.000000
2.248588 -2.175104 0.445339 29.000000
2.189376 -2.165079 0.437059 20.000000
2.186443 -2.210304 0.439933 34.000000
2.131118 -2.202335 0.432401 31.000000
2.114599 -2.232098 0.432377 29.000000
2.096788 -2.262672 0.432438 36.000000
2.081954 -2.296683 0.433183 29.000000
2.063308 -2.327019 0.433226 31.000000
2.027988 -2.338409 0.429726 29.000000
1.925353 -2.270073 0.411940 18.000000
1.345691 -1.657419 0.293314 30.000000
1.296739 -1.633418 0.285545 25.000000
1.278816 -1.647615 0.284581 27.000000
1.248786 -1.645895 0.280923 28.000000
1.233666 -1.663555 0.280576 29.000000
1.215489 -1.677077 0.279619 27.000000
1.203809 -1.697855 0.279803 21.000000
1.188045 -1.715130 0.279442 26.000000
1.163669 -1.719897 0.277091 26.000000
1.147604 -1.736819 0.276663 23.000000
1.131258 -1.753546 0.276294 24.000000
1.125257 -1.786917 0.278470 26.000000
1.105691 -1.799268 0.277430 25.000000
1.088480 -1.815675 0.276974 23.000000
1.094900 -1.869733 0.282194 8.000000
1.349004 2.343844 0.372909 8.000000
1.351841 2.290378 0.368319 14.000000
1.376833 2.275219 0.369876 27.000000
1.396358 2.251317 0.369968 18.000000
1.398235 2.203097 0.366044 29.000000
1.411484 2.170894 0.364702 25.000000
1.446082 2.171495 0.368939 24.000000
1.464226 2.147152 0.368980 34.000000
1.484704 2.126751 0.369637 15.000000
1.504934 2.106173 0.370368 21.000000
1.516231 2.073355 0.368882 25.000000
1.537614 2.057199 0.370386 24.000000
1.560104 2.040015 0.371732 33.000000
1.576181 2.014798 0.371641 25.000000
1.588838 1.985617 0.370739 26.000000
1.626072 1.987034 0.375692 36.000000
1.631897 1.949931 0.373328 18.000000
1.655424 1.936201 0.375468 29.000000
1.669974 1.910286 0.375263 27.000000
1.690796 1.891656 0.376437 29.000000
1.691367 1.850887 0.373272 44.000000
1.718310 1.839238 0.375909 29.000000
1.723994 1.806444 0.374265 30.000000
1.747096 1.790719 0.376165 35.000000
1.773613 1.778186 0.378737 21.000000
1.786010 1.751497 0.378404 36.000000
1.807951 1.735618 0.380389 33.000000
1.812568 1.701892 0.378463 34.000000
1.838423 1.688316 0.381046 53.000000
1.849486 1.661214 0.380535 31.000000
1.870697 1.644445 0.382445 38.000000
1.899935 1.633190 0.385727 37.000000
1.906458 1.602455 0.384445 29.000000
1.939184 1.593701 0.388503 33.000000
1.959933 1.575713 0.390355 29.000000
1.969406 1.547705 0.389827 32.000000
1.998024 1.534763 0.393068 37.000000
2.006467 1.507117 0.392534 32.000000
2.018918 1.481793 0.392690 36.000000
2.039100 1.462159 0.394317 35.000000
2.042547 1.431409 0.392990 24.000000
2.066340 1.414178 0.395397 35.000000
2.105980 1.408136 0.401094 33.000000
2.121323 1.384652 0.401877 36.000000
2.115607 1.347747 0.398735 69.000000
2.159297 1.342901 0.405173 35.000000
2.161328 1.311172 0.403594 38.000000
2.171064 1.285063 0.403741 39.000000
2.206401 1.273229 0.408400 32.000000
2.228627 1.253899 0.410853 36.000000
2.242222 1.229159 0.411564 33.000000
2.264050 1.209229 0.413947 34.000000
2.285980 1.188630 0.416255 36.000000
2.307452 1.168078 0.418650 34.000000
2.311070 1.138450 0.417848 33.000000
2.336849 1.119198 0.420811 36.000000
2.330890 1.085231 0.418400 25.000000
2.382962 1.077937 0.426355 34.000000
2.403644 1.055460 0.428532 35.000000
2.419467 1.031093 0.429988 31.000000
2.444208 1.010153 0.433145 35.000000
2.455003 0.983326 0.433799 35.000000
2.470072 0.958121 0.435182 34.000000
2.498790 0.937934 0.439084 36.000000
2.481036 0.900429 0.434785 18.000000
2.532568 0.887852 0.442681 34.000000
2.546704 0.861542 0.444077 34.000000
2.551245 0.832070 0.443760 33.000000
2.569539 0.806970 0.445891 35.000000
2.582842 0.780320 0.447292 32.000000
2.605400 0.755981 0.450249 34.000000
2.632464 0.732569 0.453946 35.000000
2.602115 0.693581 0.447891 11.000000
2.690692 0.685795 0.462351 30.000000
2.717163 0.660992 0.466069 31.000000
2.728976 0.632257 0.467324 29.000000
2.754915 0.606511 0.471052 35.000000
2.790250 0.582357 0.476346 33.000000
2.801262 0.552619 0.477523 28.000000
2.845879 0.529174 0.484479 34.000000
2.797998 0.488584 0.475840 9.000000
2.885916 0.471425 0.490155 43.000000
2.900552 0.441238 0.492081 37.000000
2.900300 0.408683 0.491616 34.000000
2.943679 0.381945 0.498513 54.000000
2.932939 0.347960 0.496303 31.000000
2.990523 0.321494 0.505603 32.000000
3.008504 0.290150 0.508277 69.000000
3.011497 0.257131 0.508557 10.000000
3.068203 0.228135 0.517874 35.000000
3.124615 0.197856 0.527100 35.000000
3.126553 0.163556 0.527196 32.000000
3.162685 0.130681 0.533106 36.000000
3.158932 0.095853 0.532471 25.000000
3.140094 0.060846 0.529149 8.000000
3.170162 0.026589 0.534231 9.000000
3.268868 -0.008397 0.550848 8.000000
3.283355 -0.044409 0.553340 10.000000
3.322074 -0.081453 0.559987 10.000000
3.370320 -0.119608 0.568191 24.000000
3.422930 -0.159073 0.577329 15.000000
3.450555 -0.198311 0.582206 9.000000
3.502311 -0.239883 0.591233 46.000000
3.524061 -0.280188 0.595166 56.000000
3.510958 -0.317918 0.593288 37.000000
3.433777 -0.348846 0.580627 78.000000
3.395421 -0.382685 0.574715 33.000000
3.337258 -0.413242 0.565385 23.000000
3.308143 -0.446471 0.560930 31.000000
3.273808 -0.478452 0.555651 30.000000
3.234386 -0.508922 0.549551 57.000000
3.194574 -0.538645 0.543457 32.000000
3.164293 -0.569266 0.539022 31.000000
3.128865 -0.598232 0.533668 37.000000
3.073832 -0.622743 0.525018 8.000000
3.038008 -0.650226 0.519681 8.000000
2.987406 -0.673723 0.511878 9.000000
2.970324 -0.704139 0.509851 8.000000
2.933862 -0.729490 0.504442 8.000000
2.892315 -0.752877 0.498219 10.000000
2.874475 -0.781819 0.496022 16.000000
2.875301 -0.816032 0.497202 37.000000
2.842590 -0.840571 0.492641 36.000000
2.814561 -0.865767 0.488816 37.000000
2.800207 -0.895146 0.487451 62.000000
2.757612 -0.914920 0.481187 33.000000
2.724133 -0.937095 0.476567 9.000000
2.695209 -0.960236 0.472772 18.000000
2.693934 -0.993208 0.473781 27.000000
2.659873 -1.013818 0.469094 32.000000
2.621236 -1.032027 0.463606 26.000000
2.596197 -1.055120 0.460477 21.000000
2.666489 -1.117796 0.474355 31.000000
2.731240 -1.180219 0.487380 33.000000
2.893878 -1.288585 0.518314 29.000000
3.014341 -1.381919 0.541611 26.000000
3.057289 -1.442100 0.551148 24.000000
3.054616 -1.482324 0.552827 30.000000
3.020680 -1.506791 0.548674 26.000000
2.995509 -1.535166 0.546029 26.000000
2.960974 -1.559061 0.541999 30.000000
2.939665 -1.588888 0.540166 26.000000
2.909052 -1.614243 0.536950 21.000000
2.865828 -1.631165 0.531049 21.000000
2.847684 -1.662865 0.530233 23.000000
2.791519 -1.670929 0.521983 27.000000
2.806680 -1.722459 0.527302 27.000000
2.741975 -1.723982 0.517505 24.000000
2.718706 -1.751637 0.515717 29.000000
2.670469 -1.762679 0.509216 22.000000
2.680027 -1.810905 0.513518 18.000000
2.619328 -1.812488 0.504694 9.000000
2.587651 -1.832173 0.501073 16.000000
2.587368 -1.875368 0.503889 29.000000
2.538769 -1.883301 0.497363 24.000000
2.498878 -1.895815 0.492218 22.000000
2.473950 -1.920400 0.490379 27.000000
2.437193 -1.935489 0.486131 21.000000
2.431772 -1.974188 0.487863 17.000000
2.402306 -1.994769 0.485167 22.000000
2.376456 -2.018091 0.483148 18.000000
2.350388 -2.041136 0.481229 27.000000
2.306389 -2.046643 0.475217 20.000000
2.298463 -2.085444 0.477018 23.000000
2.278992 -2.114199 0.476530 26.000000
2.234153 -2.119033 0.470653 19.000000
2.232923 -2.163435 0.473746 21.000000
2.198489 -2.177665 0.470150 22.000000
2.157145 -2.184340 0.465068 19.000000
2.143381 -2.218887 0.465886 25.000000
2.099480 -2.220089 0.459898 21.000000
2.085129 -2.254081 0.460709 21.000000
2.063621 -2.280774 0.460027 24.000000
2.025455 -2.288644 0.455654 16.000000
2.048827 -2.367085 0.465265 19.000000
1.947265 -2.298153 0.446045 18.000000
1.290198 -1.628705 0.304541 21.000000
1.272382 -1.642868 0.303516 18.000000
1.245350 -1.645005 0.300266 27.000000
1.231179 -1.662088 0.299838 19.000000
1.218741 -1.683627 0.300183 16.000000
1.208857 -1.709143 0.301230 21.000000
1.198580 -1.734655 0.302261 19.000000
1.176765 -1.743748 0.300449 24.000000
1.152252 -1.748386 0.297874 18.000000
1.141053 -1.773592 0.298881 21.000000
1.109545 -1.764466 0.294088 19.000000
1.105746 -1.801993 0.297107 18.000000
1.083461 -1.809928 0.295241 16.000000
1.076119 -1.843206 0.297523 7.000000
1.334324 2.325516 0.394326 8.000000
1.334627 2.267835 0.388674 23.000000
1.364415 2.261286 0.391684 21.000000
1.378699 2.229144 0.390367 27.000000
1.400313 2.209440 0.391164 27.000000
1.424448 2.193700 0.392779 26.000000
1.438843 2.166170 0.392156 29.000000
1.456879 2.141863 0.392184 24.000000
1.485876 2.133664 0.395206 24.000000
1.497675 2.100951 0.393714 29.000000
1.508884 2.068174 0.392120 24.000000
1.537323 2.059180 0.395062 32.000000
1.558667 2.042755 0.396649 27.000000
1.574883 2.017509 0.396546 32.000000
1.593773 1.996023 0.397122 31.000000
1.618671 1.982020 0.399313 29.000000
1.608584 1.925929 0.392922 29.000000
1.644690 1.927507 0.398276 31.000000
1.649512 1.890505 0.395712 32.000000
1.676706 1.879427 0.398515 41.000000
1.683861 1.846001 0.396625 33.000000
1.706607 1.831469 0.398879 35.000000
1.726566 1.812361 0.400117 37.000000
1.736038 1.782411 0.398903 34.000000
1.769427 1.777023 0.403309 37.000000
1.784665 1.754417 0.403830 31.000000
1.793177 1.724117 0.402594 36.000000
1.822805 1.714188 0.406151 80.000000
1.837894 1.690424 0.406431 37.000000
1.863065 1.677107 0.409355 64.000000
1.859214 1.636693 0.405592 55.000000
1.888279 1.625515 0.409095 43.000000
1.913086 1.611374 0.411876 45.000000
1.926917 1.586809 0.412144 30.000000
1.932685 1.555911 0.410698 48.000000
1.945388 1.531829 0.411031 54.000000
1.981629 1.525038 0.416131 36.000000
1.982573 1.491055 0.413768 61.000000
1.990438 1.463569 0.413193 58.000000
2.038532 1.464260 0.420723 64.000000
2.029929 1.425049 0.416838 49.000000
2.057632 1.410694 0.420174 28.000000
2.097656 1.404141 0.426094 37.000000
2.096151 1.370381 0.423773 67.000000
2.123579 1.354926 0.427055 42.000000
2.125452 1.323873 0.425555 52.000000
2.148294 1.305272 0.428009 63.000000
2.157984 1.279257 0.428102 56.000000
2.184766 1.262500 0.431406 74.000000
2.224042 1.253109 0.437410 30.000000
2.233318 1.225919 0.437276 66.000000
2.246413 1.201463 0.438144 95.000000
2.285491 1.190428 0.444106 65.000000
2.302894 1.167198 0.445675 73.000000
2.319786 1.144112 0.447327 69.000000
2.331963 1.118637 0.448128 39.000000
2.357373 1.099248 0.451494 54.000000
2.382759 1.079080 0.454627 29.000000
2.416891 1.062823 0.459644 40.000000
2.414668 1.030443 0.457803 84.000000
2.443851 1.011464 0.461976 51.000000
2.463809 0.988172 0.464355 58.000000
2.483601 0.964680 0.466738 68.000000
2.489310 0.935623 0.466534 42.000000
2.508619 0.911548 0.468924 57.000000
2.499792 0.877402 0.466038 36.000000
2.546378 0.862706 0.473634 70.000000
2.560307 0.836158 0.475086 68.000000
2.583328 0.812378 0.478195 71.000000
2.601398 0.786947 0.480524 67.000000
2.614548 0.759599 0.481900 72.000000
2.641534 0.736196 0.485896 72.000000
2.658866 0.709753 0.488238 54.000000
2.699762 0.689104 0.494870 33.000000
2.707103 0.659395 0.495302 50.000000
2.733279 0.634048 0.499237 63.000000
2.749590 0.606161 0.501425 62.000000
2.775322 0.579902 0.505283 65.000000
2.800790 0.553308 0.509235 62.000000
2.825898 0.526113 0.513192 63.000000
2.850906 0.498494 0.517066 41.000000
2.885254 0.471857 0.522614 35.000000
2.904745 0.442448 0.525709 78.000000
2.928885 0.413316 0.529507 93.000000
2.957597 0.384298 0.534189 95.000000
2.981215 0.354071 0.537994 95.000000
2.999524 0.322888 0.540921 95.000000
3.032190 0.292801 0.546404 77.000000
3.069536 0.262393 0.552774 94.000000
3.077118 0.229040 0.553849 51.000000
3.108882 0.197136 0.559342 84.000000
3.155044 0.165261 0.567491 89.000000
3.186211 0.131803 0.572794 95.000000
3.197235 0.097198 0.574661 56.000000
3.188287 0.061798 0.572992 10.000000
3.228149 0.027126 0.580166 9.000000
3.247934 -0.008359 0.583704 9.000000
3.272235 -0.044343 0.588126 9.000000
3.271525 -0.080264 0.588126 9.000000
3.309855 -0.117582 0.595098 9.000000
3.396798 -0.158052 0.611015 39.000000
3.444030 -0.198098 0.619643 52.000000
3.456406 -0.236973 0.622295 36.000000
3.512482 -0.279578 0.632684 49.000000
3.484698 -0.315923 0.628049 86.000000
3.397885 -0.345750 0.612820 25.000000
3.330287 -0.375747 0.601133 9.000000
3.326027 -0.412324 0.600925 25.000000
3.306719 -0.446924 0.597968 82.000000
3.267562 -0.478145 0.591487 71.000000
3.237929 -0.510150 0.586774 52.000000
3.203018 -0.540701 0.581085 35.000000
3.143693 -0.566251 0.571103 79.000000
3.127687 -0.598862 0.568949 35.000000
3.034242 -0.615506 0.552640 11.000000
3.022518 -0.647778 0.551378 21.000000
2.981721 -0.673344 0.544853 25.000000
2.974235 -0.706035 0.544474 55.000000
2.952040 -0.735063 0.541372 43.000000
2.924876 -0.762441 0.537306 30.000000
2.887944 -0.786626 0.531499 78.000000
2.850810 -0.810095 0.525703 55.000000
2.818205 -0.834521 0.520881 43.000000
2.804299 -0.863771 0.519372 47.000000
2.780683 -0.890097 0.516305 35.000000
2.766148 -0.919038 0.514893 37.000000
2.732842 -0.941192 0.509827 24.000000
2.727090 -0.972762 0.510068 10.000000
2.748661 -1.014667 0.515504 30.000000
2.746696 -1.048230 0.516600 26.000000
2.753452 -1.085608 0.519327 30.000000
2.741530 -1.115687 0.518594 28.000000
2.761030 -1.159111 0.523892 26.000000
2.757361 -1.193175 0.524870 29.000000
2.762325 -1.231354 0.527469 25.000000
2.766459 -1.270117 0.530245 11.000000
3.006477 -1.420326 0.578224 34.000000
3.052959 -1.483322 0.589166 34.000000
3.027953 -1.512247 0.586512 37.000000
2.980395 -1.530041 0.579602 31.000000
2.946257 -1.553327 0.575161 29.000000
2.933674 -1.587752 0.574979 34.000000
2.890165 -1.605932 0.568962 26.000000
2.838408 -1.617843 0.561065 16.000000
2.829010 -1.654281 0.561743 33.000000
2.798267 -1.677526 0.558098 31.000000
2.767084 -1.700794 0.554563 33.000000
2.727728 -1.717728 0.549158 30.000000
2.700384 -1.742620 0.546484 29.000000
2.681481 -1.771869 0.545190 35.000000
2.653717 -1.796089 0.542427 26.000000
2.625678 -1.819929 0.539670 8.000000
2.610023 -1.851258 0.539216 27.000000
2.561495 -1.859896 0.532322 29.000000
2.533496 -1.881738 0.529297 33.000000
2.500917 -1.900911 0.525649 30.000000
2.472039 -1.922557 0.522836 30.000000
2.447443 -1.946230 0.520562 32.000000
2.418218 -1.967189 0.517762 29.000000
2.373672 -1.975067 0.511605 14.000000
2.386288 -2.029333 0.517507 33.000000
2.337751 -2.033123 0.510461 27.000000
2.326293 -2.068928 0.511648 30.000000
2.296940 -2.087229 0.508490 31.000000
2.273810 -2.112663 0.507147 28.000000
2.254065 -2.141208 0.506511 31.000000
