x y z intensity
1.733938 -2.023771 1.409969 29.000000
1.723581 -2.058869 1.414783 33.000000
1.705750 -2.087862 1.415356 36.000000
1.683448 -2.109049 1.410710 28.000000
1.671869 -2.143947 1.415112 36.000000
1.644862 -2.161928 1.408508 29.000000
1.635140 -2.200209 1.415120 24.000000
1.617111 -2.227743 1.414701 26.000000
1.589415 -2.244984 1.407794 28.000000
1.573347 -2.275686 1.409512 29.000000
1.532808 -2.273875 1.391201 16.000000
1.486982 -2.259369 1.365664 19.000000
1.413407 -2.203491 1.316032 21.000000
1.343528 -2.149869 1.268863 18.000000
1.279179 -2.097871 1.223807 10.000000
1.191600 -2.006775 1.157177 10.000000
0.864860 1.451785 0.857457 10.000000
0.852148 1.395010 0.833612 21.000000
0.867716 1.383586 0.836580 23.000000
0.882164 1.372442 0.839772 18.000000
0.900010 1.364333 0.844980 26.000000
0.916701 1.356555 0.850486 22.000000
0.929377 1.340693 0.850989 25.000000
0.943472 1.328845 0.854077 23.000000
0.987056 1.355670 0.882440 13.000000
0.974920 1.307682 0.862141 29.000000
0.983412 1.288218 0.860436 26.000000
1.000691 1.278701 0.865420 27.000000
0.997743 1.245369 0.854127 37.000000
1.027756 1.253096 0.871147 24.000000
1.052437 1.253491 0.883455 31.000000
1.060103 1.233484 0.881471 34.000000
1.093677 1.243071 0.900909 18.000000
1.086468 1.206384 0.886891 32.000000
1.108368 1.202222 0.896757 27.000000
1.109376 1.175422 0.889731 29.000000
1.140347 1.180172 0.906773 35.000000
1.156239 1.168804 0.911715 30.000000
1.153431 1.138769 0.902025 33.000000
1.181540 1.139257 0.916592 32.000000
1.213102 1.142223 0.933666 27.000000
1.205695 1.109537 0.921641 29.000000
1.214619 1.091309 0.921478 30.000000
1.233235 1.081597 0.928579 30.000000
1.247868 1.069181 0.933580 33.000000
1.263083 1.056106 0.938189 29.000000
1.287634 1.051415 0.950487 36.000000
1.319143 1.051682 0.967811 28.000000
1.324053 1.029563 0.964784 23.000000
1.341936 1.018383 0.972084 30.000000
1.359753 1.006854 0.979349 35.000000
1.367107 0.987378 0.978987 31.000000
1.384764 0.975334 0.986161 32.000000
1.409590 0.967884 0.998278 30.000000
1.420104 0.950301 1.000272 35.000000
1.444885 0.941956 1.012329 32.000000
1.462476 0.928570 1.019292 28.000000
1.479492 0.915189 1.026583 31.000000
1.493227 0.898915 1.030854 34.000000
1.510103 0.884909 1.038056 33.000000
1.534916 0.874479 1.049826 35.000000
1.544135 0.855602 1.051770 30.000000
1.568408 0.844742 1.063906 33.000000
1.588867 0.831331 1.073447 32.000000
1.620731 0.823402 1.090602 30.000000
1.633503 0.805241 1.094860 31.000000
1.638394 0.783225 1.093837 30.000000
1.658586 0.768308 1.103140 27.000000
1.694319 0.760043 1.122615 27.000000
1.721877 0.747833 1.137357 29.000000
1.738066 0.729774 1.143817 28.000000
1.761639 0.714936 1.155821 28.000000
1.781172 0.698018 1.165186 25.000000
1.800600 0.680601 1.174433 30.000000
1.815981 0.661431 1.180955 29.000000
1.839269 0.644748 1.192638 32.000000
1.849933 0.623656 1.196855 30.000000
1.872998 0.606121 1.208365 25.000000
1.911957 0.593381 1.230724 29.000000
1.922277 0.571214 1.234636 23.000000
1.936503 0.550039 1.241105 14.000000
1.983487 0.537420 1.268450 27.000000
2.022258 0.521598 1.290433 24.000000
2.032083 0.497811 1.293962 24.000000
2.062031 0.478805 1.310958 25.000000
2.071502 0.454412 1.314200 19.000000
2.101264 0.434293 1.331004 24.000000
2.143340 0.415915 1.355587 17.000000
2.118250 0.384567 1.338286 9.000000
2.193594 0.370676 1.383799 25.000000
2.218642 0.347092 1.397488 22.000000
2.251599 0.324368 1.416798 20.000000
2.292815 0.301872 1.441253 26.000000
2.308614 0.275438 1.449772 20.000000
2.341067 0.250417 1.468714 21.000000
2.381440 0.225562 1.493306 20.000000
2.396357 0.197606 1.501854 9.000000
2.428219 0.170441 1.520308 17.000000
2.501848 0.145009 1.565605 22.000000
2.511491 0.114915 1.571627 13.000000
2.555131 0.085754 1.598130 18.000000
2.598066 0.055561 1.625007 16.000000
2.598440 0.023945 1.625194 10.000000
2.657881 -0.007845 1.662312 24.000000
2.708554 -0.041049 1.694029 21.000000
2.750446 -0.075163 1.720143 22.000000
2.812901 -0.111146 1.760001 25.000000
2.849899 -0.147260 1.783035 23.000000
2.894601 -0.184944 1.811865 24.000000
2.887868 -0.219899 1.809425 24.000000
2.855795 -0.252407 1.790158 18.000000
2.840451 -0.285894 1.781289 25.000000
2.820098 -0.318596 1.770294 23.000000
2.799583 -0.350785 1.759100 24.000000
2.761994 -0.380249 1.737136 24.000000
2.753586 -0.413203 1.733491 23.000000
2.740302 -0.445474 1.727707 25.000000
2.718384 -0.475975 1.716446 24.000000
2.679931 -0.502640 1.693851 10.000000
2.682580 -0.536929 1.698047 26.000000
2.664215 -0.566998 1.688865 26.000000
2.645029 -0.596762 1.680279 25.000000
2.634468 -0.627902 1.676091 29.000000
2.610777 -0.655930 1.664407 25.000000
2.603340 -0.687901 1.663248 27.000000
2.579211 -0.715130 1.651298 25.000000
2.538637 -0.737021 1.628779 10.000000
2.559012 -0.776663 1.645414 28.000000
2.526211 -0.799994 1.627891 27.000000
2.529240 -0.835037 1.634312 26.000000
2.500113 -0.858820 1.619156 28.000000
2.474396 -0.883639 1.607018 29.000000
2.448523 -0.907971 1.594808 24.000000
2.434546 -0.936414 1.590338 24.000000
2.384522 -0.950251 1.562200 11.000000
2.413662 -0.995616 1.586049 29.000000
2.386654 -1.018737 1.573906 27.000000
2.375632 -1.047727 1.571498 26.000000
2.359975 -1.075221 1.566967 29.000000
2.351736 -1.106078 1.567423 28.000000
2.335563 -1.133106 1.562621 28.000000
2.315413 -1.157937 1.555160 23.000000
2.272105 -1.170610 1.532106 12.000000
2.263072 -1.200449 1.532126 31.000000
2.249955 -1.228142 1.529393 29.000000
2.232908 -1.253550 1.524103 27.000000
2.226167 -1.285587 1.526845 32.000000
2.204989 -1.308388 1.518738 26.000000
2.197606 -1.340244 1.521279 31.000000
2.172418 -1.360031 1.510470 27.000000
2.139128 -1.375340 1.494986 11.000000
2.134623 -1.408936 1.499783 30.000000
2.115486 -1.432847 1.494272 28.000000
2.103315 -1.461508 1.493720 29.000000
2.087299 -1.487477 1.490553 31.000000
2.074504 -1.515726 1.489804 24.000000
2.078796 -1.556854 1.501465 19.000000
2.044858 -1.569211 1.485503 10.000000
2.009940 -1.581592 1.470049 10.000000
2.019947 -1.628039 1.486331 30.000000
1.995822 -1.647239 1.477632 27.000000
1.990540 -1.683655 1.484253 29.000000
1.946384 -1.685144 1.460488 31.000000
1.937363 -1.718288 1.464439 27.000000
1.924563 -1.748477 1.465809 30.000000
1.906253 -1.771979 1.461619 22.000000
1.877097 -1.786913 1.450558 11.000000
1.876190 -1.828674 1.461365 31.000000
1.852955 -1.849208 1.455090 25.000000
1.838692 -1.878675 1.455914 28.000000
1.821175 -1.904858 1.454203 30.000000
1.797333 -1.924528 1.447660 24.000000
1.788247 -1.959954 1.453049 28.000000
1.755240 -1.969280 1.439040 20.000000
1.725218 -1.981349 1.427568 10.000000
1.726660 -2.029771 1.442135 27.000000
1.716090 -2.064856 1.447000 24.000000
1.688291 -2.079517 1.437617 28.000000
1.666025 -2.100669 1.432886 29.000000
1.647491 -2.129266 1.433318 23.000000
1.646089 -2.178126 1.447212 28.000000
1.617639 -2.191661 1.437452 18.000000
1.603073 -2.227084 1.442245 18.000000
1.582064 -2.250765 1.439455 28.000000
1.559081 -2.275079 1.437027 21.000000
1.532791 -2.290942 1.429411 13.000000
1.468096 -2.251487 1.387874 12.000000
1.408650 -2.213670 1.348242 10.000000
1.322736 -2.133847 1.284353 10.000000
1.258776 -2.081908 1.238531 9.000000
0.821633 1.391160 0.837684 24.000000
0.836185 1.380496 0.841017 24.000000
0.861096 1.384155 0.853235 23.000000
0.861308 1.350651 0.842527 27.000000
0.886127 1.353791 0.854797 22.000000
0.905232 1.349734 0.862668 27.000000
0.911943 1.327146 0.858810 30.000000
0.949724 1.347372 0.882840 18.000000
0.938215 1.299405 0.862289 29.000000
0.949374 1.283816 0.862912 29.000000
0.963886 1.271131 0.865570 30.000000
0.977401 1.258780 0.868506 43.000000
1.004453 1.263371 0.883389 27.000000
1.009631 1.240318 0.879028 35.000000
1.034153 1.240792 0.891532 30.000000
1.061691 1.244137 0.906409 26.000000
1.052049 1.204232 0.889813 32.000000
1.082521 1.210294 0.907125 30.000000
1.089687 1.189955 0.904901 35.000000
1.099635 1.172832 0.905045 37.000000
1.112360 1.158755 0.907635 30.000000
1.134175 1.153815 0.917512 36.000000
1.168356 1.160722 0.937322 37.000000
1.190428 1.154813 0.947189 32.000000
1.186639 1.125144 0.937610 28.000000
1.199007 1.109900 0.939911 35.000000
1.216992 1.100809 0.947616 36.000000
1.225951 1.082332 0.947307 36.000000
1.240587 1.069870 0.952416 30.000000
1.265777 1.065090 0.964571 40.000000
1.280332 1.052051 0.969609 34.000000
1.312358 1.051826 0.986783 30.000000
1.309971 1.024782 0.979018 33.000000
1.327770 1.013633 0.986400 34.000000
1.345564 1.002136 0.993745 35.000000
1.366769 0.992874 1.003608 49.000000
1.377503 0.975724 1.005707 34.000000
1.388117 0.958453 1.007806 65.000000
1.402110 0.943397 1.012354 47.000000
1.437484 0.942230 1.032298 32.000000
1.447335 0.924486 1.034562 34.000000
1.472031 0.915353 1.046736 37.000000
1.481671 0.897185 1.048899 35.000000
1.506353 0.887198 1.060943 36.000000
1.515776 0.868538 1.063003 37.000000
1.539927 0.858064 1.075353 38.000000
1.560381 0.845063 1.085068 46.000000
1.569458 0.825703 1.086846 34.000000
1.601109 0.817779 1.104324 31.000000
1.617626 0.801664 1.111240 34.000000
1.637867 0.787073 1.120667 35.000000
1.665747 0.775657 1.135305 37.000000
1.673921 0.755156 1.137151 31.000000
1.701697 0.742759 1.151713 35.000000
1.717389 0.725124 1.158658 32.000000
1.725093 0.703957 1.160266 29.000000
1.748449 0.688875 1.172392 34.000000
1.767708 0.671763 1.181761 47.000000
1.806828 0.661575 1.204275 52.000000
1.826020 0.643423 1.213488 39.000000
1.848755 0.626545 1.225727 42.000000
1.883826 0.612779 1.245410 66.000000
1.890324 0.589642 1.246767 56.000000
1.896537 0.566362 1.248052 33.000000
1.951391 0.557007 1.281299 33.000000
1.965480 0.535131 1.287741 36.000000
1.995829 0.517294 1.304739 47.000000
2.025795 0.498930 1.322137 36.000000
2.039521 0.475823 1.328171 35.000000
2.060928 0.454483 1.340027 35.000000
2.098787 0.436020 1.362397 35.000000
2.115859 0.412708 1.371301 29.000000
2.145200 0.391205 1.388191 35.000000
2.186557 0.371369 1.413400 43.000000
2.207309 0.347101 1.424634 43.000000
2.231725 0.323109 1.438890 48.000000
2.251782 0.297973 1.450306 42.000000
2.288376 0.274351 1.472416 36.000000
2.312241 0.248558 1.486212 37.000000
2.335650 0.222253 1.500439 27.000000
2.375549 0.196825 1.525288 32.000000
2.419805 0.170596 1.552236 32.000000
2.450991 0.142690 1.571367 34.000000
2.481500 0.114154 1.590955 33.000000
2.520633 0.085002 1.615132 34.000000
2.567574 0.055196 1.645164 33.000000
2.605834 0.024085 1.669721 35.000000
2.660657 -0.007908 1.704787 33.000000
2.706769 -0.041208 1.734263 36.000000
2.748367 -0.075427 1.760836 35.000000
2.801862 -0.111278 1.795993 45.000000
2.842798 -0.147710 1.822237 35.000000
2.887274 -0.185441 1.851575 35.000000
2.893051 -0.221410 1.857070 34.000000
2.831898 -0.251621 1.818615 25.000000
2.812352 -0.284532 1.807019 33.000000
2.808973 -0.318934 1.806609 34.000000
2.796824 -0.352283 1.800612 37.000000
2.767794 -0.383014 1.783654 35.000000
2.759377 -0.416174 1.779953 35.000000
2.737784 -0.447295 1.768696 36.000000
2.724658 -0.479268 1.762019 32.000000
2.690137 -0.507229 1.742326 28.000000
2.671985 -0.537709 1.733188 35.000000
2.670099 -0.571219 1.734686 37.000000
2.639078 -0.598297 1.717230 35.000000
2.615708 -0.626833 1.705639 37.000000
2.592522 -0.654578 1.693190 35.000000
2.576917 -0.684283 1.686685 33.000000
2.561071 -0.713595 1.679899 32.000000
2.536964 -0.740337 1.667690 26.000000
2.520671 -0.768863 1.660738 30.000000
2.516338 -0.801042 1.661499 34.000000
2.503084 -0.830749 1.657506 32.000000
2.482138 -0.857117 1.647443 33.000000
2.468501 -0.886242 1.643085 36.000000
2.454611 -0.915175 1.638639 33.000000
2.444427 -0.945351 1.636753 29.000000
2.414361 -0.967447 1.621453 28.000000
2.388013 -0.990591 1.608642 31.000000
2.365523 -1.014839 1.598406 32.000000
2.365618 -1.049321 1.604461 29.000000
2.331178 -1.067598 1.586077 32.000000
2.323063 -1.098307 1.586588 35.000000
2.318364 -1.130794 1.589714 30.000000
2.309593 -1.161280 1.589929 29.000000
2.274108 -1.178046 1.571737 26.000000
2.253653 -1.202095 1.563948 32.000000
2.247972 -1.233987 1.566510 35.000000
2.223338 -1.255384 1.555862 34.000000
2.213437 -1.284812 1.555539 33.000000
2.195234 -1.310315 1.550479 34.000000
2.181182 -1.337142 1.547376 32.000000
2.155350 -1.357580 1.536890 29.000000
2.130120 -1.376931 1.525798 24.000000
2.118335 -1.405859 1.525571 28.000000
2.102772 -1.432191 1.522585 30.000000
2.086937 -1.458341 1.519508 32.000000
2.070921 -1.484310 1.516341 29.000000
2.058099 -1.512554 1.515635 29.000000
2.051914 -1.545882 1.519828 20.000000
2.052197 -1.584457 1.529067 12.000000
2.001306 -1.583069 1.500054 15.000000
1.999990 -1.622037 1.509626 26.000000
1.972628 -1.638539 1.498233 31.000000
1.950848 -1.660664 1.492453 26.000000
1.949413 -1.698938 1.501022 28.000000
1.917430 -1.712137 1.487538 31.000000
1.896196 -1.732780 1.480871 29.000000
1.898987 -1.777588 1.494690 26.000000
1.871000 -1.791838 1.482844 16.000000
1.857251 -1.821605 1.483973 24.000000
1.840210 -1.848175 1.482513 28.000000
1.816852 -1.868310 1.476021 26.000000
1.802285 -1.897566 1.476822 24.000000
1.790360 -1.929895 1.479955 28.000000
1.775113 -1.959033 1.480509 25.000000
1.750859 -1.978233 1.473635 24.000000
1.723725 -1.993683 1.464347 17.000000
1.707655 -2.022175 1.464680 23.000000
1.697015 -2.057289 1.469625 27.000000
1.663805 -2.065009 1.455264 24.000000
1.655124 -2.103297 1.462544 23.000000
1.632599 -2.124147 1.457704 24.000000
1.610942 -2.149166 1.455619 21.000000
1.601002 -2.187244 1.462455 23.000000
1.575130 -2.203963 1.455013 10.000000
1.560157 -2.239171 1.459754 16.000000
1.543990 -2.269860 1.461514 19.000000
1.515091 -2.282049 1.451422 10.000000
1.467646 -2.268595 1.425505 10.000000
1.401245 -2.219859 1.378352 14.000000
1.348243 -2.193201 1.345761 12.000000
1.279576 -2.134310 1.294385 10.000000
0.818042 1.362140 0.845673 30.000000
0.841572 1.366444 0.858401 35.000000
0.861722 1.362336 0.866078 26.000000
0.876074 1.351055 0.869373 32.000000
0.879199 1.320865 0.860361 32.000000
0.907868 1.331226 0.877852 31.000000
0.924436 1.323005 0.883445 29.000000
0.924167 1.289117 0.871803 27.000000
0.942992 1.284186 0.879674 34.000000
0.954082 1.268473 0.880248 34.000000
0.972929 1.262986 0.888050 34.000000
0.981002 1.243547 0.886120 39.000000
0.999829 1.237645 0.893898 37.000000
1.024243 1.238089 0.906566 36.000000
1.051647 1.241454 0.921760 37.000000
1.042276 1.201552 0.904780 28.000000
1.072588 1.207570 0.922394 51.000000
1.088562 1.196928 0.927548 56.000000
1.098699 1.179699 0.927729 34.000000
1.105551 1.159242 0.925339 57.000000
1.130286 1.157336 0.937910 46.000000
1.145325 1.146240 0.943336 37.000000
1.164089 1.137512 0.950841 76.000000
1.170387 1.116486 0.948200 21.000000
1.194611 1.113590 0.961032 34.000000
1.203802 1.095252 0.960804 35.000000
1.221710 1.085855 0.968555 33.000000
1.230582 1.067268 0.968203 47.000000
1.251689 1.060153 0.978432 46.000000
1.272857 1.052558 0.988583 36.000000
1.284724 1.036168 0.990639 41.000000
1.309230 1.030551 1.003306 21.000000
1.316877 1.011443 1.003095 35.000000
1.331252 0.997370 1.007936 37.000000
1.348895 0.985614 1.015326 35.000000
1.366529 0.973565 1.022618 53.000000
1.384151 0.961161 1.029932 36.000000
1.397626 0.946373 1.034956 36.000000
1.411574 0.931014 1.039508 48.000000
1.443300 0.926944 1.057125 22.000000
1.456683 0.911306 1.062029 32.000000
1.474055 0.897232 1.069021 36.000000
1.487187 0.881059 1.073766 36.000000
1.518627 0.875268 1.091675 62.000000
1.528017 0.856299 1.093628 42.000000
1.548320 0.843286 1.103477 37.000000
1.568693 0.829868 1.113288 49.000000
1.581409 0.812173 1.117676 19.000000
1.601676 0.798030 1.127337 32.000000
1.625618 0.785314 1.139561 33.000000
1.649133 0.772414 1.152209 32.000000
1.673067 0.758741 1.164363 34.000000
1.681032 0.738032 1.166155 33.000000
1.704863 0.723450 1.178084 32.000000
1.739874 0.713548 1.198503 34.000000
1.735741 0.687253 1.191928 25.000000
1.774656 0.677711 1.214967 36.000000
1.793458 0.660259 1.224850 37.000000
1.808595 0.640763 1.231428 37.000000
1.827217 0.622496 1.241140 37.000000
1.850135 0.604961 1.253016 37.000000
1.860503 0.583328 1.257068 32.000000
1.886849 0.566355 1.271902 34.000000
1.925221 0.552288 1.294835 26.000000
1.955481 0.535062 1.312154 33.000000
1.981606 0.516177 1.326705 33.000000
2.007251 0.496791 1.341653 33.000000
2.032851 0.476830 1.356475 41.000000
2.050449 0.454322 1.365259 35.000000
2.088084 0.435946 1.388069 35.000000
2.104687 0.412734 1.397578 30.000000
2.133857 0.391251 1.414667 28.000000
2.162971 0.369077 1.431613 35.000000
2.187323 0.345719 1.446242 40.000000
2.219866 0.323059 1.466197 46.000000
2.235744 0.297315 1.475062 36.000000
2.263792 0.272766 1.491981 35.000000
2.304135 0.248952 1.517042 34.000000
2.323240 0.222226 1.528761 27.000000
2.388229 0.198735 1.569945 28.000000
2.406925 0.170540 1.581344 32.000000
2.437819 0.142667 1.600796 34.000000
2.468211 0.114077 1.620705 35.000000
2.519523 0.085386 1.653613 31.000000
2.545244 0.054919 1.670438 32.000000
2.583236 0.023952 1.695313 32.000000
2.616771 -0.007928 1.717259 25.000000
2.679277 -0.040982 1.758309 34.000000
2.741475 -0.075674 1.799055 32.000000
2.777869 -0.110908 1.823839 32.000000
2.835210 -0.148055 1.861407 34.000000
2.862660 -0.184857 1.880282 30.000000
2.860461 -0.220027 1.879759 33.000000
2.840869 -0.253710 1.868798 27.000000
2.788225 -0.283495 1.834996 26.000000
2.776538 -0.316896 1.829111 33.000000
2.752012 -0.348415 1.814914 32.000000
2.739777 -0.381152 1.808632 30.000000
2.723126 -0.412957 1.799420 32.000000
2.710344 -0.444934 1.792849 34.000000
2.696792 -0.476908 1.786685 30.000000
2.666613 -0.505459 1.769403 23.000000
2.653059 -0.536526 1.762365 30.000000
2.647047 -0.569153 1.761083 32.000000
2.611733 -0.595357 1.741318 35.000000
2.584815 -0.622527 1.726145 31.000000
2.582207 -0.655289 1.727220 32.000000
2.550322 -0.680674 1.709652 32.000000
2.538601 -0.711023 1.705593 28.000000
2.522588 -0.739994 1.698632 21.000000
2.498402 -0.766111 1.686165 30.000000
2.489955 -0.796862 1.684267 30.000000
2.484737 -0.829038 1.685644 32.000000
2.463879 -0.855414 1.675446 29.000000
2.454230 -0.885971 1.673837 32.000000
2.428997 -0.910145 1.660594 32.000000
2.391451 -0.929446 1.639773 25.000000
2.381136 -0.958997 1.637821 20.000000
2.362850 -0.985115 1.630219 31.000000
2.374701 -1.024691 1.644650 30.000000
2.336581 -1.041840 1.623373 34.000000
2.317072 -1.067433 1.616080 31.000000
2.301826 -1.094097 1.610736 33.000000
2.289589 -1.122804 1.608527 32.000000
2.276984 -1.151235 1.606135 22.000000
2.245511 -1.169794 1.590354 19.000000
2.243754 -1.203632 1.595764 33.000000
2.226837 -1.229462 1.590454 32.000000
2.209690 -1.254924 1.584970 32.000000
2.192405 -1.280112 1.579313 32.000000
2.182270 -1.309398 1.578937 34.000000
2.163845 -1.334587 1.573747 34.000000
2.145924 -1.358955 1.567835 25.000000
2.112866 -1.374312 1.551995 21.000000
2.100962 -1.403235 1.551721 30.000000
2.089731 -1.431433 1.550712 29.000000
2.084344 -1.464989 1.555447 33.000000
2.061291 -1.486047 1.547058 32.000000
2.051823 -1.516913 1.548888 33.000000
2.042062 -1.547679 1.550695 31.000000
2.018391 -1.567927 1.541965 10.000000
1.994743 -1.587823 1.533167 12.000000
1.969941 -1.607821 1.524937 31.000000
1.962537 -1.640601 1.528741 31.000000
1.941630 -1.662270 1.522272 35.000000
1.922837 -1.687056 1.518913 32.000000
1.911263 -1.716685 1.519920 34.000000
1.892043 -1.741098 1.516276 33.000000
1.883057 -1.773376 1.519592 21.000000
1.860176 -1.794368 1.513221 20.000000
1.855519 -1.833308 1.521889 31.000000
1.830361 -1.850110 1.512257 30.000000
1.809876 -1.873350 1.508215 30.000000
1.795153 -1.902707 1.508986 32.000000
1.777169 -1.928844 1.507238 28.000000
1.761834 -1.957912 1.507867 32.000000
1.731837 -1.970539 1.495991 19.000000
1.713102 -1.995957 1.493945 21.000000
1.699795 -2.027842 1.496714 28.000000
1.686086 -2.059570 1.499344 27.000000
1.663804 -2.081107 1.494589 32.000000
1.644022 -2.105711 1.492180 29.000000
1.637319 -2.147573 1.501811 31.000000
1.603768 -2.154378 1.487031 29.000000
1.596167 -2.196149 1.496359 20.000000
1.563401 -2.206611 1.484506 16.000000
1.549942 -2.241005 1.488823 23.000000
1.533625 -2.271731 1.490588 23.000000
1.495646 -2.273741 1.473733 14.000000
1.445410 -2.252168 1.442163 11.000000
1.384777 -2.215516 1.401788 19.000000
1.326906 -2.176849 1.361126 20.000000
0.813528 1.366448 0.864290 31.000000
0.837037 1.370601 0.877191 25.000000
0.856211 1.366973 0.885298 31.000000
0.859865 1.336712 0.876260 32.000000
0.871582 1.321762 0.877050 28.000000
0.890449 1.317512 0.885117 35.000000
0.915339 1.319692 0.897764 27.000000
0.939479 1.321890 0.910701 21.000000
0.933050 1.281409 0.894226 40.000000
0.946713 1.269190 0.897281 34.000000
0.965598 1.263710 0.905227 43.000000
0.971142 1.240778 0.900742 36.000000
0.992628 1.238243 0.911147 32.000000
1.008724 1.228635 0.916492 62.000000
1.038704 1.235346 0.934378 29.000000
1.057720 1.228352 0.942249 25.000000
1.053972 1.195072 0.929932 37.000000
1.072762 1.187737 0.937690 33.000000
1.094505 1.183245 0.948011 56.000000
1.104498 1.165853 0.948095 37.000000
1.110520 1.145789 0.945955 35.000000
1.135254 1.143494 0.958672 67.000000
1.157025 1.137761 0.968879 34.000000
1.165815 1.120197 0.969134 25.000000
1.184491 1.110872 0.976647 33.000000
1.199271 1.098785 0.981949 29.000000
1.214751 1.085980 0.986858 50.000000
1.222986 1.067822 0.986819 35.000000
1.234293 1.052341 0.989429 35.000000
1.261930 1.050267 1.004915 52.000000
1.273797 1.033877 1.006971 32.000000
1.294853 1.025652 1.017245 28.000000
1.316021 1.016996 1.027437 35.000000
1.316818 0.992557 1.021863 33.000000
1.337858 0.983347 1.031971 71.000000
1.361730 0.976651 1.045120 38.000000
1.368984 0.956864 1.044579 35.000000
1.386447 0.944198 1.051875 61.000000
1.418004 0.940531 1.069775 29.000000
1.445640 0.934282 1.085441 25.000000
1.452434 0.913587 1.084633 33.000000
1.465699 0.897641 1.089478 33.000000
1.478826 0.881418 1.094334 36.000000
1.495584 0.867096 1.101700 37.000000
1.508514 0.850334 1.106394 34.000000
1.532440 0.839486 1.119061 35.000000
1.552703 0.826101 1.128937 27.000000
1.565432 0.808450 1.133428 22.000000
1.600555 0.801935 1.153988 36.000000
1.620729 0.787224 1.163751 33.000000
1.640369 0.772427 1.173867 35.000000
1.663740 0.759022 1.186599 36.000000
1.676091 0.739691 1.190654 32.000000
1.695520 0.723688 1.200574 35.000000
1.726467 0.712119 1.218510 24.000000
1.738045 0.692094 1.222811 22.000000
1.765073 0.677834 1.237938 36.000000
1.779880 0.658874 1.245216 35.000000
1.802900 0.642176 1.257375 43.000000
1.821462 0.623872 1.267230 36.000000
1.840325 0.604993 1.276538 35.000000
1.854657 0.584633 1.283391 36.000000
1.876887 0.566344 1.295699 31.000000
1.915034 0.552206 1.318920 24.000000
1.945128 0.534988 1.336583 36.000000
1.966714 0.515209 1.349044 35.000000
1.992657 0.495663 1.363694 32.000000
2.009929 0.473855 1.373203 35.000000
2.031174 0.452576 1.385422 31.000000
2.088916 0.438433 1.422382 35.000000
2.085450 0.410915 1.417616 23.000000
2.143062 0.394823 1.454401 31.000000
2.155255 0.369763 1.461075 36.000000
2.175446 0.345726 1.473157 34.000000
2.199560 0.321722 1.487871 39.000000
2.219378 0.296739 1.499653 36.000000
2.259697 0.273682 1.525195 34.000000
2.295655 0.249257 1.547885 35.000000
2.306297 0.221715 1.554219 27.000000
2.366779 0.197952 1.593214 26.000000
2.389405 0.170188 1.607581 32.000000
2.420174 0.142311 1.627440 32.000000
2.450266 0.113806 1.647669 30.000000
2.488861 0.084778 1.672668 34.000000
2.526844 0.054826 1.698130 30.000000
2.552115 0.023836 1.715048 26.000000
2.618608 -0.007991 1.759764 30.000000
2.655761 -0.040918 1.784668 30.000000
2.713357 -0.075343 1.823308 30.000000
2.749483 -0.110372 1.848501 33.000000
2.806406 -0.147412 1.886811 32.000000
2.841934 -0.184438 1.911580 33.000000
2.839736 -0.219609 1.911057 30.000000
2.811993 -0.252447 1.894342 16.000000
2.792770 -0.285518 1.882270 33.000000
2.772759 -0.318179 1.870723 31.000000
2.744344 -0.349280 1.853410 32.000000
2.727935 -0.381496 1.844353 33.000000
2.699037 -0.411527 1.826660 30.000000
2.694526 -0.444810 1.825557 34.000000
2.677432 -0.475811 1.815924 30.000000
2.627003 -0.500480 1.784498 19.000000
2.641597 -0.537100 1.797385 31.000000
2.623363 -0.567190 1.787883 31.000000
2.600835 -0.595949 1.775426 30.000000
2.586285 -0.626071 1.768326 32.000000
2.574936 -0.657217 1.764585 31.000000
2.543680 -0.682474 1.746158 33.000000
2.548003 -0.717398 1.753091 31.000000
2.499962 -0.737190 1.723957 24.000000
2.503721 -0.771872 1.730507 34.000000
2.475421 -0.796432 1.714923 30.000000
2.462147 -0.825999 1.710842 31.000000
2.453225 -0.856465 1.708754 33.000000
2.419973 -0.878469 1.690673 30.000000
2.414487 -0.909740 1.690969 31.000000
2.400422 -0.938249 1.686349 28.000000
2.374470 -0.961853 1.673344 21.000000
2.352236 -0.986503 1.662911 33.000000
2.345302 -1.017349 1.663315 33.000000
2.314446 -1.038182 1.647927 30.000000
2.303276 -1.066892 1.645342 33.000000
2.280464 -1.089894 1.634428 30.000000
2.279459 -1.124036 1.640357 34.000000
2.281891 -1.160181 1.648879 29.000000
2.227992 -1.167239 1.616633 24.000000
2.229851 -1.203155 1.624875 32.000000
2.209259 -1.226898 1.616730 32.000000
2.195801 -1.254456 1.613892 32.000000
2.189341 -1.286011 1.616332 39.000000
2.157402 -1.302385 1.599810 31.000000
2.157734 -1.338072 1.607319 32.000000
2.149641 -1.369944 1.610000 32.000000
2.092614 -1.368834 1.574623 22.000000
2.094767 -1.407061 1.585035 32.000000
2.075546 -1.431119 1.579379 32.000000
2.056196 -1.454818 1.573553 29.000000
2.047841 -1.485180 1.575031 33.000000
2.031471 -1.511008 1.571666 28.000000
2.021681 -1.541719 1.573473 28.000000
1.998095 -1.561935 1.564664 16.000000
1.977765 -1.584373 1.558407 10.000000
1.962900 -1.612499 1.557934 29.000000
1.945439 -1.637145 1.554024 33.000000
1.934357 -1.667093 1.555315 31.000000
1.906858 -1.682880 1.543427 35.000000
1.875191 -1.695915 1.529534 31.000000
1.872867 -1.733907 1.538290 29.000000
1.862643 -1.766856 1.542286 32.000000
1.841011 -1.787083 1.535240 17.000000
1.836253 -1.825856 1.544120 29.000000
1.812908 -1.846436 1.537518 31.000000
1.802648 -1.878347 1.540472 28.000000
1.781785 -1.901518 1.536225 31.000000
1.769561 -1.933955 1.539482 28.000000
1.739689 -1.947030 1.527455 27.000000
1.721112 -1.972625 1.525541 27.000000
1.682739 -1.974976 1.505859 15.000000
1.686050 -2.026623 1.523801 28.000000
1.666759 -2.051639 1.521556 30.000000
1.647209 -2.076538 1.519109 26.000000
1.637942 -2.114868 1.526653 32.000000
1.612479 -2.132549 1.519107 27.000000
1.592167 -2.156790 1.516501 28.000000
1.574044 -2.184349 1.516239 27.000000
1.558185 -2.215420 1.518293 16.000000
1.537822 -2.243469 1.518334 25.000000
1.518726 -2.270603 1.517677 26.000000
1.487424 -2.279256 1.504888 14.000000
1.442529 -2.269709 1.480567 14.000000
1.379087 -2.225177 1.434199 13.000000
1.314624 -2.175491 1.385656 16.000000
0.839188 1.385929 0.903271 25.000000
0.844588 1.359842 0.896948 30.000000
0.859036 1.348530 0.900252 23.000000
0.878132 1.344393 0.908480 28.000000
0.891025 1.328621 0.908994 27.000000
0.910095 1.323929 0.917209 24.000000
0.921655 1.308301 0.917939 24.000000
0.938155 1.299652 0.923645 22.000000
0.941807 1.273315 0.916731 34.000000
0.952879 1.257416 0.917290 30.000000
0.982299 1.265292 0.935425 25.000000
0.987944 1.242146 0.930837 32.000000
0.995923 1.222439 0.928683 29.000000
1.028516 1.232444 0.949347 32.000000
1.033568 1.209094 0.944591 26.000000
1.046722 1.195488 0.947357 26.000000
1.065493 1.188100 0.955259 36.000000
1.078548 1.174080 0.957927 35.000000
1.111161 1.182235 0.979076 32.000000
1.112309 1.155281 0.971375 32.000000
1.122069 1.137648 0.971295 32.000000
1.161167 1.150414 0.997649 35.000000
1.161705 1.123306 0.989716 21.000000
1.164214 1.099727 0.984636 22.000000
1.178873 1.087752 0.990016 32.000000
1.194285 1.075122 0.994892 28.000000
1.218406 1.071053 1.008101 30.000000
1.229831 1.055490 1.010666 31.000000
1.238471 1.036623 1.010113 29.000000
1.256134 1.026168 1.017870 32.000000
1.290340 1.028558 1.038913 22.000000
1.291457 1.004230 1.033283 26.000000
1.319208 1.000456 1.048906 35.000000
1.322653 0.978928 1.046233 33.000000
1.336784 0.964434 1.051063 32.000000
1.350790 0.949734 1.055845 30.000000
1.381546 0.947023 1.074435 33.000000
1.398987 0.933960 1.081848 30.000000
1.419379 0.923193 1.092299 22.000000
1.440291 0.911666 1.102288 26.000000
1.453589 0.895715 1.107177 32.000000
1.466686 0.879489 1.112076 32.000000
1.479767 0.863046 1.116799 30.000000
1.496284 0.848453 1.124267 33.000000
1.516492 0.835568 1.134369 31.000000
1.536644 0.822280 1.144434 28.000000
1.556735 0.808585 1.154397 11.000000
1.580489 0.796359 1.167074 26.000000
1.603824 0.783887 1.180109 26.000000
1.627580 0.770647 1.192654 29.000000
1.643327 0.753752 1.200029 27.000000
1.670298 0.741536 1.215663 25.000000
1.674446 0.718928 1.214632 27.000000
1.701335 0.705842 1.230120 25.000000
1.728262 0.692207 1.245508 17.000000
1.747473 0.674890 1.255225 25.000000
1.770401 0.658728 1.267746 28.000000
1.792899 0.642247 1.280572 26.000000
1.807464 0.622536 1.287770 25.000000
1.822300 0.602347 1.294346 28.000000
1.848477 0.585786 1.309752 24.000000
1.874577 0.568660 1.324972 20.000000
1.900593 0.550966 1.340145 18.000000
1.918099 0.530644 1.350170 19.000000
1.939970 0.510857 1.362286 18.000000
1.993430 0.498699 1.397357 23.000000
2.006629 0.475807 1.404199 19.000000
2.032196 0.455120 1.418807 24.000000
2.040697 0.430748 1.423087 17.000000
2.045398 0.405242 1.423934 10.000000
2.110675 0.391016 1.466943 15.000000
2.139042 0.368961 1.484913 16.000000
2.155439 0.344186 1.493786 20.000000
2.175316 0.319787 1.505894 16.000000
2.215438 0.297647 1.531984 16.000000
2.242806 0.273097 1.550030 18.000000
2.262125 0.246958 1.561681 12.000000
2.268670 0.219222 1.565269 9.000000
2.328701 0.195789 1.604983 10.000000
2.363487 0.169247 1.628067 10.000000
2.406377 0.142287 1.656649 10.000000
2.440370 0.113920 1.680028 13.000000
2.462224 0.084221 1.694102 10.000000
2.487574 0.054192 1.711468 10.000000
2.557873 0.023974 1.759828 16.000000
2.582682 -0.007941 1.776927 18.000000
2.644273 -0.040948 1.819242 23.000000
2.680945 -0.074898 1.844348 22.000000
2.745513 -0.110834 1.889779 24.000000
2.781527 -0.146885 1.914556 24.000000
2.808454 -0.183319 1.934069 26.000000
2.818696 -0.219190 1.942041 25.000000
2.774616 -0.250550 1.913731 19.000000
2.763733 -0.284159 1.907246 22.000000
2.747951 -0.317091 1.898348 24.000000
2.724222 -0.348467 1.882881 24.000000
2.712090 -0.381261 1.876517 24.000000
2.695600 -0.413024 1.867030 27.000000
2.686487 -0.445935 1.863803 27.000000
2.677590 -0.478543 1.859672 17.000000
2.639522 -0.505713 1.836202 21.000000
2.617578 -0.535284 1.823933 22.000000
2.595901 -0.564156 1.810792 22.000000
2.589032 -0.596631 1.810204 25.000000
2.566394 -0.624901 1.797382 25.000000
2.559666 -0.656785 1.795725 26.000000
2.548067 -0.687688 1.791746 27.000000
2.512889 -0.711339 1.770066 12.000000
2.481079 -0.735569 1.751709 21.000000
2.492661 -0.772696 1.764088 24.000000
2.460447 -0.795996 1.745479 27.000000
2.431570 -0.820315 1.730170 25.000000
2.418683 -0.849165 1.725300 25.000000
2.409630 -0.879152 1.723037 29.000000
2.372454 -0.899028 1.701749 24.000000
2.373891 -0.933329 1.708231 10.000000
2.355793 -0.959892 1.700612 24.000000
2.352811 -0.992635 1.703921 28.000000
2.334315 -1.018630 1.696036 28.000000
2.315610 -1.044342 1.688074 28.000000
2.289144 -1.066159 1.674415 26.000000
2.288303 -1.100523 1.680567 29.000000
2.276502 -1.128958 1.677686 29.000000
2.222973 -1.136671 1.645102 10.000000
2.224982 -1.172474 1.653626 26.000000
2.200915 -1.194508 1.642826 26.000000
2.198619 -1.228324 1.648298 32.000000
2.174318 -1.249623 1.637251 26.000000
2.157001 -1.274820 1.631598 27.000000
2.157467 -1.310537 1.639388 29.000000
2.143321 -1.337543 1.636173 27.000000
2.089187 -1.339976 1.603661 10.000000
2.092402 -1.377595 1.613773 28.000000
2.069882 -1.399529 1.605457 24.000000
2.068947 -1.434868 1.612618 29.000000
2.052888 -1.461238 1.609424 29.000000
2.043457 -1.492310 1.611603 26.000000
2.017845 -1.509990 1.599445 27.000000
2.007878 -1.540732 1.601422 24.000000
1.990969 -1.566233 1.597766 8.000000
1.970582 -1.588802 1.591449 14.000000
1.946804 -1.608316 1.582307 24.000000
1.925107 -1.630766 1.576383 25.000000
1.904288 -1.652407 1.569836 25.000000
1.899227 -1.687715 1.576302 26.000000
1.886261 -1.718079 1.578003 29.000000
1.871155 -1.744785 1.576323 25.000000
1.852631 -1.768262 1.571829 11.000000
1.817484 -1.777378 1.554933 24.000000
1.813839 -1.815398 1.563392 22.000000
1.802526 -1.848054 1.567141 27.000000
1.781881 -1.871464 1.562902 25.000000
1.771188 -1.903173 1.565755 24.000000
1.741421 -1.916623 1.553685 24.000000
1.720316 -1.939204 1.549261 23.000000
1.715811 -1.980992 1.560091 11.000000
1.688477 -1.996763 1.550337 22.000000
1.663841 -2.015337 1.543063 20.000000
1.652709 -2.050340 1.548477 25.000000
1.630334 -2.071877 1.543536 23.000000
1.613035 -2.099891 1.543631 21.000000
1.598088 -2.131223 1.546016 26.000000
1.572503 -2.148502 1.538345 17.000000
1.574516 -2.204227 1.558018 11.000000
1.533495 -2.199814 1.535287 21.000000
1.517250 -2.230582 1.537244 20.000000
1.506078 -2.272990 1.547122 21.000000
1.481777 -2.292698 1.541573 10.000000
1.420004 -2.253118 1.496640 10.000000
1.368626 -2.227056 1.461762 10.000000
0.845537 1.375360 0.923529 19.000000
0.863633 1.367048 0.929142 22.000000
0.868785 1.340902 0.922556 23.000000
0.892659 1.343599 0.935858 21.000000
0.907002 1.331647 0.939216 20.000000
0.916291 1.312392 0.937463 18.000000
0.930387 1.300164 0.940690 28.000000
0.939279 1.280768 0.938772 29.000000
0.963405 1.281960 0.952079 25.000000
0.966812 1.255487 0.944966 33.000000
0.988352 1.252696 0.955657 29.000000
1.012749 1.252855 0.968973 29.000000
1.020944 1.232780 0.966787 32.000000
1.037178 1.222458 0.972290 19.000000
1.044908 1.202222 0.969950 35.000000
1.058112 1.188391 0.972739 47.000000
1.073218 1.177938 0.978429 32.000000
1.089134 1.166840 0.983791 36.000000
1.092398 1.143598 0.978873 32.000000
1.116996 1.141265 0.992037 36.000000
1.144698 1.141442 1.007787 35.000000
1.156615 1.126734 1.010694 17.000000
1.168475 1.111851 1.013543 36.000000
1.180974 1.096387 1.015868 33.000000
1.201992 1.089727 1.026621 34.000000
1.210433 1.071460 1.026636 41.000000
1.225019 1.058613 1.031953 33.000000
1.236387 1.042793 1.034473 38.000000
1.251532 1.029118 1.039223 38.000000
1.281656 1.029167 1.058342 23.000000
1.289506 1.010051 1.058015 36.000000
1.300516 0.993388 1.060277 36.000000
1.311346 0.976547 1.062538 46.000000
1.328838 0.964568 1.070140 71.000000
1.362795 0.964684 1.091807 51.000000
1.370008 0.944655 1.091136 47.000000
1.393775 0.936606 1.104555 37.000000
1.411251 0.923141 1.111962 24.000000
1.435060 0.914165 1.125275 36.000000
1.455395 0.902512 1.135806 56.000000
1.472182 0.888313 1.143476 37.000000
1.481761 0.869596 1.145556 48.000000
1.487540 0.848631 1.144731 35.000000
1.503984 0.833673 1.152246 37.000000
1.527764 0.822338 1.165165 42.000000
1.558816 0.814344 1.183636 28.000000
1.574684 0.798490 1.191365 37.000000
1.590959 0.782059 1.198591 37.000000
1.602924 0.763790 1.203355 35.000000
1.622307 0.748762 1.213616 37.000000
1.645844 0.734672 1.226184 52.000000
1.665140 0.718828 1.236295 36.000000
1.684275 0.702495 1.246362 36.000000
1.714453 0.690703 1.265264 26.000000
1.745035 0.677924 1.283664 42.000000
1.775677 0.664493 1.301962 87.000000
1.786502 0.643568 1.306481 64.000000
1.804924 0.625171 1.316611 68.000000
1.823720 0.606196 1.326122 46.000000
1.841962 0.586998 1.336003 59.000000
1.883665 0.574557 1.362902 36.000000
1.889439 0.551096 1.364583 26.000000
1.919249 0.533799 1.382712 42.000000
1.944568 0.515077 1.398462 86.000000
1.962266 0.493557 1.407776 62.000000
1.987410 0.473714 1.423270 51.000000
2.028433 0.456900 1.450074 58.000000
2.049349 0.434852 1.462528 52.000000
2.074125 0.413124 1.477626 34.000000
2.114548 0.393894 1.504601 34.000000
2.139134 0.370877 1.519496 66.000000
2.167195 0.348004 1.537679 65.000000
2.186993 0.323245 1.549979 62.000000
2.214709 0.299177 1.567784 60.000000
2.242332 0.274417 1.585518 66.000000
2.289679 0.251364 1.618058 72.000000
2.304729 0.223857 1.626939 36.000000
2.359874 0.199491 1.664925 31.000000
2.386381 0.171744 1.682625 49.000000
2.420735 0.143871 1.705907 69.000000
2.438157 0.114415 1.718142 41.000000
2.492645 0.085725 1.755463 44.000000
2.521814 0.055264 1.775984 36.000000
2.546718 0.023956 1.793540 35.000000
2.567253 -0.007953 1.807934 29.000000
2.624289 -0.040948 1.848042 32.000000
2.676929 -0.075159 1.885064 34.000000
2.720665 -0.110465 1.916823 34.000000
2.740067 -0.145491 1.930497 31.000000
2.799436 -0.183705 1.973338 32.000000
2.809471 -0.219623 1.981443 31.000000
2.774356 -0.251780 1.957813 27.000000
2.742650 -0.283542 1.937483 33.000000
2.723408 -0.315800 1.924860 35.000000
2.715567 -0.349424 1.921476 35.000000
2.703479 -0.382169 1.914918 36.000000
2.678971 -0.412841 1.899654 35.000000
2.670284 -0.445602 1.895675 34.000000
2.644780 -0.475464 1.880635 32.000000
2.615631 -0.503746 1.861946 22.000000
2.597734 -0.534000 1.852365 32.000000
2.591712 -0.566579 1.851181 36.000000
2.557324 -0.592480 1.829883 35.000000
2.542907 -0.622463 1.822704 35.000000
2.543457 -0.656543 1.827344 33.000000
2.512647 -0.681829 1.808374 31.000000
2.496909 -0.711116 1.801416 29.000000
2.469788 -0.736296 1.784964 18.000000
2.465486 -0.768518 1.786086 32.000000
2.441308 -0.794282 1.772996 34.000000
2.428080 -0.823810 1.768823 35.000000
2.411378 -0.851487 1.761060 31.000000
2.394450 -0.878686 1.753122 31.000000
2.380586 -0.907442 1.748498 32.000000
2.370307 -0.937524 1.746612 28.000000
2.329851 -0.954428 1.721303 16.000000
2.338250 -0.991811 1.733253 32.000000
2.331149 -1.022844 1.733722 33.000000
2.307916 -1.047420 1.723501 32.000000
2.277773 -1.067544 1.706846 31.000000
2.281179 -1.103329 1.715273 31.000000
2.268666 -1.132278 1.713032 34.000000
2.245464 -1.154978 1.701661 29.000000
2.188557 -1.160094 1.665671 13.000000
2.201131 -1.201807 1.682621 35.000000
2.187767 -1.229640 1.679857 34.000000
2.177727 -1.259370 1.679776 36.000000
2.156818 -1.282626 1.671187 32.000000
2.149940 -1.314298 1.673591 32.000000
2.125041 -1.334695 1.662077 33.000000
2.103699 -1.356903 1.653168 29.000000
2.077785 -1.376992 1.642169 20.000000
2.076942 -1.412537 1.649595 33.000000
2.054127 -1.434343 1.640998 29.000000
2.042358 -1.462555 1.639893 31.000000
2.022685 -1.486166 1.633960 30.000000
2.009491 -1.514648 1.633301 28.000000
1.989416 -1.537716 1.627014 31.000000
1.962628 -1.555388 1.615319 10.000000
1.972751 -1.600965 1.632577 9.000000
1.957461 -1.629464 1.632049 31.000000
1.926912 -1.643543 1.617315 28.000000
1.890062 -1.651376 1.597174 32.000000
1.894294 -1.695238 1.611831 29.000000
1.885455 -1.727872 1.615524 29.000000
1.868876 -1.755417 1.614496 31.000000
1.837985 -1.767438 1.599338 24.000000
1.804136 -1.775896 1.581591 11.000000
1.811083 -1.826618 1.601365 31.000000
1.787601 -1.847237 1.594661 26.000000
1.774060 -1.876035 1.595024 29.000000
1.750239 -1.896154 1.588050 29.000000
1.733399 -1.921419 1.585669 27.000000
1.712096 -1.944112 1.581223 27.000000
1.696179 -1.973005 1.581787 26.000000
1.685432 -2.008319 1.587406 11.000000
1.652503 -2.017145 1.572308 28.000000
1.646450 -2.058884 1.582919 26.000000
1.623928 -2.080561 1.577946 29.000000
1.601218 -2.101863 1.572878 24.000000
1.588587 -2.136691 1.577914 25.000000
1.575562 -2.171507 1.582787 27.000000
1.547099 -2.185193 1.572399 21.000000
1.523599 -2.205566 1.566998 10.000000
1.507061 -2.236311 1.569045 20.000000
1.490197 -2.267058 1.570944 20.000000
1.461220 -2.279472 1.560307 13.000000
1.427916 -2.288652 1.547692 10.000000
0.827012 1.356977 0.927412 28.000000
0.841555 1.345691 0.930837 26.000000
0.869943 1.355933 0.949438 26.000000
0.863155 1.311774 0.929932 32.000000
0.901279 1.335640 0.958786 21.000000
0.920525 1.330453 0.967236 25.000000
0.914955 1.290058 0.949977 32.000000
0.933897 1.284653 0.958296 32.000000
0.937604 1.258314 0.951100 42.000000
0.956452 1.252447 0.959380 33.000000
0.980593 1.252990 0.972853 33.000000
0.975594 1.216519 0.957555 44.000000
1.018606 1.239620 0.989383 27.000000
1.026707 1.219425 0.987053 25.000000
1.030924 1.196444 0.982392 35.000000
1.049706 1.189009 0.990527 35.000000
1.068516 1.181196 0.998578 71.000000
1.077862 1.164265 0.999012 37.000000
1.096611 1.155978 1.007044 62.000000
1.105751 1.138740 1.007356 55.000000
1.136336 1.141873 1.026054 30.000000
1.151349 1.130077 1.031662 29.000000
1.154913 1.105975 1.026016 32.000000
1.169696 1.093887 1.031565 35.000000
1.190625 1.087207 1.042441 49.000000
1.199096 1.068947 1.042415 32.000000
1.220032 1.061594 1.053231 44.000000
1.231459 1.045750 1.055822 52.000000
1.242767 1.029730 1.058296 32.000000
1.260396 1.018784 1.066207 30.000000
1.284575 1.012718 1.079651 35.000000
1.295641 0.996030 1.081984 36.000000
1.309920 0.981660 1.086963 69.000000
1.333551 0.974751 1.100691 45.000000
1.354492 0.964661 1.111145 52.000000
1.364563 0.947327 1.113647 42.000000
1.385435 0.936537 1.124029 32.000000
1.405785 0.925667 1.134751 32.000000
1.433006 0.918880 1.151109 45.000000
1.442852 0.900505 1.153304 47.000000
1.459578 0.886296 1.161121 61.000000
1.472715 0.869680 1.166017 36.000000
1.478547 0.848737 1.165155 50.000000
1.495016 0.833723 1.172697 51.000000
1.504134 0.814536 1.174533 31.000000
1.556879 0.818152 1.210255 33.000000
1.569081 0.800345 1.215244 33.000000
1.577440 0.780426 1.217334 34.000000
1.597375 0.765443 1.227379 40.000000
1.616639 0.750308 1.237777 40.000000
1.624652 0.729779 1.239565 35.000000
1.658864 0.720555 1.261240 57.000000
1.681787 0.705769 1.274310 31.000000
1.719832 0.696615 1.298739 35.000000
1.727021 0.674979 1.300675 37.000000
1.746042 0.657253 1.310610 36.000000
1.772081 0.642161 1.326669 75.000000
1.790410 0.623755 1.336931 45.000000
1.812557 0.606281 1.349956 40.000000
1.838490 0.589590 1.365750 64.000000
1.856542 0.569869 1.375720 34.000000
1.882356 0.552076 1.391345 32.000000
1.908078 0.533639 1.406846 42.000000
1.929315 0.513806 1.419846 37.000000
1.946468 0.492503 1.429893 43.000000
1.971453 0.472726 1.445534 51.000000
2.012187 0.455895 1.472741 38.000000
2.033052 0.433916 1.485296 51.000000
2.049773 0.410582 1.494879 29.000000
2.089813 0.391596 1.522251 32.000000
2.118228 0.369370 1.540199 43.000000
2.146090 0.346539 1.558648 62.000000
2.169772 0.322586 1.574039 48.000000
2.197380 0.298510 1.592195 47.000000
2.240934 0.275811 1.621865 42.000000
2.255584 0.248981 1.631554 36.000000
2.282726 0.222945 1.649152 32.000000
2.329365 0.198018 1.681875 34.000000
2.363767 0.171094 1.705769 40.000000
2.393813 0.143025 1.726485 37.000000
2.431366 0.114716 1.753510 40.000000
2.457067 0.084978 1.770952 41.000000
2.494121 0.054897 1.797629 35.000000
2.535057 0.023937 1.827145 48.000000
2.571659 -0.008029 1.853455 32.000000
2.595801 -0.040723 1.870801 29.000000
2.648030 -0.074830 1.908403 29.000000
2.687367 -0.109765 1.937729 30.000000
2.726874 -0.145617 1.966237 31.000000
2.765516 -0.182589 1.995140 29.000000
2.779511 -0.218566 2.006301 28.000000
2.732634 -0.249415 1.973454 21.000000
2.717221 -0.282505 1.964594 32.000000
2.694078 -0.314246 1.948877 29.000000
2.690306 -0.348188 1.948367 32.000000
2.674165 -0.380212 1.938907 32.000000
2.653844 -0.411410 1.926236 32.000000
2.653313 -0.445367 1.928039 32.000000
2.615860 -0.473016 1.904140 25.000000
2.582926 -0.500434 1.882279 21.000000
2.589050 -0.535484 1.890015 32.000000
2.574954 -0.566268 1.883013 35.000000
2.552770 -0.595004 1.870112 31.000000
2.538279 -0.625190 1.862834 32.000000
2.515649 -0.652934 1.849573 29.000000
2.512572 -0.685548 1.850522 29.000000
2.496835 -0.715089 1.843466 29.000000
2.437881 -0.731440 1.804416 26.000000
2.429692 -0.762195 1.802703 29.000000
2.428978 -0.795395 1.806666 32.000000
2.408592 -0.822003 1.796106 32.000000
2.391858 -0.849592 1.788256 32.000000
2.371251 -0.875381 1.777354 29.000000
2.357340 -0.904091 1.772689 28.000000
2.355347 -0.936585 1.775885 31.000000
2.314558 -0.954035 1.750882 26.000000
2.311377 -0.986528 1.754462 33.000000
2.296774 -1.014148 1.749265 34.000000
2.300507 -1.050009 1.758254 34.000000
2.277891 -1.073798 1.746979 31.000000
2.265544 -1.102887 1.744921 33.000000
2.242636 -1.125879 1.733496 29.000000
2.237942 -1.157959 1.736098 29.000000
2.199421 -1.172963 1.713840 29.000000
2.186312 -1.201027 1.711163 30.000000
2.172834 -1.228906 1.708486 35.000000
2.162833 -1.258678 1.708351 33.000000
2.141870 -1.281896 1.699764 34.000000
2.124338 -1.307009 1.693821 34.000000
2.110077 -1.333968 1.690601 34.000000
2.102582 -1.365256 1.692792 32.000000
2.060295 -1.373530 1.666947 26.000000
2.051568 -1.404820 1.669606 30.000000
2.039978 -1.433167 1.668640 32.000000
2.030611 -1.464399 1.670987 32.000000
2.011831 -1.487460 1.664268 32.000000
1.988593 -1.508377 1.655348 32.000000
1.981743 -1.541743 1.660056 28.000000
1.951603 -1.556866 1.645376 13.000000
1.934539 -1.581959 1.641635 10.000000
1.917111 -1.606869 1.637802 31.000000
1.896415 -1.628778 1.631146 34.000000
1.894477 -1.666945 1.640766 32.000000
1.864005 -1.680050 1.625666 35.000000
1.849025 -1.706806 1.624089 34.000000
1.855196 -1.753683 1.641427 31.000000
1.835189 -1.778135 1.637537 33.000000
1.801334 -1.786820 1.619455 24.000000
1.795918 -1.825557 1.628830 30.000000
1.785434 -1.857663 1.632040 35.000000
1.755906 -1.872053 1.619753 31.000000
1.739131 -1.897588 1.617412 31.000000
1.723630 -1.926913 1.618265 30.000000
1.704919 -1.952821 1.616349 30.000000
1.684781 -1.974637 1.611035 31.000000
1.654707 -1.987114 1.598394 21.000000
1.640869 -2.018828 1.601525 30.000000
1.634481 -2.060590 1.612263 36.000000
1.598824 -2.065369 1.594155 29.000000
1.586527 -2.100205 1.599498 33.000000
1.571207 -2.131591 1.601999 33.000000
1.550473 -2.155942 1.599289 30.000000
1.539516 -2.194118 1.606750 30.000000
1.513249 -2.211079 1.598657 19.000000
1.494124 -2.238321 1.598241 27.000000
1.477002 -2.269107 1.600142 31.000000
1.452528 -2.288878 1.594383 15.000000
1.409701 -2.279002 1.568419 16.000000
0.846748 1.368027 0.962791 23.000000
0.849968 1.338269 0.953398 32.000000
0.859692 1.319355 0.951614 25.000000
0.897704 1.343095 0.980934 27.000000
0.890462 1.299067 0.960900 27.000000
0.904539 1.286905 0.964166 28.000000
0.925913 1.284937 0.975240 34.000000
0.937293 1.268859 0.975845 29.000000
0.948599 1.252736 0.976320 35.000000
0.970064 1.249860 0.987366 39.000000
0.978449 1.230081 0.985072 30.000000
1.000000 1.226617 0.996063 34.000000
1.009848 1.210304 0.996757 31.000000
1.025966 1.199795 1.002283 33.000000
1.039206 1.185927 1.005136 53.000000
1.054287 1.175480 1.011028 37.000000
1.073083 1.167368 1.019182 46.000000
1.079464 1.147213 1.016865 59.000000
1.089426 1.129658 1.016778 33.000000
1.124853 1.139250 1.041500 40.000000
1.127932 1.115672 1.036270 21.000000
1.146558 1.106270 1.044239 35.000000
1.161342 1.094135 1.049777 57.000000
1.179141 1.084570 1.058086 35.000000
1.187641 1.066376 1.058019 40.000000
1.208488 1.059003 1.068957 47.000000
1.219973 1.043159 1.071548 34.000000
1.237602 1.032519 1.079646 36.000000
1.268163 1.031953 1.098867 21.000000
1.269724 1.007629 1.092886 35.000000
1.289927 0.998948 1.104037 36.000000
1.294325 0.977009 1.100706 37.000000
1.331787 0.979614 1.125427 53.000000
1.341980 0.962524 1.128052 52.000000
1.356104 0.947247 1.132952 50.000000
1.376359 0.936765 1.143894 42.000000
1.389715 0.921286 1.149074 22.000000
1.413364 0.912287 1.162794 45.000000
1.443977 0.907179 1.182069 52.000000
1.450289 0.886358 1.181431 37.000000
1.466943 0.871787 1.189233 51.000000
1.472852 0.850758 1.188401 45.000000
1.485732 0.833701 1.193169 52.000000
1.498530 0.816426 1.197882 56.000000
1.532290 0.810721 1.220190 24.000000
1.559524 0.800186 1.236281 35.000000
1.575278 0.783923 1.244084 54.000000
1.583565 0.763799 1.246122 35.000000
1.599106 0.746994 1.253755 36.000000
1.621946 0.733223 1.267137 50.000000
1.652260 0.722200 1.286225 34.000000
1.671411 0.705722 1.296569 35.000000
1.701690 0.693491 1.315529 33.000000
1.720205 0.676363 1.326204 35.000000
1.739164 0.658599 1.336206 56.000000
1.749825 0.637905 1.340874 36.000000
1.779582 0.623680 1.359963 41.000000
1.793934 0.603560 1.367309 42.000000
1.819695 0.586903 1.383389 35.000000
1.841507 0.568489 1.396347 35.000000
1.874927 0.552971 1.417987 31.000000
1.896176 0.533622 1.431365 34.000000
1.917744 0.513581 1.444021 34.000000
1.934889 0.492296 1.454125 35.000000
1.947944 0.469617 1.461223 34.000000
1.992313 0.453837 1.491764 36.000000
