x y z intensity
2.693344 -1.421506 0.965969 30.000000
2.694603 -1.460819 0.970249 32.000000
2.690714 -1.498488 0.973298 49.000000
2.657889 -1.519088 0.965312 29.000000
2.628601 -1.542215 0.959241 21.000000
2.628180 -1.581402 0.963185 32.000000
2.598437 -1.603809 0.957031 30.000000
2.581054 -1.632812 0.954883 36.000000
2.554979 -1.656915 0.950146 30.000000
2.528628 -1.680738 0.945227 30.000000
2.510577 -1.708784 0.942995 35.000000
2.479900 -1.729121 0.936615 25.000000
2.460776 -1.757228 0.934587 24.000000
2.449075 -1.790879 0.935505 33.000000
2.429309 -1.818687 0.933470 33.000000
2.397966 -1.837483 0.926842 35.000000
2.366428 -1.855730 0.920331 31.000000
2.375920 -1.906548 0.929801 26.000000
2.347531 -1.927305 0.924556 19.000000
2.330072 -1.956930 0.923683 18.000000
2.301462 -1.977090 0.918360 23.000000
2.276196 -1.999857 0.914496 30.000000
2.240217 -2.012750 0.906222 31.000000
2.235872 -2.054192 0.910911 35.000000
2.199559 -2.066226 0.902664 29.000000
2.204807 -2.117580 0.911498 31.000000
2.177440 -2.139825 0.907737 34.000000
2.150828 -2.160921 0.903594 25.000000
2.130882 -2.188521 0.902294 25.000000
2.107263 -2.212432 0.899475 28.000000
2.099705 -2.253603 0.903694 32.000000
2.077564 -2.281543 0.902551 33.000000
2.046650 -2.297627 0.896809 27.000000
2.031466 -2.331277 0.898058 32.000000
2.011456 -2.362273 0.898087 31.000000
1.989296 -2.388340 0.896417 27.000000
1.939445 -2.380747 0.882311 15.000000
1.930689 -2.425935 0.887741 23.000000
1.919571 -2.466362 0.891449 25.000000
1.897720 -2.496336 0.891307 27.000000
1.871257 -2.517427 0.888024 22.000000
1.854209 -2.554893 0.890469 27.000000
1.835539 -2.587291 0.891122 26.000000
1.821805 -2.627388 0.894438 24.000000
1.795122 -2.652653 0.892640 10.000000
1.727158 -2.612259 0.869133 10.000000
1.656104 -2.567692 0.844643 13.000000
1.569920 -2.492256 0.810739 12.000000
1.501663 -2.444788 0.786512 10.000000
1.436280 -2.395302 0.762182 16.000000
1.360737 -2.328768 0.733124 15.000000
1.317133 -2.310322 0.719522 10.000000
1.277094 -2.300466 0.708942 8.000000
0.748379 1.375458 0.434319 8.000000
0.762810 1.366879 0.436203 16.000000
0.778084 1.357655 0.437939 31.000000
0.788377 1.340034 0.436919 24.000000
0.799890 1.326943 0.437434 31.000000
0.811268 1.313761 0.437888 34.000000
0.828535 1.308125 0.440873 27.000000
0.850140 1.310791 0.446815 40.000000
0.859447 1.292621 0.445692 28.000000
0.864941 1.270947 0.443262 23.000000
0.881849 1.264584 0.446214 35.000000
0.892432 1.250635 0.446533 31.000000
0.906348 1.239990 0.448096 35.000000
0.922307 1.233579 0.451161 32.000000
0.944127 1.234528 0.457059 29.000000
0.949050 1.211979 0.454296 34.000000
0.958887 1.197412 0.454541 26.000000
0.971582 1.186523 0.456152 26.000000
0.990970 1.182344 0.460428 33.000000
1.000431 1.167406 0.460566 34.000000
0.997095 1.138036 0.454935 57.000000
1.037991 1.158745 0.469429 32.000000
1.054168 1.149974 0.472216 64.000000
1.063232 1.134495 0.472305 43.000000
1.081950 1.129252 0.476709 32.000000
1.084037 1.106631 0.473769 26.000000
1.113367 1.110706 0.482385 35.000000
1.125265 1.097955 0.483791 38.000000
1.123287 1.071911 0.479298 67.000000
1.159234 1.081877 0.491039 36.000000
1.170936 1.068605 0.492407 54.000000
1.171801 1.045645 0.489313 59.000000
1.197481 1.044792 0.496583 41.000000
1.194242 1.018687 0.491924 28.000000
1.216276 1.014146 0.497676 30.000000
1.227269 1.000164 0.498942 35.000000
1.245569 0.992021 0.503171 67.000000
1.260135 0.980627 0.505904 33.000000
1.278354 0.971929 0.510107 40.000000
1.284763 0.954741 0.509978 46.000000
1.302880 0.945571 0.514148 35.000000
1.324851 0.938822 0.519804 29.000000
1.331186 0.920868 0.519369 32.000000
1.344883 0.908591 0.522198 42.000000
1.354821 0.893085 0.523238 78.000000
1.364604 0.877476 0.524227 36.000000
1.386005 0.869658 0.530046 64.000000
1.423902 0.871073 0.541796 56.000000
1.437305 0.857441 0.544468 35.000000
1.442326 0.838777 0.544046 24.000000
1.472216 0.833832 0.552719 35.000000
1.485339 0.819450 0.555307 34.000000
1.515035 0.813859 0.564134 48.000000
1.527972 0.798881 0.566744 36.000000
1.540790 0.783642 0.569305 64.000000
1.562001 0.772461 0.574949 58.000000
1.566010 0.752652 0.574276 31.000000
1.591368 0.742812 0.581456 26.000000
1.603708 0.726704 0.583877 33.000000
1.628952 0.716057 0.591030 35.000000
1.645233 0.701410 0.595160 58.000000
1.661595 0.686278 0.599069 32.000000
1.682092 0.672825 0.604744 32.000000
1.711549 0.662204 0.613368 34.000000
1.709695 0.639513 0.611021 29.000000
1.725485 0.623407 0.615021 25.000000
1.750002 0.610102 0.622154 39.000000
1.770042 0.594763 0.627649 35.000000
1.789941 0.579120 0.633094 36.000000
1.827728 0.568803 0.645059 37.000000
1.842909 0.550742 0.648871 35.000000
1.871500 0.536452 0.657615 62.000000
1.881774 0.516572 0.659907 32.000000
1.905566 0.500132 0.666948 27.000000
1.929272 0.483151 0.673938 32.000000
1.966705 0.468986 0.685692 30.000000
1.999295 0.453112 0.695987 34.000000
2.008813 0.431444 0.698058 32.000000
2.041217 0.414380 0.708246 32.000000
2.068826 0.395798 0.716769 35.000000
2.091533 0.375857 0.723829 33.000000
2.109577 0.354504 0.729010 32.000000
2.136609 0.334368 0.737562 56.000000
2.154214 0.312277 0.742755 54.000000
2.166823 0.289173 0.746337 48.000000
2.193338 0.267576 0.754842 51.000000
2.243070 0.248049 0.771369 42.000000
2.264522 0.224588 0.778131 48.000000
2.280862 0.200288 0.783354 32.000000
2.330173 0.178119 0.799614 31.000000
2.369670 0.154347 0.812793 36.000000
2.399544 0.129139 0.822740 37.000000
2.433865 0.103494 0.834313 36.000000
2.458447 0.076727 0.842572 37.000000
2.421328 0.048281 0.829609 9.000000
2.483128 0.021469 0.850754 8.000000
2.573076 -0.006807 0.881626 8.000000
2.601288 -0.036171 0.891266 8.000000
2.662171 -0.067093 0.912332 8.000000
2.708495 -0.098799 0.928450 10.000000
2.764057 -0.132111 0.947715 48.000000
2.795506 -0.165217 0.958694 50.000000
2.869019 -0.201968 0.984419 36.000000
2.852462 -0.233282 0.979469 47.000000
2.826233 -0.263214 0.971008 95.000000
2.799685 -0.292616 0.962553 67.000000
2.749329 -0.318672 0.946019 10.000000
2.741064 -0.349049 0.943867 10.000000
2.704247 -0.375416 0.932202 26.000000
2.732777 -0.410803 0.943065 95.000000
2.714129 -0.439367 0.937689 72.000000
2.685849 -0.465908 0.929180 45.000000
2.689972 -0.497865 0.931700 95.000000
2.642617 -0.519980 0.916585 95.000000
2.618263 -0.545809 0.909452 91.000000
2.607433 -0.574448 0.907326 95.000000
2.587314 -0.600497 0.901729 95.000000
2.562152 -0.625282 0.894620 75.000000
2.564358 -0.656528 0.897065 94.000000
2.525087 -0.676860 0.885073 37.000000
2.508469 -0.702690 0.880943 74.000000
2.505294 -0.732217 0.881620 95.000000
2.483459 -0.756410 0.876068 65.000000
2.475181 -0.784338 0.874980 81.000000
2.457483 -0.809302 0.870871 42.000000
2.430630 -0.830913 0.863498 33.000000
2.443789 -0.866206 0.870462 29.000000
2.434190 -0.893749 0.869377 18.000000
2.482044 -0.943018 0.888843 27.000000
2.506754 -0.985090 0.900587 31.000000
2.509190 -1.018610 0.903950 29.000000
2.524111 -1.058103 0.912392 32.000000
2.604023 -1.125904 0.944047 35.000000
2.643526 -1.178561 0.961688 36.000000
2.742614 -1.260044 1.001222 42.000000
2.771641 -1.311399 1.015486 23.000000
2.774223 -1.351059 1.020187 34.000000
2.767836 -1.386654 1.021635 40.000000
2.727284 -1.404845 1.010558 34.000000
2.711808 -1.435599 1.008784 36.000000
2.691962 -1.463887 1.005352 34.000000
2.659422 -1.484934 0.997259 33.000000
2.659188 -1.524808 1.001907 35.000000
2.618071 -1.540265 0.990637 23.000000
2.613513 -1.576983 0.993231 35.000000
2.591934 -1.604358 0.989923 33.000000
2.558459 -1.623215 0.981607 30.000000
2.544368 -1.655066 0.981299 32.000000
2.502213 -1.668238 0.970142 27.000000
2.499999 -1.706940 0.974050 32.000000
2.481075 -1.735472 0.972012 35.000000
2.434764 -1.744300 0.959298 21.000000
2.426993 -1.780586 0.961752 30.000000
2.404186 -1.804631 0.957727 33.000000
2.369141 -1.820363 0.949551 29.000000
2.364035 -1.859128 0.953298 35.000000
2.373337 -1.909902 0.963141 29.000000
2.337551 -1.924786 0.954690 18.000000
2.338316 -1.969772 0.961363 24.000000
2.280558 -1.965135 0.943862 17.000000
2.262667 -1.994191 0.942947 30.000000
2.237327 -2.016647 0.938855 34.000000
2.215278 -2.041969 0.936352 31.000000
2.203463 -2.076830 0.938095 35.000000
2.191243 -2.111734 0.939909 27.000000
2.164900 -2.133069 0.935619 30.000000
2.154199 -2.171973 0.939160 33.000000
2.104031 -2.168835 0.924528 19.000000
2.097057 -2.209905 0.929023 33.000000
2.082910 -2.244043 0.930469 30.000000
2.063949 -2.275448 0.930732 29.000000
2.048989 -2.309406 0.932030 34.000000
2.008496 -2.314355 0.921777 29.000000
1.989890 -2.344217 0.921523 29.000000
1.981791 -2.389559 0.927367 29.000000
1.938069 -2.389475 0.915645 10.000000
1.912599 -2.411125 0.912413 23.000000
1.903085 -2.456301 0.917974 24.000000
1.876882 -2.477560 0.914612 23.000000
1.864761 -2.517800 0.918281 26.000000
1.844900 -2.551289 0.919497 23.000000
1.820544 -2.575930 0.917390 27.000000
1.797026 -2.605089 0.917065 23.000000
1.774844 -2.633168 0.916218 11.000000
1.731990 -2.633870 0.906084 13.000000
1.657402 -2.580485 0.877717 11.000000
1.579897 -2.522527 0.848461 11.000000
1.505585 -2.462219 0.819031 13.000000
1.420488 -2.379814 0.783018 10.000000
1.371992 -2.359068 0.767841 10.000000
1.309838 -2.312410 0.744664 10.000000
1.287740 -2.331281 0.742891 7.000000
0.743568 1.373623 0.448055 8.000000
0.758049 1.365044 0.450039 16.000000
0.766234 1.343305 0.447604 18.000000
0.792402 1.355282 0.456501 21.000000
0.795222 1.325125 0.451240 29.000000
0.814153 1.324210 0.455971 19.000000
0.828984 1.314421 0.457652 31.000000
0.840177 1.300901 0.458112 24.000000
0.860008 1.298790 0.462585 24.000000
0.865680 1.277073 0.460133 18.000000
0.870951 1.255342 0.457599 15.000000
0.890518 1.252731 0.462084 32.000000
0.898161 1.234801 0.460957 24.000000
0.916919 1.232208 0.465562 23.000000
0.927832 1.217432 0.465625 30.000000
0.940723 1.206836 0.467334 26.000000
0.965484 1.211045 0.474857 24.000000
0.966943 1.184717 0.470508 23.000000
0.979541 1.173633 0.472119 22.000000
0.985841 1.155186 0.470770 35.000000
1.010721 1.158268 0.478313 26.000000
1.023741 1.146231 0.479688 27.000000
1.042410 1.141534 0.484250 35.000000
1.061181 1.136593 0.488781 27.000000
1.076661 1.127855 0.491827 30.000000
1.085407 1.112069 0.491815 22.000000
1.100761 1.102956 0.494821 30.000000
1.102923 1.079885 0.491517 38.000000
1.128351 1.080404 0.499037 32.000000
1.146963 1.073950 0.503540 32.000000
1.158545 1.060757 0.504950 43.000000
1.170026 1.047414 0.506310 28.000000
1.188515 1.040236 0.510746 32.000000
1.185356 1.014139 0.505894 16.000000
1.196367 1.000476 0.507195 24.000000
1.217815 0.996141 0.513349 34.000000
1.236098 0.987984 0.517670 28.000000
1.250614 0.976630 0.520448 30.000000
1.268818 0.967969 0.524795 35.000000
1.294611 0.964655 0.532236 28.000000
1.293266 0.941693 0.528928 30.000000
1.315155 0.934979 0.534778 18.000000
1.321477 0.917073 0.534291 29.000000
1.339056 0.907446 0.538744 38.000000
1.353002 0.894556 0.541368 32.000000
1.366484 0.881837 0.544207 31.000000
1.388203 0.873606 0.549970 35.000000
1.409665 0.865258 0.555910 28.000000
1.427276 0.853827 0.560113 34.000000
1.444620 0.842372 0.564436 20.000000
1.453615 0.825943 0.565513 29.000000
1.483218 0.820872 0.574616 36.000000
1.492013 0.803992 0.575708 31.000000
1.513274 0.793543 0.581524 32.000000
1.521812 0.776302 0.582516 33.000000
1.547140 0.767304 0.589917 32.000000
1.559700 0.751703 0.592483 29.000000
1.580648 0.739903 0.598240 21.000000
1.593005 0.723785 0.600708 26.000000
1.617931 0.713405 0.608286 34.000000
1.638733 0.700490 0.613971 29.000000
1.650578 0.683718 0.616522 28.000000
1.671177 0.670134 0.622171 30.000000
1.695889 0.658018 0.629584 26.000000
1.711785 0.642067 0.633682 29.000000
1.718635 0.622639 0.634508 24.000000
1.734284 0.606210 0.638559 26.000000
1.763128 0.594042 0.647488 28.000000
1.778362 0.576996 0.651621 30.000000
1.811625 0.565190 0.662169 30.000000
1.831201 0.548767 0.667852 31.000000
1.850618 0.531976 0.673546 30.000000
1.860833 0.512249 0.675883 25.000000
1.889077 0.497096 0.684778 23.000000
1.935566 0.486021 0.700245 22.000000
1.959147 0.468399 0.707388 29.000000
1.982497 0.450427 0.714672 28.000000
1.991843 0.428994 0.716924 24.000000
2.028740 0.412969 0.729077 28.000000
2.051619 0.393546 0.736193 22.000000
2.083586 0.375377 0.746780 18.000000
2.092209 0.352524 0.748787 26.000000
2.114547 0.331758 0.755928 23.000000
2.136672 0.310500 0.762937 29.000000
2.163248 0.289516 0.771761 33.000000
2.208323 0.270153 0.787195 28.000000
2.225185 0.246719 0.792561 29.000000
2.260552 0.224834 0.804535 28.000000
2.248821 0.198000 0.799673 16.000000
2.302483 0.176527 0.818336 29.000000
2.365411 0.154424 0.840201 28.000000
2.380986 0.128477 0.845521 26.000000
2.415255 0.102935 0.857218 30.000000
2.468004 0.077238 0.875759 28.000000
2.435665 0.048674 0.864296 10.000000
2.506738 0.021755 0.889454 9.000000
2.563364 -0.006807 0.909517 7.000000
2.581962 -0.036039 0.916121 8.000000
2.633277 -0.066531 0.934339 8.000000
2.665389 -0.097506 0.945953 9.000000
2.729990 -0.130804 0.969351 37.000000
2.770824 -0.164110 0.984123 30.000000
2.815856 -0.198795 1.000649 28.000000
2.860449 -0.234452 1.016982 86.000000
2.815521 -0.262848 1.001770 36.000000
2.788972 -0.292252 0.993150 71.000000
2.734114 -0.317771 0.974432 10.000000
2.711847 -0.346304 0.967316 9.000000
2.712622 -0.377576 0.968363 17.000000
2.713028 -0.408864 0.969586 67.000000
2.689795 -0.436569 0.962393 36.000000
2.680212 -0.466189 0.960287 48.000000
2.656473 -0.492946 0.952931 37.000000
2.655591 -0.523936 0.953981 66.000000
2.612792 -0.546257 0.940080 75.000000
2.579028 -0.569604 0.929346 51.000000
2.581979 -0.600881 0.931893 88.000000
2.547711 -0.623396 0.921265 42.000000
2.536185 -0.651068 0.918846 35.000000
2.519789 -0.677243 0.914775 52.000000
2.503192 -0.703211 0.910542 32.000000
2.486400 -0.728805 0.906316 28.000000
2.501014 -0.763677 0.913556 24.000000
2.501474 -0.794940 0.916005 18.000000
2.515152 -0.830509 0.923044 21.000000
2.497059 -0.855866 0.918730 15.000000
2.527555 -0.898420 0.932482 10.000000
2.557567 -0.941622 0.946112 19.000000
2.617810 -0.997502 0.971081 20.000000
2.672803 -1.052979 0.994253 28.000000
2.757307 -1.122610 1.029076 32.000000
2.788672 -1.172070 1.043848 31.000000
2.805944 -1.216975 1.053981 32.000000
2.805664 -1.254257 1.057083 26.000000
2.791779 -1.286194 1.055595 17.000000
2.777496 -1.317833 1.054008 28.000000
2.750165 -1.343145 1.047564 24.000000
2.743811 -1.378689 1.049218 32.000000
2.716047 -1.403268 1.042594 29.000000
2.696390 -1.431802 1.039208 29.000000
2.664019 -1.453244 1.030905 30.000000
2.639912 -1.478740 1.025738 26.000000
2.627832 -1.510937 1.025488 21.000000
2.607248 -1.538120 1.021838 26.000000
2.594141 -1.570508 1.021680 26.000000
2.564971 -1.592306 1.014752 28.000000
2.535090 -1.614119 1.008232 24.000000
2.521648 -1.645151 1.007497 21.000000
2.503335 -1.674123 1.005656 27.000000
2.469562 -1.691499 0.996914 25.000000
2.485742 -1.744336 1.009082 16.000000
2.435576 -1.750594 0.994443 26.000000
2.405299 -1.769446 0.987227 22.000000
2.393306 -1.802610 0.988152 29.000000
2.358330 -1.818449 0.979688 24.000000
2.341968 -1.848372 0.978950 23.000000
2.332647 -1.884065 0.981316 26.000000
2.320047 -1.916019 0.981625 10.000000
2.284463 -1.930209 0.973023 9.000000
2.292037 -1.981099 0.982871 24.000000
2.256009 -1.994642 0.974091 20.000000
2.237710 -2.023525 0.973018 30.000000
2.205072 -2.039273 0.965814 23.000000
2.196668 -2.077393 0.969224 24.000000
2.177516 -2.105702 0.968033 26.000000
2.150159 -2.127874 0.964088 23.000000
2.140400 -2.165849 0.967236 15.000000
2.100338 -2.172990 0.956862 22.000000
2.080106 -2.200253 0.955368 19.000000
2.078937 -2.248313 0.962863 29.000000
2.035440 -2.250591 0.950856 21.000000
2.019496 -2.285193 0.952611 23.000000
1.994827 -2.308009 0.949491 26.000000
1.960812 -2.319591 0.941927 17.000000
1.975441 -2.389583 0.957913 17.000000
1.921387 -2.379297 0.941699 13.000000
1.922559 -2.434740 0.951575 16.000000
1.896614 -2.456428 0.948208 21.000000
1.863126 -2.471071 0.942225 16.000000
1.862317 -2.526665 0.951829 21.000000
1.818604 -2.524384 0.939651 18.000000
1.886530 -2.682784 0.986903 19.000000
1.798323 -2.617158 0.951565 13.000000
1.759820 -2.621480 0.942204 16.000000
1.735609 -2.650314 0.941735 9.000000
1.648056 -2.576883 0.905365 10.000000
1.586056 -2.543449 0.883675 9.000000
1.504280 -2.471126 0.849073 9.000000
1.427610 -2.406334 0.817798 9.000000
1.370901 -2.368332 0.796257 9.000000
1.308826 -2.321844 0.772339 9.000000
1.356001 -2.467180 0.811991 4.000000
0.727344 1.350586 0.454687 8.000000
0.757824 1.371498 0.466630 13.000000
0.773242 1.362267 0.468476 18.000000
0.787562 1.353336 0.470422 18.000000
0.801833 1.344255 0.472418 18.000000
0.826843 1.350849 0.480015 29.000000
0.833463 1.329197 0.477616 21.000000
0.848328 1.319087 0.479368 24.000000
0.867549 1.317311 0.484204 22.000000
0.865470 1.283522 0.477279 17.000000
0.866230 1.253444 0.471520 24.000000
0.893304 1.263005 0.480789 25.000000
0.906702 1.252722 0.482569 24.000000
0.909375 1.226465 0.478223 30.000000
0.933942 1.231216 0.485980 22.000000
0.946994 1.220488 0.487711 26.000000
0.966619 1.216581 0.492313 27.000000
0.961572 1.183252 0.484912 16.000000
0.974170 1.172217 0.486621 33.000000
0.999053 1.175499 0.494385 29.000000
1.015377 1.167126 0.497349 29.000000
1.008898 1.134091 0.489773 32.000000
1.043423 1.147138 0.502162 29.000000
1.058998 1.138582 0.505299 32.000000
1.074498 1.129802 0.508396 29.000000
1.083347 1.113984 0.508393 16.000000
1.091973 1.098141 0.508380 62.000000
1.100426 1.082176 0.508308 34.000000
1.115551 1.072722 0.511365 37.000000
1.127191 1.059838 0.512807 44.000000
1.138632 1.046805 0.514200 33.000000
1.171190 1.052647 0.525082 35.000000
1.189712 1.045330 0.529673 41.000000
1.201077 1.031569 0.531049 24.000000
1.197771 1.005469 0.525998 36.000000
1.219736 1.000585 0.532101 34.000000
1.230661 0.986460 0.533371 40.000000
1.248480 0.978429 0.538057 43.000000
1.259164 0.963912 0.539284 35.000000
1.269694 0.949293 0.540511 47.000000
1.287353 0.940511 0.545126 35.000000
1.324643 0.944772 0.557656 29.000000
1.315580 0.915883 0.550637 55.000000
1.333124 0.906250 0.555238 40.000000
1.358869 0.901245 0.562804 43.000000
1.364484 0.883201 0.562433 61.000000
1.381920 0.872708 0.566970 37.000000
1.391529 0.856606 0.567973 58.000000
1.425005 0.855347 0.579004 57.000000
1.438264 0.841456 0.581780 27.000000
1.451359 0.827365 0.584562 55.000000
1.468522 0.815308 0.588951 51.000000
1.485621 0.803009 0.593353 53.000000
1.519296 0.799194 0.604352 66.000000
1.540553 0.788197 0.610341 60.000000
1.549065 0.770557 0.611293 44.000000
1.565896 0.756851 0.615582 44.000000
1.578383 0.740892 0.618153 26.000000
1.594805 0.726903 0.622630 48.000000
1.611311 0.712435 0.626776 34.000000
1.640544 0.703396 0.636197 36.000000
1.661224 0.689962 0.641990 47.000000
1.681731 0.676347 0.647972 40.000000
1.702118 0.662316 0.653909 45.000000
1.709163 0.642897 0.654797 42.000000
1.724936 0.626633 0.658946 26.000000
1.740541 0.610048 0.663103 61.000000
1.755914 0.593381 0.667448 54.000000
1.771232 0.576211 0.671501 61.000000
1.817729 0.568790 0.687566 64.000000
1.832792 0.550856 0.691768 69.000000
1.838629 0.529989 0.692514 37.000000
1.871469 0.516565 0.703416 56.000000
1.872470 0.494066 0.702278 23.000000
1.905097 0.479639 0.713080 42.000000
1.946693 0.466783 0.727442 36.000000
1.965377 0.447813 0.733220 41.000000
1.988592 0.429393 0.740453 48.000000
2.016032 0.411561 0.749738 52.000000
2.034215 0.391299 0.755344 43.000000
2.061430 0.372393 0.764521 35.000000
2.097862 0.354390 0.776797 27.000000
2.124721 0.334261 0.785860 81.000000
2.146803 0.312859 0.793287 53.000000
2.173386 0.291590 0.802157 46.000000
2.232302 0.273794 0.823208 80.000000
2.239819 0.249023 0.825293 55.000000
2.261069 0.225398 0.832392 48.000000
2.286741 0.201835 0.841364 36.000000
2.340240 0.179901 0.860596 30.000000
2.370176 0.155191 0.871154 62.000000
2.395078 0.129590 0.880075 65.000000
2.429231 0.103780 0.892130 83.000000
2.453717 0.076931 0.900822 80.000000
2.505895 0.050193 0.920012 74.000000
2.534464 0.022000 0.930432 66.000000
2.562707 -0.006832 0.940854 36.000000
2.581230 -0.036087 0.947578 33.000000
2.599495 -0.065852 0.954301 23.000000
2.645557 -0.097075 0.971440 17.000000
2.714592 -0.130402 0.997365 34.000000
2.755263 -0.163652 1.012509 36.000000
2.800114 -0.198190 1.029546 41.000000
2.835169 -0.233020 1.043042 63.000000
2.809117 -0.262919 1.033978 85.000000
2.787415 -0.292870 1.026822 88.000000
2.732747 -0.318502 1.007545 26.000000
2.705884 -0.346458 0.998505 30.000000
2.706545 -0.377781 0.999868 53.000000
2.720944 -0.411226 1.006025 95.000000
2.688483 -0.437460 0.995193 72.000000
2.655678 -0.463239 0.984548 32.000000
2.608952 -0.485547 0.968421 83.000000
2.585089 -0.511471 0.960966 66.000000
2.584037 -0.541625 0.961821 89.000000
2.564187 -0.567990 0.956175 71.000000
2.557875 -0.596991 0.955408 52.000000
2.551307 -0.625907 0.954469 35.000000
2.576087 -0.663109 0.965731 26.000000
2.546054 -0.686184 0.956343 10.000000
2.606308 -0.734238 0.981035 28.000000
2.634220 -0.774377 0.993680 26.000000
2.639153 -0.808271 0.997621 29.000000
2.670614 -0.850948 1.011734 30.000000
2.705806 -0.896110 1.027785 32.000000
2.776084 -0.954148 1.056885 32.000000
2.863017 -1.020415 1.092865 29.000000
2.895825 -1.069243 1.108481 21.000000
2.919184 -1.115515 1.120581 33.000000
2.898169 -1.145186 1.115792 34.000000
2.890002 -1.179694 1.115858 35.000000
2.859394 -1.205458 1.107819 31.000000
2.833264 -1.232102 1.101074 30.000000
2.828147 -1.268389 1.103026 35.000000
2.797283 -1.292313 1.094424 30.000000
2.744616 -1.306023 1.077887 16.000000
2.755545 -1.349760 1.086225 34.000000
2.723805 -1.372663 1.077873 32.000000
2.712788 -1.405833 1.077858 37.000000
2.680615 -1.427814 1.069337 35.000000
2.673168 -1.462904 1.070785 35.000000
2.644761 -1.486329 1.063850 35.000000
2.616308 -1.509277 1.056934 27.000000
2.575431 -1.524440 1.044993 12.000000
2.574936 -1.563458 1.049445 35.000000
2.557315 -1.593150 1.047692 32.000000
2.540084 -1.622064 1.045453 35.000000
2.502695 -1.637845 1.034942 31.000000
2.488268 -1.669261 1.034642 31.000000
2.474171 -1.699993 1.033852 34.000000
2.447447 -1.723036 1.028567 27.000000
2.409141 -1.737406 1.018334 11.000000
2.401875 -1.772858 1.020599 36.000000
2.382233 -1.800491 1.018385 31.000000
2.365950 -1.830829 1.017781 33.000000
2.342757 -1.854313 1.013378 32.000000
2.359051 -1.910989 1.027091 29.000000
2.337924 -1.938082 1.024548 26.000000
2.298532 -1.949555 1.014032 15.000000
2.252023 -1.954108 1.000376 10.000000
2.248254 -1.995664 1.005716 33.000000
2.236829 -2.030962 1.007754 29.000000
2.228477 -2.069439 1.011343 33.000000
2.174911 -2.065553 0.994347 32.000000
2.169373 -2.106972 0.999395 28.000000
2.146337 -2.131660 0.996576 31.000000
2.126439 -2.159539 0.995220 27.000000
2.083201 -2.163242 0.982871 10.000000
2.089001 -2.218109 0.993836 33.000000
2.065038 -2.241876 0.990706 28.000000
2.040781 -2.265350 0.987576 31.000000
2.022522 -2.295672 0.987518 32.000000
1.990312 -2.312397 0.981609 27.000000
1.977635 -2.349561 0.984389 31.000000
1.934278 -2.349838 0.971916 23.000000
1.914999 -2.379200 0.971633 10.000000
1.908622 -2.428121 0.979178 27.000000
1.891333 -2.461117 0.980235 25.000000
1.865009 -2.482474 0.976758 25.000000
1.834175 -2.500679 0.972084 23.000000
1.815738 -2.533145 0.972984 24.000000
1.802432 -2.573224 0.976719 24.000000
1.781501 -2.606339 0.977843 23.000000
1.774990 -2.658299 0.985799 13.000000
1.728437 -2.650384 0.971747 14.000000
1.672780 -2.630544 0.953586 10.000000
1.599511 -2.576302 0.923584 14.000000
1.508561 -2.493019 0.883819 10.000000
1.448097 -2.452323 0.859961 10.000000
1.374329 -2.385773 0.827633 10.000000
1.314587 -2.343692 0.804400 10.000000
0.716975 1.340689 0.465335 8.000000
0.752884 1.369502 0.480401 12.000000
0.769701 1.364882 0.483922 28.000000
0.782672 1.351290 0.484293 25.000000
0.801767 1.350418 0.489313 29.000000
0.811013 1.332978 0.488335 25.000000
0.825982 1.323099 0.490131 27.000000
0.845141 1.321552 0.495137 29.000000
0.857386 1.307275 0.495383 23.000000
0.857919 1.277589 0.489754 23.000000
0.863379 1.255859 0.487109 29.000000
0.891201 1.264870 0.496407 29.000000
0.887939 1.231394 0.489043 37.000000
0.912331 1.236435 0.497048 27.000000
0.934086 1.237274 0.503505 33.000000
0.933425 1.207179 0.497350 34.000000
0.958099 1.211262 0.505333 24.000000
0.950128 1.174352 0.496196 29.000000
0.965674 1.166996 0.499460 32.000000
0.978184 1.155801 0.501163 37.000000
0.991180 1.144021 0.502624 60.000000
1.000301 1.129032 0.502698 35.000000
1.025166 1.131491 0.510642 44.000000
1.040573 1.123078 0.513855 37.000000
1.062425 1.121321 0.520219 36.000000
1.077809 1.112387 0.523412 24.000000
1.079835 1.089822 0.520142 35.000000
1.091602 1.077264 0.521675 44.000000
1.106674 1.067894 0.524773 61.000000
1.125110 1.061493 0.529499 45.000000
1.140112 1.051626 0.532570 76.000000
1.158595 1.044695 0.537277 70.000000
1.184106 1.043750 0.545217 35.000000
1.177123 1.014922 0.538661 29.000000
1.191829 1.004260 0.541658 35.000000
1.206400 0.993364 0.544613 36.000000
1.228292 0.988199 0.550874 67.000000
1.238740 0.974286 0.552352 37.000000
1.260613 0.968433 0.558598 55.000000
1.271258 0.953726 0.559833 55.000000
1.285138 0.942064 0.562938 42.000000
1.291672 0.924313 0.562404 31.000000
1.316942 0.920402 0.570484 34.000000
1.338763 0.912963 0.576658 52.000000
1.356314 0.902907 0.581330 60.000000
1.362028 0.884821 0.580913 51.000000
1.363814 0.863885 0.578593 71.000000
1.385088 0.855655 0.584868 53.000000
1.418452 0.854326 0.596191 52.000000
1.431692 0.840433 0.599070 35.000000
1.440795 0.824004 0.600201 36.000000
1.457842 0.812043 0.604739 50.000000
1.483143 0.804211 0.612649 69.000000
1.504319 0.793753 0.618818 51.000000
1.529654 0.784988 0.626661 65.000000
1.542345 0.769493 0.629381 50.000000
1.554914 0.753733 0.632051 35.000000
1.567191 0.738101 0.634894 34.000000
1.575187 0.720027 0.635739 32.000000
1.604292 0.711579 0.645438 34.000000
1.629121 0.700733 0.653321 37.000000
1.649783 0.687284 0.659320 35.000000
1.670156 0.673711 0.665449 40.000000
1.686158 0.658019 0.669799 44.000000
1.697613 0.640414 0.672420 31.000000
1.708749 0.622768 0.675164 36.000000
1.724281 0.606281 0.679417 35.000000
1.744141 0.591035 0.685303 44.000000
1.768193 0.577000 0.693187 52.000000
1.805659 0.566707 0.706273 53.000000
1.816122 0.547469 0.708762 40.000000
1.839988 0.531907 0.716511 59.000000
1.850180 0.512187 0.718951 32.000000
1.869264 0.494635 0.724779 32.000000
1.901663 0.480275 0.736076 36.000000
1.938698 0.466132 0.748893 34.000000
1.952763 0.446116 0.753062 34.000000
1.984906 0.429854 0.764215 39.000000
2.003228 0.410021 0.770031 46.000000
2.016683 0.389055 0.774158 37.000000
2.034579 0.368581 0.780056 28.000000
2.084541 0.353263 0.798256 33.000000
2.102125 0.331655 0.803970 51.000000
2.128805 0.311084 0.813156 42.000000
2.150574 0.289363 0.820723 36.000000
2.213884 0.272359 0.844154 62.000000
2.216722 0.247103 0.844445 34.000000
2.242532 0.224246 0.853591 40.000000
2.263442 0.200374 0.861045 31.000000
2.335365 0.180032 0.887850 34.000000
2.355860 0.154653 0.895170 40.000000
2.390078 0.129609 0.907891 54.000000
2.410089 0.103222 0.914905 37.000000
2.443742 0.076851 0.927476 64.000000
2.495791 0.050111 0.947227 57.000000
2.514815 0.021919 0.954405 44.000000
2.510223 -0.006719 0.952631 33.000000
2.575498 -0.036153 0.977383 35.000000
2.617053 -0.066479 0.993176 36.000000
2.644143 -0.097247 1.003731 36.000000
2.698879 -0.130001 1.025100 34.000000
2.739381 -0.163195 1.040703 35.000000
2.788708 -0.198007 1.060023 36.000000
2.795746 -0.230438 1.063293 60.000000
2.783781 -0.261333 1.059384 70.000000
2.771378 -0.292016 1.055568 73.000000
2.735503 -0.319773 1.042811 66.000000
2.727270 -0.350184 1.040502 86.000000
2.714059 -0.379841 1.036427 91.000000
2.681933 -0.406573 1.025372 57.000000
2.677420 -0.437018 1.024841 61.000000
2.644818 -0.462626 1.013626 34.000000
2.625854 -0.490093 1.007632 34.000000
2.629631 -0.521624 1.010374 33.000000
2.637510 -0.554414 1.014961 30.000000
2.645062 -0.587428 1.019540 31.000000
2.661310 -0.622799 1.027454 24.000000
2.681540 -0.659897 1.037380 26.000000
2.724107 -0.703196 1.055712 29.000000
2.761415 -0.746409 1.072345 22.000000
2.807189 -0.793104 1.092456 30.000000
2.843361 -0.838288 1.108928 32.000000
2.905725 -0.892553 1.135770 31.000000
2.953928 -0.944069 1.157207 36.000000
2.956863 -0.982036 1.161031 32.000000
2.972484 -1.024889 1.170277 33.000000
2.965532 -1.060459 1.170791 31.000000
2.909988 -1.077609 1.151651 24.000000
2.915579 -1.117452 1.157187 31.000000
2.877127 -1.140216 1.145251 35.000000
2.860299 -1.171169 1.141907 31.000000
2.838385 -1.200396 1.137239 34.000000
2.825252 -1.232577 1.135534 31.000000
2.803259 -1.260707 1.130279 31.000000
2.784909 -1.290915 1.127056 32.000000
2.762464 -1.318306 1.121620 25.000000
2.747839 -1.349943 1.120028 35.000000
2.707668 -1.368768 1.107947 34.000000
2.700923 -1.404053 1.109597 33.000000
2.677111 -1.430474 1.104398 36.000000
2.644861 -1.451984 1.095699 33.000000
2.624798 -1.479848 1.091938 31.000000
2.612533 -1.512231 1.091682 35.000000
2.571716 -1.527502 1.079441 25.000000
2.559042 -1.559258 1.078903 32.000000
2.542032 -1.588320 1.076765 35.000000
2.516222 -1.612692 1.071543 32.000000
2.506555 -1.646445 1.072585 43.000000
2.476949 -1.666939 1.065115 34.000000
2.454498 -1.692997 1.061407 30.000000
2.459237 -1.737028 1.068933 33.000000
2.394016 -1.732344 1.046754 25.000000
2.386821 -1.767741 1.049071 36.000000
2.370872 -1.798181 1.048521 36.000000
2.350845 -1.825621 1.046211 32.000000
2.338785 -1.857873 1.046726 35.000000
2.321874 -1.887798 1.045864 34.000000
2.308237 -1.920635 1.046640 24.000000
2.290580 -1.950385 1.045758 20.000000
2.255623 -1.963540 1.036198 19.000000
2.237613 -1.992569 1.035126 35.000000
2.219147 -2.021582 1.034045 37.000000
2.193499 -2.043841 1.029611 33.000000
2.171055 -2.068994 1.026806 35.000000
2.145029 -2.090650 1.022289 32.000000
2.132195 -2.125305 1.024222 30.000000
2.115633 -2.156521 1.024425 31.000000
2.075776 -2.163671 1.013403 22.000000
2.078242 -2.215077 1.023080 35.000000
2.060492 -2.245830 1.023035 46.000000
2.010827 -2.241142 1.007206 31.000000
1.999117 -2.278368 1.010235 35.000000
1.991709 -2.323677 1.016867 35.000000
1.975759 -2.357326 1.018136 35.000000
1.941319 -2.368851 1.010076 35.000000
1.900976 -2.372461 0.998730 16.000000
1.887210 -2.409104 1.001533 30.000000
1.871444 -2.446611 1.004590 27.000000
1.850937 -2.475586 1.004120 27.000000
1.835683 -2.511976 1.006607 32.000000
1.803207 -2.525187 0.999847 25.000000
1.793707 -2.574018 1.007163 29.000000
1.766155 -2.594430 1.003342 27.000000
1.746518 -2.626343 1.004071 18.000000
1.716719 -2.647253 1.000536 21.000000
1.668131 -2.634521 0.984553 17.000000
1.600815 -2.593597 0.958461 18.000000
1.519152 -2.521909 0.921696 18.000000
1.451294 -2.469177 0.892639 14.000000
1.375836 -2.403775 0.859610 13.000000
1.320081 -2.365297 0.836796 14.000000
1.274929 -2.347619 0.821833 9.000000
0.744563 1.363672 0.492711 15.000000
0.764696 1.362729 0.497686 20.000000
0.783861 1.362025 0.502835 27.000000
0.789482 1.335965 0.498630 24.000000
0.808539 1.334902 0.503741 24.000000
0.810112 1.305287 0.498083 29.000000
0.832460 1.307363 0.504550 21.000000
0.854127 1.309604 0.511201 27.000000
0.841649 1.260161 0.497610 14.000000
0.861228 1.257678 0.502444 24.000000
0.874600 1.247637 0.504354 34.000000
0.882293 1.229787 0.503110 27.000000
0.915084 1.246228 0.516041 32.000000
0.905584 1.205261 0.505221 29.000000
0.939404 1.220535 0.517979 29.000000
0.955377 1.213347 0.521413 31.000000
0.953508 1.183766 0.515179 15.000000
0.960174 1.165341 0.513722 36.000000
0.975684 1.157812 0.517090 42.000000
0.981959 1.139270 0.515556 30.000000
0.997313 1.131365 0.518881 37.000000
1.016448 1.126312 0.523555 34.000000
1.031799 1.117930 0.526856 34.000000
1.047079 1.109376 0.530119 38.000000
1.065613 1.103947 0.535038 15.000000
1.077564 1.091499 0.536625 47.000000
1.086015 1.075633 0.536506 50.000000
1.100574 1.066654 0.539948 37.000000
1.115601 1.057003 0.543101 55.000000
1.127092 1.043970 0.544594 48.000000
1.145417 1.037112 0.549386 57.000000
1.156729 1.023699 0.550837 67.000000
1.175061 1.016345 0.555606 19.000000
1.189279 1.006041 0.558906 42.000000
1.203915 0.995098 0.561912 42.000000
1.214858 0.980964 0.563279 33.000000
1.239954 0.978787 0.571604 62.000000
1.250720 0.964277 0.572886 35.000000
1.264675 0.952800 0.576082 36.000000
1.271382 0.935156 0.575552 69.000000
1.292768 0.928815 0.582139 21.000000
1.299167 0.910964 0.581608 55.000000
1.328277 0.909314 0.591572 61.000000
1.350031 0.901534 0.597855 52.000000
1.363623 0.888573 0.600907 65.000000
1.365239 0.867869 0.598707 46.000000
1.382525 0.857122 0.603448 51.000000
1.391738 0.841185 0.604613 65.000000
1.425013 0.839355 0.616253 24.000000
1.430000 0.820596 0.615689 50.000000
1.447092 0.808675 0.620321 80.000000
1.468180 0.798642 0.626667 52.000000
1.485115 0.786079 0.631219 66.000000
1.506142 0.775304 0.637488 36.000000
1.535233 0.768653 0.647525 35.000000
1.543633 0.750845 0.648477 71.000000
1.526439 0.720997 0.638757 18.000000
1.568092 0.719127 0.654038 36.000000
1.597101 0.710723 0.663985 46.000000
1.621854 0.699810 0.672067 46.000000
1.642458 0.686412 0.678214 58.000000
1.649841 0.667576 0.679145 36.000000
1.674388 0.655433 0.687156 34.000000
1.690054 0.639705 0.691788 35.000000
1.710118 0.625085 0.697984 18.000000
1.712440 0.603836 0.696966 52.000000
1.740944 0.591818 0.706826 60.000000
1.751631 0.573370 0.709525 42.000000
1.775579 0.558963 0.717501 74.000000
1.812801 0.548078 0.730894 48.000000
1.823104 0.528623 0.733377 36.000000
1.842235 0.511436 0.739471 42.000000
1.865767 0.495137 0.747254 21.000000
1.889087 0.478427 0.755240 35.000000
1.907721 0.460148 0.761367 53.000000
1.953490 0.447676 0.778299 42.000000
1.971876 0.428269 0.784324 46.000000
1.990195 0.408550 0.790290 55.000000
2.008176 0.388519 0.796331 34.000000
2.030529 0.368941 0.804195 35.000000
2.071189 0.352000 0.819199 27.000000
2.097909 0.331967 0.828699 48.000000
2.115213 0.309987 0.834501 61.000000
2.146127 0.289561 0.845906 39.000000
2.176909 0.268502 0.857252 38.000000
2.212106 0.247256 0.870284 51.000000
2.233119 0.223952 0.878082 42.000000
2.263151 0.200901 0.889385 35.000000
2.320938 0.179443 0.911484 32.000000
2.350642 0.154728 0.922653 42.000000
2.366132 0.128695 0.928123 35.000000
2.399932 0.103065 0.941124 48.000000
2.433527 0.076771 0.953971 50.000000
2.476053 0.049843 0.970630 37.000000
2.508962 0.021877 0.983566 52.000000
2.527664 -0.006794 0.990866 31.000000
2.569391 -0.036134 1.007205 35.000000
2.606116 -0.066394 1.021545 44.000000
2.628436 -0.096989 1.030666 35.000000
2.659779 -0.128477 1.043174 37.000000
2.727916 -0.163016 1.070530 35.000000
2.772293 -0.197403 1.088585 33.000000
2.779295 -0.229780 1.091957 44.000000
2.772010 -0.261059 1.089770 75.000000
2.755198 -0.291072 1.083758 70.000000
2.742589 -0.321401 1.079753 61.000000
2.729641 -0.351519 1.075660 40.000000
2.721152 -0.381894 1.073210 36.000000
2.707531 -0.411553 1.069213 29.000000
2.762623 -0.452291 1.092302 23.000000
2.693253 -0.472477 1.066230 11.000000
2.752168 -0.515109 1.090927 28.000000
2.755530 -0.548291 1.093729 27.000000
2.794960 -0.589373 1.111119 34.000000
2.842999 -0.633335 1.132107 33.000000
2.885854 -0.677477 1.151158 42.000000
2.928066 -0.722662 1.169982 32.000000
3.019463 -0.781637 1.208643 34.000000
3.024184 -0.819800 1.213140 22.000000
3.032902 -0.859441 1.219329 31.000000
3.041302 -0.899390 1.225299 34.000000
3.017968 -0.929925 1.218654 35.000000
2.989867 -0.958627 1.210118 29.000000
2.983820 -0.994092 1.210477 36.000000
2.955275 -1.021930 1.201759 34.000000
2.957006 -1.060497 1.205908 27.000000
2.901434 -1.078022 1.186674 26.000000
2.881083 -1.107550 1.181279 31.000000
2.868879 -1.140431 1.179766 33.000000
2.851950 -1.171435 1.176370 36.000000
2.825854 -1.198893 1.169820 32.000000
2.812621 -1.231073 1.168016 35.000000
2.794927 -1.261130 1.164436 34.000000
2.768494 -1.287048 1.157218 28.000000
2.728741 -1.306814 1.145005 28.000000
2.722619 -1.342345 1.146960 34.000000
2.703889 -1.371028 1.143018 34.000000
2.684513 -1.399911 1.139477 45.000000
2.660763 -1.426291 1.134183 34.000000
2.632713 -1.450123 1.126948 36.000000
2.612572 -1.477989 1.123237 35.000000
2.604436 -1.512624 1.124681 29.000000
2.551633 -1.520861 1.106811 26.000000
2.546892 -1.557411 1.109910 35.000000
2.529882 -1.586474 1.107674 34.000000
2.512581 -1.615342 1.105341 37.000000
2.487154 -1.638853 1.099545 30.000000
2.464857 -1.665101 1.095782 34.000000
2.450626 -1.695827 1.094991 36.000000
2.423879 -1.718979 1.089418 26.000000
2.393934 -1.738133 1.081659 31.000000
2.370747 -1.763208 1.077734 34.000000
2.359318 -1.795774 1.078465 35.000000
2.346705 -1.828896 1.079469 38.000000
2.323421 -1.852527 1.074871 32.000000
2.321100 -1.894301 1.080944 37.000000
2.303618 -1.924241 1.080013 34.000000
2.268860 -1.937910 1.070243 13.000000
2.251025 -1.967322 1.069218 18.000000
2.239756 -2.002804 1.071543 31.000000
2.203850 -2.015980 1.062020 33.000000
2.181600 -2.041423 1.059214 35.000000
2.152345 -2.060153 1.052980 31.000000
2.137486 -2.090760 1.052926 36.000000
2.124662 -2.125342 1.054895 31.000000
2.098132 -2.146461 1.050231 23.000000
2.077909 -2.174038 1.048772 29.000000
2.067092 -2.211751 1.052130 31.000000
2.046218 -2.239006 1.050538 33.000000
2.017503 -2.259971 1.046065 36.000000
1.992953 -2.283152 1.042642 29.000000
1.971376 -2.309637 1.040938 33.000000
1.952459 -2.339531 1.040742 32.000000
1.927106 -2.361936 1.037204 27.000000
1.886891 -2.365536 1.025641 20.000000
1.864355 -2.390918 1.023730 24.000000
1.857203 -2.439578 1.031670 31.000000
1.836602 -2.468509 1.031195 27.000000
1.818528 -2.501011 1.032181 27.000000
1.800011 -2.533407 1.033132 30.000000
1.775532 -2.557996 1.030806 26.000000
1.749166 -2.583248 1.028868 20.000000
1.734598 -2.623110 1.032759 23.000000
1.706719 -2.642909 1.028718 21.000000
1.669119 -2.651345 1.020436 18.000000
1.593555 -2.593457 0.987109 16.000000
1.521971 -2.538264 0.955456 12.000000
1.445200 -2.474468 0.921243 15.000000
1.371700 -2.408245 0.886996 13.000000
1.321162 -2.383275 0.868439 10.000000
0.725928 1.336377 0.496973 9.000000
0.767841 1.377575 0.517787 21.000000
0.769286 1.343278 0.510370 18.000000
0.793176 1.350595 0.518797 17.000000
0.805030 1.337215 0.519334 24.000000
0.815105 1.319207 0.518073 20.000000
0.836682 1.321642 0.524940 21.000000
0.845625 1.303872 0.523811 23.000000
0.867350 1.305747 0.530673 10.000000
0.871438 1.279439 0.526056 23.000000
0.871526 1.249804 0.519978 21.000000
0.893085 1.251133 0.526756 18.000000
0.903686 1.236852 0.527064 30.000000
0.912012 1.218211 0.525530 17.000000
0.925033 1.207549 0.527397 27.000000
0.943781 1.204123 0.532551 24.000000
0.983258 1.226240 0.549224 14.000000
0.948543 1.156342 0.524625 35.000000
0.985226 1.174118 0.539700 26.000000
0.982519 1.144678 0.533105 29.000000
0.994824 1.133154 0.534863 32.000000
1.022816 1.139057 0.544956 26.000000
1.031929 1.123588 0.544960 30.000000
1.053759 1.121767 0.551703 29.000000
1.072403 1.116178 0.556734 25.000000
1.064723 1.083452 0.548207 35.000000
1.086501 1.080930 0.554890 25.000000
1.098240 1.068145 0.556432 34.000000
1.106476 1.052025 0.556263 34.000000
1.138065 1.058618 0.568300 27.000000
1.128792 1.026287 0.559486 36.000000
1.157588 1.028581 0.569554 32.000000
1.182985 1.027288 0.577936 26.000000
1.179492 1.001642 0.572676 32.000000
1.190469 0.987744 0.574036 27.000000
1.204986 0.976646 0.577139 33.000000
1.222633 0.968675 0.582150 32.000000
1.237007 0.957111 0.585224 28.000000
1.247200 0.942892 0.586702 34.000000
1.268892 0.936551 0.593206 29.000000
1.286458 0.927419 0.598174 28.000000
1.288690 0.907189 0.596085 28.000000
1.306476 0.897313 0.600761 35.000000
1.327744 0.890016 0.607434 35.000000
1.352935 0.884904 0.615858 32.000000
1.382127 0.881838 0.626097 34.000000
1.391607 0.865824 0.627329 35.000000
1.400979 0.849757 0.628614 35.000000
1.414155 0.835903 0.631587 31.000000
1.427276 0.821796 0.634512 32.000000
1.444300 0.809822 0.639245 30.000000
1.457169 0.795264 0.642186 35.000000
1.478213 0.784929 0.648639 33.000000
1.494766 0.772281 0.653519 31.000000
1.519849 0.763294 0.661763 35.000000
1.532167 0.747905 0.664749 32.000000
1.548738 0.734080 0.669280 27.000000
1.565059 0.720172 0.674046 32.000000
1.581238 0.705958 0.678768 32.000000
1.605872 0.695189 0.687100 34.000000
1.621912 0.680257 0.691735 30.000000
1.633547 0.663319 0.694490 29.000000
1.662363 0.652969 0.704531 32.000000
1.678089 0.637110 0.709084 29.000000
1.680498 0.616308 0.708246 23.000000
1.704665 0.603123 0.716376 34.000000
1.719872 0.586595 0.720954 30.000000
1.739381 0.571197 0.727387 35.000000
1.789754 0.565228 0.746650 34.000000
1.804685 0.547334 0.751152 31.000000
1.810571 0.526581 0.751833 31.000000
1.838575 0.511994 0.761782 34.000000
1.839482 0.489728 0.760742 21.000000
1.876169 0.476710 0.774494 32.000000
1.908393 0.461624 0.786090 27.000000
1.935783 0.445006 0.796230 29.000000
1.954152 0.425765 0.802403 30.000000
1.967779 0.405211 0.806589 27.000000
1.990292 0.386216 0.814707 29.000000
2.026238 0.369232 0.828300 26.000000
2.025595 0.345215 0.826907 10.000000
2.079633 0.330026 0.847856 33.000000
2.105968 0.309567 0.857823 31.000000
2.122975 0.287340 0.863853 28.000000
2.176553 0.269281 0.884854 33.000000
2.188583 0.245415 0.888885 27.000000
2.214185 0.222729 0.898682 27.000000
2.244235 0.199781 0.910063 29.000000
2.269346 0.175914 0.919726 10.000000
2.326574 0.153657 0.942588 31.000000
2.342072 0.127782 0.948287 25.000000
2.384908 0.102786 0.965311 26.000000
2.409094 0.076172 0.974762 29.000000
2.460704 0.049668 0.995625 29.000000
2.474932 0.021674 1.001413 24.000000
2.502823 -0.006757 1.012665 27.000000
2.544369 -0.035938 1.029459 30.000000
2.571668 -0.065717 1.040540 30.000000
2.598528 -0.096131 1.051704 29.000000
2.652888 -0.128526 1.074025 24.000000
2.706839 -0.162282 1.096429 31.000000
2.723460 -0.194488 1.103476 27.000000
2.753463 -0.228265 1.116318 16.000000
2.806118 -0.265054 1.138701 33.000000
2.803149 -0.297061 1.138237 27.000000
2.799717 -0.329160 1.137866 21.000000
2.805110 -0.362355 1.141144 21.000000
2.842341 -0.400193 1.157319 19.000000
2.860825 -0.436179 1.166001 21.000000
2.865027 -0.470436 1.169165 17.000000
2.873383 -0.505611 1.174096 9.000000
3.013614 -0.565828 1.233021 30.000000
3.043758 -0.607486 1.247025 26.000000
3.086853 -0.652960 1.266803 32.000000
3.115715 -0.696335 1.280867 32.000000
3.108157 -0.731819 1.279502 31.000000
3.099758 -0.767512 1.278767 29.000000
3.073387 -0.798223 1.270184 25.000000
3.033257 -0.824763 1.255842 14.000000
3.046293 -0.865924 1.264077 30.000000
3.005447 -0.891541 1.249969 23.000000
2.995560 -0.925941 1.248734 29.000000
2.967672 -0.954549 1.240003 28.000000
2.957126 -0.988439 1.238569 26.000000
2.950664 -1.023750 1.238877 30.000000
2.921685 -1.051395 1.230280 26.000000
2.888485 -1.076505 1.219351 10.000000
2.872108 -1.108014 1.216098 31.000000
2.842605 -1.134050 1.207244 25.000000
2.838657 -1.170227 1.209402 30.000000
2.817103 -1.199111 1.204031 30.000000
2.791166 -1.225726 1.196842 27.000000
2.765051 -1.251849 1.189470 28.000000
2.747102 -1.281517 1.185758 24.000000
2.682326 -1.289096 1.162341 9.000000
2.693438 -1.332005 1.171188 29.000000
2.678478 -1.363106 1.169515 29.000000
2.655554 -1.389196 1.163632 29.000000
2.640052 -1.419906 1.161866 32.000000
2.608028 -1.441299 1.152688 27.000000
2.600150 -1.475935 1.154242 28.000000
2.571820 -1.498817 1.146796 25.000000
2.543256 -1.521225 1.139271 10.000000
2.538527 -1.557812 1.142512 32.000000
2.497680 -1.571996 1.129453 26.000000
2.484440 -1.603170 1.128922 29.000000
2.466861 -1.631663 1.126507 30.000000
2.441351 -1.654623 1.120541 24.000000
2.441966 -1.696556 1.127285 29.000000
2.415906 -1.718986 1.121128 24.000000
2.363300 -1.721764 1.102638 10.000000
2.355191 -1.757817 1.105631 30.000000
2.325153 -1.776123 1.097584 25.000000
2.334825 -1.826288 1.109218 31.000000
2.318875 -1.855777 1.108068 32.000000
2.294548 -1.879798 1.103809 21.000000
2.291644 -1.921613 1.109900 26.000000
2.246185 -1.926141 1.094641 10.000000
2.214329 -1.943047 1.086753 9.000000
2.210226 -1.984500 1.092605 30.000000
2.202129 -2.022895 1.096691 27.000000
2.163628 -2.031608 1.084707 29.000000
2.141351 -2.056681 1.081814 29.000000
2.132098 -2.094736 1.085652 24.000000
2.109098 -2.119482 1.082547 28.000000
2.082528 -2.140567 1.077744 22.000000
2.049448 -2.154466 1.069470 10.000000
2.022616 -2.174743 1.064601 30.000000
2.017938 -2.219041 1.071419 25.000000
2.003125 -2.252929 1.073047 28.000000
1.975522 -2.272518 1.068055 26.000000
1.947800 -2.291839 1.062879 24.000000
1.929004 -2.321582 1.062695 28.000000
1.909758 -2.351172 1.062490 17.000000
1.869710 -2.354731 1.050618 10.000000
1.873196 -2.413613 1.063459 23.000000
1.838666 -2.423844 1.054794 18.000000
1.830739 -2.472540 1.062881 24.000000
1.798574 -2.486037 1.055853 21.000000
1.788217 -2.530009 1.061716 19.000000
1.761032 -2.550598 1.057719 23.000000
1.758491 -2.611152 1.070214 10.000000
1.727883 -2.627489 1.064552 17.000000
1.704836 -2.655321 1.063592 22.000000
1.661481 -2.650937 1.049881 10.000000
1.599236 -2.618367 1.025549 10.000000
1.522725 -2.555320 0.989829 10.000000
1.442986 -2.482645 0.951221 10.000000
1.382000 -2.442420 0.925692 10.000000
1.319229 -2.391827 0.896858 9.000000
0.731121 1.355473 0.518326 22.000000
0.746593 1.346249 0.520359 24.000000
0.760925 1.337322 0.522541 22.000000
0.768003 1.316036 0.519830 28.000000
0.787753 1.314569 0.525037 21.000000
0.796746 1.297217 0.523908 27.000000
0.815537 1.295782 0.529239 24.000000
0.834500 1.294031 0.534595 23.000000
0.823077 1.244308 0.520029 26.000000
0.849619 1.254151 0.530265 24.000000
0.860303 1.240234 0.530615 29.000000
0.862664 1.214702 0.525911 24.000000
0.878406 1.208340 0.529510 24.000000
0.891369 1.197989 0.531445 30.000000
0.907816 1.190753 0.534820 29.000000
0.937947 1.202294 0.546790 24.000000
0.930307 1.165532 0.536814 29.000000
0.939861 1.150910 0.536953 27.000000
0.964355 1.154248 0.545557 34.000000
0.973754 1.139300 0.545653 32.000000
0.986020 1.127812 0.547405 31.000000
1.001367 1.119678 0.550879 35.000000
1.019811 1.114785 0.556042 32.000000
1.035102 1.106222 0.559444 32.000000
1.050320 1.097386 0.562857 33.000000
1.055138 1.078722 0.561250 40.000000
1.073507 1.072864 0.566367 48.000000
1.095272 1.070025 0.573208 35.000000
1.106948 1.057052 0.574805 32.000000
1.118524 1.043979 0.576302 50.000000
1.122543 1.024849 0.574562 42.000000
1.154682 1.030233 0.586634 38.000000
1.162472 1.013525 0.586322 29.000000
1.169593 0.997151 0.586252 30.000000
1.187713 0.989273 0.591180 40.000000
1.205458 0.981480 0.596378 32.000000
1.219934 0.970106 0.599545 36.000000
1.237595 0.961765 0.604673 43.000000
1.255638 0.952740 0.609613 32.000000
1.265850 0.938195 0.611109 36.000000
1.268664 0.917725 0.608723 29.000000
1.282262 0.905749 0.611923 30.000000
1.311149 0.904054 0.622411 45.000000
1.332442 0.896665 0.629292 47.000000
1.346019 0.883742 0.632436 35.000000
1.355522 0.868115 0.633756 69.000000
1.360975 0.849866 0.633188 55.000000
1.374106 0.836438 0.636290 37.000000
1.387185 0.822812 0.639294 31.000000
1.412227 0.815961 0.647842 36.000000
1.413020 0.794910 0.645269 45.000000
1.450161 0.794069 0.659352 41.000000
1.483164 0.790549 0.671790 48.000000
1.495902 0.775341 0.674643 40.000000
1.516586 0.764436 0.681503 62.000000
1.533296 0.750757 0.686182 42.000000
1.549646 0.737053 0.691040 27.000000
1.570179 0.725044 0.697781 35.000000
1.582207 0.708783 0.700736 33.000000
1.594048 0.692368 0.703640 34.000000
1.614298 0.679276 0.710250 35.000000
1.630203 0.664084 0.714935 35.000000
1.646011 0.648635 0.719631 35.000000
1.661543 0.633047 0.724453 33.000000
1.685778 0.620163 0.732828 31.000000
1.701073 0.603841 0.737558 36.000000
1.716256 0.587318 0.742297 37.000000
1.735719 0.571863 0.748822 55.000000
1.741807 0.551852 0.749606 35.000000
1.769897 0.538452 0.759888 61.000000
1.788952 0.521952 0.766263 36.000000
1.821203 0.508878 0.778545 32.000000
1.831161 0.488977 0.781012 28.000000
1.863227 0.474805 0.793203 35.000000
1.886206 0.457709 0.801535 34.000000
1.918092 0.442212 0.813636 35.000000
1.913680 0.418268 0.810592 34.000000
1.972498 0.407419 0.833999 35.000000
1.994891 0.388330 0.842322 36.000000
2.003530 0.366199 0.844774 29.000000
