x y z intensity
0.823834 -0.345362 -0.747857 95.000000
0.823656 -0.357805 -0.749995 100.000000
0.815976 -0.367262 -0.746008 100.000000
0.812137 -0.378035 -0.744799 100.000000
0.807835 -0.388914 -0.743875 95.000000
0.803497 -0.399722 -0.742879 98.000000
0.802840 -0.412078 -0.744711 98.000000
0.805092 -0.426403 -0.749924 43.000000
0.817405 -0.446432 -0.764598 98.000000
0.809180 -0.455420 -0.760144 95.000000
0.803906 -0.466406 -0.759119 95.000000
0.805583 -0.481075 -0.764004 95.000000
0.803795 -0.493853 -0.765715 98.000000
0.794912 -0.502640 -0.761309 98.000000
0.799420 -0.519563 -0.769139 98.000000
0.780668 -0.521708 -0.755258 44.000000
0.784504 -0.538888 -0.763245 62.000000
0.775356 -0.547247 -0.758670 98.000000
0.785179 -0.569216 -0.772730 95.000000
0.791537 -0.589164 -0.783578 95.000000
0.788231 -0.602234 -0.784989 95.000000
0.787926 -0.617734 -0.789443 95.000000
0.784375 -0.630820 -0.790742 93.000000
0.774619 -0.638862 -0.785786 31.000000
0.773361 -0.654657 -0.790302 53.000000
0.772424 -0.670264 -0.794476 82.000000
0.767789 -0.683524 -0.795798 95.000000
0.754836 -0.688541 -0.787590 98.000000
0.752911 -0.704352 -0.791830 95.000000
0.754295 -0.722712 -0.798720 89.000000
0.751944 -0.738721 -0.802812 91.000000
0.741009 -0.746246 -0.797769 34.000000
0.760591 -0.785175 -0.825813 34.000000
0.757509 -0.801476 -0.829609 49.000000
0.746037 -0.809021 -0.824337 61.000000
0.742628 -0.825302 -0.828008 58.000000
0.739050 -0.841606 -0.831602 62.000000
0.732599 -0.854919 -0.832147 78.000000
0.726082 -0.868135 -0.832589 47.000000
0.713501 -0.875427 -0.827405 33.000000
0.716805 -0.901105 -0.839527 30.000000
0.712289 -0.917458 -0.842747 35.000000
0.701822 -0.927705 -0.840295 70.000000
0.696923 -0.944004 -0.843328 49.000000
0.703687 -0.976805 -0.860864 36.000000
0.690281 -0.983633 -0.855345 37.000000
0.692976 -1.013882 -0.869986 35.000000
0.686993 -1.030420 -0.872715 32.000000
0.448432 0.673490 -0.561728 20.000000
0.444375 0.650010 -0.549199 29.000000
0.451055 0.643740 -0.551104 15.000000
0.458262 0.637178 -0.552773 27.000000
0.462957 0.627272 -0.551556 22.000000
0.471914 0.624053 -0.556289 23.000000
0.481410 0.620441 -0.560777 31.000000
0.467666 0.588316 -0.539254 10.000000
0.466164 0.572360 -0.532148 30.000000
0.477828 0.571883 -0.539456 27.000000
0.489153 0.571373 -0.546937 25.000000
0.495198 0.564590 -0.548555 34.000000
0.498520 0.554723 -0.547158 28.000000
0.501721 0.544846 -0.545717 29.000000
0.518595 0.549576 -0.559100 28.000000
0.510583 0.527979 -0.545683 13.000000
0.499352 0.503835 -0.529169 23.000000
0.507687 0.499729 -0.533489 22.000000
0.521767 0.500998 -0.543834 23.000000
0.536002 0.501974 -0.554167 29.000000
0.564639 0.516299 -0.579814 15.000000
0.582234 0.519070 -0.593240 25.000000
0.594006 0.516239 -0.600592 32.000000
0.584218 0.495428 -0.586898 12.000000
0.568024 0.469853 -0.567003 23.000000
0.576385 0.464504 -0.571164 22.000000
0.603053 0.473840 -0.593906 25.000000
0.670742 0.513710 -0.656570 26.000000
0.824745 0.615502 -0.802483 95.000000
1.190963 0.843094 -1.145336 27.000000
1.206547 0.831475 -1.153730 10.000000
1.293873 0.867650 -1.230206 10.000000
1.303383 0.850143 -1.232326 10.000000
1.299546 0.824127 -1.221948 13.000000
1.301345 0.802750 -1.218176 13.000000
1.323759 0.793182 -1.232507 16.000000
1.328644 0.773619 -1.231671 16.000000
1.323248 0.748270 -1.221309 10.000000
1.232179 0.676324 -1.132366 12.000000
1.218796 0.648941 -1.115334 23.000000
0.793255 0.371333 -0.713975 31.000000
0.797049 0.360884 -0.715078 51.000000
0.808207 0.353328 -0.722206 80.000000
0.797651 0.336670 -0.710493 59.000000
0.794019 0.323197 -0.705098 69.000000
0.801066 0.314104 -0.709125 98.000000
0.804435 0.303522 -0.709907 95.000000
0.800491 0.290245 -0.704282 95.000000
0.810934 0.282153 -0.711337 95.000000
0.814064 0.271400 -0.711915 98.000000
0.813158 0.259547 -0.709569 98.000000
0.815834 0.248876 -0.710315 98.000000
0.789210 0.229458 -0.685109 60.000000
0.799025 0.221122 -0.692139 95.000000
0.805108 0.211583 -0.695873 95.000000
0.810880 0.201980 -0.699845 98.000000
0.813109 0.191302 -0.700277 95.000000
0.818978 0.181386 -0.703824 98.000000
0.824564 0.171439 -0.707608 98.000000
0.822553 0.159899 -0.704859 95.000000
0.839517 0.151761 -0.717904 81.000000
0.837107 0.140173 -0.715328 95.000000
0.842409 0.129779 -0.718822 95.000000
0.843838 0.118721 -0.719061 100.000000
0.848989 0.108110 -0.722422 100.000000
0.850049 0.097002 -0.722798 98.000000
0.847173 0.085476 -0.719843 100.000000
0.848057 0.074383 -0.720082 100.000000
0.837421 0.062439 -0.710529 80.000000
0.838092 0.051462 -0.710596 95.000000
0.834884 0.040301 -0.707366 95.000000
0.846592 0.029776 -0.717259 98.000000
0.835352 0.018446 -0.707700 105.000000
0.839301 0.007553 -0.710999 103.000000
0.839334 -0.003458 -0.710999 105.000000
0.827822 -0.014238 -0.701204 103.000000
0.820094 -0.024834 -0.694610 105.000000
0.819865 -0.035562 -0.694380 105.000000
0.823151 -0.046505 -0.697610 100.000000
0.822557 -0.057283 -0.697511 98.000000
0.829475 -0.068657 -0.703803 103.000000
0.828710 -0.079535 -0.703570 100.000000
0.831643 -0.090760 -0.706497 103.000000
0.834500 -0.102118 -0.709354 103.000000
0.852161 -0.115631 -0.725304 103.000000
0.831882 -0.123972 -0.708951 103.000000
0.853087 -0.138560 -0.727975 98.000000
0.840469 -0.147678 -0.717632 91.000000
0.849879 -0.160906 -0.727113 100.000000
0.851908 -0.172772 -0.729811 100.000000
0.846362 -0.183115 -0.726010 100.000000
0.840454 -0.193359 -0.722420 100.000000
0.841948 -0.205323 -0.725182 100.000000
0.843595 -0.217281 -0.727560 98.000000
0.837499 -0.227324 -0.723768 98.000000
0.838677 -0.239379 -0.726313 53.000000
0.843166 -0.252670 -0.732293 95.000000
0.840475 -0.263712 -0.731489 98.000000
0.837715 -0.274719 -0.730615 95.000000
0.827281 -0.283265 -0.723576 95.000000
0.827725 -0.295472 -0.726068 98.000000
0.820804 -0.305052 -0.722122 98.000000
0.821045 -0.317250 -0.724468 95.000000
0.813980 -0.326631 -0.720390 33.000000
0.839045 -0.349223 -0.744774 95.000000
0.835280 -0.360267 -0.743734 79.000000
0.834693 -0.372927 -0.746071 95.000000
0.820207 -0.378995 -0.735413 82.000000
0.819443 -0.391583 -0.737606 92.000000
0.811603 -0.400718 -0.733458 85.000000
0.814088 -0.415022 -0.738678 95.000000
0.806053 -0.424004 -0.734428 36.000000
0.835697 -0.453256 -0.764548 86.000000
0.824010 -0.460544 -0.757025 75.000000
0.822446 -0.473386 -0.758782 95.000000
0.817403 -0.484213 -0.757373 81.000000
0.808574 -0.493187 -0.753074 77.000000
0.806725 -0.505904 -0.754666 66.000000
0.801014 -0.516731 -0.753368 53.000000
0.798540 -0.529655 -0.755128 42.000000
0.825143 -0.562485 -0.784603 41.000000
0.812532 -0.569053 -0.776926 39.000000
0.806303 -0.579935 -0.775349 65.000000
0.806346 -0.595429 -0.779875 45.000000
0.803062 -0.608590 -0.781272 43.000000
0.796525 -0.619329 -0.779521 35.000000
0.799203 -0.637363 -0.786842 39.000000
0.788851 -0.645794 -0.782223 34.000000
0.782066 -0.656304 -0.780302 30.000000
0.778181 -0.669329 -0.781370 41.000000
0.779623 -0.687865 -0.788703 37.000000
0.771936 -0.698538 -0.786911 34.000000
0.767658 -0.711529 -0.787767 52.000000
0.777182 -0.738538 -0.803845 35.000000
0.774783 -0.754761 -0.807825 35.000000
0.772139 -0.771018 -0.811733 30.000000
0.772179 -0.790222 -0.818546 24.000000
0.763535 -0.800797 -0.816322 30.000000
0.765871 -0.823045 -0.825940 32.000000
0.756973 -0.833518 -0.823598 32.000000
0.748033 -0.843863 -0.821214 32.000000
0.736359 -0.851061 -0.815853 25.000000
0.737746 -0.873548 -0.825096 32.000000
0.727763 -0.884004 -0.822859 25.000000
0.723477 -0.900327 -0.826094 12.000000
0.721573 -0.919866 -0.832149 29.000000
0.735929 -0.962522 -0.858652 26.000000
0.718536 -0.962803 -0.847152 27.000000
0.717354 -0.986270 -0.856041 29.000000
0.710953 -1.003235 -0.859131 23.000000
0.707567 -1.023208 -0.864717 26.000000
0.702993 -1.043564 -0.870477 19.000000
0.472329 0.719729 -0.583508 36.000000
0.459513 0.682028 -0.560082 20.000000
0.457091 0.662070 -0.550758 35.000000
0.462088 0.652104 -0.549651 57.000000
0.459634 0.632164 -0.539970 31.000000
0.471035 0.632402 -0.547500 62.000000
0.483076 0.632181 -0.554861 57.000000
0.484570 0.619102 -0.550928 37.000000
0.499223 0.621753 -0.561113 59.000000
0.477155 0.580194 -0.531117 24.000000
0.493752 0.586094 -0.544327 76.000000
0.497746 0.575986 -0.542858 95.000000
0.495741 0.560035 -0.535721 91.000000
0.507146 0.559226 -0.543105 98.000000
0.504803 0.543365 -0.535854 72.000000
0.502240 0.527646 -0.528497 77.000000
0.530901 0.543696 -0.553277 54.000000
0.519623 0.519318 -0.537008 31.000000
0.516193 0.503956 -0.529713 48.000000
0.524570 0.499658 -0.533990 37.000000
0.532980 0.495226 -0.538255 48.000000
0.541368 0.490630 -0.542506 72.000000
0.549787 0.485870 -0.546716 34.000000
0.563852 0.486371 -0.557126 67.000000
0.584576 0.491548 -0.573297 32.000000
0.598938 0.491335 -0.583752 25.000000
0.573287 0.458231 -0.554757 46.000000
0.810898 0.616172 -0.775352 110.000000
1.261606 0.910137 -1.192281 24.000000
1.290816 0.906942 -1.212960 19.000000
1.297386 0.887398 -1.212214 10.000000
1.316895 0.876587 -1.223694 15.000000
1.316528 0.852506 -1.216636 16.000000
1.325857 0.834817 -1.218696 19.000000
1.331098 0.815312 -1.218104 23.000000
1.336777 0.795473 -1.216896 19.000000
1.348500 0.779782 -1.222212 21.000000
1.333270 0.748191 -1.202270 16.000000
1.330821 0.724987 -1.195059 10.000000
1.321198 0.698213 -1.181440 14.000000
1.325211 0.678986 -1.180136 19.000000
1.315041 0.652714 -1.166325 23.000000
1.272776 0.611600 -1.124269 34.000000
0.787002 0.353844 -0.690254 35.000000
0.773053 0.335621 -0.675363 90.000000
0.772951 0.323996 -0.673187 95.000000
0.783585 0.316778 -0.680343 55.000000
0.808688 0.314955 -0.700040 98.000000
0.805044 0.301474 -0.694267 100.000000
0.808045 0.291020 -0.695279 98.000000
0.811215 0.280398 -0.695953 100.000000
0.810599 0.268488 -0.693408 100.000000
0.820746 0.260292 -0.700525 103.000000
0.816238 0.247238 -0.694684 103.000000
0.822545 0.237638 -0.698550 98.000000
0.802641 0.220721 -0.680175 95.000000
0.808748 0.211201 -0.683899 95.000000
0.811022 0.200621 -0.684360 95.000000
0.813230 0.190009 -0.684789 100.000000
0.815109 0.179429 -0.685415 100.000000
0.817152 0.168750 -0.685679 98.000000
0.815075 0.157372 -0.682996 100.000000
0.824313 0.148141 -0.689780 92.000000
0.833481 0.138646 -0.696505 98.000000
0.831172 0.127202 -0.693591 100.000000
0.836388 0.116892 -0.697007 103.000000
0.837491 0.106031 -0.697441 103.000000
0.842557 0.095538 -0.700693 103.000000
0.843497 0.084561 -0.700961 100.000000
0.840498 0.073250 -0.698009 100.000000
0.845108 0.062607 -0.701331 98.000000
0.834246 0.050892 -0.691866 90.000000
0.842537 0.040401 -0.698243 95.000000
0.846652 0.029608 -0.701633 93.000000
0.843038 0.018513 -0.698577 95.000000
0.846988 0.007587 -0.701801 95.000000
0.847022 -0.003424 -0.701801 95.000000
0.843138 -0.014369 -0.698544 95.000000
0.831456 -0.024983 -0.688810 95.000000
0.838922 -0.036125 -0.694988 98.000000
0.838390 -0.047036 -0.694955 95.000000
0.830105 -0.057415 -0.688480 76.000000
0.848646 -0.069771 -0.704249 95.000000
0.840164 -0.080067 -0.697641 98.000000
0.831663 -0.090163 -0.690972 100.000000
0.838125 -0.101921 -0.697240 95.000000
0.840945 -0.113330 -0.699988 98.000000
0.839569 -0.124274 -0.699753 98.000000
0.845779 -0.136413 -0.705809 100.000000
0.859466 -0.150078 -0.718147 95.000000
0.846424 -0.159111 -0.708138 95.000000
0.844723 -0.170135 -0.707628 100.000000
0.846460 -0.181973 -0.710493 98.000000
0.844580 -0.192944 -0.709810 100.000000
0.846119 -0.204895 -0.712532 103.000000
0.843819 -0.215916 -0.712017 95.000000
0.841415 -0.226936 -0.711433 100.000000
0.846401 -0.240003 -0.717099 95.000000
0.843838 -0.251018 -0.716372 89.000000
0.844598 -0.263256 -0.719006 100.000000
0.845507 -0.275418 -0.721286 98.000000
0.846075 -0.287781 -0.723804 98.000000
0.835518 -0.296237 -0.716779 95.000000
0.836142 -0.308404 -0.718875 98.000000
0.832473 -0.319480 -0.718316 95.000000
0.825394 -0.328905 -0.714274 90.000000
0.836263 -0.345649 -0.725814 95.000000
0.836170 -0.358090 -0.727912 95.000000
0.835653 -0.370695 -0.730179 95.000000
0.835316 -0.383216 -0.732152 98.000000
0.823940 -0.390869 -0.724961 95.000000
0.823120 -0.403437 -0.727072 95.000000
0.832651 -0.421337 -0.738412 95.000000
0.817638 -0.426855 -0.727956 64.000000
0.826814 -0.445062 -0.739144 95.000000
0.822037 -0.455893 -0.737867 95.000000
0.823620 -0.470777 -0.743012 95.000000
0.815222 -0.479553 -0.738538 98.000000
0.816551 -0.494517 -0.743510 100.000000
0.811381 -0.505188 -0.741996 86.000000
0.809098 -0.518103 -0.743765 91.000000
0.809925 -0.533246 -0.748541 80.000000
0.813901 -0.550636 -0.756268 46.000000
0.807847 -0.561459 -0.754793 95.000000
0.804987 -0.574513 -0.756316 95.000000
0.801964 -0.587540 -0.757751 76.000000
0.801996 -0.602968 -0.762122 95.000000
0.795575 -0.613581 -0.760391 89.000000
0.798431 -0.631547 -0.767654 95.000000
0.791272 -0.642364 -0.766136 35.000000
0.787578 -0.655352 -0.767227 35.000000
0.777148 -0.663453 -0.762556 91.000000
0.779362 -0.681612 -0.769520 90.000000
0.780698 -0.700211 -0.776676 95.000000
0.772972 -0.710765 -0.774844 95.000000
0.791510 -0.746109 -0.799585 75.000000
0.783311 -0.756821 -0.797607 88.000000
0.781394 -0.772844 -0.801108 35.000000
0.764443 -0.774746 -0.790179 35.000000
0.761071 -0.791258 -0.794193 94.000000
0.755288 -0.804512 -0.794924 76.000000
0.752145 -0.820754 -0.798512 83.000000
0.748792 -0.837021 -0.801982 50.000000
0.745225 -0.853309 -0.805418 71.000000
0.740759 -0.869916 -0.809033 60.000000
0.739369 -0.889427 -0.815197 30.000000
0.724882 -0.893089 -0.806863 38.000000
0.719850 -0.909680 -0.810274 80.000000
0.727920 -0.942226 -0.827617 85.000000
0.719818 -0.955732 -0.827940 95.000000
0.719675 -0.978817 -0.836485 54.000000
0.720749 -1.005707 -0.848007 67.000000
0.716583 -1.026074 -0.853806 61.000000
0.699005 -1.025620 -0.842331 32.000000
0.694483 -1.045908 -0.847980 25.000000
0.479504 0.742498 -0.585122 37.000000
0.473885 0.714789 -0.570448 26.000000
0.463035 0.680504 -0.550077 31.000000
0.456299 0.653496 -0.535107 32.000000
0.467742 0.653969 -0.542576 42.000000
0.472546 0.644001 -0.541458 60.000000
0.479673 0.637316 -0.543107 44.000000
0.486211 0.630778 -0.544933 71.000000
0.490693 0.620654 -0.543662 53.000000
0.486753 0.601183 -0.534057 62.000000
0.496148 0.597489 -0.538369 36.000000
0.491745 0.578238 -0.528612 37.000000
0.500959 0.574410 -0.532888 98.000000
0.501553 0.561523 -0.528702 93.000000
0.510235 0.557716 -0.533128 86.000000
0.507793 0.541840 -0.525955 95.000000
0.511134 0.531820 -0.524308 98.000000
0.511113 0.519088 -0.519935 95.000000
0.502252 0.497845 -0.506739 25.000000
0.525119 0.507980 -0.525558 29.000000
0.533560 0.503622 -0.529804 38.000000
0.541618 0.499350 -0.534231 47.000000
0.550067 0.494694 -0.538423 58.000000
0.555484 0.487239 -0.539679 54.000000
0.560845 0.479727 -0.540852 37.000000
0.578155 0.482623 -0.554101 48.000000
0.564796 0.459570 -0.537427 22.000000
0.629364 0.499542 -0.595276 103.000000
0.790511 0.611330 -0.742524 113.000000
1.248526 0.917424 -1.159181 32.000000
1.287532 0.921841 -1.188616 25.000000
1.300657 0.907025 -1.194041 23.000000
1.313711 0.892002 -1.199417 10.000000
1.326692 0.876709 -1.204683 16.000000
1.329492 0.854808 -1.200765 23.000000
1.348999 0.843445 -1.211914 20.000000
1.348089 0.819309 -1.204824 26.000000
1.349676 0.797642 -1.201105 26.000000
1.348278 0.773760 -1.193777 19.000000
1.356352 0.756114 -1.195870 21.000000
1.350386 0.730815 -1.185740 10.000000
1.341225 0.703632 -1.171862 16.000000
1.348705 0.686041 -1.173674 23.000000
1.341906 0.661353 -1.163151 24.000000
1.292124 0.616539 -1.115543 27.000000
0.959857 0.428595 -0.822927 62.000000
0.805660 0.347383 -0.688062 45.000000
0.783831 0.326360 -0.667419 95.000000
0.834640 0.335170 -0.708532 95.000000
0.805496 0.311423 -0.681290 103.000000
0.816172 0.303651 -0.688296 100.000000
0.815767 0.291695 -0.685904 98.000000
0.818667 0.281140 -0.686848 103.000000
0.829172 0.272897 -0.693676 103.000000
0.817273 0.257376 -0.681802 100.000000
0.823657 0.247910 -0.685654 103.000000
0.833991 0.239290 -0.692327 69.000000
0.813889 0.222308 -0.674209 100.000000
0.820041 0.212709 -0.677893 100.000000
0.818536 0.201116 -0.675231 98.000000
0.820481 0.190569 -0.675923 100.000000
0.822590 0.179890 -0.676285 98.000000
0.824634 0.169178 -0.676582 100.000000
0.826348 0.158533 -0.677076 98.000000
0.843329 0.150558 -0.690018 91.000000
0.841066 0.139014 -0.687249 98.000000
0.846384 0.128705 -0.690689 103.000000
0.843940 0.117193 -0.687784 103.000000
0.848901 0.106784 -0.691327 103.000000
0.846279 0.095338 -0.688285 103.000000
0.827872 0.082484 -0.672832 105.000000
0.851923 0.073785 -0.691931 103.000000
0.844943 0.062204 -0.685774 75.000000
0.841729 0.051058 -0.682694 95.000000
0.842325 0.040164 -0.682727 100.000000
0.850389 0.029574 -0.689220 98.000000
0.846706 0.018495 -0.686206 98.000000
0.846806 0.007551 -0.686240 98.000000
0.850724 -0.003409 -0.689388 95.000000
0.850690 -0.014403 -0.689321 100.000000
0.854440 -0.025513 -0.692300 103.000000
0.850323 -0.036357 -0.688953 98.000000
0.849821 -0.047352 -0.688920 100.000000
0.853098 -0.058578 -0.691965 50.000000
0.844644 -0.068990 -0.685508 95.000000
0.855492 -0.080966 -0.694705 98.000000
0.858482 -0.092444 -0.697544 98.000000
0.857296 -0.103554 -0.697442 98.000000
0.852389 -0.114081 -0.693862 100.000000
0.851040 -0.125108 -0.693626 98.000000
0.845779 -0.135519 -0.690152 100.000000
0.859619 -0.149092 -0.702324 62.000000
0.861809 -0.160915 -0.704979 95.000000
0.860092 -0.172039 -0.704464 100.000000
0.858032 -0.183197 -0.704155 98.000000
0.855904 -0.194321 -0.703743 100.000000
0.853947 -0.205341 -0.703022 103.000000
0.851646 -0.216431 -0.702507 100.000000
0.853018 -0.228462 -0.705043 100.000000
0.843008 -0.237378 -0.698154 56.000000
0.858960 -0.253893 -0.713249 95.000000
0.852530 -0.263848 -0.709334 100.000000
0.856955 -0.277357 -0.714995 98.000000
0.853831 -0.288518 -0.714328 98.000000
0.847184 -0.298200 -0.710209 100.000000
0.840179 -0.307857 -0.706342 93.000000
0.844145 -0.321542 -0.711696 98.000000
0.840390 -0.332632 -0.711064 67.000000
0.855002 -0.350980 -0.725518 95.000000
0.851308 -0.362060 -0.724478 95.000000
0.843580 -0.371624 -0.720574 100.000000
0.842953 -0.384292 -0.722757 98.000000
0.839009 -0.395157 -0.721502 95.000000
0.838186 -0.407858 -0.723564 98.000000
0.840750 -0.422354 -0.728606 98.000000
0.832661 -0.431501 -0.724388 54.000000
0.841602 -0.450000 -0.735694 98.000000
0.836785 -0.460958 -0.734407 100.000000
0.831857 -0.471843 -0.733083 98.000000
0.829955 -0.484842 -0.735017 100.000000
0.821450 -0.493576 -0.730509 95.000000
0.822706 -0.508611 -0.735348 98.000000
0.820395 -0.521613 -0.737071 95.000000
0.811285 -0.530228 -0.732715 43.000000
0.828667 -0.556526 -0.752411 94.000000
0.822601 -0.567436 -0.750923 95.000000
0.822953 -0.582896 -0.755354 95.000000
0.813444 -0.591384 -0.750748 91.000000
0.813518 -0.606866 -0.755070 95.000000
0.807071 -0.617521 -0.753333 98.000000
0.803207 -0.630853 -0.754838 95.000000
0.805988 -0.648970 -0.761910 40.000000
0.798654 -0.659794 -0.760302 95.000000
0.791792 -0.670225 -0.758341 95.000000
0.790445 -0.686151 -0.762543 95.000000
0.791925 -0.704813 -0.769577 95.000000
0.802086 -0.731831 -0.785320 73.000000
0.797568 -0.745070 -0.785993 95.000000
0.795310 -0.761360 -0.789852 70.000000
0.789944 -0.774878 -0.790691 44.000000
0.781519 -0.785461 -0.788574 70.000000
0.770210 -0.793036 -0.783566 72.000000
0.763879 -0.806628 -0.784548 95.000000
0.763577 -0.825890 -0.790936 81.000000
0.760254 -0.842167 -0.794363 95.000000
0.756760 -0.858550 -0.797715 76.000000
0.752323 -0.875252 -0.801246 47.000000
0.751038 -0.894780 -0.807287 56.000000
0.738289 -0.902037 -0.802199 64.000000
0.734026 -0.918414 -0.805259 68.000000
0.721137 -0.925331 -0.800050 95.000000
0.739120 -0.971255 -0.828247 57.000000
0.730786 -0.984845 -0.828525 69.000000
0.729538 -1.008545 -0.837067 90.000000
0.723987 -1.025130 -0.839698 47.000000
0.714965 -1.038696 -0.839751 74.000000
0.722025 -1.076465 -0.859075 20.000000
0.710114 -1.086621 -0.856180 33.000000
0.479783 0.754841 -0.578132 24.000000
0.488038 0.748016 -0.580082 30.000000
0.491569 0.734134 -0.576535 26.000000
0.471204 0.685824 -0.545537 17.000000
0.466676 0.662139 -0.533547 52.000000
0.473958 0.655567 -0.535235 32.000000
0.483096 0.652519 -0.539868 47.000000
0.485268 0.639112 -0.535980 35.000000
0.489785 0.629062 -0.534785 35.000000
0.498844 0.625683 -0.539337 66.000000
0.511066 0.625145 -0.546474 31.000000
0.498945 0.596049 -0.528521 26.000000
0.505629 0.589106 -0.529984 94.000000
0.506352 0.576113 -0.525935 89.000000
0.515580 0.572134 -0.530132 95.000000
0.507654 0.550088 -0.517457 72.000000
0.533206 0.564180 -0.538888 95.000000
0.519651 0.536175 -0.520178 98.000000
0.519571 0.523361 -0.515863 67.000000
0.513477 0.504910 -0.505742 62.000000
0.524798 0.503667 -0.512820 34.000000
0.533209 0.499422 -0.516985 49.000000
0.547644 0.500517 -0.526955 78.000000
0.546982 0.487738 -0.522400 34.000000
0.555019 0.483267 -0.526711 57.000000
0.569581 0.483696 -0.536648 62.000000
0.578040 0.478619 -0.540750 34.000000
0.627098 0.506701 -0.583099 34.000000
1.064248 0.817437 -0.977064 88.000000
1.235077 0.924107 -1.126368 42.000000
1.293691 0.943493 -1.173142 24.000000
1.320105 0.938200 -1.190432 26.000000
1.336721 0.925361 -1.198820 17.000000
1.323313 0.892063 -1.180351 10.000000
1.342957 0.881226 -1.191528 16.000000
1.359302 0.867843 -1.199694 19.000000
1.375558 0.854160 -1.207759 24.000000
1.357504 0.819421 -1.185776 19.000000
1.369958 0.803559 -1.190649 21.000000
1.367902 0.779812 -1.183936 21.000000
1.366078 0.755975 -1.176592 16.000000
1.356442 0.728756 -1.163548 10.000000
1.378294 0.718455 -1.177510 16.000000
1.368143 0.691562 -1.164235 19.000000
1.364827 0.668453 -1.156912 26.000000
1.357688 0.643804 -1.146412 23.000000
1.292517 0.592970 -1.087176 32.000000
0.969900 0.415422 -0.809698 39.000000
0.824043 0.340816 -0.685890 27.000000
0.805511 0.321369 -0.668502 45.000000
0.820237 0.315067 -0.678235 95.000000
0.845850 0.312693 -0.697401 98.000000
0.823118 0.292470 -0.676732 100.000000
0.830027 0.283055 -0.680471 100.000000
0.832839 0.272419 -0.681352 103.000000
0.835854 0.261579 -0.681928 100.000000
0.838767 0.250739 -0.682402 100.000000
0.845165 0.241014 -0.686190 71.000000
0.824875 0.223934 -0.668324 95.000000
0.827226 0.213305 -0.668887 100.000000
0.833334 0.203543 -0.672468 100.000000
0.835562 0.192799 -0.672901 100.000000
0.833816 0.181153 -0.670178 100.000000
0.831786 0.169673 -0.667650 98.000000
0.833730 0.158895 -0.667881 98.000000
0.858550 0.152300 -0.686840 52.000000
0.848518 0.139348 -0.677926 103.000000
0.850022 0.128421 -0.678226 103.000000
0.851425 0.117493 -0.678460 105.000000
0.856421 0.107053 -0.681995 100.000000
0.853731 0.095605 -0.678962 103.000000
0.862472 0.085418 -0.685466 103.000000
0.859409 0.073987 -0.682565 98.000000
0.852361 0.062370 -0.676526 74.000000
0.856939 0.051662 -0.679697 100.000000
0.853625 0.040482 -0.676593 98.000000
0.853924 0.029505 -0.676793 100.000000
0.854124 0.018561 -0.676926 98.000000
0.858176 0.007619 -0.680098 98.000000
0.862128 -0.003424 -0.683170 100.000000
0.862061 -0.014468 -0.683102 95.000000
0.861926 -0.025546 -0.682968 98.000000
0.861691 -0.036591 -0.682733 100.000000
0.861188 -0.047668 -0.682700 98.000000
0.860584 -0.058713 -0.682632 95.000000
0.875513 -0.071025 -0.694873 95.000000
0.866917 -0.081536 -0.688432 100.000000
0.862135 -0.092229 -0.685027 95.000000
0.864850 -0.103792 -0.687991 100.000000
0.863800 -0.114868 -0.687551 98.000000
0.881904 -0.128817 -0.702794 100.000000
0.868779 -0.138291 -0.693164 98.000000
0.855626 -0.147432 -0.683510 51.000000
0.873364 -0.162010 -0.698525 98.000000
0.867542 -0.172485 -0.695160 95.000000
0.869570 -0.184425 -0.697663 100.000000
0.867467 -0.195633 -0.697249 95.000000
0.872882 -0.208636 -0.702968 100.000000
0.870551 -0.219873 -0.702411 100.000000
0.864343 -0.230062 -0.698741 95.000000
0.873239 -0.244333 -0.707309 81.000000
0.870607 -0.255563 -0.706572 100.000000
0.867659 -0.266829 -0.706046 98.000000
0.868365 -0.279268 -0.708481 98.000000
0.861763 -0.289114 -0.704501 98.000000
0.866000 -0.302850 -0.709884 98.000000
0.858954 -0.312683 -0.706049 100.000000
0.859238 -0.325153 -0.708220 95.000000
0.855450 -0.336339 -0.707618 72.000000
0.862855 -0.351840 -0.715765 95.000000
0.859161 -0.362920 -0.714689 98.000000
0.858676 -0.375700 -0.716902 98.000000
0.858083 -0.388466 -0.719035 100.000000
0.853780 -0.399641 -0.718059 95.000000
0.852952 -0.412440 -0.720072 95.000000
0.848412 -0.423480 -0.718983 92.000000
0.847382 -0.436309 -0.720836 75.000000
0.856781 -0.454735 -0.731677 98.000000
0.851924 -0.465822 -0.730379 98.000000
0.850106 -0.478983 -0.732343 100.000000
0.841579 -0.487921 -0.727932 98.000000
0.839569 -0.501024 -0.729736 100.000000
0.837402 -0.514105 -0.731493 98.000000
0.828288 -0.522916 -0.727242 98.000000
0.825925 -0.535937 -0.728877 98.000000
0.836792 -0.557899 -0.742302 98.000000
0.837372 -0.573398 -0.746741 98.000000
0.837778 -0.588956 -0.751117 103.000000
0.834734 -0.602248 -0.752440 95.000000
0.828275 -0.613142 -0.750767 95.000000
0.821310 -0.624154 -0.749327 95.000000
0.817930 -0.637344 -0.750508 95.000000
0.810742 -0.648242 -0.748945 80.000000
0.819687 -0.671616 -0.761661 56.000000
0.815312 -0.685143 -0.762901 95.000000
0.807716 -0.695977 -0.761142 95.000000
0.800560 -0.706452 -0.759063 92.000000
0.795830 -0.719783 -0.760154 95.000000
0.817884 -0.758148 -0.787099 98.000000
0.803746 -0.763387 -0.779307 90.000000
0.801304 -0.779768 -0.783017 75.000000
0.792890 -0.790390 -0.780934 34.000000
0.790138 -0.806797 -0.784473 93.000000
0.783704 -0.820554 -0.785431 87.000000
0.774987 -0.830956 -0.783157 85.000000
0.774470 -0.850376 -0.789328 82.000000
0.773030 -0.870277 -0.795750 70.000000
0.766573 -0.883641 -0.796110 57.000000
0.775313 -0.916295 -0.813545 54.000000
0.755193 -0.913824 -0.799749 26.000000
0.747498 -0.927442 -0.800224 94.000000
0.755905 -0.960246 -0.817050 66.000000
0.742649 -0.967352 -0.811812 92.000000
0.746861 -0.997610 -0.825882 64.000000
0.741615 -1.014249 -0.828466 49.000000
0.730362 -1.024537 -0.825849 81.000000
0.726230 -1.044954 -0.831343 36.000000
0.717078 -1.058490 -0.831332 29.000000
0.721538 -1.093019 -0.847555 29.000000
0.716363 -1.113670 -0.852772 25.000000
0.497432 0.774589 -0.583653 24.000000
0.503528 0.764083 -0.582962 13.000000
0.500045 0.739587 -0.571439 16.000000
0.488958 0.704954 -0.551680 20.000000
0.486908 0.684448 -0.542603 16.000000
0.477081 0.653984 -0.525290 29.000000
0.486747 0.650712 -0.529669 13.000000
0.496426 0.647282 -0.534036 20.000000
0.505612 0.643932 -0.538569 22.000000
0.504911 0.627185 -0.531887 19.000000
0.506061 0.614041 -0.528094 29.000000
0.496770 0.587977 -0.512945 10.000000
0.514201 0.593711 -0.525449 28.000000
0.523126 0.589981 -0.529852 35.000000
0.523730 0.576857 -0.525853 27.000000
0.535854 0.575717 -0.532809 42.000000
0.539061 0.565593 -0.531534 31.000000
0.539263 0.552531 -0.527364 32.000000
0.548458 0.548056 -0.531447 37.000000
0.539539 0.526360 -0.518681 13.000000
0.524299 0.499324 -0.500156 33.000000
0.529670 0.492341 -0.501418 26.000000
0.531921 0.482548 -0.499798 28.000000
0.549433 0.486339 -0.512451 27.000000
0.548507 0.473667 -0.507914 18.000000
0.568972 0.479744 -0.523650 27.000000
0.618392 0.508483 -0.565157 13.000000
1.289162 0.958268 -1.149029 19.000000
1.332799 0.964915 -1.180282 15.000000
1.346312 0.949890 -1.185736 16.000000
1.359751 0.934592 -1.191141 15.000000
1.322633 0.885293 -1.152447 9.000000
1.359224 0.885693 -1.178170 10.000000
1.375597 0.872216 -1.186198 15.000000
1.378193 0.850020 -1.182392 10.000000
1.390892 0.834045 -1.187365 17.000000
1.389584 0.809738 -1.180391 14.000000
1.401489 0.793823 -1.185608 17.000000
1.396176 0.767697 -1.175444 18.000000
1.379390 0.736379 -1.156684 9.000000
1.401969 0.725661 -1.170077 20.000000
1.398885 0.702150 -1.162990 18.000000
1.377534 0.670027 -1.140824 16.000000
1.381078 0.650484 -1.139465 21.000000
1.366253 0.622616 -1.123009 22.000000
0.831284 0.329526 -0.674365 13.000000
0.853648 0.325840 -0.690012 98.000000
0.830874 0.305243 -0.669733 98.000000
0.860427 0.303826 -0.691619 98.000000
0.867483 0.294028 -0.695341 98.000000
0.847964 0.275488 -0.677817 100.000000
0.846934 0.263472 -0.675642 98.000000
0.853672 0.253682 -0.679185 100.000000
0.871595 0.247079 -0.692009 87.000000
0.859038 0.231704 -0.680244 98.000000
0.861499 0.220698 -0.680825 98.000000
0.848398 0.205914 -0.669171 100.000000
0.842914 0.193232 -0.663520 100.000000
0.844810 0.182487 -0.664152 100.000000
0.877916 0.177942 -0.688835 103.000000
0.875816 0.165997 -0.686302 98.000000
0.850432 0.149922 -0.665117 95.000000
0.863720 0.140991 -0.674641 100.000000
0.861288 0.129343 -0.671890 103.000000
0.866417 0.118904 -0.675416 105.000000
0.863806 0.107321 -0.672528 105.000000
0.872878 0.097152 -0.678744 103.000000
0.869891 0.085620 -0.675990 105.000000
0.874708 0.074863 -0.679252 103.000000
0.859679 0.062537 -0.667179 100.000000
0.868237 0.052032 -0.673367 100.000000
0.864692 0.040768 -0.670574 100.000000
0.869144 0.029877 -0.673569 100.000000
0.869345 0.018799 -0.673703 100.000000
0.861575 0.007617 -0.667645 104.000000
0.865561 -0.003375 -0.670708 100.000000
0.869446 -0.014502 -0.673669 103.000000
0.869312 -0.025580 -0.673535 100.000000
0.872825 -0.036858 -0.676630 98.000000
0.872521 -0.047986 -0.676361 98.000000
0.867969 -0.058847 -0.673199 95.000000
0.890916 -0.071832 -0.691387 98.000000
0.886185 -0.082809 -0.688087 103.000000
0.873488 -0.092850 -0.678608 98.000000
0.899843 -0.107274 -0.699866 103.000000
0.894626 -0.118286 -0.696601 98.000000
0.873850 -0.126819 -0.680814 100.000000
0.895894 -0.141692 -0.698818 98.000000
0.890416 -0.152450 -0.695349 95.000000
0.892435 -0.164580 -0.698224 95.000000
0.890688 -0.175936 -0.697664 98.000000
0.892506 -0.188181 -0.700360 95.000000
0.890576 -0.199516 -0.699693 98.000000
0.892192 -0.211839 -0.702277 98.000000
0.885979 -0.222258 -0.698676 98.000000
0.887363 -0.234609 -0.701114 100.000000
0.884614 -0.246030 -0.700691 95.000000
0.878152 -0.256195 -0.696921 59.000000
0.879010 -0.268659 -0.699422 95.000000
0.876225 -0.279832 -0.698541 98.000000
0.873088 -0.291076 -0.697871 98.000000
0.869845 -0.302285 -0.697131 95.000000
0.874034 -0.316137 -0.702385 95.000000
0.870621 -0.327336 -0.701531 95.000000
0.866817 -0.338607 -0.700856 72.000000
0.870636 -0.352665 -0.705868 54.000000
0.877683 -0.368570 -0.714116 95.000000
0.873834 -0.379756 -0.712990 95.000000
0.869585 -0.391013 -0.712083 95.000000
0.865263 -0.402235 -0.711102 91.000000
0.868066 -0.416858 -0.716016 86.000000
0.863525 -0.428027 -0.714954 78.000000
0.848175 -0.433634 -0.704859 71.000000
0.860973 -0.454082 -0.718807 32.000000
0.863211 -0.468967 -0.723444 95.000000
0.861403 -0.482179 -0.725325 79.000000
0.856356 -0.493208 -0.723942 95.000000
0.850861 -0.504311 -0.722746 92.000000
0.841803 -0.513273 -0.718567 81.000000
0.839571 -0.526367 -0.720203 95.000000
0.830373 -0.535090 -0.715923 70.000000
0.848220 -0.561510 -0.735045 21.000000
0.855551 -0.581625 -0.745242 66.000000
0.852617 -0.595039 -0.746602 47.000000
0.849556 -0.608422 -0.747871 63.000000
0.839336 -0.617227 -0.743594 53.000000
0.836066 -0.630539 -0.744773 60.000000
0.825742 -0.639062 -0.740391 51.000000
0.819023 -0.649727 -0.738555 33.000000
0.814968 -0.663088 -0.739832 29.000000
0.826450 -0.689564 -0.755459 43.000000
0.838039 -0.716173 -0.770600 34.000000
0.839458 -0.735325 -0.777368 60.000000
0.828350 -0.743621 -0.772608 46.000000
0.826298 -0.760106 -0.776352 55.000000
0.821047 -0.773803 -0.777231 45.000000
0.809719 -0.781726 -0.772353 32.000000
0.801304 -0.792390 -0.770270 32.000000
0.812537 -0.823816 -0.788141 26.000000
0.797994 -0.828536 -0.780263 35.000000
0.789214 -0.839056 -0.778015 38.000000
0.788083 -0.858916 -0.784353 32.000000
0.787353 -0.878573 -0.790343 41.000000
0.791822 -0.904536 -0.801788 29.000000
0.776270 -0.908962 -0.794006 32.000000
0.782081 -0.938739 -0.808325 31.000000
0.788151 -0.968456 -0.822141 30.000000
0.772138 -0.972673 -0.814239 37.000000
0.764689 -0.986134 -0.814207 33.000000
0.758835 -1.003235 -0.817154 32.000000
0.757727 -1.027095 -0.825405 35.000000
0.744000 -1.034026 -0.820055 29.000000
0.735044 -1.047690 -0.820071 31.000000
0.723540 -1.057756 -0.817334 28.000000
0.733021 -1.099340 -0.838666 10.000000
0.725592 -1.116554 -0.841141 26.000000
0.474855 0.751126 -0.549830 51.000000
0.485266 0.748087 -0.554416 31.000000
0.481626 0.723706 -0.543061 48.000000
0.489478 0.717012 -0.544875 22.000000
0.492384 0.703357 -0.541356 26.000000
0.477866 0.665691 -0.519042 37.000000
0.487589 0.662517 -0.523384 35.000000
0.494820 0.655822 -0.525050 77.000000
0.491693 0.635724 -0.515854 37.000000
0.506521 0.638871 -0.525525 63.000000
0.515678 0.635440 -0.529990 84.000000
0.506617 0.609053 -0.515182 37.000000
0.510649 0.598946 -0.513890 35.000000
0.511318 0.585905 -0.510041 32.000000
0.531767 0.594514 -0.525151 70.000000
0.535129 0.584415 -0.523967 84.000000
0.541681 0.577138 -0.525330 56.000000
0.530443 0.552006 -0.510200 95.000000
0.527512 0.536129 -0.503318 81.000000
0.533560 0.528975 -0.504505 95.000000
0.524272 0.507515 -0.491885 31.000000
0.523651 0.494924 -0.487570 30.000000
0.531975 0.490826 -0.491627 87.000000
0.531122 0.478274 -0.487222 62.000000
0.539369 0.474002 -0.491234 49.000000
0.553881 0.474937 -0.500864 61.000000
0.593782 0.496678 -0.533196 42.000000
1.348686 1.046982 -1.187900 20.000000
1.357033 1.026672 -1.187451 14.000000
1.354489 0.999467 -1.178703 10.000000
1.355684 0.974366 -1.172278 14.000000
1.365956 0.956873 -1.174830 13.000000
1.369296 0.934588 -1.171487 10.000000
1.375811 0.914612 -1.170950 10.000000
1.389058 0.898966 -1.176134 10.000000
1.391832 0.876599 -1.172498 14.000000
1.394327 0.854287 -1.168779 18.000000
1.393176 0.829890 -1.162066 12.000000
1.395218 0.807739 -1.158058 20.000000
1.404063 0.789566 -1.159875 17.000000
1.401569 0.765804 -1.153215 14.000000
1.413685 0.749425 -1.157769 10.000000
1.432317 0.736898 -1.168566 14.000000
1.425617 0.711275 -1.158686 17.000000
1.426395 0.689182 -1.154060 16.000000
1.433812 0.670819 -1.155735 14.000000
1.444666 0.654060 -1.160242 20.000000
1.455496 0.637088 -1.164698 19.000000
1.428593 0.604441 -1.139855 14.000000
0.834770 0.316659 -0.659537 32.000000
0.841864 0.307367 -0.663324 98.000000
0.841341 0.295284 -0.661061 98.000000
0.844525 0.284512 -0.661772 95.000000
0.851392 0.274939 -0.665366 95.000000
0.850589 0.262866 -0.662958 95.000000
0.857075 0.253196 -0.666693 95.000000
0.859899 0.242205 -0.667135 67.000000
0.854682 0.229208 -0.661793 85.000000
0.860988 0.219304 -0.665363 95.000000
0.867181 0.209267 -0.668871 98.000000
0.861629 0.196430 -0.663310 91.000000
0.859879 0.184598 -0.660678 95.000000
0.869762 0.175199 -0.667023 98.000000
0.867598 0.163450 -0.664524 95.000000
0.869250 0.152423 -0.664963 88.000000
0.871037 0.141329 -0.665064 83.000000
0.880247 0.131481 -0.671661 88.000000
0.881642 0.120286 -0.671899 98.000000
0.882969 0.109057 -0.672069 95.000000
0.887988 0.098301 -0.675425 95.000000
0.889116 0.087021 -0.675459 95.000000
0.886032 0.075404 -0.672682 90.000000
0.874851 0.063278 -0.663767 62.000000
0.875522 0.052167 -0.663867 72.000000
0.875925 0.041089 -0.664136 95.000000
0.876428 0.029977 -0.664069 95.000000
0.884599 0.019037 -0.670241 95.000000
0.876764 0.007721 -0.664270 98.000000
0.884768 -0.003421 -0.670275 95.000000
0.888686 -0.014700 -0.673226 98.000000
0.876596 -0.025613 -0.664035 98.000000
0.876160 -0.036758 -0.664069 100.000000
0.875858 -0.047836 -0.663767 100.000000
0.887189 -0.059752 -0.672716 95.000000
0.882499 -0.070696 -0.669530 98.000000
0.889663 -0.082612 -0.675322 100.000000
0.884637 -0.093506 -0.672239 100.000000
0.887612 -0.105171 -0.674878 100.000000
0.910089 -0.119569 -0.692780 98.000000
0.884980 -0.127695 -0.674434 98.000000
0.899531 -0.141352 -0.685886 100.000000
0.897757 -0.152833 -0.685746 76.000000
0.892191 -0.163489 -0.682289 98.000000
0.890460 -0.174781 -0.681734 98.000000
0.892330 -0.186927 -0.684390 100.000000
0.886303 -0.197433 -0.681007 98.000000
0.891841 -0.210529 -0.686518 100.000000
0.885650 -0.220882 -0.682963 100.000000
0.883250 -0.232119 -0.682372 100.000000
0.888470 -0.245456 -0.687656 79.000000
0.885628 -0.256827 -0.687199 98.000000
0.886764 -0.269187 -0.689377 95.000000
0.879872 -0.279288 -0.685796 98.000000
0.880596 -0.291781 -0.688108 98.000000
0.881151 -0.304302 -0.690343 98.000000
0.877823 -0.315524 -0.689529 95.000000
0.878194 -0.328083 -0.691648 95.000000
0.878178 -0.340845 -0.693938 62.000000
0.882011 -0.354994 -0.698896 98.000000
0.881734 -0.367853 -0.701062 95.000000
0.877901 -0.378992 -0.699941 98.000000
0.873670 -0.390238 -0.699037 91.000000
0.865698 -0.399719 -0.695115 95.000000
0.868640 -0.414292 -0.699953 98.000000
0.871069 -0.429126 -0.705029 91.000000
0.870065 -0.442056 -0.706827 35.000000
0.868949 -0.455042 -0.708541 93.000000
0.870918 -0.470121 -0.713355 95.000000
0.865966 -0.481216 -0.712014 98.000000
0.871148 -0.498440 -0.719638 98.000000
0.865608 -0.509709 -0.718469 91.000000
0.866918 -0.525082 -0.723033 95.000000
0.861143 -0.536253 -0.721703 98.000000
0.855292 -0.547347 -0.720336 58.000000
0.835720 -0.549396 -0.707381 94.000000
0.856871 -0.578415 -0.728973 80.000000
0.860742 -0.596406 -0.736055 90.000000
0.857752 -0.609834 -0.737322 86.000000
0.854121 -0.623505 -0.738813 79.000000
0.854156 -0.639328 -0.742795 92.000000
0.850233 -0.653018 -0.744138 86.000000
0.836486 -0.659040 -0.736895 52.000000
0.836055 -0.674922 -0.740673 77.000000
0.831783 -0.688462 -0.741832 91.000000
0.824187 -0.699336 -0.740113 76.000000
0.822784 -0.715510 -0.743990 64.000000
0.818056 -0.728976 -0.744989 79.000000
0.819302 -0.748066 -0.751542 92.000000
0.835463 -0.781388 -0.771954 65.000000
0.818050 -0.783642 -0.761522 64.000000
0.827472 -0.811763 -0.776130 35.000000
0.809394 -0.814026 -0.765974 36.000000
0.803620 -0.827543 -0.766551 76.000000
0.806349 -0.850126 -0.775348 39.000000
0.793909 -0.857867 -0.770581 37.000000
0.787697 -0.871307 -0.770975 45.000000
0.783458 -0.888175 -0.774346 59.000000
0.785160 -0.911064 -0.782795 34.000000
0.783101 -0.931251 -0.788721 30.000000
0.759380 -0.925589 -0.772861 37.000000
0.757749 -0.945308 -0.778359 68.000000
0.749885 -0.958865 -0.778681 35.000000
0.752092 -0.985727 -0.789730 75.000000
0.756363 -1.016235 -0.803284 34.000000
0.752692 -1.036708 -0.808681 37.000000
0.758492 -1.071112 -0.824620 66.000000
0.773308 -1.119748 -0.851040 14.000000
0.477242 0.766781 -0.545240 37.000000
0.483151 0.756610 -0.544579 56.000000
0.486643 0.742803 -0.541296 50.000000
0.499397 0.743216 -0.548360 33.000000
0.492911 0.715351 -0.534529 49.000000
0.488360 0.691259 -0.523158 27.000000
0.493338 0.681169 -0.522221 62.000000
0.490595 0.660836 -0.513329 71.000000
0.497788 0.654146 -0.514957 37.000000
0.507525 0.650734 -0.519218 78.000000
0.517275 0.647162 -0.523436 58.000000
0.524393 0.640134 -0.524991 80.000000
0.522787 0.623592 -0.518664 69.000000
0.510467 0.594164 -0.501271 35.000000
0.530921 0.603083 -0.516174 95.000000
0.537158 0.596146 -0.517777 67.000000
0.526692 0.570390 -0.502839 95.000000
0.532620 0.563531 -0.504335 98.000000
0.550567 0.568390 -0.516537 95.000000
0.535925 0.540396 -0.498823 98.000000
0.541618 0.533397 -0.500211 91.000000
0.544635 0.523231 -0.498623 67.000000
0.531948 0.498997 -0.483376 69.000000
0.531122 0.486431 -0.479066 56.000000
0.536322 0.479488 -0.480280 95.000000
0.525820 0.458811 -0.467527 90.000000
0.578158 0.492293 -0.510499 95.000000
1.356637 1.072171 -1.173839 23.000000
1.361128 1.049775 -1.171143 20.000000
1.366081 1.026977 -1.167849 20.000000
1.377452 1.009100 -1.170124 23.000000
1.377944 0.984228 -1.164279 13.000000
1.395677 0.970868 -1.172024 20.000000
1.402482 0.950663 -1.171638 13.000000
1.409112 0.930357 -1.171177 10.000000
1.401758 0.901135 -1.159221 17.000000
1.404470 0.878757 -1.155668 16.000000
1.403402 0.854242 -1.149167 16.000000
1.423271 0.842386 -1.159737 22.000000
1.414667 0.813878 -1.147271 21.000000
1.434260 0.801595 -1.157737 22.000000
1.435913 0.779175 -1.153687 20.000000
1.436811 0.757121 -1.149983 10.000000
1.448883 0.740393 -1.154394 15.000000
1.442073 0.714648 -1.144690 17.000000
1.453277 0.698088 -1.149340 24.000000
1.457021 0.677761 -1.148125 22.000000
1.464313 0.659197 -1.149693 19.000000
1.467700 0.638831 -1.148285 21.000000
1.474674 0.620014 -1.149668 17.000000
1.473948 0.598145 -1.145088 10.000000
0.887082 0.321932 -0.683079 33.000000
0.852277 0.297329 -0.654511 95.000000
0.851639 0.285223 -0.652288 98.000000
0.854688 0.274417 -0.652897 98.000000
0.857669 0.263510 -0.653473 98.000000
0.864459 0.253740 -0.656927 91.000000
0.855380 0.239551 -0.648795 70.000000
0.861966 0.229714 -0.652115 95.000000
0.864360 0.218788 -0.652688 98.000000
0.874530 0.209743 -0.659105 98.000000
0.868913 0.196869 -0.653666 98.000000
0.871037 0.185875 -0.654037 95.000000
0.872892 0.174882 -0.654610 98.000000
0.878806 0.164562 -0.657809 91.000000
0.872534 0.152069 -0.652319 52.000000
0.893978 0.144264 -0.667522 98.000000
0.883549 0.131196 -0.658961 95.000000
0.900917 0.122180 -0.671075 98.000000
0.898270 0.110310 -0.668278 103.000000
0.899300 0.098980 -0.668621 103.000000
0.900467 0.087616 -0.668690 98.000000
0.897319 0.075913 -0.665923 95.000000
0.882034 0.063446 -0.654199 38.000000
0.886718 0.052572 -0.657240 95.000000
0.879094 0.041002 -0.651560 95.000000
0.883579 0.030045 -0.654501 95.000000
0.895865 0.019157 -0.663528 100.000000
0.891984 0.007825 -0.660621 98.000000
0.896036 -0.003437 -0.663597 100.000000
0.887932 -0.014602 -0.657544 103.000000
0.891814 -0.025914 -0.660384 100.000000
0.883344 -0.036826 -0.654468 103.000000
0.887021 -0.048155 -0.657173 100.000000
0.886448 -0.059351 -0.657072 92.000000
0.897764 -0.071470 -0.665786 100.000000
0.921004 -0.085001 -0.683374 100.000000
0.915916 -0.096232 -0.680333 100.000000
0.918898 -0.108234 -0.682918 100.000000
0.921589 -0.120336 -0.685711 103.000000
0.920214 -0.131968 -0.685429 98.000000
0.918734 -0.143564 -0.685076 98.000000
0.913177 -0.154489 -0.681725 98.000000
0.907565 -0.165279 -0.678271 100.000000
0.905608 -0.176775 -0.677992 98.000000
0.907703 -0.188953 -0.680356 103.000000
0.905562 -0.200429 -0.679935 103.000000
0.895461 -0.210027 -0.673535 98.000000
0.897047 -0.222305 -0.675930 105.000000
0.898543 -0.234647 -0.678285 100.000000
0.895805 -0.246053 -0.677864 95.000000
0.893208 -0.257353 -0.677127 98.000000
0.894131 -0.269857 -0.679507 103.000000
0.891100 -0.281172 -0.678908 100.000000
0.895686 -0.294983 -0.684075 98.000000
0.888585 -0.305010 -0.680431 98.000000
0.889073 -0.317630 -0.682546 95.000000
0.885660 -0.328865 -0.681693 98.000000
0.881892 -0.340171 -0.681017 82.000000
0.889609 -0.355786 -0.688777 95.000000
0.885612 -0.367130 -0.687985 98.000000
0.885242 -0.380004 -0.690069 98.000000
0.884765 -0.392902 -0.692072 95.000000
0.884142 -0.405858 -0.693996 98.000000
0.879693 -0.417090 -0.692938 98.000000
0.878870 -0.430041 -0.694739 100.000000
0.874255 -0.441174 -0.693603 93.000000
0.883726 -0.459957 -0.704196 90.000000
0.886052 -0.474988 -0.708691 98.000000
0.877142 -0.484348 -0.704726 98.000000
0.875317 -0.497623 -0.706477 98.000000
0.876870 -0.512983 -0.711047 100.000000
0.867681 -0.522109 -0.706936 98.000000
0.868970 -0.537545 -0.711331 98.000000
0.866585 -0.550842 -0.712852 95.000000
0.874404 -0.570895 -0.722785 35.000000
0.868242 -0.582057 -0.721313 95.000000
0.865434 -0.595438 -0.722596 76.000000
0.865399 -0.611442 -0.726930 95.000000
0.862270 -0.624883 -0.728105 95.000000
0.861893 -0.640994 -0.732281 78.000000
0.858039 -0.654690 -0.733585 91.000000
0.851229 -0.665563 -0.731753 50.000000
0.837395 -0.671449 -0.724564 35.000000
0.836414 -0.687546 -0.728527 95.000000
0.838414 -0.706406 -0.735168 92.000000
0.830680 -0.717283 -0.733396 95.000000
0.832256 -0.736311 -0.739897 79.000000
0.824312 -0.747067 -0.738023 95.000000
0.840702 -0.780445 -0.758163 74.000000
0.838405 -0.797026 -0.761606 68.000000
0.823330 -0.802349 -0.754345 26.000000
0.820695 -0.818920 -0.757675 64.000000
0.814962 -0.832481 -0.758247 35.000000
0.814238 -0.852442 -0.764458 72.000000
0.811051 -0.869045 -0.767610 59.000000
0.801292 -0.879884 -0.765537 55.000000
0.794936 -0.893350 -0.765815 61.000000
0.790497 -0.910290 -0.769070 35.000000
0.780329 -0.920851 -0.766844 24.000000
0.781641 -0.943907 -0.775003 52.000000
0.768538 -0.951059 -0.769993 45.000000
0.763289 -0.967943 -0.772969 95.000000
0.799234 -1.038660 -0.818235 98.000000
1.159005 -1.704901 -1.257911 10.000000
1.197178 -1.806017 -1.315851 17.000000
1.217091 -1.883285 -1.355175 10.000000
1.212770 -1.925053 -1.368336 10.000000
0.479490 0.782467 -0.540398 27.000000
0.485585 0.772259 -0.539802 33.000000
0.496196 0.769271 -0.544265 28.000000
0.497282 0.751772 -0.538490 34.000000
0.502951 0.741495 -0.537808 34.000000
0.493811 0.710095 -0.521552 30.000000
0.498942 0.699955 -0.520718 40.000000
0.496378 0.679412 -0.512039 36.000000
0.503742 0.672739 -0.513692 47.000000
0.518799 0.676086 -0.523163 56.000000
0.523523 0.665783 -0.522156 35.000000
0.530780 0.658738 -0.523766 60.000000
0.524460 0.635260 -0.512115 35.000000
0.520459 0.615291 -0.503035 62.000000
0.521205 0.602159 -0.499346 35.000000
0.536255 0.604686 -0.508743 53.000000
0.548614 0.603743 -0.515454 95.000000
0.549107 0.590492 -0.511686 84.000000
0.535300 0.561776 -0.494225 95.000000
0.547022 0.560872 -0.501044 89.000000
0.559215 0.559531 -0.507694 76.000000
0.550095 0.537613 -0.495588 98.000000
0.556098 0.530297 -0.496733 29.000000
0.537155 0.500225 -0.476299 71.000000
0.545569 0.496074 -0.480256 77.000000
0.557119 0.494568 -0.486936 74.000000
0.565575 0.490081 -0.490873 98.000000
1.392002 1.092915 -1.176182 21.000000
1.384050 1.059648 -1.162070 26.000000
1.389024 1.036710 -1.158878 15.000000
1.403134 1.021528 -1.164399 20.000000
1.404272 0.996086 -1.158195 18.000000
1.414658 0.978229 -1.160728 21.000000
1.415307 0.952863 -1.154349 18.000000
1.401148 0.918938 -1.137085 9.000000
1.417818 0.905466 -1.144998 16.000000
1.427506 0.887394 -1.147171 21.000000
1.433477 0.867000 -1.146459 17.000000
1.439278 0.846572 -1.145613 21.000000
1.441271 0.824005 -1.141862 22.000000
1.446650 0.803558 -1.140808 18.000000
1.448242 0.781128 -1.136841 18.000000
1.416785 0.741543 -1.107180 10.000000
1.457459 0.740420 -1.134740 13.000000
1.465232 0.721958 -1.136622 18.000000
1.465906 0.699598 -1.132240 18.000000
1.477059 0.682768 -1.136795 21.000000
1.480649 0.662316 -1.135503 20.000000
1.487779 0.643524 -1.137013 20.000000
1.490954 0.623034 -1.135529 18.000000
1.376427 0.555168 -1.044700 10.000000
1.347864 0.524496 -1.020310 27.000000
1.059553 0.382271 -0.797265 98.000000
0.894001 0.310107 -0.670944 34.000000
0.858651 0.285935 -0.642701 98.000000
0.865581 0.276300 -0.646243 95.000000
0.880261 0.268947 -0.655523 98.000000
0.867560 0.253246 -0.644429 98.000000
0.886054 0.246636 -0.656488 40.000000
0.876776 0.232371 -0.648420 95.000000
0.875250 0.220354 -0.646089 98.000000
0.869681 0.207458 -0.640772 95.000000
0.875860 0.197408 -0.644156 100.000000
0.877984 0.186347 -0.644527 100.000000
0.883989 0.176080 -0.647782 95.000000
0.889775 0.165746 -0.651211 98.000000
0.891646 0.154517 -0.651415 57.000000
0.905228 0.145250 -0.660558 95.000000
0.906745 0.133870 -0.660868 103.000000
0.904175 0.121948 -0.658184 95.000000
0.909504 0.111076 -0.661316 98.000000
0.914602 0.100102 -0.664589 100.000000
0.915745 0.088603 -0.664623 98.000000
0.916646 0.077138 -0.664866 98.000000
0.897200 0.064192 -0.650391 48.000000
0.893833 0.052707 -0.647528 86.000000
0.898284 0.041700 -0.650729 98.000000
0.902807 0.030556 -0.653627 90.000000
0.907095 0.019312 -0.656660 95.000000
0.911247 0.007965 -0.659660 100.000000
0.915332 -0.003448 -0.662592 100.000000
0.903147 -0.014734 -0.653695 103.000000
0.898928 -0.025948 -0.650628 103.000000
0.926853 -0.038402 -0.671178 103.000000
0.898183 -0.048474 -0.650391 103.000000
0.917823 -0.061066 -0.664935 95.000000
0.929216 -0.073524 -0.673512 98.000000
0.932445 -0.085546 -0.676194 100.000000
0.927321 -0.096828 -0.673196 100.000000
0.926303 -0.108444 -0.672810 100.000000
0.933048 -0.121105 -0.678484 100.000000
0.931667 -0.132822 -0.678201 98.000000
0.926171 -0.143882 -0.674925 100.000000
0.928623 -0.156151 -0.677422 95.000000
0.918723 -0.166386 -0.671371 95.000000
0.916968 -0.177898 -0.670810 103.000000
0.918910 -0.190268 -0.673374 100.000000
