x y z intensity
1.937305 0.815504 0.577865 40.000000
1.950483 0.795637 0.580057 33.000000
1.963501 0.775603 0.582187 33.000000
1.985361 0.758709 0.586914 57.000000
2.029667 0.749863 0.598315 31.000000
2.033144 0.725430 0.597734 34.000000
2.040937 0.702666 0.598418 71.000000
2.094112 0.695079 0.612614 56.000000
2.115285 0.676207 0.617401 79.000000
2.094974 0.643940 0.609920 16.000000
2.111017 0.623271 0.613299 9.000000
2.140810 0.606262 0.620643 10.000000
2.203070 0.597418 0.637343 23.000000
2.232668 0.578943 0.644796 21.000000
2.243555 0.555103 0.646728 11.000000
2.268085 0.534545 0.652709 9.000000
2.287866 0.512370 0.657349 9.000000
2.321544 0.492804 0.665974 9.000000
2.364491 0.474427 0.677240 9.000000
2.383726 0.450736 0.681757 9.000000
2.435884 0.432542 0.695832 19.000000
2.521067 0.418814 0.719252 48.000000
2.554060 0.395031 0.727870 90.000000
2.581976 0.369929 0.734978 79.000000
2.600176 0.343037 0.739462 63.000000
2.637195 0.318047 0.749297 76.000000
2.693012 0.294403 0.764658 58.000000
2.672161 0.261988 0.758037 10.000000
2.828194 0.245503 0.801869 10.000000
2.835512 0.214357 0.803589 42.000000
2.876088 0.185177 0.814558 95.000000
2.873112 0.152840 0.813381 98.000000
2.860151 0.120206 0.809482 95.000000
2.817961 0.087002 0.797416 95.000000
2.794715 0.055054 0.790701 95.000000
2.775914 0.023772 0.785345 95.000000
2.703836 -0.007032 0.764929 12.000000
2.679525 -0.036801 0.758124 9.000000
2.654883 -0.066119 0.751234 9.000000
2.630000 -0.094817 0.744346 9.000000
2.624026 -0.123886 0.742819 9.000000
2.612920 -0.152568 0.739932 9.000000
2.601494 -0.181119 0.737211 9.000000
2.546590 -0.205801 0.721925 9.000000
2.529866 -0.232837 0.717686 18.000000
2.565416 -0.264990 0.728396 66.000000
2.552829 -0.292439 0.725271 77.000000
2.544714 -0.320275 0.723587 80.000000
2.517297 -0.345388 0.716477 61.000000
2.508590 -0.372718 0.714798 73.000000
2.504408 -0.400702 0.714396 76.000000
2.476187 -0.424539 0.707220 58.000000
2.452549 -0.448555 0.701327 64.000000
2.433315 -0.473147 0.696872 87.000000
2.390255 -0.492564 0.685583 29.000000
2.351837 -0.512009 0.675583 16.000000
2.336807 -0.536025 0.672349 20.000000
2.340240 -0.564270 0.674438 26.000000
2.333908 -0.590363 0.673904 54.000000
2.336733 -0.618691 0.675911 38.000000
2.297351 -0.635744 0.665881 57.000000
2.304208 -0.665358 0.669233 95.000000
2.278388 -0.685416 0.663104 46.000000
2.293758 -0.718089 0.669282 21.000000
2.372876 -0.771910 0.693897 18.000000
2.455709 -0.829050 0.719785 15.000000
2.569295 -0.899451 0.755046 13.000000
2.781250 -1.008655 0.819591 8.000000
2.765590 -1.037973 0.817321 9.000000
2.745193 -1.065353 0.813629 9.000000
2.724498 -1.092345 0.809850 9.000000
2.690148 -1.113422 0.802095 9.000000
2.677983 -1.143375 0.800897 10.000000
2.647797 -1.165375 0.794403 10.000000
2.656937 -1.204720 0.799731 10.000000
2.621704 -1.224426 0.792114 10.000000
2.603990 -1.251359 0.789423 21.000000
2.538209 -1.254953 0.772533 26.000000
2.511603 -1.276520 0.767159 29.000000
2.497434 -1.304679 0.765912 48.000000
2.462004 -1.320897 0.757941 56.000000
2.451654 -1.350879 0.757922 72.000000
2.440899 -1.380691 0.757988 63.000000
2.429825 -1.410508 0.757872 33.000000
2.439532 -1.452056 0.764070 65.000000
2.460566 -1.501974 0.774307 43.000000
2.444078 -1.529576 0.772759 28.000000
2.439423 -1.564728 0.775085 21.000000
2.418174 -1.589357 0.772240 34.000000
2.396708 -1.613622 0.769308 33.000000
2.386963 -1.645935 0.770233 32.000000
2.345238 -1.655851 0.760809 25.000000
2.342781 -1.693372 0.764198 38.000000
2.315848 -1.714355 0.760187 35.000000
2.285551 -1.731423 0.754551 35.000000
2.270462 -1.759903 0.754011 35.000000
2.262708 -1.794115 0.755906 36.000000
2.235699 -1.813163 0.751467 32.000000
2.245056 -1.863489 0.759823 35.000000
2.195297 -1.863370 0.747745 30.000000
2.186018 -1.897219 0.749507 35.000000
2.169108 -1.924704 0.748659 36.000000
2.165372 -1.965746 0.753065 31.000000
2.137074 -1.983120 0.748458 39.000000
2.126215 -2.016728 0.749973 33.000000
2.100120 -2.037634 0.746798 28.000000
2.081626 -2.064271 0.745726 32.000000
2.048340 -2.077734 0.740007 24.000000
2.046211 -2.121172 0.745063 34.000000
2.030138 -2.150768 0.745094 35.000000
2.009412 -2.177508 0.744171 32.000000
1.995950 -2.210310 0.745389 35.000000
1.968005 -2.229533 0.741930 32.000000
1.953762 -2.262063 0.743024 31.000000
1.937964 -2.295465 0.744375 18.000000
1.888864 -2.286775 0.732145 10.000000
1.771919 -2.194973 0.693980 19.000000
1.682391 -2.130454 0.665228 17.000000
1.587546 -2.057353 0.634627 16.000000
1.535362 -2.036682 0.620682 21.000000
1.459105 -1.979110 0.595980 19.000000
1.400103 -1.944512 0.578637 19.000000
1.320874 -1.876232 0.551829 15.000000
1.258744 -1.831249 0.532409 10.000000
1.224833 -1.825422 0.524722 17.000000
1.168316 -1.781781 0.506397 23.000000
1.130112 -1.766458 0.496463 25.000000
1.111632 -1.778756 0.494424 32.000000
1.089303 -1.787292 0.491374 29.000000
1.071976 -1.803944 0.490610 33.000000
1.055610 -1.819797 0.489639 30.000000
1.040167 -1.840341 0.489985 9.000000
0.853133 1.539505 0.421844 8.000000
0.858181 1.508327 0.417706 21.000000
0.879806 1.506643 0.421689 21.000000
0.895418 1.496892 0.423552 27.000000
0.909476 1.482234 0.424011 25.000000
0.924935 1.472129 0.425813 29.000000
0.938585 1.457231 0.426204 32.000000
0.952035 1.442176 0.426585 24.000000
0.977948 1.447668 0.433136 33.000000
0.985705 1.424274 0.431106 21.000000
1.009039 1.425201 0.436432 26.000000
1.016265 1.401667 0.434320 29.000000
1.039636 1.402020 0.439673 27.000000
1.058058 1.393796 0.442437 33.000000
1.069739 1.378180 0.442859 30.000000
1.081996 1.361917 0.443053 26.000000
1.105510 1.361146 0.448412 32.000000
1.108152 1.333432 0.444878 20.000000
1.125381 1.324722 0.447709 32.000000
1.140062 1.311630 0.449079 37.000000
1.163619 1.309775 0.454378 32.000000
1.178091 1.296242 0.455759 33.000000
1.195137 1.286640 0.458569 35.000000
1.206096 1.269232 0.458576 32.000000
1.229681 1.266160 0.463880 41.000000
1.236347 1.245486 0.462834 19.000000
1.257082 1.237923 0.466609 37.000000
1.277242 1.230539 0.470622 60.000000
1.286886 1.212889 0.470736 36.000000
1.303898 1.201195 0.473198 58.000000
1.334718 1.202745 0.481064 37.000000
1.347603 1.187703 0.482426 35.000000
1.367689 1.178851 0.486332 62.000000
1.358606 1.144329 0.479653 14.000000
1.389530 1.144396 0.487479 34.000000
1.424431 1.146843 0.496593 58.000000
1.436749 1.130766 0.497865 35.000000
1.452774 1.117514 0.500397 65.000000
1.468689 1.104002 0.502934 36.000000
1.472835 1.081725 0.501509 35.000000
1.492351 1.070632 0.505318 43.000000
1.511814 1.059304 0.509139 18.000000
1.543214 1.055846 0.516911 61.000000
1.554640 1.038381 0.518036 69.000000
1.565889 1.020738 0.519102 43.000000
1.585089 1.008206 0.522848 49.000000
1.600131 0.992773 0.525203 48.000000
1.610870 0.974636 0.526218 35.000000
1.629784 0.961272 0.529929 56.000000
1.652437 0.950361 0.535122 18.000000
1.671228 0.936335 0.538736 49.000000
1.702493 0.928912 0.546426 77.000000
1.746386 0.927974 0.558402 56.000000
1.769304 0.914848 0.563362 68.000000
1.791924 0.901498 0.568526 65.000000
1.806107 0.883313 0.570719 48.000000
1.819827 0.865159 0.573107 54.000000
1.842193 0.850813 0.578177 24.000000
1.864433 0.836109 0.583195 37.000000
1.904238 0.828655 0.593723 55.000000
1.921994 0.810969 0.597333 35.000000
1.948531 0.796655 0.603707 43.000000
1.966022 0.778339 0.607336 52.000000
1.987808 0.761339 0.612221 48.000000
2.000493 0.740700 0.614348 35.000000
2.003829 0.716725 0.613843 33.000000
2.034307 0.702051 0.621455 60.000000
2.059988 0.685352 0.627831 85.000000
2.094810 0.670968 0.636794 60.000000
2.083581 0.641832 0.631995 11.000000
2.113462 0.625298 0.639586 9.000000
2.133972 0.605557 0.644471 9.000000
2.186644 0.594393 0.659141 53.000000
2.239517 0.581907 0.673694 32.000000
2.264257 0.561522 0.680026 52.000000
2.284204 0.539545 0.684821 56.000000
2.299315 0.516053 0.688221 30.000000
2.337642 0.497346 0.698565 17.000000
2.352295 0.473022 0.701828 10.000000
2.366683 0.448488 0.705248 9.000000
2.442292 0.434673 0.726795 26.000000
2.513127 0.418409 0.746962 60.000000
2.536466 0.393152 0.752997 67.000000
2.554794 0.366870 0.757712 62.000000
2.591943 0.342704 0.767820 80.000000
2.619331 0.316643 0.775368 57.000000
2.665519 0.291970 0.788311 85.000000
2.663731 0.261733 0.787242 10.000000
2.819371 0.245233 0.832658 10.000000
2.840933 0.215173 0.838485 66.000000
2.857467 0.184376 0.842993 95.000000
2.864078 0.152657 0.844587 95.000000
2.841579 0.119711 0.837797 95.000000
2.804404 0.086765 0.826673 93.000000
2.781143 0.054871 0.819607 95.000000
2.757607 0.023602 0.812630 95.000000
2.719326 -0.007094 0.801410 12.000000
2.651929 -0.036537 0.781538 9.000000
2.622572 -0.065437 0.773058 9.000000
2.612151 -0.094387 0.770148 9.000000
2.625360 -0.124257 0.774137 10.000000
2.595126 -0.151925 0.765578 9.000000
2.583737 -0.180203 0.762506 9.000000
2.524226 -0.204397 0.745481 8.000000
2.536219 -0.233917 0.749474 15.000000
2.557401 -0.264745 0.756285 75.000000
2.549528 -0.292741 0.754629 87.000000
2.527225 -0.318749 0.748501 83.000000
2.509321 -0.345066 0.744111 91.000000
2.491219 -0.370983 0.739403 77.000000
2.496447 -0.400300 0.741898 51.000000
2.444658 -0.420078 0.727347 31.000000
2.430565 -0.445564 0.724062 35.000000
2.387935 -0.465333 0.712272 29.000000
2.387374 -0.492993 0.713290 35.000000
2.377181 -0.518635 0.711344 73.000000
2.343315 -0.538719 0.702391 83.000000
2.337353 -0.564863 0.701779 81.000000
2.345120 -0.594393 0.705289 88.000000
2.315230 -0.614461 0.697759 35.000000
2.294651 -0.636348 0.692732 81.000000
2.278388 -0.659335 0.689260 67.000000
2.271076 -0.684738 0.688582 89.000000
2.295613 -0.720126 0.697575 25.000000
2.369696 -0.772687 0.722004 22.000000
2.456763 -0.831390 0.750229 20.000000
2.547249 -0.893904 0.780022 10.000000
2.749681 -0.999326 0.844047 8.000000
2.729629 -1.026702 0.840349 9.000000
2.709280 -1.053783 0.836472 9.000000
2.684272 -1.078687 0.831314 9.000000
2.645696 -1.097675 0.821846 9.000000
2.638019 -1.129122 0.822041 15.000000
2.599242 -1.146902 0.812607 26.000000
2.591084 -1.177839 0.812717 26.000000
2.543326 -1.190349 0.800398 34.000000
2.512985 -1.210339 0.793588 91.000000
2.525390 -1.251473 0.800725 88.000000
2.503137 -1.275183 0.796566 91.000000
2.493230 -1.305574 0.796680 55.000000
2.474800 -1.330967 0.793804 37.000000
2.485281 -1.372820 0.800609 37.000000
2.495186 -1.415064 0.807386 28.000000
2.492390 -1.449880 0.809714 31.000000
2.480530 -1.480316 0.809601 36.000000
2.472356 -1.513267 0.810830 42.000000
2.451558 -1.538540 0.807924 34.000000
2.450796 -1.576475 0.811732 21.000000
2.405286 -1.585426 0.800697 32.000000
2.399745 -1.620525 0.803063 37.000000
2.374027 -1.642004 0.798654 29.000000
2.336355 -1.654673 0.790266 28.000000
2.318137 -1.680867 0.788453 32.000000
2.295866 -1.704006 0.785316 34.000000
2.277226 -1.729613 0.783416 35.000000
2.254507 -1.752170 0.780198 33.000000
2.242908 -1.783378 0.780930 34.000000
2.227165 -1.811438 0.780247 32.000000
2.218593 -1.845573 0.782174 26.000000
2.179412 -1.855387 0.773915 27.000000
2.173799 -1.892316 0.777040 33.000000
2.156910 -1.919757 0.776152 32.000000
2.136105 -1.943756 0.773962 34.000000
2.107135 -1.961627 0.769463 27.000000
2.120944 -2.018397 0.780155 33.000000
2.095658 -2.038515 0.776559 33.000000
2.062577 -2.052381 0.770596 25.000000
2.047219 -2.082056 0.770760 26.000000
2.021563 -2.101244 0.767092 32.000000
2.021202 -2.149092 0.773856 35.000000
2.007945 -2.182016 0.775136 38.000000
1.977061 -2.197832 0.770369 32.000000
1.959961 -2.226914 0.770272 35.000000
1.941394 -2.256796 0.770439 35.000000
1.923606 -2.285506 0.770309 15.000000
1.842718 -2.240217 0.745460 9.000000
1.764206 -2.192580 0.720488 12.000000
1.685838 -2.144238 0.695932 16.000000
1.607031 -2.089722 0.669956 19.000000
1.528393 -2.034519 0.644394 16.000000
1.460998 -1.988747 0.622425 22.000000
1.390732 -1.938541 0.599610 16.000000
1.336890 -1.906128 0.582715 13.000000
1.260831 -1.841376 0.556470 10.000000
1.211771 -1.810771 0.540970 12.000000
1.173051 -1.796299 0.530581 18.000000
1.129542 -1.772937 0.517861 30.000000
1.103213 -1.772858 0.512173 25.000000
1.088503 -1.793891 0.512578 28.000000
1.064830 -1.797331 0.508105 35.000000
1.049678 -1.818017 0.508425 26.000000
1.038906 -1.847092 0.511137 10.000000
0.846810 1.533159 0.436102 6.000000
0.853279 1.506802 0.433176 9.000000
0.879750 1.513439 0.439737 22.000000
0.883047 1.482808 0.435548 21.000000
0.909613 1.488977 0.442145 21.000000
0.920948 1.469998 0.441382 27.000000
0.936352 1.459728 0.443184 21.000000
0.955182 1.452740 0.446121 21.000000
0.967653 1.438096 0.446681 25.000000
1.000089 1.450646 0.455778 10.000000
1.009729 1.431517 0.455096 23.000000
1.019916 1.411853 0.454175 20.000000
1.031873 1.396592 0.454666 18.000000
1.053210 1.392199 0.458741 29.000000
1.058989 1.368939 0.456623 23.000000
1.086177 1.371696 0.463216 27.000000
1.094568 1.352032 0.462360 25.000000
1.118811 1.350394 0.467708 11.000000
1.123682 1.326819 0.465491 32.000000
1.138458 1.313690 0.466919 28.000000
1.152356 1.300946 0.468512 24.000000
1.169383 1.291560 0.471411 29.000000
1.187039 1.281494 0.474098 24.000000
1.200683 1.268127 0.475644 32.000000
1.217514 1.258115 0.478454 29.000000
1.241706 1.254160 0.483748 18.000000
1.251624 1.236809 0.483930 36.000000
1.268345 1.226013 0.486708 30.000000
1.285474 1.214579 0.489326 32.000000
1.302004 1.203345 0.492063 36.000000
1.314919 1.188633 0.493467 29.000000
1.342154 1.186511 0.500250 34.000000
1.351736 1.167753 0.500094 30.000000
1.367924 1.155575 0.502804 24.000000
1.387834 1.146208 0.506820 32.000000
1.403904 1.133537 0.509491 27.000000
1.427478 1.126571 0.514893 31.000000
1.443457 1.113359 0.517528 34.000000
1.455486 1.096935 0.518742 29.000000
1.471213 1.083304 0.521329 32.000000
1.494633 1.075025 0.526672 31.000000
1.498455 1.052552 0.525084 24.000000
1.521738 1.043672 0.530391 34.000000
1.545024 1.034405 0.535656 32.000000
1.564286 1.022122 0.539552 39.000000
1.575089 1.004671 0.540799 36.000000
1.586011 0.986746 0.541867 29.000000
1.604964 0.973682 0.545727 35.000000
1.627979 0.962756 0.550876 33.000000
1.650673 0.951792 0.556282 24.000000
1.665216 0.935363 0.558655 36.000000
1.692012 0.925932 0.565374 35.000000
1.727538 0.920204 0.574746 34.000000
1.754344 0.909674 0.581512 46.000000
1.772842 0.894001 0.585220 31.000000
1.795297 0.880437 0.590479 37.000000
1.809105 0.862329 0.592915 32.000000
1.809590 0.837954 0.591030 24.000000
1.849205 0.831335 0.601944 32.000000
1.875683 0.818217 0.608548 34.000000
1.915372 0.810174 0.619385 35.000000
1.941847 0.795853 0.625963 34.000000
1.963761 0.779233 0.631125 31.000000
1.967700 0.755377 0.630499 32.000000
1.989160 0.738356 0.635677 32.000000
2.024186 0.725610 0.645040 21.000000
2.022809 0.699802 0.643054 58.000000
2.057495 0.686177 0.652515 36.000000
2.078635 0.667343 0.657393 33.000000
2.081158 0.642551 0.656715 9.000000
2.087893 0.619363 0.657548 8.000000
2.126782 0.605064 0.668298 9.000000
2.174825 0.592415 0.681964 32.000000
2.181077 0.568124 0.682683 10.000000
2.265980 0.563312 0.707993 58.000000
2.276593 0.538948 0.710115 32.000000
2.305675 0.518679 0.717904 35.000000
2.334570 0.497736 0.725703 35.000000
2.377413 0.479103 0.737802 31.000000
2.387141 0.453383 0.739877 28.000000
2.415411 0.430762 0.747629 18.000000
2.457690 0.409973 0.759765 10.000000
2.518688 0.391275 0.777834 39.000000
2.560620 0.368586 0.790004 53.000000
2.569240 0.340487 0.791878 32.000000
2.610771 0.316223 0.803902 51.000000
2.666325 0.292673 0.820236 33.000000
2.650288 0.261009 0.814728 9.000000
2.805335 0.244638 0.861984 9.000000
2.822153 0.214268 0.866555 33.000000
2.843405 0.183885 0.872683 76.000000
2.859545 0.152730 0.877259 95.000000
2.837126 0.119732 0.870117 61.000000
2.828657 0.087712 0.867368 95.000000
2.757777 0.054587 0.845391 61.000000
2.734229 0.023478 0.838240 36.000000
2.705635 -0.007082 0.829447 10.000000
2.643322 -0.036537 0.810312 8.000000
2.623616 -0.065592 0.804451 9.000000
2.617918 -0.094823 0.802902 9.000000
2.597646 -0.123184 0.796875 8.000000
2.577063 -0.151199 0.790851 9.000000
2.541949 -0.177705 0.780436 9.000000
2.516008 -0.204236 0.772954 7.000000
2.523193 -0.233234 0.775558 10.000000
2.539547 -0.263431 0.781086 36.000000
2.526951 -0.290775 0.777998 44.000000
2.485674 -0.314307 0.765979 27.000000
2.477419 -0.341479 0.764198 18.000000
2.449861 -0.365641 0.756418 10.000000
2.441108 -0.392231 0.754484 10.000000
2.370707 -0.408166 0.733670 7.000000
2.351990 -0.432129 0.728836 10.000000
2.347183 -0.458374 0.728302 9.000000
2.356047 -0.487604 0.732211 20.000000
2.350598 -0.514006 0.731751 85.000000
2.354242 -0.542480 0.734044 50.000000
2.348154 -0.568757 0.733427 71.000000
2.318726 -0.589142 0.725479 52.000000
2.279869 -0.606395 0.714645 16.000000
2.277710 -0.633254 0.715492 42.000000
2.266028 -0.657399 0.713367 56.000000
2.258881 -0.682599 0.712464 51.000000
2.269549 -0.713618 0.717486 24.000000
2.338945 -0.764459 0.741400 14.000000
2.403099 -0.815185 0.763589 13.000000
2.488984 -0.875399 0.792752 10.000000
2.668210 -0.972167 0.852275 7.000000
2.697959 -1.017143 0.864016 10.000000
2.628643 -1.024746 0.844369 14.000000
2.621762 -1.056105 0.844722 26.000000
2.587940 -1.076255 0.836403 37.000000
2.589278 -1.110934 0.839526 35.000000
2.581459 -1.141852 0.839695 38.000000
2.560153 -1.166817 0.835590 31.000000
2.521307 -1.183170 0.825719 10.000000
2.542902 -1.228042 0.835741 31.000000
2.550894 -1.267108 0.841385 29.000000
2.549566 -1.302476 0.844450 30.000000
2.548187 -1.337585 0.847137 32.000000
2.529042 -1.364147 0.844446 29.000000
2.505840 -1.387650 0.839896 29.000000
2.494526 -1.418261 0.839934 29.000000
2.462613 -1.436328 0.832593 10.000000
2.467255 -1.476478 0.838139 33.000000
2.438711 -1.496730 0.832396 28.000000
2.430196 -1.529400 0.833546 26.000000
2.429917 -1.566637 0.837193 15.000000
2.388602 -1.578214 0.827212 20.000000
2.383076 -1.613121 0.829639 32.000000
2.353498 -1.631779 0.823756 25.000000
2.323735 -1.649987 0.817800 10.000000
2.313415 -1.681699 0.818742 34.000000
2.267984 -1.687665 0.807316 24.000000
2.264714 -1.724800 0.810820 31.000000
2.253422 -1.756186 0.811656 32.000000
2.222923 -1.772387 0.805573 24.000000
2.225905 -1.815614 0.811656 30.000000
2.202443 -1.837491 0.808296 24.000000
2.167788 -1.849639 0.800703 10.000000
2.161428 -1.887236 0.804294 30.000000
2.137283 -1.908220 0.800766 26.000000
2.123697 -1.938592 0.801180 28.000000
2.123786 -1.981998 0.806932 30.000000
2.094549 -1.999818 0.802238 21.000000
2.076356 -2.026569 0.801185 27.000000
2.037430 -2.032602 0.792162 17.000000
2.017940 -2.059549 0.791390 10.000000
2.022466 -2.109848 0.799388 33.000000
1.996511 -2.128799 0.795576 23.000000
1.982383 -2.162456 0.797202 27.000000
1.962412 -2.187943 0.795911 29.000000
1.939087 -2.209688 0.793217 21.000000
1.923706 -2.242985 0.794789 28.000000
1.906008 -2.271676 0.794670 10.000000
1.859178 -2.267451 0.783109 8.000000
1.765473 -2.201317 0.750763 10.000000
1.681260 -2.145551 0.722728 10.000000
1.605525 -2.094988 0.697080 10.000000
1.521263 -2.032196 0.668106 10.000000
1.459799 -1.994300 0.647795 10.000000
1.386939 -1.940300 0.622870 11.000000
1.335914 -1.911937 0.606619 10.000000
1.265493 -1.855405 0.581912 9.000000
1.219100 -1.828996 0.567084 10.000000
1.164341 -1.790284 0.548895 10.000000
1.124719 -1.770361 0.536691 16.000000
1.104964 -1.783376 0.534709 21.000000
1.075053 -1.779536 0.527806 21.000000
1.061387 -1.799670 0.527964 31.000000
1.041263 -1.811968 0.525926 25.000000
1.038860 -1.853026 0.532195 9.000000
0.832415 1.514483 0.446577 8.000000
0.848213 1.505113 0.448538 24.000000
0.862513 1.490848 0.449074 24.000000
0.879081 1.480635 0.450867 25.000000
0.894509 1.470749 0.452768 28.000000
0.913418 1.464258 0.455783 27.000000
0.928725 1.453962 0.457689 29.000000
0.944904 1.443013 0.459378 29.000000
0.965426 1.440415 0.463814 21.000000
0.967753 1.409118 0.458975 25.000000
0.988104 1.406107 0.463415 31.000000
1.003694 1.394482 0.465045 30.000000
1.015501 1.379352 0.465472 31.000000
1.033734 1.371232 0.468412 25.000000
1.051128 1.363427 0.471471 28.000000
1.069258 1.354846 0.474322 29.000000
1.086597 1.346579 0.477399 26.000000
1.097773 1.330646 0.477763 30.000000
1.109469 1.314073 0.477899 32.000000
1.129708 1.308836 0.482275 35.000000
1.149938 1.303348 0.486614 35.000000
1.161255 1.286279 0.486694 29.000000
1.184724 1.283760 0.492356 35.000000
1.188501 1.259912 0.489880 32.000000
1.212529 1.256342 0.495347 31.000000
1.232744 1.249508 0.499636 36.000000
1.246110 1.235528 0.501140 32.000000
1.263319 1.224282 0.503853 47.000000
1.276443 1.209985 0.505361 42.000000
1.292922 1.198787 0.508198 36.000000
1.309416 1.187341 0.511042 51.000000
1.332942 1.182076 0.516624 50.000000
1.345679 1.166904 0.518039 36.000000
1.369686 1.160475 0.523427 33.000000
1.389633 1.151018 0.527603 32.000000
1.409483 1.141279 0.531736 34.000000
1.425587 1.128221 0.534530 52.000000
1.437790 1.111971 0.535802 34.000000
1.453644 1.098495 0.538492 39.000000
1.469387 1.084818 0.541188 36.000000
1.485076 1.070878 0.543832 35.000000
1.508077 1.062604 0.549513 36.000000
1.531492 1.053537 0.554979 36.000000
1.546895 1.038742 0.557597 55.000000
1.554226 1.018488 0.557288 42.000000
1.577400 1.008464 0.562731 42.000000
1.588079 0.990805 0.564043 43.000000
1.615235 0.982618 0.570838 34.000000
1.625964 0.964175 0.571863 31.000000
1.640352 0.948307 0.574579 35.000000
1.646516 0.927228 0.574093 34.000000
1.673236 0.917926 0.581002 35.000000
1.708285 0.912634 0.590913 39.000000
1.747995 0.908542 0.602007 34.000000
1.770538 0.895338 0.607530 57.000000
1.788679 0.879609 0.611476 52.000000
1.802408 0.861500 0.613963 34.000000
1.828993 0.849203 0.620869 30.000000
1.851204 0.834423 0.626255 32.000000
1.877726 0.821133 0.633066 33.000000
1.895358 0.803653 0.636938 35.000000
1.912809 0.785843 0.640752 34.000000
1.934644 0.769467 0.645990 36.000000
1.956128 0.752924 0.651440 34.000000
1.977723 0.735745 0.656633 31.000000
2.008008 0.721628 0.665016 35.000000
2.024665 0.702179 0.668814 67.000000
2.036728 0.680946 0.671127 52.000000
2.066648 0.665324 0.679417 66.000000
2.101146 0.650462 0.689080 35.000000
2.117256 0.629475 0.692776 28.000000
2.114793 0.602980 0.690417 17.000000
2.176409 0.594353 0.709182 35.000000
2.205761 0.575984 0.717408 40.000000
2.253534 0.561563 0.731585 42.000000
2.278037 0.540552 0.738268 64.000000
2.302412 0.519125 0.744887 64.000000
2.326575 0.497203 0.751363 59.000000
2.364540 0.477695 0.762598 61.000000
2.392973 0.455593 0.770679 55.000000
2.364884 0.422820 0.760660 9.000000
2.425836 0.405645 0.779165 9.000000
2.444137 0.380602 0.784249 9.000000
2.481115 0.357965 0.795308 11.000000
2.527405 0.335681 0.809243 25.000000
2.578222 0.313016 0.824702 41.000000
2.600328 0.286161 0.831173 37.000000
2.617570 0.258329 0.836052 10.000000
2.743595 0.239716 0.875696 9.000000
2.755478 0.209659 0.879080 37.000000
2.819410 0.182779 0.899055 78.000000
2.797432 0.149835 0.891654 95.000000
2.789348 0.118030 0.888800 95.000000
2.761938 0.085757 0.879877 95.000000
2.738831 0.054310 0.872292 91.000000
2.715449 0.023396 0.864880 54.000000
2.677424 -0.007032 0.852742 16.000000
2.658112 -0.036782 0.846587 10.000000
2.652838 -0.066548 0.845070 13.000000
2.628098 -0.095431 0.837400 18.000000
2.617401 -0.124458 0.834198 27.000000
2.611134 -0.153552 0.832597 32.000000
2.604539 -0.182538 0.830830 36.000000
2.540711 -0.206699 0.810876 45.000000
2.524029 -0.233870 0.806085 66.000000
2.488174 -0.258751 0.795238 11.000000
2.461542 -0.283899 0.787268 10.000000
2.448833 -0.310313 0.784003 10.000000
2.435914 -0.336515 0.780661 10.000000
2.422630 -0.362426 0.777165 10.000000
2.409219 -0.388047 0.773672 9.000000
2.353177 -0.406160 0.756668 9.000000
2.343903 -0.431671 0.754700 10.000000
2.353131 -0.460664 0.758691 10.000000
2.352656 -0.488035 0.759584 24.000000
2.342539 -0.513392 0.757616 95.000000
2.350720 -0.542937 0.761594 98.000000
2.326162 -0.564842 0.754961 87.000000
2.310638 -0.588531 0.751266 82.000000
2.285720 -0.609480 0.744500 54.000000
2.265200 -0.631220 0.739244 68.000000
2.262785 -0.657978 0.740065 72.000000
2.282867 -0.691757 0.748367 29.000000
2.288813 -0.721620 0.752090 21.000000
2.330709 -0.763675 0.767675 23.000000
2.394607 -0.814377 0.790601 20.000000
2.466652 -0.869713 0.816448 20.000000
2.542312 -0.928418 0.843631 95.000000
2.447086 -0.924984 0.814441 100.000000
2.517101 -0.983608 0.839984 98.000000
2.607971 -1.053057 0.873039 47.000000
2.627234 -1.095310 0.882232 48.000000
2.641374 -1.136191 0.889919 36.000000
2.641982 -1.171670 0.893154 37.000000
2.646440 -1.209339 0.897665 29.000000
2.628828 -1.236948 0.894800 30.000000
2.615191 -1.266450 0.893315 31.000000
2.575696 -1.282979 0.883030 35.000000
2.544621 -1.303106 0.875703 32.000000
2.530021 -1.332032 0.874334 36.000000
2.511306 -1.357953 0.871323 36.000000
2.484003 -1.379045 0.865223 32.000000
2.506090 -1.428555 0.876860 34.000000
2.461628 -1.439527 0.864953 26.000000
2.457933 -1.474924 0.867753 30.000000
2.449724 -1.507727 0.869091 33.000000
2.417296 -1.524748 0.861394 27.000000
2.396332 -1.549567 0.858314 16.000000
2.379235 -1.576668 0.856586 29.000000
2.361774 -1.603587 0.854858 30.000000
2.363705 -1.644001 0.860196 28.000000
2.326670 -1.656152 0.850857 28.000000
2.300644 -1.676788 0.846189 27.000000
2.293771 -1.711401 0.848459 32.000000
2.252051 -1.719812 0.838038 30.000000
2.240761 -1.751149 0.838883 32.000000
2.225325 -1.779390 0.838213 35.000000
2.202124 -1.801368 0.834721 29.000000
2.186169 -1.829240 0.834044 29.000000
2.161768 -1.851406 0.830739 23.000000
2.148813 -1.882072 0.831362 26.000000
2.131871 -1.909335 0.830486 29.000000
2.107594 -1.930100 0.826732 29.000000
2.093636 -1.960273 0.827233 29.000000
2.082825 -1.993652 0.828918 32.000000
2.067170 -2.024457 0.829569 26.000000
2.065693 -2.068013 0.835332 26.000000
2.009727 -2.056720 0.819129 22.000000
1.999839 -2.093901 0.822312 22.000000
1.997041 -2.137222 0.827910 32.000000
1.961046 -2.145280 0.819791 24.000000
1.943405 -2.175223 0.820193 24.000000
1.932777 -2.211362 0.822815 27.000000
1.909135 -2.232770 0.820023 24.000000
1.905624 -2.280799 0.826891 20.000000
1.832547 -2.242195 0.802697 9.000000
1.763472 -2.206084 0.779891 10.000000
1.688351 -2.161880 0.754835 10.000000
1.606890 -2.103902 0.725622 10.000000
1.525589 -2.045177 0.696847 10.000000
1.458468 -1.999758 0.673266 10.000000
1.385692 -1.945830 0.647452 10.000000
1.329295 -1.909657 0.628021 10.000000
1.256337 -1.849216 0.601146 9.000000
1.220740 -1.838920 0.590984 10.000000
1.163470 -1.796308 0.570784 10.000000
1.121290 -1.772396 0.556937 11.000000
1.109037 -1.797784 0.558719 18.000000
1.070209 -1.776852 0.546200 23.000000
1.055271 -1.797631 0.546642 21.000000
1.042418 -1.822527 0.548328 21.000000
1.013849 -1.817146 0.540912 9.000000
0.831929 1.521214 0.464472 8.000000
0.841763 1.498616 0.462437 26.000000
0.862279 1.497421 0.467056 28.000000
0.871574 1.474689 0.464930 35.000000
0.889457 1.468956 0.468249 31.000000
0.903263 1.454267 0.468668 33.000000
0.923714 1.452219 0.473269 38.000000
0.942470 1.445252 0.476343 31.000000
0.957711 1.434600 0.478255 35.000000
0.960063 1.403360 0.473299 27.000000
0.988575 1.412258 0.481860 33.000000
0.995079 1.389319 0.479664 36.000000
1.013418 1.381390 0.482699 31.000000
1.033751 1.377679 0.487213 35.000000
1.046116 1.361629 0.487487 32.000000
1.060552 1.349808 0.489284 32.000000
1.078600 1.341025 0.492239 35.000000
1.092802 1.328843 0.493987 25.000000
1.109988 1.320120 0.497065 37.000000
1.121536 1.303387 0.497210 59.000000
1.138583 1.294319 0.500297 36.000000
1.158752 1.288530 0.504737 46.000000
1.173129 1.274869 0.506224 42.000000
1.186735 1.261594 0.507877 37.000000
1.206880 1.255013 0.512297 59.000000
1.223701 1.244696 0.515319 27.000000
1.240374 1.234192 0.518294 47.000000
1.257622 1.222941 0.521054 48.000000
1.270746 1.208644 0.522618 40.000000
1.287266 1.197387 0.525558 63.000000
1.310774 1.192439 0.531322 69.000000
1.316492 1.171113 0.529910 42.000000
1.336349 1.162347 0.534257 63.000000
1.348883 1.147104 0.535669 18.000000
1.364983 1.134750 0.538532 46.000000
1.399541 1.137282 0.548622 47.000000
1.419342 1.127180 0.552920 52.000000
1.431602 1.110988 0.554250 52.000000
1.451249 1.100398 0.558454 50.000000
1.467065 1.086616 0.561261 34.000000
1.478839 1.069829 0.562485 45.000000
1.490497 1.052866 0.563709 20.000000
1.521639 1.049345 0.572327 40.000000
1.540662 1.037674 0.576710 49.000000
1.551940 1.019985 0.577837 32.000000
1.571136 1.007331 0.581942 51.000000
1.589906 0.994733 0.586238 36.000000
1.608907 0.981473 0.590306 37.000000
1.627533 0.968269 0.594628 37.000000
1.642260 0.951942 0.597097 18.000000
1.652463 0.933420 0.598312 36.000000
1.679376 0.923663 0.605306 53.000000
1.693453 0.906959 0.607980 41.000000
1.724301 0.898850 0.616644 38.000000
1.763699 0.894451 0.628300 39.000000
1.777598 0.876548 0.630894 35.000000
1.804175 0.864661 0.638049 58.000000
1.813467 0.844217 0.639011 16.000000
1.848604 0.835411 0.649114 32.000000
1.870722 0.820216 0.654667 44.000000
1.888321 0.802666 0.658640 34.000000
1.905805 0.784852 0.662556 35.000000
1.927392 0.768735 0.668144 36.000000
1.944587 0.750273 0.672011 31.000000
1.974830 0.736666 0.680628 35.000000
1.973720 0.711201 0.678498 21.000000
2.012774 0.699863 0.690156 42.000000
2.024734 0.678611 0.692519 62.000000
2.054624 0.663030 0.700993 70.000000
2.079925 0.645460 0.707938 45.000000
2.123295 0.632772 0.720943 64.000000
2.157403 0.616792 0.731090 62.000000
2.168542 0.593776 0.733433 54.000000
2.225398 0.582549 0.751228 32.000000
2.250045 0.562046 0.758107 51.000000
2.265248 0.538853 0.761887 55.000000
2.294179 0.518520 0.770190 71.000000
2.322845 0.497665 0.778732 52.000000
2.356047 0.477155 0.788695 64.000000
2.365732 0.451562 0.790795 34.000000
2.365853 0.424034 0.789698 10.000000
2.393753 0.401246 0.797970 8.000000
2.430812 0.379474 0.809454 8.000000
2.462966 0.356124 0.819230 9.000000
2.494888 0.332140 0.829015 9.000000
2.507793 0.305225 0.832630 9.000000
2.562878 0.282702 0.850095 10.000000
2.627205 0.259946 0.870956 26.000000
2.639295 0.231166 0.874259 16.000000
2.750477 0.209843 0.910649 47.000000
2.799981 0.181892 0.926594 54.000000
2.797045 0.150165 0.925206 85.000000
2.755796 0.116845 0.911270 72.000000
2.742713 0.085374 0.906741 50.000000
2.705534 0.053751 0.894191 29.000000
2.682147 0.023105 0.886520 24.000000
2.653749 -0.006994 0.877105 33.000000
2.667733 -0.037046 0.881727 62.000000
2.662473 -0.066941 0.880158 88.000000
2.652043 -0.096556 0.876935 81.000000
2.636622 -0.125646 0.872059 95.000000
2.601919 -0.153384 0.860996 78.000000
2.595340 -0.182288 0.859177 76.000000
2.541196 -0.207225 0.841685 27.000000
2.519827 -0.234066 0.835252 91.000000
2.460552 -0.256462 0.815970 10.000000
2.452814 -0.283661 0.814246 10.000000
2.426086 -0.308202 0.805945 10.000000
2.431957 -0.336773 0.808759 10.000000
2.399991 -0.359921 0.798983 10.000000
2.386559 -0.385307 0.795312 9.000000
2.358809 -0.408131 0.787192 9.000000
2.349523 -0.433801 0.785170 10.000000
2.344688 -0.460203 0.784633 14.000000
2.353499 -0.489508 0.788695 29.000000
2.338814 -0.513875 0.784885 88.000000
2.328417 -0.539104 0.782791 77.000000
2.313195 -0.563029 0.779143 95.000000
2.302322 -0.587921 0.776901 64.000000
2.268287 -0.606419 0.766825 31.000000
2.270735 -0.634380 0.769172 95.000000
2.254644 -0.657149 0.765166 59.000000
2.270078 -0.689460 0.772226 11.000000
2.325862 -0.735105 0.793109 30.000000
2.281577 -0.749455 0.779893 29.000000
2.232742 -0.761301 0.765161 34.000000
2.197433 -0.776840 0.754933 32.000000
2.197844 -0.804785 0.757039 35.000000
2.193510 -0.831095 0.757524 60.000000
2.201979 -0.862864 0.762836 34.000000
2.577978 -1.077427 0.898468 34.000000
2.640288 -1.138583 0.923290 32.000000
2.640805 -1.174247 0.926579 36.000000
2.623509 -1.201995 0.923665 29.000000
2.601580 -1.227520 0.919235 21.000000
2.579554 -1.252666 0.914721 32.000000
2.561513 -1.279564 0.911734 32.000000
2.539005 -1.304006 0.907146 37.000000
2.520531 -1.330298 0.903990 33.000000
2.485070 -1.347225 0.894802 32.000000
2.482454 -1.382506 0.897965 36.000000
2.479869 -1.417342 0.900657 29.000000
2.447602 -1.436022 0.893190 22.000000
2.448336 -1.473187 0.897275 32.000000
2.431975 -1.501065 0.895721 30.000000
2.403607 -1.520557 0.889235 35.000000
2.390787 -1.550436 0.889087 19.000000
2.361643 -1.569746 0.882806 21.000000
2.360574 -1.606687 0.886653 35.000000
2.331028 -1.625319 0.880389 26.000000
2.297502 -1.640635 0.872576 24.000000
2.298660 -1.680888 0.878049 33.000000
2.280107 -1.706989 0.876139 32.000000
2.249990 -1.724094 0.869648 35.000000
2.227226 -1.746570 0.866194 33.000000
2.200617 -1.765877 0.861197 30.000000
2.199655 -1.805900 0.866316 35.000000
2.187190 -1.836930 0.867042 28.000000
2.152629 -1.849234 0.858970 26.000000
2.135957 -1.876643 0.858153 31.000000
2.112001 -1.897553 0.854356 31.000000
2.108914 -1.937551 0.859187 34.000000
2.080853 -1.954716 0.853949 30.000000
2.070030 -1.988136 0.855780 30.000000
2.050964 -2.015533 0.855011 32.000000
2.022320 -2.031809 0.849606 24.000000
2.010456 -2.064837 0.851300 23.000000
1.991480 -2.090870 0.850053 31.000000
1.968882 -2.113191 0.847389 31.000000
1.967708 -2.160902 0.854826 32.000000
1.947670 -2.186510 0.853438 30.000000
1.927369 -2.211817 0.852040 33.000000
1.902476 -2.234286 0.849429 32.000000
1.890907 -2.270215 0.852081 24.000000
1.842321 -2.261523 0.838126 10.000000
1.769050 -2.222833 0.813419 12.000000
1.692176 -2.174193 0.785847 15.000000
1.600838 -2.105804 0.751869 14.000000
1.529724 -2.057958 0.725946 13.000000
1.455667 -2.005747 0.699072 17.000000
1.398240 -1.970895 0.678821 18.000000
1.327942 -1.915144 0.651970 10.000000
1.263334 -1.866830 0.628204 10.000000
1.222296 -1.848675 0.615079 11.000000
1.167632 -1.810344 0.595513 13.000000
1.122840 -1.782514 0.579857 20.000000
1.102902 -1.795583 0.577657 21.000000
1.069148 -1.783031 0.567358 26.000000
1.044287 -1.787194 0.562630 28.000000
1.030280 -1.807167 0.562820 24.000000
1.014646 -1.827710 0.563251 9.000000
0.822065 1.510887 0.477082 9.000000
0.844958 1.514081 0.483179 18.000000
0.854695 1.491331 0.481059 30.000000
0.864042 1.468644 0.478853 22.000000
0.884351 1.467055 0.483622 31.000000
0.894669 1.448820 0.482904 34.000000
0.918593 1.450312 0.488794 29.000000
0.933846 1.439853 0.490810 36.000000
0.949915 1.428686 0.492607 28.000000
0.967653 1.421872 0.495899 27.000000
0.978000 1.402467 0.494867 35.000000
0.987252 1.383515 0.493977 30.000000
1.008312 1.379489 0.498506 35.000000
1.025743 1.371925 0.501759 31.000000
1.049029 1.371698 0.507843 30.000000
1.055486 1.347902 0.505245 35.000000
1.072755 1.339605 0.508518 27.000000
1.080885 1.320007 0.507469 28.000000
1.101761 1.314531 0.511905 35.000000
1.112629 1.298330 0.512218 35.000000
1.126465 1.285692 0.513961 50.000000
1.152968 1.287098 0.521427 34.000000
1.164111 1.269910 0.521466 42.000000
1.184277 1.263653 0.526075 57.000000
1.197755 1.250120 0.527733 31.000000
1.211178 1.236421 0.529334 26.000000
1.231810 1.228867 0.533703 40.000000
1.248394 1.218096 0.536729 37.000000
1.264994 1.207137 0.539763 64.000000
1.284934 1.199189 0.544285 49.000000
1.297905 1.184477 0.545801 55.000000
1.314270 1.172775 0.548804 74.000000
1.334130 1.164017 0.553251 38.000000
1.353958 1.154925 0.557713 30.000000
1.370143 1.142442 0.560635 32.000000
1.389919 1.132716 0.565067 34.000000
1.409656 1.122707 0.569457 62.000000
1.429407 1.112353 0.573862 37.000000
1.441467 1.095944 0.575195 37.000000
1.433887 1.065559 0.569172 56.000000
1.472486 1.068663 0.581079 32.000000
1.484144 1.051701 0.582303 28.000000
1.511287 1.045456 0.589637 35.000000
1.534192 1.036487 0.595704 52.000000
1.541556 1.016179 0.595356 73.000000
1.564692 1.006138 0.601093 41.000000
1.575372 0.988478 0.602466 59.000000
1.598340 0.977786 0.608170 48.000000
1.621051 0.967058 0.614073 34.000000
1.623131 0.943923 0.612245 29.000000
1.645904 0.932205 0.617928 53.000000
1.660085 0.915856 0.620637 33.000000
1.694998 0.910533 0.631144 50.000000
1.717390 0.897916 0.637002 39.000000
1.752437 0.891285 0.647507 69.000000
1.770552 0.875596 0.651714 62.000000
1.779946 0.855474 0.652729 31.000000
1.810719 0.845199 0.661603 28.000000
1.815518 0.822684 0.660992 34.000000
1.854833 0.815350 0.672986 35.000000
1.876526 0.800017 0.678830 43.000000
1.893955 0.782248 0.682844 33.000000
1.915471 0.766175 0.688648 34.000000
1.941525 0.751182 0.695784 45.000000
1.949496 0.729210 0.696722 28.000000
1.975168 0.713616 0.704017 27.000000
2.009593 0.700603 0.714443 52.000000
2.017129 0.677789 0.715265 37.000000
2.046935 0.662268 0.723992 55.000000
2.072028 0.644831 0.731279 71.000000
2.106182 0.629419 0.741567 54.000000
2.135605 0.612156 0.750417 73.000000
2.155819 0.591801 0.756009 36.000000
2.180408 0.572266 0.763143 33.000000
2.204883 0.552173 0.770215 64.000000
2.252268 0.537082 0.785253 40.000000
2.285568 0.517992 0.795644 54.000000
2.305043 0.495067 0.800998 67.000000
2.333482 0.473712 0.809654 37.000000
2.357067 0.450943 0.816634 53.000000
2.352392 0.422734 0.814106 10.000000
2.375607 0.399210 0.820943 8.000000
2.417126 0.378268 0.834398 9.000000
2.449248 0.355046 0.844480 9.000000
2.476370 0.330483 0.852956 9.000000
2.512711 0.306538 0.864754 9.000000
2.553432 0.282371 0.878100 9.000000
2.603494 0.258206 0.894608 33.000000
2.620163 0.230083 0.899886 27.000000
2.740548 0.209488 0.940437 51.000000
2.766189 0.180174 0.948798 72.000000
2.772701 0.149222 0.950686 95.000000
2.745778 0.116757 0.941235 72.000000
2.718475 0.084843 0.931690 33.000000
2.681432 0.053468 0.918728 10.000000
2.634480 0.022778 0.902609 10.000000
2.672405 -0.007069 0.915659 55.000000
2.662773 -0.037026 0.912332 88.000000
2.638529 -0.066497 0.904230 82.000000
2.632865 -0.096040 0.902524 95.000000
2.617586 -0.125110 0.897494 95.000000
2.583009 -0.152659 0.885820 95.000000
2.571735 -0.181040 0.882415 83.000000
2.503566 -0.204748 0.859666 36.000000
2.496505 -0.232506 0.857724 81.000000
2.465605 -0.257698 0.847694 14.000000
2.439148 -0.282719 0.839289 10.000000
2.412512 -0.307211 0.830732 16.000000
2.408983 -0.334426 0.830419 18.000000
2.419256 -0.363673 0.834871 26.000000
2.410483 -0.390212 0.832784 27.000000
2.401411 -0.416567 0.830777 35.000000
2.373505 -0.439293 0.822089 78.000000
2.363957 -0.465149 0.819933 91.000000
2.340217 -0.487847 0.812873 91.000000
2.330046 -0.513336 0.810802 95.000000
2.319820 -0.538413 0.808502 95.000000
2.299957 -0.561295 0.803070 86.000000
2.293701 -0.587234 0.802383 95.000000
2.264344 -0.606967 0.793680 52.000000
2.257622 -0.632421 0.792849 92.000000
2.246126 -0.656471 0.790418 81.000000
2.229675 -0.679113 0.786542 35.000000
2.226760 -0.705618 0.787163 37.000000
2.218936 -0.730744 0.786336 34.000000
2.224341 -0.760393 0.790212 27.000000
2.247213 -0.796529 0.800444 24.000000
2.242837 -0.823491 0.801035 16.000000
2.278161 -0.865555 0.815831 26.000000
2.290503 -0.900109 0.822896 29.000000
2.293866 -0.931198 0.826378 27.000000
2.621441 -1.133435 0.950362 36.000000
2.617524 -1.166969 0.952229 33.000000
2.617558 -1.202589 0.955569 35.000000
2.595732 -1.228168 0.951036 25.000000
2.565089 -1.249210 0.943281 34.000000
2.555579 -1.280316 0.943289 37.000000
2.511972 -1.293936 0.930777 33.000000
2.506114 -1.326707 0.932266 37.000000
2.487456 -1.352677 0.928976 37.000000
2.464426 -1.376054 0.924137 34.000000
2.457172 -1.408970 0.925793 35.000000
2.437797 -1.434206 0.922424 24.000000
2.422181 -1.461534 0.920518 34.000000
2.397842 -1.484219 0.915795 33.000000
2.401818 -1.523834 0.921509 30.000000
2.376870 -1.546111 0.916699 23.000000
2.343845 -1.562654 0.908740 18.000000
2.346698 -1.602269 0.914320 30.000000
2.332835 -1.631780 0.913936 36.000000
2.279930 -1.633375 0.898293 21.000000
2.288747 -1.679160 0.906968 32.000000
2.251781 -1.690233 0.897015 33.000000
2.233114 -1.715844 0.895031 32.000000
2.214176 -1.741275 0.892867 36.000000
2.195058 -1.766435 0.890792 32.000000
2.186623 -1.800508 0.893048 33.000000
2.174160 -1.831489 0.893873 33.000000
2.128762 -1.834334 0.881037 18.000000
2.123041 -1.871131 0.884759 29.000000
2.109682 -1.901592 0.885291 32.000000
2.092402 -1.928706 0.884415 31.000000
2.081821 -1.962178 0.886307 36.000000
2.057085 -1.982444 0.882364 29.000000
2.045762 -2.015683 0.884131 28.000000
2.019562 -2.036224 0.880463 32.000000
1.974193 -2.034999 0.867476 19.000000
1.988419 -2.095420 0.880895 32.000000
1.959237 -2.110803 0.875222 30.000000
1.941784 -2.140764 0.875641 29.000000
1.928273 -2.173348 0.877119 35.000000
1.911209 -2.202254 0.877129 30.000000
1.896905 -2.234674 0.878461 29.000000
1.877808 -2.264181 0.878709 26.000000
1.826373 -2.251764 0.862875 9.000000
1.775559 -2.238365 0.847037 12.000000
1.691631 -2.183379 0.815977 16.000000
1.616204 -2.133454 0.787582 13.000000
1.533501 -2.070534 0.755156 17.000000
1.468045 -2.030142 0.731673 13.000000
1.388269 -1.964294 0.699562 16.000000
1.325272 -1.921204 0.676318 13.000000
1.253937 -1.860347 0.647313 9.000000
1.219785 -1.854951 0.638126 11.000000
1.161221 -1.807957 0.614952 13.000000
1.123029 -1.793073 0.603107 15.000000
1.084021 -1.772798 0.589702 22.000000
1.060434 -1.776597 0.584544 25.000000
1.038068 -1.784903 0.580959 25.000000
1.027463 -1.813901 0.584130 26.000000
1.010631 -1.829613 0.583028 8.000000
0.814493 1.504645 0.490793 8.000000
0.837353 1.507848 0.497120 17.000000
0.844761 1.480972 0.493477 21.000000
0.872369 1.492053 0.502570 22.000000
0.879190 1.465045 0.498887 32.000000
0.899589 1.463170 0.503820 20.000000
0.913418 1.448297 0.504265 30.000000
0.931217 1.441866 0.507753 28.000000
0.949978 1.434663 0.510979 21.000000
0.962464 1.419851 0.511577 21.000000
0.969241 1.397011 0.509240 18.000000
0.984841 1.385419 0.511028 28.000000
0.999521 1.374152 0.512978 27.000000
1.019751 1.370399 0.517774 21.000000
1.032213 1.354393 0.518008 29.000000
1.049494 1.346376 0.521369 26.000000
1.075740 1.349343 0.529084 24.000000
1.075724 1.317997 0.523440 26.000000
1.095861 1.313002 0.528183 24.000000
1.112946 1.304125 0.531466 34.000000
1.123721 1.287764 0.531789 31.000000
1.135018 1.270821 0.531828 28.000000
1.161451 1.271895 0.539550 36.000000
1.178367 1.262106 0.542757 28.000000
1.191900 1.248573 0.544469 25.000000
1.205267 1.234874 0.546126 28.000000
1.215213 1.217637 0.546270 28.000000
1.242490 1.216537 0.553715 39.000000
1.259074 1.205573 0.556852 36.000000
1.272087 1.191108 0.558472 30.000000
1.281421 1.173262 0.558505 50.000000
1.301210 1.164851 0.563078 30.000000
1.324550 1.159299 0.569205 33.000000
1.340754 1.147091 0.572215 26.000000
1.353208 1.131636 0.573687 24.000000
1.379700 1.128559 0.581589 34.000000
1.403138 1.121495 0.587626 32.000000
1.419110 1.108212 0.590568 31.000000
1.431197 1.091846 0.591956 35.000000
1.454533 1.083818 0.597982 29.000000
1.465958 1.067439 0.599556 29.000000
1.481483 1.053227 0.602412 25.000000
1.496894 1.038809 0.605215 30.000000
1.531471 1.037842 0.616159 54.000000
1.538941 1.017492 0.615766 30.000000
1.549744 1.000101 0.617191 28.000000
1.568749 0.987225 0.621498 32.000000
1.595466 0.979303 0.629182 30.000000
1.602128 0.958427 0.628731 30.000000
1.612408 0.940211 0.629994 24.000000
1.634802 0.928894 0.636002 32.000000
1.653083 0.914882 0.640424 35.000000
1.675388 0.902807 0.646466 36.000000
1.718677 0.901254 0.660457 33.000000
1.741020 0.888124 0.666424 36.000000
1.754838 0.870312 0.669111 32.000000
1.777035 0.856448 0.675042 30.000000
1.807679 0.846176 0.684166 27.000000
1.816887 0.825507 0.685132 26.000000
1.838558 0.810688 0.691235 30.000000
1.869112 0.798967 0.700285 32.000000
1.882008 0.779583 0.702966 28.000000
1.908037 0.765113 0.710353 33.000000
1.933754 0.750311 0.717890 29.000000
1.946216 0.729999 0.720465 24.000000
1.985090 0.719172 0.732882 31.000000
1.992866 0.696596 0.733769 30.000000
2.004775 0.675459 0.736230 28.000000
2.029848 0.658592 0.743770 33.000000
2.073004 0.646735 0.757706 29.000000
2.102490 0.630066 0.766793 33.000000
2.122767 0.610208 0.772597 33.000000
2.133816 0.587395 0.775035 26.000000
2.181108 0.573941 0.790637 32.000000
2.219266 0.557259 0.802882 29.000000
2.239025 0.535314 0.808444 35.000000
2.263083 0.514177 0.815821 34.000000
2.277710 0.490563 0.819816 30.000000
2.319881 0.472234 0.833705 33.000000
2.348016 0.450402 0.842550 30.000000
2.371297 0.427211 0.849899 19.000000
2.403716 0.405011 0.860273 27.000000
2.417291 0.379256 0.864155 10.000000
2.444576 0.355245 0.872880 9.000000
2.485632 0.332662 0.886775 8.000000
2.512435 0.307356 0.895601 7.000000
2.534369 0.281000 0.902685 8.000000
2.612297 0.259819 0.929721 26.000000
2.708914 0.238509 0.963281 20.000000
2.725387 0.208951 0.968643 42.000000
2.760430 0.180213 0.980513 68.000000
2.780954 0.150059 0.987555 42.000000
2.740114 0.116780 0.972516 70.000000
2.708210 0.084755 0.960995 26.000000
2.661800 0.053193 0.944540 9.000000
2.615112 0.022696 0.927908 9.000000
2.657605 -0.007057 0.942955 27.000000
2.629078 -0.036697 0.932838 58.000000
2.637988 -0.066650 0.936011 80.000000
2.604170 -0.095266 0.924226 58.000000
2.593490 -0.124264 0.920884 95.000000
2.563835 -0.151851 0.910606 52.000000
2.562006 -0.180874 0.910440 34.000000
2.494086 -0.204424 0.886729 49.000000
2.482351 -0.231744 0.883227 36.000000
2.479607 -0.259834 0.882985 50.000000
2.453212 -0.285123 0.874319 52.000000
2.445338 -0.312271 0.872252 46.000000
2.432489 -0.338583 0.868360 58.000000
2.424011 -0.365308 0.866296 62.000000
2.401271 -0.389740 0.859160 31.000000
2.401507 -0.417712 0.860431 54.000000
2.387580 -0.443050 0.856474 45.000000
2.340991 -0.461867 0.840966 64.000000
2.331202 -0.487385 0.838764 68.000000
2.311915 -0.510610 0.833092 39.000000
2.306323 -0.536730 0.832403 56.000000
2.272778 -0.556123 0.821848 30.000000
2.284851 -0.586548 0.827789 19.000000
2.296516 -0.617234 0.833719 23.000000
2.271500 -0.638123 0.826263 14.000000
2.291654 -0.671722 0.835329 18.000000
2.306892 -0.704403 0.842648 20.000000
2.317013 -0.736320 0.848458 13.000000
2.340302 -0.772773 0.858875 18.000000
2.327312 -0.797686 0.856276 14.000000
2.340658 -0.831988 0.863531 9.000000
2.433456 -0.895928 0.900200 21.000000
2.458888 -0.936946 0.912128 21.000000
2.545317 -1.002754 0.946830 31.000000
2.595370 -1.056679 0.968638 33.000000
2.618737 -1.100647 0.980238 29.000000
2.619459 -1.136094 0.983933 31.000000
2.594160 -1.159705 0.977395 25.000000
2.577026 -1.187256 0.974396 17.000000
2.580935 -1.224571 0.979417 29.000000
2.563136 -1.251803 0.976323 26.000000
2.523968 -1.268224 0.965151 31.000000
2.522644 -1.303345 0.968353 31.000000
2.504090 -1.329689 0.965094 28.000000
2.468686 -1.346688 0.955316 30.000000
2.466396 -1.381546 0.958319 28.000000
2.447169 -1.407061 0.954986 17.000000
2.419559 -1.427395 0.948279 26.000000
2.419847 -1.464989 0.953036 26.000000
2.395852 -1.487318 0.947845 27.000000
2.375148 -1.512282 0.944621 25.000000
2.358833 -1.538929 0.942446 11.000000
2.345645 -1.568666 0.942307 15.000000
2.324754 -1.592314 0.938458 24.000000
2.318731 -1.627138 0.941284 13.000000
2.296841 -1.650877 0.937798 28.000000
2.263811 -1.665361 0.929155 24.000000
2.237797 -1.685483 0.923946 29.000000
2.211639 -1.705340 0.918750 27.000000
2.192798 -1.730641 0.916597 24.000000
2.192171 -1.770603 0.922219 30.000000
2.173440 -1.794943 0.919595 26.000000
2.131923 -1.801324 0.908051 11.000000
2.126521 -1.838037 0.911895 25.000000
2.099193 -1.855994 0.906382 18.000000
2.096529 -1.895859 0.911629 28.000000
2.075773 -1.919696 0.909182 26.000000
2.068673 -1.956348 0.912749 25.000000
2.047413 -1.979890 0.910194 27.000000
2.031647 -2.010590 0.910950 23.000000
2.026514 -2.050608 0.915771 13.000000
1.981076 -2.049603 0.902530 23.000000
1.972006 -2.085909 0.905719 19.000000
1.968838 -2.129243 0.911870 29.000000
1.936229 -2.140893 0.904509 24.000000
1.915203 -2.167179 0.903415 21.000000
1.898052 -2.196040 0.903428 28.000000
1.877570 -2.221118 0.901940 20.000000
1.890214 -2.286488 0.916585 18.000000
1.828319 -2.264050 0.896086 10.000000
1.783329 -2.258419 0.882663 9.000000
1.709582 -2.214191 0.854702 12.000000
1.603959 -2.127336 0.811158 10.000000
1.521649 -2.064470 0.777714 10.000000
1.454883 -2.019507 0.751721 10.000000
1.393554 -1.981735 0.729012 10.000000
1.353489 -1.969777 0.716186 9.000000
1.249766 -1.861688 0.669122 9.000000
1.215714 -1.856423 0.659642 9.000000
1.154673 -1.805434 0.634323 10.000000
1.116583 -1.790588 0.622107 10.000000
1.095155 -1.799045 0.618148 16.000000
1.055403 -1.778954 0.604581 21.000000
1.036594 -1.790791 0.602082 19.000000
1.021120 -1.811456 0.602563 18.000000
