x y z intensity
2.469139 -1.446566 1.386786 29.000000
2.449560 -1.473360 1.381892 25.000000
2.386918 -1.474321 1.353591 10.000000
2.412810 -1.528890 1.374589 30.000000
2.396268 -1.557235 1.371590 28.000000
2.382607 -1.588469 1.371234 29.000000
2.364875 -1.617052 1.368618 31.000000
2.332840 -1.634307 1.356723 26.000000
2.321979 -1.667498 1.358222 29.000000
2.296252 -1.689862 1.351043 26.000000
2.281183 -1.720024 1.350290 12.000000
2.269344 -1.752748 1.351468 31.000000
2.253641 -1.782643 1.350499 33.000000
2.237587 -1.812332 1.349326 38.000000
2.203841 -1.827453 1.337561 33.000000
2.183879 -1.853684 1.334186 26.000000
2.170572 -1.885477 1.335022 28.000000
2.160334 -1.920350 1.337743 13.000000
2.126098 -1.933694 1.325769 9.000000
2.111887 -1.965093 1.326276 29.000000
2.076535 -1.978326 1.314648 23.000000
2.065027 -2.012400 1.317125 28.000000
2.039169 -2.034339 1.311667 29.000000
2.026998 -2.068145 1.313904 24.000000
2.011273 -2.098597 1.313947 29.000000
1.981580 -2.116474 1.306238 19.000000
1.946841 -2.126307 1.293876 10.000000
1.935289 -2.163638 1.298280 30.000000
1.914130 -2.190660 1.296531 23.000000
1.906036 -2.230484 1.302299 27.000000
1.878223 -2.250288 1.296358 26.000000
1.861956 -2.283814 1.298397 23.000000
1.849592 -2.319950 1.301814 26.000000
1.809811 -2.324419 1.287550 18.000000
1.789654 -2.353793 1.287323 10.000000
1.766505 -2.379326 1.285080 25.000000
1.763433 -2.429647 1.296105 15.000000
1.747311 -2.466195 1.299514 22.000000
1.712359 -2.476239 1.289091 19.000000
1.698138 -2.516190 1.294299 18.000000
1.678138 -2.548467 1.295529 22.000000
1.647828 -2.565129 1.288827 10.000000
1.639320 -2.616574 1.299495 18.000000
1.610797 -2.636612 1.294588 22.000000
1.567800 -2.632656 1.278131 10.000000
1.527437 -2.632038 1.263579 10.000000
1.448549 -2.562346 1.216633 10.000000
0.704614 1.240974 0.604901 21.000000
0.715826 1.228060 0.605307 24.000000
0.729169 1.219007 0.607665 24.000000
0.768896 1.252832 0.631689 20.000000
0.745839 1.184891 0.604359 23.000000
0.761218 1.179391 0.608582 21.000000
0.778271 1.177935 0.615051 24.000000
0.791149 1.168112 0.617260 28.000000
0.801322 1.154435 0.617457 19.000000
0.819272 1.151866 0.623649 26.000000
0.829169 1.137940 0.623745 29.000000
0.846379 1.135301 0.630161 22.000000
0.853326 1.117496 0.628163 28.000000
0.865592 1.106828 0.630184 21.000000
0.885602 1.107121 0.638600 32.000000
0.894958 1.092540 0.638580 32.000000
0.904048 1.077935 0.638453 27.000000
0.924203 1.077451 0.646890 44.000000
0.933152 1.062514 0.646714 27.000000
0.956401 1.064836 0.657195 31.000000
0.962078 1.046231 0.654885 32.000000
0.985546 1.047895 0.665334 32.000000
0.997203 1.035658 0.667172 37.000000
1.001823 1.017203 0.664982 34.000000
1.015852 1.008330 0.669070 37.000000
1.033587 1.001999 0.675003 42.000000
1.044262 0.989528 0.676944 32.000000
1.058206 0.980033 0.680971 34.000000
1.058621 0.958135 0.676399 26.000000
1.079039 0.954333 0.684670 25.000000
1.092773 0.944238 0.688574 36.000000
1.096036 0.925236 0.686017 32.000000
1.133857 0.934882 0.705017 29.000000
1.126458 0.907025 0.695869 36.000000
1.154003 0.907324 0.708399 32.000000
1.174613 0.901517 0.716525 33.000000
1.188052 0.889957 0.720264 26.000000
1.197821 0.875555 0.721825 30.000000
1.196013 0.853525 0.717009 37.000000
1.212766 0.844137 0.722850 37.000000
1.240268 0.842339 0.735569 33.000000
1.257026 0.832207 0.741306 47.000000
1.273431 0.822101 0.747369 37.000000
1.290149 0.811349 0.753088 34.000000
1.302633 0.798282 0.756812 26.000000
1.315011 0.785020 0.760545 32.000000
1.331205 0.773811 0.766410 34.000000
1.347339 0.762260 0.772291 42.000000
1.359493 0.748261 0.775847 37.000000
1.371535 0.734116 0.779410 62.000000
1.387428 0.721725 0.785118 34.000000
1.398998 0.707345 0.788861 48.000000
1.422795 0.698397 0.798988 26.000000
1.438492 0.685172 0.804579 29.000000
1.457941 0.673682 0.812659 36.000000
1.473221 0.660025 0.818444 30.000000
1.496648 0.649614 0.828716 32.000000
1.511846 0.635251 0.834424 35.000000
1.535147 0.623936 0.844629 32.000000
1.554337 0.610542 0.852470 29.000000
1.560974 0.591946 0.853443 28.000000
1.584159 0.579407 0.863472 37.000000
1.594427 0.562149 0.866910 35.000000
1.638304 0.556172 0.888570 37.000000
1.652872 0.539284 0.893854 37.000000
1.671326 0.523702 0.901674 37.000000
1.689746 0.507699 0.909448 37.000000
1.707825 0.491455 0.917419 36.000000
1.730266 0.475842 0.927333 29.000000
1.752440 0.459946 0.937511 36.000000
1.761790 0.440104 0.940370 32.000000
1.779365 0.422335 0.948085 32.000000
1.801211 0.405171 0.957988 36.000000
1.822696 0.387598 0.968161 32.000000
1.852960 0.371229 0.982512 35.000000
1.869871 0.351783 0.990216 30.000000
1.908474 0.335872 1.009349 29.000000
1.933885 0.316851 1.021505 33.000000
1.963555 0.297979 1.035850 45.000000
1.979938 0.276576 1.043199 35.000000
2.022327 0.258231 1.064578 35.000000
2.038130 0.235894 1.072086 36.000000
2.071454 0.215005 1.088654 36.000000
2.082501 0.191289 1.093574 29.000000
2.137514 0.170895 1.121598 33.000000
2.148052 0.146313 1.126604 30.000000
2.167152 0.121947 1.136176 31.000000
2.221451 0.098660 1.164153 36.000000
2.226874 0.072607 1.166549 33.000000
2.280550 0.047385 1.194615 31.000000
2.303009 0.020709 1.206372 29.000000
2.347378 -0.006631 1.229571 35.000000
2.378218 -0.034742 1.245729 35.000000
2.417660 -0.063901 1.266357 35.000000
2.456579 -0.093917 1.287231 35.000000
2.490701 -0.124737 1.305614 34.000000
2.520190 -0.156033 1.321587 37.000000
2.584637 -0.190668 1.355919 31.000000
2.613215 -0.223843 1.371963 26.000000
2.663513 -0.259808 1.399404 35.000000
2.717734 -0.297504 1.429053 32.000000
2.753937 -0.334416 1.449230 32.000000
2.811816 -0.375000 1.480859 32.000000
2.868834 -0.417232 1.512754 32.000000
2.947250 -0.464166 1.555984 32.000000
2.981356 -0.505652 1.575959 31.000000
2.984463 -0.542411 1.579537 35.000000
3.043726 -0.590251 1.613003 35.000000
2.997903 -0.618237 1.591392 33.000000
2.965259 -0.647721 1.575989 32.000000
2.962278 -0.683788 1.577248 46.000000
2.941708 -0.715550 1.568987 35.000000
2.933486 -0.750516 1.568051 34.000000
2.908108 -0.780461 1.557302 30.000000
2.865105 -0.805296 1.537802 28.000000
2.843625 -0.835175 1.529084 31.000000
2.825864 -0.866257 1.523079 32.000000
2.807755 -0.896936 1.516879 33.000000
2.788997 -0.927615 1.511093 32.000000
2.770503 -0.957589 1.504711 31.000000
2.764233 -0.991672 1.504980 31.000000
2.740641 -1.019846 1.496636 31.000000
2.704288 -1.042816 1.481279 26.000000
2.688530 -1.073250 1.477219 30.000000
2.680746 -1.106887 1.477604 35.000000
2.664429 -1.136826 1.473351 32.000000
2.639692 -1.162973 1.464378 34.000000
2.626956 -1.194170 1.462108 34.000000
2.609983 -1.223177 1.457482 32.000000
2.580108 -1.246657 1.446596 31.000000
2.538217 -1.263586 1.428789 28.000000
2.548507 -1.305552 1.439648 33.000000
2.537887 -1.338055 1.439641 36.000000
2.507374 -1.359702 1.428335 32.000000
2.496191 -1.391767 1.428136 32.000000
2.477000 -1.419184 1.423370 33.000000
2.465282 -1.450854 1.422968 32.000000
2.434154 -1.470840 1.411348 29.000000
2.402934 -1.490268 1.399665 26.000000
2.378425 -1.514433 1.392830 29.000000
2.388397 -1.559722 1.405322 31.000000
2.363376 -1.583549 1.398387 28.000000
2.342649 -1.608869 1.392994 32.000000
2.309993 -1.626727 1.381504 31.000000
2.314491 -1.669665 1.391291 32.000000
2.303215 -1.702820 1.392757 27.000000
2.255670 -1.708788 1.372290 24.000000
2.243874 -1.741374 1.373573 28.000000
2.235194 -1.776643 1.376911 32.000000
2.198179 -1.789218 1.362789 28.000000
2.182063 -1.818498 1.361687 30.000000
2.162164 -1.844549 1.358226 31.000000
2.135177 -1.864471 1.350464 25.000000
2.152003 -1.923162 1.370511 20.000000
2.101121 -1.921358 1.347556 10.000000
2.090264 -1.955716 1.350302 19.000000
2.069111 -1.980540 1.346439 31.000000
2.043469 -2.002773 1.341033 28.000000
2.018765 -2.023868 1.334963 26.000000
2.003528 -2.054333 1.335138 29.000000
1.977218 -2.075679 1.329460 24.000000
1.961321 -2.105755 1.329508 24.000000
1.940773 -2.133203 1.327923 16.000000
1.927259 -2.166353 1.329816 25.000000
1.908984 -2.196875 1.330176 29.000000
1.891733 -2.226467 1.329826 24.000000
1.861133 -2.242676 1.321680 26.000000
1.850478 -2.283227 1.327872 28.000000
1.829394 -2.308650 1.325298 24.000000
1.812240 -2.341949 1.327194 20.000000
1.775285 -2.349561 1.314683 10.000000
1.756306 -2.377875 1.313824 16.000000
1.737968 -2.410622 1.315552 23.000000
1.729918 -2.458236 1.325108 18.000000
1.702750 -2.479489 1.320496 18.000000
1.680583 -2.508154 1.319890 19.000000
1.657352 -2.531698 1.316556 18.000000
1.639534 -2.567610 1.319672 16.000000
1.611367 -2.587873 1.314808 10.000000
1.606838 -2.647108 1.329673 16.000000
1.577836 -2.666957 1.324531 10.000000
1.525652 -2.646739 1.299914 10.000000
0.698276 1.238420 0.617294 33.000000
0.708565 1.225938 0.617943 28.000000
0.724339 1.220824 0.622308 25.000000
0.742485 1.219416 0.628704 32.000000
0.736389 1.178965 0.614902 19.000000
0.759097 1.184984 0.625296 30.000000
0.764548 1.163948 0.621486 35.000000
0.782397 1.161837 0.627810 28.000000
0.796882 1.156128 0.632299 34.000000
0.801733 1.134907 0.628327 31.000000
0.819544 1.132137 0.634602 30.000000
0.837425 1.129140 0.640858 36.000000
0.840828 1.108139 0.636971 21.000000
0.861471 1.108347 0.645290 35.000000
0.878579 1.105033 0.651792 40.000000
0.887958 1.090459 0.651730 31.000000
0.902971 1.082824 0.655826 58.000000
0.914265 1.071910 0.658056 35.000000
0.926176 1.060426 0.660002 37.000000
0.937328 1.049226 0.662185 37.000000
0.945335 1.034547 0.662137 20.000000
0.981571 1.049115 0.681117 57.000000
0.986439 1.030703 0.678906 35.000000
1.000492 1.021969 0.683135 34.000000
1.008764 1.006257 0.682764 67.000000
1.025969 1.000301 0.689074 35.000000
1.043164 0.994043 0.695361 63.000000
1.053809 0.981396 0.697314 59.000000
1.054377 0.959474 0.692615 26.000000
1.071446 0.952629 0.698835 40.000000
1.078325 0.936638 0.698488 34.000000
1.095312 0.929346 0.704639 33.000000
1.112280 0.921692 0.710762 42.000000
1.132759 0.916641 0.719120 35.000000
1.128712 0.891694 0.711886 37.000000
1.170378 0.902545 0.733507 32.000000
1.183824 0.890936 0.737346 24.000000
1.175144 0.863600 0.727998 36.000000
1.184645 0.849224 0.729491 35.000000
1.208244 0.845343 0.740204 35.000000
1.210231 0.825505 0.737119 43.000000
1.245004 0.828350 0.754537 34.000000
1.261333 0.818280 0.760636 46.000000
1.285514 0.812331 0.770965 33.000000
1.286613 0.792203 0.767995 23.000000
1.310430 0.785902 0.778575 36.000000
1.322754 0.772394 0.782314 35.000000
1.342708 0.763087 0.790514 36.000000
1.354861 0.749037 0.794172 43.000000
1.363039 0.732682 0.795447 35.000000
1.378563 0.720657 0.801567 35.000000
1.390428 0.706006 0.805036 35.000000
1.401855 0.691421 0.808779 25.000000
1.429503 0.684028 0.821357 33.000000
1.444852 0.670715 0.827328 32.000000
1.468207 0.660740 0.837820 29.000000
1.487433 0.648497 0.845973 35.000000
1.502581 0.634128 0.851775 30.000000
1.521736 0.621183 0.859794 30.000000
1.536713 0.606148 0.865511 31.000000
1.555727 0.592434 0.873447 17.000000
1.570290 0.577013 0.879304 33.000000
1.597489 0.565535 0.891812 36.000000
1.628569 0.555104 0.906851 35.000000
1.651312 0.541203 0.917196 41.000000
1.661346 0.522860 0.920492 35.000000
1.679629 0.506851 0.928409 32.000000
1.697632 0.490601 0.936523 35.000000
1.694488 0.467985 0.932570 21.000000
1.742106 0.459137 0.956997 32.000000
1.755463 0.440555 0.962564 33.000000
1.773034 0.422730 0.970363 30.000000
1.794788 0.405509 0.980462 32.000000
1.816372 0.387814 0.990509 36.000000
1.850883 0.372253 1.007501 31.000000
1.863403 0.351947 1.012996 32.000000
1.884446 0.332904 1.023081 19.000000
1.914056 0.314813 1.037830 29.000000
1.939202 0.295372 1.050098 32.000000
1.959648 0.274870 1.060223 31.000000
2.006374 0.257179 1.084116 30.000000
2.026473 0.235400 1.094058 32.000000
2.050856 0.213662 1.106230 32.000000
2.061629 0.190192 1.111603 28.000000
2.112008 0.169542 1.137766 24.000000
2.131200 0.145716 1.147671 29.000000
2.163386 0.122219 1.164536 31.000000
2.195460 0.097918 1.181257 31.000000
2.205253 0.072166 1.185991 27.000000
2.263024 0.047215 1.217079 29.000000
2.285355 0.020590 1.228998 30.000000
2.316259 -0.006581 1.245654 27.000000
2.360131 -0.034678 1.269172 33.000000
2.390456 -0.063467 1.285499 33.000000
2.433551 -0.093494 1.309173 29.000000
2.471956 -0.124258 1.330394 32.000000
2.531953 -0.157412 1.363183 31.000000
2.569730 -0.190311 1.384037 30.000000
2.580485 -0.221971 1.391045 21.000000
2.635152 -0.258059 1.420974 28.000000
2.702199 -0.296939 1.458333 33.000000
2.733803 -0.333214 1.476574 31.000000
2.795410 -0.374414 1.511719 29.000000
2.848007 -0.415797 1.541429 31.000000
2.899827 -0.458525 1.571506 27.000000
2.955389 -0.503235 1.603607 26.000000
3.023531 -0.551763 1.642740 21.000000
3.013140 -0.586655 1.639109 27.000000
2.984746 -0.617973 1.626596 35.000000
2.951930 -0.647727 1.611426 33.000000
2.936016 -0.680853 1.605680 31.000000
2.932696 -0.716710 1.606778 35.000000
2.903384 -0.745972 1.593582 33.000000
2.873879 -0.774520 1.580305 27.000000
2.843781 -0.802767 1.567458 23.000000
2.809778 -0.828851 1.551478 26.000000
2.813143 -0.866137 1.557177 30.000000
2.807698 -0.900922 1.557887 33.000000
2.776751 -0.927200 1.544492 29.000000
2.766549 -0.960130 1.542673 32.000000
2.747415 -0.990262 1.536603 33.000000
2.728347 -1.019591 1.529838 24.000000
2.679739 -1.037731 1.507230 19.000000
2.684597 -1.076310 1.514825 30.000000
2.656269 -1.101506 1.503565 29.000000
2.648064 -1.134941 1.503899 35.000000
2.615293 -1.157410 1.490165 30.000000
2.610667 -1.192195 1.492614 32.000000
2.581674 -1.215534 1.481031 32.000000
2.571932 -1.248575 1.481369 26.000000
2.514672 -1.257095 1.453555 20.000000
2.524272 -1.299529 1.465188 34.000000
2.506498 -1.327187 1.460071 30.000000
2.495606 -1.359396 1.460117 36.000000
2.472827 -1.384884 1.453020 33.000000
2.449754 -1.409991 1.445939 32.000000
2.449584 -1.448319 1.452415 42.000000
2.403223 -1.459072 1.431535 26.000000
2.387336 -1.487668 1.428647 19.000000
2.374243 -1.519149 1.428596 29.000000
2.372675 -1.557101 1.434629 30.000000
2.337269 -1.572878 1.420174 33.000000
2.315973 -1.598648 1.415327 30.000000
2.313361 -1.636369 1.421024 32.000000
2.280597 -1.653923 1.409175 35.000000
2.263005 -1.680839 1.405714 23.000000
2.233573 -1.700102 1.396055 21.000000
2.225322 -1.735345 1.399562 31.000000
2.209598 -1.764963 1.398606 32.000000
2.179736 -1.783115 1.388699 34.000000
2.156748 -1.806490 1.383139 31.000000
2.147072 -1.841281 1.386392 31.000000
2.126981 -1.867140 1.382835 32.000000
2.116632 -1.901724 1.385750 19.000000
2.072784 -1.905911 1.366796 10.000000
2.075003 -1.952336 1.378313 21.000000
2.050702 -1.974132 1.372278 29.000000
2.035812 -2.004951 1.372654 32.000000
2.009902 -2.026999 1.367012 30.000000
1.997593 -2.060770 1.369415 31.000000
1.969254 -2.078087 1.360948 32.000000
1.945843 -2.102466 1.357272 21.000000
1.920462 -2.122331 1.350882 21.000000
1.909950 -2.158778 1.355044 32.000000
1.900550 -2.199528 1.361664 31.000000
1.880257 -2.225618 1.359272 31.000000
1.843794 -2.234881 1.346721 28.000000
1.844451 -2.289496 1.361536 30.000000
1.806475 -2.293611 1.346222 30.000000
1.794716 -2.333991 1.352439 23.000000
1.759464 -2.340809 1.339177 12.000000
1.749672 -2.384537 1.347191 22.000000
1.728492 -2.413661 1.346760 23.000000
1.712270 -2.450090 1.350417 28.000000
1.674088 -2.451581 1.334959 23.000000
1.672269 -2.510319 1.350725 24.000000
1.652097 -2.542584 1.351992 24.000000
1.626681 -2.567012 1.349056 16.000000
1.603279 -2.595088 1.348127 16.000000
1.581763 -2.626900 1.349181 20.000000
1.561998 -2.662431 1.352093 14.000000
1.514352 -2.645347 1.328458 15.000000
0.704520 1.227304 0.632289 25.000000
0.718001 1.218222 0.634701 37.000000
0.733699 1.212851 0.639169 24.000000
0.750883 1.211624 0.645906 16.000000
0.749559 1.178982 0.635867 31.000000
0.764924 1.173188 0.640241 27.000000
0.775276 1.159682 0.640458 32.000000
0.787221 1.150219 0.642941 25.000000
0.802522 1.143909 0.647291 26.000000
0.817764 1.137344 0.651561 36.000000
0.829551 1.127395 0.654013 22.000000
0.852946 1.131291 0.664628 19.000000
0.854399 1.106178 0.658256 32.000000
0.868706 1.099304 0.662752 28.000000
0.880910 1.088283 0.664786 42.000000
0.889431 1.074116 0.664904 34.000000
0.907194 1.069727 0.671249 37.000000
0.921442 1.062074 0.675597 38.000000
0.936239 1.053825 0.679720 31.000000
0.950394 1.045740 0.684096 26.000000
0.967634 1.040732 0.690575 32.000000
0.982354 1.031740 0.694647 35.000000
0.999601 1.026226 0.701122 72.000000
1.004217 1.007651 0.698758 36.000000
1.021407 1.001645 0.705211 66.000000
1.032116 0.989184 0.707207 41.000000
1.042776 0.976529 0.709154 32.000000
1.049988 0.960754 0.708823 26.000000
1.060372 0.947896 0.710716 29.000000
1.077392 0.940771 0.716992 35.000000
1.087598 0.927588 0.718799 45.000000
1.097656 0.914209 0.720557 36.000000
1.111127 0.903547 0.724474 35.000000
1.138433 0.903792 0.737450 35.000000
1.158448 0.898354 0.746194 31.000000
1.178991 0.892159 0.754619 24.000000
1.185238 0.875027 0.753962 31.000000
1.198090 0.863384 0.758013 34.000000
1.189427 0.835912 0.748094 57.000000
1.220295 0.836667 0.763548 32.000000
1.229187 0.821931 0.765225 34.000000
1.256979 0.818903 0.778056 42.000000
1.262002 0.801362 0.777348 31.000000
1.274359 0.788474 0.781202 24.000000
1.298051 0.782202 0.791960 29.000000
1.321786 0.775459 0.802701 36.000000
1.337922 0.763799 0.808722 53.000000
1.346206 0.747603 0.810103 36.000000
1.357903 0.733669 0.814028 36.000000
1.369911 0.719215 0.817642 42.000000
1.381377 0.704828 0.821478 29.000000
1.408986 0.697811 0.834321 25.000000
1.428309 0.686710 0.842776 31.000000
1.435649 0.669564 0.844090 30.000000
1.450863 0.655943 0.850060 32.000000
1.478107 0.647325 0.863062 32.000000
1.493203 0.633005 0.868957 33.000000
1.512282 0.619994 0.877117 35.000000
1.514981 0.600143 0.875825 26.000000
1.545917 0.591516 0.891290 26.000000
1.556529 0.574393 0.894581 34.000000
1.575061 0.560236 0.902860 31.000000
1.618479 0.554213 0.925311 35.000000
1.636942 0.538928 0.933524 36.000000
1.646935 0.520634 0.936805 35.000000
1.669331 0.505942 0.947249 37.000000
1.678820 0.487297 0.950728 28.000000
1.701090 0.471830 0.961019 22.000000
1.727278 0.457142 0.973903 29.000000
1.740634 0.438669 0.979563 29.000000
1.762384 0.421974 0.989962 34.000000
1.779756 0.403774 0.997852 33.000000
1.809804 0.388027 1.012823 28.000000
1.831054 0.369929 1.023268 32.000000
1.860732 0.352991 1.038472 24.000000
1.868740 0.331608 1.041536 23.000000
1.911156 0.315705 1.063724 35.000000
1.931923 0.295559 1.073827 32.000000
1.939187 0.273168 1.076917 32.000000
1.989983 0.256129 1.103698 34.000000
2.001340 0.233453 1.109009 28.000000
2.029933 0.212322 1.123901 32.000000
2.053726 0.190237 1.136535 28.000000
2.090728 0.168545 1.155985 24.000000
2.118545 0.145494 1.170909 30.000000
2.141806 0.121498 1.183205 30.000000
2.160496 0.096786 1.193090 26.000000
2.196556 0.072156 1.212411 31.000000
2.249613 0.047137 1.241706 31.000000
2.271813 0.020590 1.253865 30.000000
2.320044 -0.006631 1.280521 35.000000
2.346145 -0.034596 1.294853 32.000000
2.380664 -0.063501 1.313931 33.000000
2.427871 -0.093663 1.340499 35.000000
2.457292 -0.124087 1.357235 31.000000
2.503815 -0.156330 1.383538 34.000000
2.554466 -0.190043 1.412066 26.000000
2.569505 -0.221989 1.421631 22.000000
2.619471 -0.257600 1.449769 32.000000
2.681747 -0.295988 1.485483 31.000000
2.726191 -0.333706 1.511436 32.000000
2.774272 -0.373244 1.539973 32.000000
2.813528 -0.412557 1.563181 26.000000
2.895332 -0.459876 1.610639 31.000000
2.937646 -0.502509 1.636291 29.000000
3.009550 -0.551703 1.678647 24.000000
3.016388 -0.589907 1.684578 34.000000
2.954045 -0.614136 1.652078 30.000000
2.947117 -0.649409 1.651133 34.000000
2.918403 -0.679603 1.637987 34.000000
2.898010 -0.711273 1.629547 32.000000
2.885874 -0.744625 1.625804 34.000000
2.869213 -0.776624 1.619362 33.000000
2.809629 -0.796648 1.589644 19.000000
2.809428 -0.832427 1.592593 31.000000
2.787471 -0.862118 1.584011 32.000000
2.773662 -0.894103 1.580007 29.000000
2.772085 -0.929981 1.583048 34.000000
2.741071 -0.955719 1.569333 30.000000
2.738871 -0.991343 1.572169 32.000000
2.719318 -1.021179 1.565909 31.000000
2.650891 -1.031061 1.530524 19.000000
2.659687 -1.071126 1.540582 32.000000
2.647767 -1.103013 1.538695 33.000000
2.623403 -1.129471 1.529528 32.000000
2.610846 -1.160815 1.527451 35.000000
2.598190 -1.191962 1.525177 33.000000
2.577060 -1.219234 1.518104 32.000000
2.547977 -1.242151 1.506255 31.000000
2.525976 -1.269043 1.499512 23.000000
2.520156 -1.303083 1.501455 34.000000
2.497754 -1.329297 1.494629 36.000000
2.483594 -1.358887 1.491699 32.000000
2.468457 -1.388770 1.489160 36.000000
2.456860 -1.420673 1.488944 34.000000
2.410743 -1.432112 1.467753 32.000000
2.410134 -1.470321 1.474209 31.000000
2.356512 -1.475654 1.448292 22.000000
2.359006 -1.515870 1.456852 32.000000
2.345546 -1.547149 1.456742 30.000000
2.325061 -1.572671 1.451258 29.000000
2.304436 -1.597912 1.445689 35.000000
2.286431 -1.625930 1.442993 29.000000
2.265408 -1.650558 1.437245 30.000000
2.261218 -1.688803 1.443468 30.000000
2.214058 -1.694716 1.422197 20.000000
2.224166 -1.742881 1.436696 32.000000
2.183952 -1.753218 1.419842 33.000000
2.168042 -1.782595 1.418840 30.000000
2.151782 -1.811769 1.417634 33.000000
2.128499 -1.834903 1.411929 31.000000
2.131807 -1.881429 1.424051 32.000000
2.111233 -1.907243 1.420364 29.000000
2.070648 -1.914532 1.403215 9.000000
2.069309 -1.958095 1.412794 21.000000
2.038492 -1.973682 1.402170 29.000000
2.023520 -2.004626 1.402628 29.000000
2.004968 -2.032238 1.400760 33.000000
1.967542 -2.040236 1.385608 26.000000
1.953679 -2.074508 1.388520 28.000000
1.931525 -2.098113 1.384263 26.000000
1.900048 -2.111293 1.373380 16.000000
1.906001 -2.168715 1.391233 31.000000
1.880078 -2.188281 1.384473 28.000000
1.855469 -2.211719 1.380469 27.000000
1.832129 -2.233886 1.375781 29.000000
1.821247 -2.274467 1.382298 28.000000
1.802904 -2.303437 1.381746 28.000000
1.785378 -2.336632 1.383690 26.000000
1.764706 -2.366206 1.383570 12.000000
1.737364 -2.383735 1.376382 26.000000
1.713470 -2.409184 1.373820 21.000000
1.689394 -2.434302 1.371244 21.000000
1.676828 -2.473323 1.376523 24.000000
1.657039 -2.505780 1.377957 21.000000
1.634333 -2.534101 1.377068 24.000000
1.611156 -2.562344 1.376250 21.000000
1.594306 -2.597255 1.378914 13.000000
1.572642 -2.628999 1.379971 25.000000
1.543623 -2.648891 1.374741 14.000000
0.699342 1.228985 0.646809 28.000000
0.708329 1.212029 0.645102 22.000000
0.731062 1.218358 0.655936 19.000000
0.734969 1.193452 0.649958 17.000000
0.742344 1.176733 0.648374 16.000000
0.755274 1.167130 0.650717 25.000000
0.765654 1.153663 0.650885 23.000000
0.780897 1.147549 0.655307 21.000000
0.803078 1.152773 0.666361 29.000000
0.802727 1.124107 0.657889 25.000000
0.830369 1.136056 0.673264 27.000000
0.840283 1.121832 0.673289 20.000000
0.844537 1.100342 0.668956 20.000000
0.861563 1.097081 0.675665 33.000000
0.873767 1.086060 0.677747 26.000000
0.890878 1.082260 0.684452 24.000000
0.902256 1.071310 0.686737 33.000000
0.908392 1.053043 0.684322 25.000000
0.928407 1.051962 0.693189 32.000000
0.936581 1.037223 0.693164 18.000000
0.951236 1.028607 0.697296 27.000000
0.968369 1.023404 0.703867 32.000000
0.982389 1.014695 0.708223 30.000000
0.999524 1.008986 0.714792 34.000000
1.010345 0.996661 0.716829 34.000000
1.017857 0.981096 0.716607 31.000000
1.034891 0.974679 0.723075 33.000000
1.042176 0.958910 0.722749 11.000000
1.059180 0.952002 0.729199 19.000000
1.062847 0.933048 0.726486 30.000000
1.072988 0.919947 0.728281 27.000000
1.089844 0.912402 0.734619 30.000000
1.106678 0.904544 0.740930 32.000000
1.136959 0.907836 0.756738 29.000000
1.153912 0.899222 0.763065 35.000000
1.139145 0.866199 0.748456 10.000000
1.166038 0.865594 0.761893 28.000000
1.189984 0.861561 0.772755 34.000000
1.184656 0.836967 0.765197 31.000000
1.208120 0.832634 0.776251 29.000000
1.228033 0.825385 0.785003 33.000000
1.233592 0.807734 0.783985 24.000000
1.257133 0.802245 0.794972 27.000000
1.250818 0.777614 0.787093 10.000000
1.278078 0.773840 0.800376 25.000000
1.313022 0.773928 0.818382 30.000000
1.317281 0.756003 0.817754 26.000000
1.340915 0.748527 0.828619 32.000000
1.341385 0.727982 0.825142 32.000000
1.360672 0.717987 0.833878 30.000000
1.372540 0.703382 0.837438 30.000000
1.376053 0.684875 0.836494 10.000000
1.411037 0.681632 0.854641 25.000000
1.422309 0.666497 0.858346 25.000000
1.441444 0.654731 0.866805 24.000000
1.468557 0.646152 0.880040 26.000000
1.483657 0.631770 0.886028 23.000000
1.494558 0.615469 0.889562 24.000000
1.509452 0.600633 0.895402 23.000000
1.523907 0.585658 0.901481 18.000000
1.538315 0.570431 0.907574 23.000000
1.569381 0.560547 0.922909 27.000000
1.604313 0.551605 0.940931 26.000000
1.618533 0.535048 0.946793 24.000000
1.636500 0.519734 0.955395 25.000000
1.658851 0.505094 0.965967 26.000000
1.668617 0.486265 0.969129 24.000000
1.694683 0.472143 0.982411 15.000000
1.703882 0.452971 0.985773 17.000000
1.729900 0.437858 0.998847 25.000000
1.751545 0.421155 1.009372 21.000000
1.760271 0.401075 1.012511 20.000000
1.798535 0.387383 1.033042 22.000000
1.807057 0.366614 1.035942 17.000000
1.849394 0.352332 1.058774 16.000000
1.853086 0.330183 1.059433 16.000000
1.878134 0.311533 1.072229 15.000000
1.885574 0.289723 1.075485 17.000000
1.949085 0.275672 1.110206 19.000000
1.960480 0.253477 1.115742 16.000000
1.993381 0.233539 1.133437 19.000000
2.008831 0.211057 1.141167 15.000000
2.028433 0.188597 1.151219 10.000000
2.064923 0.167198 1.171406 15.000000
2.083887 0.143701 1.181689 13.000000
2.115763 0.120531 1.199220 13.000000
2.138687 0.096169 1.211682 17.000000
2.178802 0.071860 1.233847 13.000000
2.227187 0.046875 1.261250 17.000000
2.266655 0.020590 1.283579 23.000000
2.292839 -0.006594 1.298362 23.000000
2.327482 -0.034531 1.317908 23.000000
2.379270 -0.063684 1.347218 25.000000
2.408787 -0.093325 1.364458 24.000000
2.433594 -0.123474 1.379150 24.000000
2.484258 -0.155795 1.408354 21.000000
2.521485 -0.188389 1.430071 18.000000
2.571482 -0.223045 1.459064 23.000000
2.620749 -0.258853 1.488313 21.000000
2.669625 -0.295997 1.517363 26.000000
2.700806 -0.332165 1.536369 24.000000
2.753186 -0.371978 1.567547 20.000000
2.804815 -0.413133 1.598991 25.000000
2.856266 -0.455527 1.629807 21.000000
2.915506 -0.500733 1.665796 16.000000
2.982660 -0.549060 1.706547 24.000000
2.976606 -0.584637 1.705272 24.000000
2.952742 -0.616756 1.694733 26.000000
2.907669 -0.643543 1.671232 27.000000
2.917360 -0.682325 1.679972 26.000000
2.884295 -0.710968 1.664052 30.000000
2.851055 -0.738899 1.647949 25.000000
2.842918 -0.772991 1.646404 18.000000
2.813477 -0.800900 1.632573 25.000000
2.779163 -0.827264 1.616737 23.000000
2.778184 -0.863292 1.620184 26.000000
2.756464 -0.892282 1.610761 23.000000
2.742407 -0.923867 1.606615 25.000000
2.732204 -0.956696 1.604796 27.000000
2.717083 -0.988232 1.601061 26.000000
2.661354 -1.003723 1.572334 14.000000
2.670832 -1.043427 1.582130 24.000000
2.634681 -1.065756 1.565954 26.000000
2.622797 -1.097544 1.564072 28.000000
2.602473 -1.125655 1.557278 26.000000
2.602043 -1.162315 1.562317 28.000000
2.573216 -1.186213 1.550436 27.000000
2.552279 -1.213298 1.543277 25.000000
2.523242 -1.236230 1.531250 12.000000
2.513785 -1.268385 1.531002 25.000000
2.499407 -1.298901 1.528850 28.000000
2.489298 -1.330806 1.528394 30.000000
2.462845 -1.354618 1.518912 30.000000
2.455393 -1.388788 1.521221 27.000000
2.417779 -1.404662 1.503881 29.000000
2.409745 -1.438440 1.505896 28.000000
2.375111 -1.455984 1.491376 12.000000
2.370301 -1.491673 1.495548 24.000000
2.335487 -1.508285 1.480792 24.000000
2.336679 -1.549227 1.490122 31.000000
2.319820 -1.577326 1.486925 28.000000
2.288261 -1.595024 1.474285 23.000000
2.271026 -1.622560 1.470915 27.000000
2.252829 -1.650386 1.468026 24.000000
2.238655 -1.680004 1.466785 11.000000
2.226875 -1.712794 1.468331 25.000000
2.197273 -1.731842 1.458205 24.000000
2.165167 -1.746886 1.445230 26.000000
2.138901 -1.767731 1.437283 24.000000
2.132914 -1.805342 1.443026 26.000000
2.112951 -1.831352 1.439571 25.000000
2.099546 -1.863075 1.440489 23.000000
2.082333 -1.891680 1.439108 12.000000
2.058337 -1.914009 1.433076 10.000000
2.047227 -1.948261 1.435923 10.000000
2.022749 -1.970108 1.429698 26.000000
2.007726 -2.001041 1.430242 23.000000
1.982991 -2.022171 1.423830 24.000000
1.951848 -2.036577 1.412952 26.000000
1.942226 -2.073323 1.417646 21.000000
1.939832 -2.120865 1.429355 13.000000
1.902174 -2.127675 1.413849 21.000000
1.885331 -2.157464 1.413706 17.000000
1.855227 -2.174330 1.405296 25.000000
1.829218 -2.193334 1.398431 21.000000
1.840100 -2.257262 1.420071 24.000000
1.809088 -2.273262 1.411351 26.000000
1.790662 -2.302251 1.410776 20.000000
1.781196 -2.346321 1.419348 13.000000
1.738850 -2.347042 1.401877 15.000000
1.722265 -2.379066 1.403202 15.000000
1.708767 -2.419160 1.409275 22.000000
1.680976 -2.436161 1.401829 16.000000
1.658941 -2.464853 1.401298 18.000000
1.636539 -2.493372 1.400636 18.000000
1.613870 -2.521717 1.399844 12.000000
1.604664 -2.568094 1.409063 13.000000
1.573764 -2.584605 1.401763 13.000000
1.565911 -2.639800 1.415416 20.000000
1.536617 -2.659811 1.410156 16.000000
0.714537 1.233160 0.670269 15.000000
0.744370 1.250983 0.687719 14.000000
0.729921 1.194949 0.664549 11.000000
0.750358 1.196914 0.673416 22.000000
0.757806 1.179964 0.671771 18.000000
0.770809 1.170141 0.674143 19.000000
0.787945 1.168067 0.681105 25.000000
0.795818 1.150400 0.679079 20.000000
0.813783 1.147434 0.685738 22.000000
0.830999 1.144624 0.692667 19.000000
0.835701 1.123107 0.688308 13.000000
0.842027 1.105595 0.686308 30.000000
0.851570 1.091232 0.686263 29.000000
0.874247 1.094659 0.697535 26.000000
0.886473 1.083388 0.699636 31.000000
0.895019 1.069025 0.699734 26.000000
0.917970 1.071495 0.711019 29.000000
0.927033 1.056329 0.710788 24.000000
0.938280 1.044889 0.713047 13.000000
0.952397 1.036537 0.717480 48.000000
0.957389 1.018238 0.715143 33.000000
0.983684 1.022381 0.728673 35.000000
0.994636 1.010212 0.730814 35.000000
1.008691 1.000976 0.735156 32.000000
1.019482 0.988477 0.737207 35.000000
1.033395 0.978831 0.741519 36.000000
1.047227 0.969007 0.745794 19.000000
1.031510 0.932283 0.729182 29.000000
1.044985 0.922371 0.733330 32.000000
1.068428 0.920941 0.744444 32.000000
1.088647 0.916189 0.753263 42.000000
1.111870 0.914239 0.764659 33.000000
1.125360 0.903122 0.768751 37.000000
1.134840 0.889500 0.770747 36.000000
1.151671 0.880683 0.777068 20.000000
1.150422 0.858774 0.771872 47.000000
1.177763 0.857400 0.785226 32.000000
1.197662 0.850697 0.794178 47.000000
1.206734 0.836070 0.795961 37.000000
1.219292 0.823801 0.800031 37.000000
1.228596 0.808568 0.801411 47.000000
1.248366 0.800646 0.810187 36.000000
1.268187 0.792350 0.818939 25.000000
1.287638 0.783994 0.828033 52.000000
1.315034 0.779360 0.841560 42.000000
1.327347 0.765411 0.845413 50.000000
1.339548 0.751263 0.849168 39.000000
1.347421 0.735088 0.850828 36.000000
1.363286 0.722633 0.856969 50.000000
1.367051 0.704097 0.856045 37.000000
1.378475 0.689507 0.859931 29.000000
1.429040 0.693775 0.888172 36.000000
1.436483 0.676390 0.889505 35.000000
1.451691 0.662571 0.895677 40.000000
1.454909 0.643161 0.894455 37.000000
1.477948 0.632248 0.905440 46.000000
1.480793 0.612622 0.904053 37.000000
1.495334 0.597998 0.910321 44.000000
1.534414 0.592298 0.930984 27.000000
1.536625 0.572265 0.929729 52.000000
1.554999 0.558090 0.938287 50.000000
1.593834 0.550657 0.959166 46.000000
1.603877 0.532726 0.962587 62.000000
1.626186 0.518595 0.973445 51.000000
1.648190 0.504125 0.984564 49.000000
1.666199 0.487793 0.992737 36.000000
1.671326 0.467773 0.993774 25.000000
1.693094 0.452108 1.004637 37.000000
1.744132 0.443394 1.032877 47.000000
1.753096 0.423389 1.036128 35.000000
1.774310 0.406247 1.047180 52.000000
1.787202 0.386610 1.052746 35.000000
1.816727 0.370294 1.068563 49.000000
1.846102 0.353367 1.084271 35.000000
1.858402 0.332642 1.089934 22.000000
1.883280 0.313779 1.102971 42.000000
1.899479 0.293082 1.110948 61.000000
1.923884 0.273294 1.124144 42.000000
1.969604 0.255778 1.149741 40.000000
1.985156 0.233622 1.157749 41.000000
2.004833 0.211540 1.168129 49.000000
2.032950 0.189849 1.183457 35.000000
2.064927 0.167887 1.201520 28.000000
2.088107 0.144603 1.214431 34.000000
2.102536 0.120234 1.222256 34.000000
2.142602 0.096724 1.244995 37.000000
2.160873 0.071564 1.255035 36.000000
2.208958 0.046627 1.282958 32.000000
2.252505 0.020511 1.308224 41.000000
2.269878 -0.006569 1.318268 34.000000
2.317274 -0.034514 1.345725 35.000000
2.334155 -0.062787 1.355521 31.000000
2.359174 -0.091811 1.370582 31.000000
2.422702 -0.123438 1.408150 34.000000
2.447143 -0.154174 1.422951 31.000000
2.479828 -0.186092 1.442589 29.000000
2.512284 -0.218838 1.462037 17.000000
2.574185 -0.255493 1.499380 29.000000
2.631368 -0.293038 1.534015 30.000000
2.662359 -0.328940 1.553500 32.000000
2.705840 -0.367223 1.580292 29.000000
2.774586 -0.410438 1.621879 30.000000
2.812484 -0.450708 1.646305 28.000000
2.879894 -0.496960 1.688015 29.000000
2.942359 -0.544167 1.727078 21.000000
2.961846 -0.584520 1.740905 31.000000
2.951118 -0.619153 1.737026 35.000000
2.922853 -0.650027 1.723704 34.000000
2.898910 -0.681067 1.712049 34.000000
2.878632 -0.712744 1.703320 36.000000
2.853912 -0.743024 1.692010 34.000000
2.820606 -0.770406 1.675538 30.000000
2.782865 -0.795889 1.656508 20.000000
2.777965 -0.830821 1.657667 32.000000
2.773141 -0.865343 1.658209 32.000000
2.755182 -0.896037 1.651725 34.000000
2.745106 -0.929318 1.649994 32.000000
2.722526 -0.957965 1.640749 33.000000
2.695651 -0.984723 1.628952 32.000000
2.676739 -1.014069 1.621907 26.000000
2.644941 -1.038547 1.607988 17.000000
2.633682 -1.070332 1.605697 35.000000
2.613596 -1.098841 1.598891 32.000000
2.605274 -1.132166 1.599258 34.000000
2.584785 -1.160133 1.592270 36.000000
2.563978 -1.187710 1.585096 33.000000
2.539117 -1.213017 1.575396 33.000000
2.510166 -1.235912 1.563181 26.000000
2.481088 -1.258234 1.550802 15.000000
2.494596 -1.302229 1.565092 33.000000
2.460602 -1.322345 1.550698 35.000000
2.457852 -1.358137 1.555040 33.000000
2.435058 -1.383789 1.547754 33.000000
2.396945 -1.400225 1.530632 33.000000
2.392638 -1.436108 1.535250 34.000000
2.373743 -1.462385 1.529443 28.000000
2.335391 -1.477139 1.512131 13.000000
2.352276 -1.526907 1.530710 35.000000
2.327418 -1.551191 1.523392 32.000000
2.288838 -1.564502 1.505865 31.000000
2.271796 -1.592135 1.502592 30.000000
2.258231 -1.622142 1.501501 29.000000
2.253988 -1.660455 1.508093 34.000000
2.222068 -1.677014 1.495040 27.000000
2.168401 -1.677433 1.468347 10.000000
2.181675 -1.728183 1.485839 34.000000
2.158896 -1.752264 1.480215 28.000000
2.147137 -1.783768 1.480864 32.000000
2.124002 -1.807327 1.475151 29.000000
2.117409 -1.845042 1.480820 30.000000
2.100267 -1.874053 1.479562 31.000000
2.063247 -1.884931 1.464175 25.000000
2.045880 -1.913281 1.462638 9.000000
2.037673 -1.950622 1.468013 16.000000
2.016420 -1.975660 1.463937 26.000000
1.988699 -1.994020 1.455271 29.000000
1.970132 -2.021582 1.453400 29.000000
1.948234 -2.045708 1.449136 26.000000
1.935242 -2.079321 1.451602 29.000000
1.906952 -2.096385 1.442684 24.000000
1.899252 -2.136243 1.449527 11.000000
1.877921 -2.163674 1.447674 27.000000
1.849023 -2.179785 1.438574 24.000000
1.848702 -2.229873 1.451711 29.000000
1.820675 -2.249830 1.445226 27.000000
1.794006 -2.268531 1.438064 26.000000
1.782164 -2.309035 1.444724 29.000000
1.755127 -2.327110 1.437447 23.000000
1.715742 -2.331354 1.421862 10.000000
1.720078 -2.392434 1.440806 23.000000
1.698515 -2.421616 1.440379 23.000000
1.679026 -2.454443 1.442105 23.000000
1.648505 -2.467429 1.432311 22.000000
1.621054 -2.488344 1.427284 18.000000
1.604894 -2.523378 1.430282 21.000000
1.576871 -2.543914 1.425223 16.000000
1.569565 -2.598955 1.439238 11.000000
1.545235 -2.626950 1.438174 19.000000
0.711383 1.238523 0.687101 27.000000
0.722881 1.225214 0.687489 18.000000
0.734196 1.211771 0.687813 15.000000
0.738112 1.186845 0.681546 25.000000
0.752769 1.181331 0.686451 25.000000
0.765908 1.171476 0.688879 29.000000
0.775554 1.158135 0.689329 25.000000
0.796020 1.159054 0.698326 29.000000
0.805520 1.145428 0.698729 30.000000
0.820934 1.138547 0.703261 21.000000
0.827512 1.121107 0.701305 27.000000
0.834695 1.103183 0.698985 30.000000
0.849014 1.096302 0.703708 29.000000
0.869614 1.095713 0.712652 34.000000
0.878402 1.081430 0.712818 31.000000
0.898345 1.080705 0.722013 36.000000
0.899019 1.055552 0.714921 32.000000
0.927710 1.064399 0.730998 32.000000
0.936112 1.049492 0.730973 26.000000
0.941357 1.031239 0.728620 32.000000
0.958410 1.025984 0.735471 36.000000
0.975555 1.020385 0.742302 60.000000
0.986556 1.008168 0.744444 42.000000
1.000537 0.998975 0.748877 57.000000
1.011377 0.986475 0.750928 44.000000
1.022070 0.973828 0.752978 36.000000
1.026212 0.955029 0.750213 27.000000
1.033336 0.939207 0.749789 29.000000
1.046883 0.929214 0.754047 51.000000
1.057072 0.916065 0.755842 64.000000
1.093465 0.925928 0.776996 34.000000
1.093506 0.903854 0.771620 43.000000
1.103018 0.890497 0.773641 38.000000
1.133548 0.892933 0.789718 33.000000
1.142936 0.879077 0.791676 26.000000
1.152775 0.864719 0.793283 33.000000
1.154898 0.845442 0.790307 42.000000
1.163930 0.831271 0.792103 35.000000
1.197917 0.834439 0.810843 35.000000
1.210500 0.822165 0.815009 68.000000
1.230263 0.814519 0.823958 42.000000
1.239082 0.799356 0.825608 32.000000
1.251438 0.786410 0.829602 32.000000
1.271176 0.777818 0.838510 33.000000
1.294649 0.771024 0.849795 57.000000
1.318161 0.763756 0.861061 65.000000
1.330014 0.749924 0.865235 36.000000
1.345888 0.737661 0.871458 54.000000
1.353698 0.721286 0.873074 42.000000
1.365257 0.706801 0.877060 35.000000
1.388332 0.697962 0.888445 28.000000
1.407512 0.686735 0.897322 32.000000
1.430571 0.676968 0.908657 34.000000
1.441862 0.661286 0.912431 34.000000
1.456985 0.647156 0.918652 32.000000
1.460026 0.627589 0.917332 35.000000
1.482619 0.616597 0.928745 41.000000
1.493427 0.599982 0.932271 32.000000
1.503816 0.583439 0.936086 31.000000
1.514068 0.566741 0.939794 34.000000
1.556697 0.561503 0.963519 35.000000
1.583177 0.549651 0.977223 61.000000
1.593193 0.531777 0.980751 42.000000
1.607171 0.515001 0.986688 46.000000
1.641410 0.504423 1.005567 42.000000
1.642859 0.483226 1.003767 31.000000
1.656249 0.465691 1.009859 29.000000
1.673671 0.448950 1.018372 33.000000
1.728622 0.441442 1.049656 47.000000
1.737293 0.421674 1.053268 34.000000
1.767100 0.406379 1.069202 45.000000
1.775483 0.385966 1.072708 32.000000
1.805037 0.369510 1.088417 36.000000
1.813182 0.348510 1.091680 28.000000
1.842258 0.331149 1.107612 32.000000
1.862548 0.311820 1.118668 36.000000
1.887217 0.292540 1.131883 35.000000
1.907227 0.272207 1.142764 33.000000
1.935541 0.252507 1.158623 37.000000
1.963788 0.232190 1.174426 35.000000
1.996166 0.211638 1.192654 36.000000
2.011284 0.188686 1.200531 29.000000
2.051698 0.167594 1.224105 28.000000
2.070453 0.144010 1.234695 34.000000
2.097590 0.120504 1.250332 35.000000
2.120320 0.096183 1.263192 34.000000
2.151358 0.071554 1.281091 35.000000
2.203436 0.046732 1.312089 35.000000
2.225228 0.020313 1.325035 32.000000
2.251083 -0.006556 1.340383 31.000000
2.293879 -0.034385 1.365882 30.000000
2.323536 -0.062821 1.383456 30.000000
2.356890 -0.092232 1.403998 30.000000
2.402917 -0.123047 1.431958 28.000000
2.435685 -0.154186 1.452155 29.000000
2.489658 -0.187768 1.484947 23.000000
2.508938 -0.219607 1.497190 23.000000
2.566132 -0.255890 1.532684 32.000000
2.618644 -0.293049 1.565425 31.000000
2.640875 -0.327843 1.580180 27.000000
2.705358 -0.368970 1.620250 32.000000
2.735321 -0.406584 1.639681 25.000000
2.789964 -0.449221 1.674780 26.000000
2.857219 -0.495195 1.716779 25.000000
2.915129 -0.541540 1.754040 25.000000
2.959697 -0.586698 1.783413 32.000000
2.906515 -0.612762 1.754690 32.000000
2.895575 -0.646884 1.750676 31.000000
2.879727 -0.679914 1.744546 33.000000
2.859950 -0.711387 1.735049 33.000000
2.827000 -0.739390 1.718484 28.000000
2.814566 -0.772389 1.714400 29.000000
2.760502 -0.793273 1.684918 23.000000
2.759618 -0.829292 1.688755 29.000000
2.763001 -0.866292 1.694394 34.000000
2.728554 -0.891828 1.677721 29.000000
2.722698 -0.926197 1.678516 33.000000
2.704187 -0.956344 1.671753 31.000000
2.677423 -0.983112 1.659668 29.000000
2.662607 -1.013900 1.655142 29.000000
2.623381 -1.034867 1.635372 24.000000
2.615547 -1.068538 1.636087 31.000000
2.608077 -1.101709 1.636098 34.000000
2.579826 -1.126511 1.624107 32.000000
2.563281 -1.156170 1.619529 35.000000
2.550407 -1.187265 1.617251 32.000000
2.529516 -1.214507 1.609898 30.000000
2.508311 -1.241361 1.602363 28.000000
2.479258 -1.263886 1.589883 26.000000
2.480951 -1.301889 1.596950 33.000000
2.451481 -1.323647 1.584210 36.000000
2.440415 -1.355786 1.584330 34.000000
2.410705 -1.376544 1.571441 35.000000
2.387814 -1.401731 1.563895 35.000000
2.364730 -1.426442 1.556268 32.000000
2.371094 -1.469141 1.568262 32.000000
2.343747 -1.491122 1.557994 28.000000
2.330974 -1.522181 1.557325 32.000000
2.292562 -1.536025 1.539593 33.000000
2.293690 -1.576365 1.548566 36.000000
2.276583 -1.604261 1.545164 36.000000
2.230812 -1.611467 1.522400 34.000000
2.223996 -1.646348 1.526092 29.000000
2.222735 -1.687171 1.535153 31.000000
2.176968 -1.692568 1.512130 26.000000
2.168257 -1.727836 1.516160 32.000000
2.149837 -1.754066 1.512206 34.000000
2.130261 -1.780682 1.508831 32.000000
2.118138 -1.812050 1.509445 35.000000
2.098016 -1.838364 1.505866 34.000000
2.077700 -1.864290 1.502190 30.000000
2.063584 -1.895986 1.503144 31.000000
2.033084 -1.912445 1.492190 14.000000
2.027920 -1.952862 1.499985 21.000000
2.003455 -1.974782 1.493552 31.000000
1.966321 -1.983872 1.477682 32.000000
1.957027 -2.020787 1.482764 36.000000
1.929010 -2.038520 1.473845 30.000000
1.918984 -2.075330 1.478763 30.000000
1.899566 -2.102179 1.476595 28.000000
1.865196 -2.112371 1.462798 22.000000
1.862834 -2.158776 1.474221 31.000000
1.826793 -2.168982 1.460948 33.000000
1.826239 -2.218949 1.474437 32.000000
1.808163 -2.248363 1.474058 35.000000
1.782751 -2.271401 1.469608 30.000000
1.753198 -2.286274 1.460045 30.000000
1.754211 -2.344487 1.478042 33.000000
1.718942 -2.351681 1.463757 16.000000
1.684591 -2.362746 1.452367 26.000000
1.677737 -2.409250 1.462627 27.000000
1.655743 -2.438182 1.462166 26.000000
1.640252 -2.473510 1.465398 29.000000
1.617446 -2.502158 1.464759 26.000000
1.598699 -2.533411 1.465678 25.000000
1.570304 -2.554072 1.460386 25.000000
1.546327 -2.582146 1.459456 10.000000
1.540121 -2.641154 1.475884 26.000000
0.722004 1.234217 0.706623 24.000000
0.717280 1.193869 0.691417 17.000000
0.739050 1.199995 0.703098 19.000000
0.750072 1.186364 0.703357 30.000000
0.756003 1.165206 0.699105 20.000000
0.780405 1.174199 0.713044 27.000000
0.783475 1.149196 0.706399 29.000000
0.800572 1.146596 0.713562 26.000000
0.818593 1.143292 0.720470 26.000000
0.814828 1.111414 0.709344 17.000000
0.834511 1.111805 0.718740 29.000000
0.844318 1.097351 0.718682 36.000000
0.858677 1.090170 0.723421 29.000000
0.875748 1.086225 0.730495 32.000000
0.882414 1.067962 0.727958 33.000000
0.896588 1.060210 0.732679 27.000000
0.919461 1.062264 0.744342 31.000000
0.916180 1.034195 0.734931 14.000000
0.939111 1.035706 0.746597 33.000000
0.947238 1.020674 0.746459 50.000000
0.970361 1.021484 0.758154 36.000000
0.981396 1.009277 0.760303 52.000000
0.989233 0.993760 0.760068 35.000000
1.006309 0.987451 0.766940 32.000000
1.013867 0.971728 0.766602 47.000000
1.024463 0.958935 0.768603 21.000000
1.028492 0.940132 0.765741 32.000000
1.034981 0.924599 0.765509 37.000000
1.055029 0.920166 0.774609 33.000000
1.068514 0.909719 0.778842 52.000000
1.081424 0.899385 0.783381 39.000000
1.104956 0.896729 0.794854 42.000000
1.124662 0.891226 0.804176 49.000000
1.137547 0.880037 0.808635 21.000000
1.129982 0.852570 0.797970 35.000000
1.146117 0.843745 0.804727 55.000000
1.179876 0.847384 0.823788 40.000000
1.196067 0.837744 0.830515 74.000000
1.201504 0.820529 0.829832 42.000000
1.221237 0.812817 0.838914 42.000000
1.230057 0.797706 0.840565 37.000000
1.238773 0.782440 0.842163 22.000000
1.262096 0.776148 0.853643 35.000000
1.277612 0.765203 0.860472 39.000000
1.297279 0.755886 0.869406 32.000000
1.324028 0.750664 0.883652 40.000000
1.339924 0.738400 0.889969 46.000000
1.343949 0.719940 0.889071 39.000000
1.363138 0.709436 0.898202 57.000000
1.351491 0.682976 0.887033 19.000000
1.389854 0.681561 0.908675 33.000000
1.416654 0.673780 0.922664 32.000000
1.431810 0.659946 0.929073 32.000000
1.450809 0.647563 0.937871 36.000000
1.461516 0.631647 0.941937 35.000000
1.472485 0.615295 0.945559 35.000000
1.478996 0.597350 0.946917 33.000000
1.525663 0.594673 0.973429 19.000000
1.515916 0.570022 0.964417 35.000000
1.534183 0.555887 0.973193 43.000000
1.568231 0.547230 0.992597 36.000000
1.578263 0.529403 0.996168 40.000000
1.600395 0.515301 1.007335 42.000000
1.613971 0.498392 1.013617 35.000000
1.639750 0.484869 1.027637 36.000000
1.665785 0.470540 1.041131 18.000000
1.691456 0.455831 1.054952 34.000000
1.708515 0.438618 1.063948 36.000000
1.721610 0.419774 1.069807 35.000000
1.738667 0.401627 1.078260 32.000000
1.772123 0.386954 1.097266 36.000000
1.784577 0.367134 1.103286 32.000000
1.813601 0.350354 1.119551 31.000000
1.821565 0.329031 1.122803 26.000000
1.854639 0.311859 1.141492 34.000000
1.878837 0.292656 1.155278 61.000000
1.903244 0.272804 1.168533 39.000000
1.948416 0.255283 1.195062 36.000000
1.951083 0.231628 1.195554 35.000000
1.978737 0.210758 1.211930 37.000000
1.998016 0.188327 1.222548 29.000000
2.033921 0.166880 1.243868 27.000000
2.057113 0.143715 1.256879 31.000000
2.079600 0.120034 1.270560 31.000000
2.114902 0.096345 1.291541 36.000000
2.154356 0.071971 1.314899 32.000000
2.180420 0.046472 1.330833 32.000000
2.210605 0.020313 1.349222 34.000000
2.219220 -0.006506 1.354510 24.000000
2.278805 -0.034304 1.390815 30.000000
2.308264 -0.062738 1.408799 29.000000
2.332946 -0.091729 1.424423 27.000000
2.395635 -0.123229 1.463399 33.000000
2.411476 -0.153297 1.473037 27.000000
2.447716 -0.185478 1.496548 23.000000
2.488142 -0.218875 1.521950 18.000000
2.544945 -0.255006 1.558190 30.000000
2.580493 -0.290010 1.580581 28.000000
2.644973 -0.329729 1.621604 32.000000
2.666656 -0.365295 1.636427 28.000000
2.734072 -0.408423 1.680190 30.000000
2.776038 -0.449001 1.707651 27.000000
2.842403 -0.495106 1.750946 28.000000
2.924993 -0.546086 1.804464 26.000000
2.914639 -0.580722 1.800705 26.000000
2.883169 -0.610718 1.783898 33.000000
2.868091 -0.643643 1.777252 32.000000
2.848156 -0.675588 1.768447 32.000000
2.848738 -0.712315 1.772467 36.000000
2.803926 -0.736853 1.747147 30.000000
2.787506 -0.768665 1.740543 26.000000
2.745615 -0.793243 1.718897 18.000000
2.753275 -0.831378 1.727362 31.000000
2.736085 -0.862077 1.720172 30.000000
2.722210 -0.894119 1.716174 32.000000
2.695879 -0.921794 1.704276 30.000000
2.690198 -0.955755 1.704306 32.000000
2.655367 -0.979510 1.687018 28.000000
2.636581 -1.008718 1.679893 22.000000
2.620957 -1.039514 1.675735 21.000000
2.605668 -1.069612 1.670782 29.000000
2.581696 -1.096549 1.661338 30.000000
2.573798 -1.129418 1.661196 33.000000
2.537611 -1.150336 1.643859 30.000000
2.524777 -1.181336 1.641589 33.000000
2.503882 -1.208391 1.634152 31.000000
2.486735 -1.237078 1.629162 24.000000
2.469333 -1.265376 1.623983 26.000000
2.432586 -1.283409 1.606108 32.000000
2.445168 -1.327385 1.620809 35.000000
2.411266 -1.347111 1.605885 36.000000
2.407990 -1.382726 1.610388 34.000000
2.366425 -1.397105 1.590213 35.000000
2.347800 -1.423443 1.584419 33.000000
2.350326 -1.463822 1.594087 25.000000
2.323085 -1.485676 1.583692 24.000000
2.306684 -1.514304 1.580586 32.000000
2.275589 -1.532939 1.567560 36.000000
2.273106 -1.570688 1.574181 33.000000
2.248835 -1.593513 1.565942 31.000000
2.231518 -1.621084 1.562459 32.000000
2.210419 -1.645765 1.556421 31.000000
2.191681 -1.673389 1.553427 23.000000
2.170282 -1.697458 1.547115 28.000000
2.158962 -1.729434 1.548238 32.000000
2.139518 -1.756328 1.544852 33.000000
2.127537 -1.787974 1.545650 35.000000
2.104232 -1.811711 1.539635 32.000000
2.090545 -1.843758 1.540790 34.000000
2.061448 -1.860227 1.529277 32.000000
2.040842 -1.885960 1.525408 24.000000
2.020043 -1.911403 1.521538 19.000000
