x y z intensity
3.479317 -1.269749 0.093168 4.000000
3.521530 -1.328573 0.094562 5.000000
3.437078 -1.339494 0.092565 5.000000
3.320306 -1.335617 0.089697 4.000000
3.448674 -1.430944 0.093466 3.000000
3.497283 -1.495850 0.095102 3.000000
3.444318 -1.517582 0.093987 2.000000
3.464073 -1.571327 0.094870 1.000000
3.329011 -1.553867 0.091516 2.000000
3.311964 -1.589980 0.091404 2.000000
3.254128 -1.605960 0.090063 2.000000
3.405918 -1.727090 0.094661 4.000000
3.422381 -1.782517 0.095534 7.000000
3.319078 -1.774725 0.093068 1.000000
3.032357 -1.664111 0.085317 2.000000
2.974889 -1.674880 0.084104 5.000000
2.969429 -1.714581 0.084368 6.000000
2.950692 -1.746821 0.084159 2.000000
3.098087 -1.879982 0.088833 1.000000
3.158163 -1.963649 0.090934 1.000000
3.064446 -1.999217 0.089132 1.000000
2.988410 -1.996405 0.087439 1.000000
2.891071 -2.023760 0.085535 1.000000
2.893152 -2.072574 0.086045 1.000000
2.938982 -2.154207 0.087877 1.000000
2.899292 -2.174137 0.087284 1.000000
2.982595 -2.287693 0.090305 1.000000
2.786372 -2.285690 0.086032 1.000000
2.719160 -2.280611 0.084503 1.000000
2.709422 -2.323093 0.084761 1.000000
2.747831 -2.408521 0.086556 1.000000
2.695336 -2.414953 0.085507 1.000000
2.694737 -2.467861 0.086110 1.000000
2.638438 -2.469647 0.084947 2.000000
2.629469 -2.515497 0.085313 6.000000
2.498379 -2.442703 0.081701 6.000000
2.379674 -2.377825 0.078456 9.000000
2.276752 -2.325028 0.075594 17.000000
2.206365 -2.302742 0.073889 21.000000
2.105939 -2.246366 0.071154 21.000000
2.024056 -2.206491 0.069007 20.000000
1.939829 -2.161374 0.066756 21.000000
1.863476 -2.122285 0.064659 15.000000
1.794685 -2.089287 0.062889 10.000000
1.739825 -2.070355 0.061582 18.000000
1.672768 -2.035033 0.059747 18.000000
1.625597 -2.021879 0.058682 23.000000
1.569594 -1.996157 0.057206 24.000000
1.514297 -1.969541 0.055815 30.000000
1.492911 -1.985846 0.055588 36.000000
1.465377 -1.993792 0.055213 32.000000
1.452449 -2.021757 0.055320 26.000000
1.416126 -2.016955 0.054614 32.000000
1.396988 -2.036273 0.054499 31.000000
1.391525 -2.076187 0.054932 29.000000
1.379894 -2.107947 0.055217 32.000000
1.351591 -2.114289 0.054768 32.000000
1.339198 -2.145806 0.054973 27.000000
1.321005 -2.168782 0.054958 26.000000
1.340858 -2.256020 0.056637 9.000000
0.821327 1.401295 0.047260 5.000000
0.808190 1.345194 0.045852 9.000000
0.830616 1.349098 0.046532 14.000000
0.837177 1.327323 0.046284 19.000000
0.859638 1.330765 0.046968 10.000000
0.876810 1.325501 0.047310 21.000000
0.882717 1.303528 0.047056 14.000000
0.905341 1.306189 0.047698 18.000000
0.919413 1.296291 0.047941 18.000000
0.953983 1.314560 0.049194 10.000000
0.941356 1.267983 0.048025 24.000000
0.955049 1.257712 0.048218 20.000000
0.968647 1.247249 0.048411 16.000000
0.982100 1.236689 0.048604 22.000000
1.001756 1.233696 0.049105 17.000000
1.021484 1.230469 0.049609 21.000000
1.025065 1.207856 0.049338 18.000000
1.090522 1.257032 0.052031 10.000000
1.051088 1.185267 0.049725 29.000000
1.070618 1.181161 0.050233 24.000000
1.083371 1.169478 0.050428 28.000000
1.102899 1.164859 0.050891 29.000000
1.132912 1.170767 0.051883 24.000000
1.131491 1.144118 0.051443 32.000000
1.165187 1.152825 0.052551 23.000000
1.195652 1.157441 0.053556 18.000000
1.190011 1.127150 0.052902 43.000000
1.198558 1.110740 0.052940 25.000000
1.217987 1.104331 0.053414 32.000000
1.248678 1.107557 0.054430 36.000000
1.271978 1.103724 0.055073 26.000000
1.272478 1.080088 0.054736 35.000000
1.303424 1.082083 0.055710 31.000000
1.326753 1.077256 0.056412 24.000000
1.322788 1.050267 0.055907 29.000000
1.341717 1.042319 0.056393 25.000000
1.353027 1.027637 0.056549 29.000000
1.368142 1.015778 0.056871 29.000000
1.383217 1.003727 0.057195 27.000000
1.422605 1.008775 0.058525 35.000000
1.449952 1.004609 0.059358 29.000000
1.464917 0.991520 0.059688 22.000000
1.488172 0.983798 0.060357 32.000000
1.490398 0.962090 0.060127 28.000000
1.513481 0.953778 0.060799 34.000000
1.532263 0.942462 0.061304 52.000000
1.563848 0.938565 0.062267 31.000000
1.573985 0.921467 0.062434 30.000000
1.605652 0.916701 0.063402 29.000000
1.611166 0.896712 0.063399 19.000000
1.620794 0.879145 0.063512 34.000000
1.652343 0.873138 0.064544 32.000000
1.670646 0.859678 0.065004 32.000000
1.711157 0.857098 0.066331 38.000000
1.747342 0.851590 0.067489 31.000000
1.770029 0.838957 0.068188 34.000000
1.797154 0.828061 0.069005 34.000000
1.801476 0.806442 0.068951 19.000000
1.814738 0.788785 0.069247 33.000000
1.855426 0.782620 0.070594 31.000000
1.896162 0.775694 0.071945 29.000000
1.927709 0.764257 0.072949 35.000000
1.945207 0.746879 0.073428 30.000000
1.962592 0.729171 0.073908 27.000000
2.008013 0.721331 0.075450 31.000000
2.015636 0.699700 0.075580 12.000000
2.042081 0.684092 0.076419 43.000000
2.092175 0.675684 0.078082 34.000000
2.118444 0.658927 0.078928 34.000000
2.139851 0.640121 0.079529 34.000000
2.170684 0.623762 0.080557 33.000000
2.201391 0.606814 0.081587 30.000000
2.251357 0.594375 0.083265 32.000000
2.257614 0.569914 0.083336 9.000000
2.292876 0.552333 0.084553 34.000000
2.327930 0.534118 0.085701 34.000000
2.353074 0.513140 0.086565 29.000000
2.363410 0.488557 0.086819 8.000000
2.388185 0.466743 0.087612 8.000000
2.471789 0.455214 0.090567 10.000000
2.506088 0.433461 0.091725 32.000000
2.569862 0.415856 0.093967 10.000000
2.598939 0.391595 0.094949 34.000000
2.667366 0.372323 0.097378 33.000000
2.705923 0.347832 0.098726 28.000000
2.749205 0.323003 0.100257 33.000000
2.787366 0.296867 0.101609 8.000000
2.825266 0.269890 0.102877 8.000000
2.882720 0.243753 0.104958 23.000000
3.004787 0.221285 0.109400 22.000000
3.051969 0.191437 0.111033 32.000000
3.138665 0.162586 0.114214 10.000000
3.210094 0.131375 0.116756 18.000000
3.236341 0.097196 0.117762 62.000000
3.252218 0.062283 0.118308 86.000000
3.232729 0.026754 0.117581 54.000000
3.212842 -0.008340 0.116952 71.000000
3.157589 -0.042528 0.114951 35.000000
3.141929 -0.076494 0.114406 35.000000
3.086039 -0.108633 0.112405 9.000000
3.039703 -0.140132 0.110768 8.000000
3.038030 -0.173121 0.110768 9.000000
3.011060 -0.204418 0.109858 8.000000
2.968814 -0.233995 0.108403 7.000000
2.946179 -0.264492 0.107676 9.000000
2.928193 -0.294967 0.107130 8.000000
2.929744 -0.327338 0.107222 10.000000
2.926053 -0.359117 0.107222 23.000000
2.867524 -0.383609 0.105223 9.000000
2.863194 -0.414707 0.105135 9.000000
2.838764 -0.442726 0.104408 8.000000
2.799265 -0.467758 0.103051 7.000000
2.823580 -0.503354 0.104052 10.000000
2.773704 -0.525636 0.102420 8.000000
2.743347 -0.550806 0.101428 9.000000
2.737195 -0.580542 0.101428 9.000000
2.750292 -0.614551 0.102067 20.000000
2.758086 -0.647755 0.102523 66.000000
2.746053 -0.676495 0.102256 35.000000
2.714348 -0.700052 0.101267 18.000000
2.706558 -0.729413 0.101181 61.000000
2.674460 -0.752012 0.100195 36.000000
2.666146 -0.781027 0.100110 53.000000
2.662272 -0.811328 0.100205 68.000000
2.720039 -0.861344 0.102636 15.000000
2.895676 -0.951636 0.109554 7.000000
3.468081 -1.223447 0.131846 5.000000
3.449911 -1.259356 0.131554 1.000000
3.403391 -1.284353 0.130079 2.000000
3.421761 -1.333937 0.131218 2.000000
3.212485 -1.292607 0.123508 2.000000
3.419730 -1.419338 0.131950 1.000000
3.427097 -1.466251 0.132613 1.000000
3.479633 -1.533589 0.135163 1.000000
3.489981 -1.583716 0.135995 1.000000
3.327777 -1.553867 0.130096 1.000000
3.351269 -1.609450 0.131576 1.000000
3.324598 -1.641353 0.130996 1.000000
3.203991 -1.625364 0.126716 1.000000
3.319162 -1.729411 0.131774 1.000000
3.331033 -1.781911 0.132775 1.000000
3.114314 -1.709802 0.124763 1.000000
2.964931 -1.669975 0.119291 3.000000
2.981153 -1.722185 0.120482 5.000000
2.893440 -1.713821 0.117479 1.000000
3.075403 -1.867017 0.125354 1.000000
3.025267 -1.881939 0.123918 1.000000
3.057607 -2.043721 0.127241 1.000000
2.996089 -2.098401 0.125991 1.000000
2.737546 -2.296016 0.120774 1.000000
2.807181 -2.407010 0.124658 1.000000
2.773355 -2.430909 0.124096 1.000000
2.739223 -2.454307 0.123423 1.000000
2.690271 -2.463817 0.122083 1.000000
2.634128 -2.465570 0.120414 2.000000
2.628802 -2.514830 0.121082 4.000000
2.519071 -2.463025 0.116933 4.000000
2.393198 -2.391338 0.111979 7.000000
2.283049 -2.331573 0.107711 9.000000
2.216055 -2.312983 0.105438 10.000000
2.125882 -2.267677 0.101933 10.000000
2.020038 -2.202260 0.097726 10.000000
1.942634 -2.164561 0.094845 15.000000
1.872850 -2.132947 0.092217 10.000000
1.791008 -2.084908 0.089043 9.000000
1.745759 -2.077512 0.087661 14.000000
1.681886 -2.046132 0.085239 10.000000
1.621991 -2.017509 0.083072 11.000000
1.556774 -1.979978 0.080519 14.000000
1.523056 -1.980896 0.079651 17.000000
1.489453 -1.981321 0.078711 28.000000
1.456121 -1.981258 0.077776 24.000000
1.446238 -2.013184 0.078181 13.000000
1.412878 -2.012338 0.077250 28.000000
1.405093 -2.048183 0.077732 18.000000
1.391144 -2.075729 0.077896 25.000000
1.368561 -2.090683 0.077591 24.000000
1.356669 -2.122251 0.077981 23.000000
1.333597 -2.136863 0.077673 24.000000
1.318095 -2.163971 0.077826 21.000000
1.279256 -2.152428 0.076599 9.000000
0.810092 1.384195 0.061128 7.000000
0.801947 1.336721 0.059700 18.000000
0.816420 1.327914 0.059985 26.000000
0.833412 1.323191 0.060416 21.000000
0.847740 1.314069 0.060703 27.000000
0.861925 1.304756 0.060942 23.000000
0.878861 1.299485 0.061424 26.000000
0.898586 1.298071 0.062056 28.000000
0.915506 1.292311 0.062543 24.000000
0.917756 1.266118 0.061992 26.000000
0.934391 1.260053 0.062430 25.000000
0.951018 1.253828 0.062869 31.000000
0.964620 1.243398 0.063158 29.000000
0.974926 1.228958 0.063197 25.000000
0.994492 1.226033 0.063840 32.000000
1.007751 1.215136 0.064081 28.000000
1.027376 1.211764 0.064730 30.000000
1.024118 1.181630 0.063951 24.000000
1.050169 1.185364 0.065010 29.000000
1.073047 1.184961 0.065869 34.000000
1.085840 1.173193 0.066064 35.000000
1.098584 1.161328 0.066309 26.000000
1.118077 1.156451 0.066969 37.000000
1.141140 1.154827 0.067791 30.000000
1.160736 1.149360 0.068458 33.000000
1.166035 1.129684 0.068237 27.000000
1.178284 1.116940 0.068485 34.000000
1.190384 1.103996 0.068684 45.000000
1.220833 1.107687 0.069942 39.000000
1.232867 1.094344 0.070193 35.000000
1.252244 1.087349 0.070822 42.000000
1.267855 1.076854 0.071238 32.000000
1.283333 1.066174 0.071656 35.000000
1.302656 1.058357 0.072290 26.000000
1.318052 1.047211 0.072711 29.000000
1.337254 1.038891 0.073349 36.000000
1.356434 1.030295 0.073990 36.000000
1.379653 1.024347 0.074799 33.000000
1.378600 1.000428 0.074354 36.000000
1.409796 0.999734 0.075656 33.000000
1.420619 0.984318 0.075814 31.000000
1.451913 0.982796 0.077124 30.000000
1.475072 0.975153 0.077945 32.000000
1.481408 0.956293 0.077941 35.000000
1.495922 0.942743 0.078323 40.000000
1.544201 0.950261 0.080536 37.000000
1.558730 0.935938 0.080925 52.000000
1.577459 0.923936 0.081593 35.000000
1.600468 0.914167 0.082430 33.000000
1.610321 0.896656 0.082599 33.000000
1.637510 0.888618 0.083665 35.000000
1.655903 0.875359 0.084286 33.000000
1.687549 0.868765 0.085583 39.000000
1.710281 0.857040 0.086434 35.000000
1.719514 0.838397 0.086551 36.000000
1.746567 0.828197 0.087632 50.000000
1.764556 0.813305 0.088263 32.000000
1.782398 0.798156 0.088896 29.000000
1.813832 0.788725 0.090154 30.000000
1.831495 0.772850 0.090791 27.000000
1.881418 0.769894 0.092969 34.000000
1.898902 0.753083 0.093613 32.000000
1.920877 0.737986 0.094425 33.000000
1.952206 0.725754 0.095762 36.000000
1.969369 0.707881 0.096349 31.000000
2.000569 0.694655 0.097628 34.000000
2.026887 0.679199 0.098680 35.000000
2.057899 0.664868 0.099965 35.000000
2.084112 0.648405 0.101022 43.000000
2.124474 0.635689 0.102775 37.000000
2.155249 0.619485 0.104070 52.000000
2.185900 0.602830 0.105367 38.000000
2.192343 0.579000 0.105506 26.000000
2.261461 0.571066 0.108669 33.000000
2.277229 0.548822 0.109278 35.000000
2.302497 0.528531 0.110282 33.000000
2.351971 0.513140 0.112527 35.000000
2.332959 0.482488 0.111433 9.000000
2.382168 0.465710 0.113684 9.000000
2.455902 0.452499 0.117035 20.000000
2.475396 0.428351 0.117891 18.000000
2.558809 0.414180 0.121720 41.000000
2.602674 0.392339 0.123676 50.000000
2.616668 0.365334 0.124227 35.000000
2.669997 0.343290 0.126657 72.000000
2.723136 0.320088 0.129091 34.000000
2.701655 0.287871 0.127998 9.000000
2.754361 0.263238 0.130435 8.000000
2.896413 0.245016 0.137117 6.000000
2.923804 0.215324 0.138384 10.000000
2.995738 0.187904 0.141685 33.000000
3.042461 0.157675 0.143900 15.000000
3.098936 0.126880 0.146589 11.000000
3.179946 0.095546 0.150366 37.000000
3.235748 0.061996 0.152963 95.000000
3.206278 0.026548 0.151644 95.000000
3.171415 -0.008236 0.149991 71.000000
3.161136 -0.042499 0.149518 95.000000
3.140489 -0.076398 0.148574 64.000000
3.119564 -0.109863 0.147629 23.000000
3.083210 -0.142203 0.145975 10.000000
3.061568 -0.174543 0.145031 10.000000
3.024626 -0.205433 0.143377 15.000000
2.992345 -0.235958 0.141960 24.000000
2.969696 -0.266635 0.141015 36.000000
2.971568 -0.299474 0.141160 89.000000
2.968101 -0.331685 0.141160 95.000000
2.929660 -0.359726 0.139417 33.000000
2.890949 -0.386832 0.137766 11.000000
2.851984 -0.413275 0.136027 9.000000
2.857187 -0.445718 0.136410 10.000000
2.793039 -0.466848 0.133583 9.000000
2.807515 -0.500723 0.134438 9.000000
2.777404 -0.526479 0.133174 10.000000
2.761738 -0.554654 0.132618 9.000000
2.731113 -0.579420 0.131357 9.000000
2.763623 -0.617734 0.133150 27.000000
2.756788 -0.647669 0.133064 64.000000
2.744758 -0.676409 0.132656 80.000000
2.727572 -0.703709 0.132101 95.000000
2.700452 -0.728113 0.131079 67.000000
2.702035 -0.759955 0.131376 87.000000
2.684045 -0.786389 0.130823 80.000000
2.680192 -0.816984 0.130885 80.000000
2.661596 -0.842987 0.130333 32.000000
2.823109 -0.928053 0.138545 9.000000
2.959401 -1.008596 0.145668 3.000000
2.797608 -0.987492 0.138040 1.000000
3.551440 -1.297051 0.175689 1.000000
3.396941 -1.282700 0.168505 1.000000
3.527217 -1.375448 0.175459 1.000000
3.090432 -1.243908 0.154191 1.000000
3.169052 -1.315695 0.158605 1.000000
3.466830 -1.483710 0.174073 1.000000
3.432190 -1.513207 0.172922 1.000000
3.401930 -1.544257 0.172003 1.000000
3.267266 -1.526164 0.165804 1.000000
3.322554 -1.596245 0.169253 1.000000
3.246769 -1.603527 0.165939 1.000000
3.282628 -1.665942 0.168461 1.000000
3.313018 -1.726874 0.170747 1.000000
3.170764 -1.696838 0.164026 1.000000
3.230889 -1.774506 0.167789 1.000000
2.954669 -1.664967 0.154167 4.000000
2.953629 -1.707083 0.154763 6.000000
2.926276 -1.734089 0.154102 4.000000
2.881645 -1.750225 0.152435 1.000000
2.930656 -1.823132 0.155732 1.000000
2.927471 -1.865713 0.156316 1.000000
3.049217 -1.990356 0.163629 1.000000
2.863937 -2.005920 0.156158 1.000000
2.943321 -2.109753 0.161293 1.000000
2.871866 -2.106274 0.158297 1.000000
2.860679 -2.146492 0.158635 1.000000
2.741261 -2.250276 0.155789 1.000000
2.766300 -2.321706 0.158311 1.000000
2.676371 -2.296525 0.154157 1.000000
2.673802 -2.345267 0.155142 1.000000
2.644335 -2.370940 0.154490 1.000000
2.640393 -2.419941 0.155356 1.000000
2.613917 -2.448605 0.154918 2.000000
2.532989 -2.425122 0.151249 1.000000
2.542128 -2.487480 0.152969 7.000000
2.440684 -2.440895 0.148035 8.000000
2.312697 -2.363810 0.141418 9.000000
2.231566 -2.331124 0.137606 15.000000
2.147983 -2.293293 0.133601 16.000000
2.058806 -2.246545 0.129193 16.000000
1.974297 -2.201843 0.124929 14.000000
1.914030 -2.181853 0.122253 13.000000
1.818609 -2.119195 0.117283 10.000000
1.756950 -2.092899 0.114348 12.000000
1.680269 -2.046213 0.110471 12.000000
1.632923 -2.033168 0.108405 12.000000
1.589179 -2.023349 0.106558 16.000000
1.518411 -1.977086 0.102943 21.000000
1.487939 -1.981472 0.101946 24.000000
1.466370 -1.997517 0.101567 26.000000
1.432923 -1.997023 0.100373 18.000000
1.416963 -2.020669 0.100404 23.000000
1.392129 -2.031774 0.099900 24.000000
1.375571 -2.055123 0.099928 21.000000
1.372350 -2.099199 0.100958 24.000000
1.354900 -2.122405 0.100975 23.000000
1.329186 -2.132700 0.100314 18.000000
1.321508 -2.172663 0.101123 17.000000
1.313118 -2.212655 0.101922 8.000000
0.807227 1.379346 0.075342 7.000000
0.799044 1.331962 0.073555 22.000000
0.813471 1.323183 0.073887 27.000000
0.830416 1.318488 0.074458 32.000000
0.844651 1.309347 0.074744 28.000000
0.861591 1.304278 0.075318 33.000000
0.875680 1.294822 0.075652 35.000000
0.898201 1.297540 0.076666 28.000000
0.906458 1.279554 0.076516 35.000000
0.908534 1.253462 0.075825 21.000000
0.928011 1.251552 0.076648 29.000000
0.947615 1.249321 0.077427 33.000000
0.964188 1.242918 0.077962 31.000000
0.980701 1.236255 0.078499 35.000000
1.000349 1.233308 0.079335 34.000000
1.013693 1.222342 0.079626 30.000000
1.026891 1.211230 0.079917 37.000000
1.030181 1.188652 0.079452 15.000000
1.052997 1.188570 0.080451 35.000000
1.065855 1.177070 0.080742 37.000000
1.081473 1.169527 0.081337 34.000000
1.094129 1.157650 0.081580 37.000000
1.113626 1.152810 0.082386 36.000000
1.133132 1.147720 0.083195 37.000000
1.156192 1.145795 0.084216 36.000000
1.157873 1.122683 0.083737 20.000000
1.170047 1.109967 0.083983 64.000000
1.185732 1.100550 0.084490 49.000000
1.208786 1.097568 0.085522 45.000000
1.231860 1.094243 0.086559 85.000000
1.251282 1.087298 0.087387 36.000000
1.270643 1.080037 0.088117 43.000000
1.286204 1.069264 0.088637 36.000000
1.290060 1.048856 0.088362 21.000000
1.317023 1.047109 0.089680 52.000000
1.336271 1.038787 0.090471 35.000000
1.351523 1.027170 0.090945 39.000000
1.366633 1.015310 0.091473 57.000000
1.385691 1.006191 0.092219 36.000000
1.400702 0.993850 0.092750 51.000000
1.427822 0.989901 0.094041 57.000000
1.455083 0.985435 0.095337 20.000000
1.465718 0.969536 0.095552 44.000000
1.480385 0.956185 0.096093 42.000000
1.494950 0.942635 0.096581 36.000000
1.517915 0.934118 0.097617 59.000000
1.553451 0.933256 0.099479 36.000000
1.572147 0.921300 0.100250 39.000000
1.595120 0.911521 0.101299 51.000000
1.609308 0.896487 0.101799 21.000000
1.627710 0.883684 0.102521 34.000000
1.654873 0.875244 0.103855 36.000000
1.673191 0.861734 0.104582 34.000000
1.704766 0.854627 0.106202 71.000000
1.722949 0.840410 0.106934 53.000000
1.740993 0.825881 0.107667 35.000000
1.758954 0.811037 0.108462 36.000000
1.790436 0.802059 0.110040 19.000000
1.808106 0.786733 0.110780 34.000000
1.834940 0.774792 0.112085 35.000000
1.866318 0.764219 0.113674 30.000000
1.879156 0.745718 0.114141 36.000000
1.919808 0.737798 0.116302 35.000000
1.932346 0.718603 0.116774 30.000000
1.968218 0.707689 0.118662 37.000000
1.966395 0.682995 0.118223 10.000000
2.025646 0.679199 0.121537 37.000000
2.037711 0.658661 0.122018 40.000000
2.068546 0.643888 0.123572 35.000000
2.104126 0.629895 0.125415 52.000000
2.144421 0.616658 0.127615 36.000000
2.175029 0.600037 0.129180 33.000000
2.205505 0.582756 0.130749 35.000000
2.255268 0.569772 0.133466 21.000000
2.285575 0.551019 0.135042 36.000000
2.310856 0.530693 0.136333 35.000000
2.340894 0.510864 0.137915 33.000000
2.321873 0.480392 0.136623 9.000000
2.361238 0.461804 0.138784 8.000000
2.429908 0.447823 0.142603 18.000000
2.498530 0.432532 0.146503 35.000000
2.537595 0.410909 0.148679 27.000000
2.571531 0.387793 0.150490 35.000000
2.620077 0.366025 0.153171 36.000000
2.648632 0.340742 0.154697 35.000000
2.711713 0.318922 0.158334 36.000000
2.700078 0.287788 0.157549 9.000000
2.777599 0.265528 0.161978 8.000000
2.810172 0.237859 0.163803 8.000000
2.946992 0.217158 0.171631 8.000000
2.979050 0.186966 0.173462 9.000000
3.035707 0.157417 0.176745 21.000000
3.087161 0.126471 0.179742 12.000000
3.153153 0.094796 0.183517 62.000000
3.208917 0.061517 0.186711 90.000000
3.194433 0.026465 0.185937 89.000000
3.159591 -0.008113 0.183904 84.000000
3.149319 -0.042365 0.183323 77.000000
3.128686 -0.076155 0.182161 55.000000
3.082833 -0.108633 0.179546 30.000000
3.086405 -0.142339 0.179836 34.000000
3.049821 -0.173881 0.177803 75.000000
3.037807 -0.206448 0.177222 62.000000
3.010506 -0.237436 0.175769 24.000000
2.977908 -0.267528 0.173934 95.000000
2.954935 -0.297881 0.172682 74.000000
2.936694 -0.328357 0.171812 76.000000
2.918038 -0.358419 0.170851 37.000000
2.864520 -0.383432 0.167950 9.000000
2.850311 -0.413099 0.167282 10.000000
2.840713 -0.443320 0.166904 9.000000
2.766865 -0.462645 0.162762 7.000000
2.786204 -0.497042 0.164123 10.000000
2.770859 -0.525463 0.163458 9.000000
2.755208 -0.553585 0.162794 9.000000
2.729492 -0.579335 0.161467 10.000000
2.742494 -0.613290 0.162536 18.000000
2.750285 -0.646440 0.163229 86.000000
2.733424 -0.673846 0.162567 68.000000
2.672771 -0.689815 0.159227 19.000000
2.708553 -0.730542 0.161733 82.000000
2.700492 -0.759784 0.161561 81.000000
2.672927 -0.783495 0.160241 76.000000
2.669017 -0.813986 0.160358 86.000000
2.640941 -0.836870 0.159041 35.000000
2.736031 -0.899890 0.165169 10.000000
2.825389 -0.963118 0.170998 4.000000
2.819512 -0.995439 0.171101 2.000000
3.643136 -1.330963 0.221590 1.000000
3.586406 -1.354570 0.218789 1.000000
3.404108 -1.328157 0.208310 1.000000
3.144063 -1.266287 0.192917 1.000000
3.116247 -1.294628 0.191858 1.000000
3.290152 -1.409034 0.203275 1.000000
3.416425 -1.506820 0.211608 1.000000
3.179354 -1.485680 0.198341 1.000000
3.478005 -1.671594 0.217737 1.000000
3.271631 -1.616463 0.205571 1.000000
3.129260 -1.588658 0.197375 1.000000
3.160465 -1.648053 0.200137 1.000000
3.115973 -1.668234 0.198131 1.000000
2.896271 -1.632785 0.185768 2.000000
2.925822 -1.691777 0.188526 6.000000
2.907228 -1.723594 0.188113 5.000000
2.901434 -1.762359 0.188531 2.000000
2.865181 -1.783247 0.187113 1.000000
2.933981 -1.870763 0.192500 2.000000
2.925888 -1.910858 0.193008 1.000000
2.800581 -1.962623 0.187618 1.000000
2.791221 -2.001873 0.188125 1.000000
2.765150 -2.029258 0.187432 1.000000
2.770875 -2.080327 0.188918 1.000000
2.641860 -2.218842 0.185782 1.000000
2.644020 -2.270289 0.187238 1.000000
2.611593 -2.292459 0.186171 1.000000
2.523249 -2.264128 0.181209 1.000000
2.472729 -2.267856 0.178828 3.000000
2.495166 -2.339113 0.181765 5.000000
2.437111 -2.335200 0.178861 6.000000
2.418665 -2.368593 0.178976 8.000000
2.399756 -2.401935 0.178986 9.000000
2.363033 -2.417164 0.177679 9.000000
2.260557 -2.363501 0.171306 24.000000
2.166534 -2.315072 0.165591 18.000000
2.078116 -2.267609 0.160072 21.000000
1.990061 -2.219438 0.154679 20.000000
1.909851 -2.177212 0.149832 16.000000
1.830764 -2.133414 0.144925 10.000000
1.765747 -2.103455 0.141159 13.000000
1.695304 -2.064619 0.136819 18.000000
1.644713 -2.047865 0.134036 21.000000
1.585388 -2.018557 0.130586 16.000000
1.523885 -1.984170 0.126825 22.000000
1.487258 -1.980640 0.125105 27.000000
1.462733 -1.992659 0.124400 29.000000
1.429411 -1.992140 0.122945 22.000000
1.407759 -2.007574 0.122495 26.000000
1.388705 -2.026827 0.122294 27.000000
1.361078 -2.033542 0.121349 31.000000
1.352609 -2.069096 0.122134 27.000000
1.340849 -2.100512 0.122664 29.000000
1.333855 -2.140332 0.123599 27.000000
1.310583 -2.154742 0.123137 24.000000
1.299824 -2.190317 0.123889 9.000000
0.798401 1.366318 0.088905 7.000000
0.790115 1.318973 0.086757 21.000000
0.814849 1.327295 0.088264 27.000000
0.826521 1.314119 0.088361 29.000000
0.846164 1.313448 0.089311 29.000000
0.854899 1.295802 0.089120 28.000000
0.866104 1.282317 0.089212 30.000000
0.891318 1.289232 0.090699 35.000000
0.902378 1.275383 0.090792 32.000000
0.913253 1.261454 0.090883 24.000000
0.932810 1.259431 0.091801 31.000000
0.949480 1.253204 0.092477 32.000000
0.959977 1.238828 0.092519 32.000000
0.976444 1.232247 0.093150 32.000000
0.992900 1.225406 0.093832 30.000000
1.009344 1.218353 0.094467 34.000000
1.019324 1.203467 0.094507 33.000000
1.025809 1.184735 0.094244 29.000000
1.045265 1.180950 0.095182 33.000000
1.064739 1.176924 0.096075 36.000000
1.080840 1.168894 0.096718 42.000000
1.093496 1.157017 0.097059 37.000000
1.109521 1.148633 0.097656 36.000000
1.135997 1.150631 0.099223 37.000000
1.152000 1.141685 0.099827 35.000000
1.150018 1.115144 0.098941 20.000000
1.168963 1.109820 0.099902 35.000000
1.180988 1.096956 0.100198 63.000000
1.203946 1.094062 0.101427 55.000000
1.227023 1.090776 0.102662 77.000000
1.242636 1.080546 0.103276 36.000000
1.269522 1.079833 0.104834 52.000000
1.285080 1.069060 0.105454 50.000000
1.288942 1.048653 0.105079 23.000000
1.319848 1.050009 0.106966 44.000000
1.331246 1.035517 0.107224 50.000000
1.342438 1.020921 0.107533 54.000000
1.357531 1.009148 0.108110 35.000000
1.376519 1.000116 0.109008 37.000000
1.399547 0.993640 0.110229 51.000000
1.414407 0.981157 0.110813 35.000000
1.441563 0.976823 0.112364 21.000000
1.456268 0.963760 0.112953 36.000000
1.474849 0.953530 0.113921 40.000000
1.480942 0.934754 0.113865 42.000000
1.508057 0.928939 0.115379 37.000000
1.522354 0.914988 0.115976 52.000000
1.549457 0.908405 0.117499 39.000000
1.589609 0.908764 0.120063 43.000000
1.616841 0.901120 0.121599 26.000000
1.635290 0.888163 0.122482 42.000000
1.658081 0.877291 0.123696 54.000000
1.676417 0.863731 0.124585 50.000000
1.685704 0.845390 0.124816 35.000000
1.703668 0.831598 0.125766 55.000000
1.730625 0.821543 0.127324 52.000000
1.753062 0.808947 0.128555 44.000000
1.770847 0.793836 0.129398 26.000000
1.797692 0.782510 0.130968 33.000000
1.824470 0.770605 0.132483 36.000000
1.851174 0.758300 0.134062 34.000000
1.868524 0.741974 0.134977 33.000000
1.909050 0.734091 0.137509 33.000000
1.935634 0.720217 0.139040 36.000000
1.957424 0.704184 0.140239 33.000000
1.974356 0.686143 0.141103 31.000000
2.000562 0.671136 0.142708 35.000000
2.031459 0.656995 0.144591 36.000000
2.052801 0.639239 0.145736 35.000000
2.088313 0.625467 0.147965 37.000000
2.138059 0.615278 0.151216 38.000000
2.159017 0.595917 0.152371 35.000000
2.194325 0.580067 0.154615 32.000000
2.263376 0.572146 0.159175 29.000000
2.274295 0.548607 0.159730 34.000000
2.304399 0.529503 0.161578 43.000000
2.324589 0.507599 0.162746 36.000000
2.334859 0.483354 0.163233 10.000000
2.349756 0.459814 0.164062 9.000000
2.437981 0.449633 0.170025 25.000000
2.467334 0.427346 0.171888 28.000000
2.516170 0.407640 0.175126 34.000000
2.574635 0.388457 0.178976 47.000000
2.593517 0.362492 0.180164 35.000000
2.641889 0.340024 0.183334 42.000000
2.675116 0.314758 0.185559 36.000000
2.678412 0.285672 0.185641 9.000000
2.721019 0.260303 0.188475 8.000000
2.773397 0.234827 0.192000 7.000000
2.954864 0.217892 0.204478 8.000000
2.991886 0.187904 0.206979 9.000000
3.013737 0.156383 0.208449 26.000000
3.075021 0.125968 0.212583 35.000000
3.126102 0.094046 0.216124 54.000000
3.191699 0.061230 0.220605 79.000000
3.157273 0.026272 0.218289 84.000000
3.147394 -0.008088 0.217599 60.000000
3.117180 -0.041962 0.215530 17.000000
3.071728 -0.074819 0.212427 10.000000
3.060725 -0.107836 0.211737 27.000000
3.054430 -0.140959 0.211392 92.000000
3.042693 -0.173596 0.210703 95.000000
3.040642 -0.206694 0.210609 88.000000
2.948713 -0.232726 0.204405 26.000000
2.965870 -0.266544 0.205692 82.000000
2.938049 -0.296289 0.203970 68.000000
2.939574 -0.328821 0.204224 83.000000
2.921011 -0.358937 0.203101 65.000000
2.823024 -0.378047 0.196473 10.000000
2.833564 -0.410863 0.197418 9.000000
2.823994 -0.440924 0.196986 9.000000
2.764893 -0.462559 0.193119 8.000000
2.769569 -0.494326 0.193720 9.000000
2.749273 -0.521572 0.192518 9.000000
2.743452 -0.551447 0.192433 10.000000
2.717857 -0.577092 0.190891 10.000000
2.721133 -0.608847 0.191491 13.000000
2.733818 -0.642842 0.192689 62.000000
2.736374 -0.674955 0.193201 71.000000
2.685405 -0.693388 0.189954 31.000000
2.706580 -0.730370 0.191833 95.000000
2.674511 -0.752939 0.189956 76.000000
2.666182 -0.781836 0.189701 89.000000
2.648055 -0.807907 0.188850 85.000000
2.639078 -0.836700 0.188681 76.000000
2.658278 -0.874679 0.190550 10.000000
2.795054 -0.953274 0.200808 8.000000
2.775168 -0.980302 0.199860 2.000000
3.541830 -1.338581 0.256528 1.000000
3.215663 -1.255475 0.233567 1.000000
3.067852 -1.235942 0.223475 1.000000
3.049588 -1.267412 0.222835 2.000000
3.228242 -1.382949 0.236650 1.000000
3.359033 -1.482534 0.247070 1.000000
3.392709 -1.541736 0.250421 1.000000
3.140735 -1.468667 0.232565 1.000000
3.093144 -1.487678 0.229907 1.000000
3.246927 -1.604853 0.242162 1.000000
3.113663 -1.581451 0.233063 1.000000
3.007788 -1.569055 0.226093 1.000000
3.078522 -1.648849 0.232315 1.000000
3.130315 -1.720843 0.237297 1.000000
2.920210 -1.646982 0.222305 2.000000
2.923653 -1.691260 0.223546 6.000000
2.892186 -1.715442 0.222144 6.000000
2.894577 -1.759871 0.223377 2.000000
2.926122 -1.823027 0.226903 2.000000
2.914500 -1.860238 0.227031 2.000000
2.890232 -1.888597 0.226176 1.000000
3.060286 -2.047698 0.240760 1.000000
2.916858 -2.045276 0.231950 1.000000
2.841609 -2.039164 0.227192 1.000000
2.791101 -2.049511 0.224500 1.000000
2.768545 -2.079903 0.223970 1.000000
2.828753 -2.173824 0.230202 1.000000
2.725255 -2.240121 0.226008 1.000000
2.589882 -2.176684 0.216220 1.000000
2.501645 -2.149541 0.210193 3.000000
2.493040 -2.189946 0.210958 5.000000
2.443002 -2.193702 0.208135 7.000000
2.440962 -2.240554 0.209526 9.000000
2.445557 -2.294414 0.211436 9.000000
2.435667 -2.333858 0.212075 9.000000
2.413651 -2.363756 0.211769 9.000000
2.391353 -2.393525 0.211461 10.000000
2.344248 -2.398081 0.208975 8.000000
2.242111 -2.344170 0.201538 12.000000
2.189144 -2.339319 0.198470 21.000000
2.089435 -2.282049 0.191006 18.000000
2.001285 -2.234033 0.184603 18.000000
1.920973 -2.191871 0.178846 17.000000
1.845029 -2.152101 0.173340 10.000000
1.783058 -2.126147 0.169169 18.000000
1.715584 -2.091384 0.164330 17.000000
1.645910 -2.051517 0.159219 17.000000
1.592748 -2.030023 0.155646 16.000000
1.531088 -1.995820 0.151271 18.000000
1.488437 -1.984405 0.148639 24.000000
1.457969 -1.988407 0.147214 26.000000
1.427538 -1.991915 0.145796 21.000000
1.405886 -2.007349 0.145196 29.000000
1.386828 -2.026602 0.144966 29.000000
1.350887 -2.020869 0.142973 24.000000
1.345263 -2.060511 0.144208 28.000000
1.333579 -2.091865 0.144771 25.000000
1.324016 -2.127464 0.145692 23.000000
1.308580 -2.154510 0.145946 23.000000
1.251997 -2.112861 0.141663 9.000000
0.800435 1.369900 0.103451 7.000000
0.799900 1.335388 0.101927 15.000000
0.808301 1.318597 0.101747 15.000000
0.833200 1.326604 0.103539 20.000000
0.836777 1.300622 0.102646 23.000000
0.850873 1.291446 0.103072 16.000000
0.870454 1.290352 0.104165 26.000000
0.887238 1.284887 0.104881 22.000000
0.912652 1.291440 0.106657 21.000000
0.912015 1.261216 0.105403 24.000000
0.919698 1.243150 0.105153 15.000000
0.939199 1.241030 0.106212 27.000000
0.952624 1.230699 0.106641 29.000000
0.972099 1.228096 0.107708 18.000000
0.988557 1.221288 0.108435 28.000000
1.004955 1.214268 0.109165 23.000000
1.018118 1.203226 0.109599 25.000000
1.021348 1.180723 0.108941 22.000000
1.037403 1.173236 0.109624 21.000000
1.053493 1.165581 0.110358 28.000000
1.072855 1.161324 0.111445 28.000000
1.099176 1.164027 0.113243 26.000000
1.108301 1.148340 0.113232 35.000000
1.120752 1.136182 0.113623 21.000000
1.136598 1.127389 0.114321 28.000000
1.148843 1.114899 0.114664 25.000000
1.171346 1.112959 0.116131 25.000000
1.179806 1.096710 0.116118 32.000000
1.202752 1.093763 0.117544 34.000000
1.214640 1.080532 0.117892 27.000000
1.237615 1.077021 0.119329 50.000000
1.253110 1.066599 0.120044 29.000000
1.276188 1.062372 0.121440 33.000000
1.276121 1.038904 0.120699 21.000000
1.306907 1.040434 0.122834 22.000000
1.322087 1.029082 0.123508 34.000000
1.341200 1.020612 0.124604 29.000000
1.360291 1.011813 0.125653 29.000000
1.363171 0.991008 0.125223 32.000000
1.382028 0.981775 0.126224 26.000000
1.412881 0.981210 0.128448 29.000000
1.448271 0.982474 0.131004 24.000000
1.454773 0.963814 0.130898 23.000000
1.465187 0.947792 0.131218 33.000000
1.492303 0.942365 0.132988 32.000000
1.494023 0.920767 0.132559 29.000000
1.521050 0.914662 0.134337 34.000000
1.539538 0.903030 0.135364 27.000000
1.583881 0.905953 0.138669 35.000000
1.597841 0.891348 0.139383 28.000000
1.620613 0.880963 0.140805 26.000000
1.638909 0.867902 0.141793 31.000000
1.661568 0.856819 0.143223 34.000000
1.679749 0.843096 0.144217 28.000000
1.706698 0.833438 0.146038 34.000000
1.724716 0.819053 0.147038 30.000000
1.751527 0.808770 0.148869 32.000000
1.755659 0.787596 0.148720 27.000000
1.782422 0.776358 0.150499 24.000000
1.813711 0.766602 0.152670 30.000000
1.840358 0.754335 0.154459 27.000000
1.866925 0.741789 0.156315 24.000000
1.902771 0.732113 0.158829 29.000000
1.929321 0.718288 0.160635 29.000000
1.937009 0.697240 0.160887 24.000000
1.972694 0.686079 0.163480 31.000000
1.994159 0.669291 0.164844 27.000000
2.020341 0.653665 0.166601 30.000000
2.051025 0.639174 0.168820 32.000000
2.091287 0.626831 0.171762 27.000000
2.131499 0.613627 0.174643 37.000000
2.152432 0.594521 0.176094 28.000000
2.158789 0.571006 0.176230 18.000000
2.208294 0.558559 0.179980 30.000000
2.262673 0.546125 0.184132 29.000000
2.283089 0.524892 0.185530 29.000000
2.312958 0.505325 0.187649 32.000000
2.347605 0.486240 0.190166 27.000000
2.372308 0.464530 0.191969 15.000000
2.416404 0.445939 0.195286 20.000000
2.416157 0.418759 0.195040 10.000000
2.479625 0.401979 0.199951 31.000000
2.547923 0.384658 0.205266 27.000000
2.576626 0.360341 0.207331 26.000000
2.624859 0.338033 0.211068 34.000000
2.672974 0.314676 0.214810 25.000000
2.656363 0.283474 0.213301 8.000000
2.718845 0.260220 0.218160 7.000000
2.959902 0.250819 0.237360 6.000000
2.932625 0.216335 0.235060 8.000000
2.994476 0.188217 0.239933 8.000000
2.996313 0.155515 0.240025 14.000000
3.072573 0.125968 0.246100 42.000000
3.143446 0.094646 0.251684 34.000000
3.179194 0.061039 0.254573 68.000000
3.144794 0.026189 0.251780 79.000000
3.119970 -0.008024 0.249880 28.000000
3.069849 -0.041357 0.245889 9.000000
3.039296 -0.073997 0.243494 9.000000
3.038365 -0.107133 0.243494 17.000000
3.041947 -0.140406 0.243800 95.000000
3.020366 -0.172367 0.242204 38.000000
3.008383 -0.204572 0.241405 62.000000
2.956297 -0.233421 0.237325 55.000000
2.943645 -0.264668 0.236436 35.000000
2.930651 -0.295698 0.235639 66.000000
2.917408 -0.326513 0.234752 50.000000
2.888900 -0.355198 0.232670 33.000000
2.830551 -0.379284 0.228200 10.000000
2.811470 -0.407913 0.226831 9.000000
2.801936 -0.437759 0.226346 8.000000
2.772495 -0.464033 0.224271 9.000000
2.747620 -0.490735 0.222510 8.000000
2.737254 -0.519627 0.222027 9.000000
2.716795 -0.546362 0.220666 9.000000
2.710687 -0.575886 0.220496 9.000000
2.709188 -0.606414 0.220723 10.000000
2.712091 -0.638104 0.221345 31.000000
2.709851 -0.668811 0.221570 38.000000
2.702502 -0.698206 0.221313 58.000000
2.680290 -0.723702 0.219958 35.000000
2.672301 -0.752684 0.219703 71.000000
2.659189 -0.780348 0.219139 81.000000
2.631467 -0.803456 0.217394 43.000000
2.632126 -0.834855 0.217843 73.000000
2.632380 -0.866629 0.218460 10.000000
2.778463 -0.948353 0.231157 8.000000
2.932617 -1.036509 0.244512 3.000000
3.445569 -1.302857 0.288897 1.000000
3.328638 -1.341870 0.280701 1.000000
3.037756 -1.263281 0.257007 2.000000
3.349153 -1.435765 0.284208 1.000000
3.324194 -1.468100 0.283097 1.000000
3.357980 -1.527063 0.286917 1.000000
3.296228 -1.541960 0.282594 1.000000
3.202821 -1.541083 0.275578 1.000000
3.181381 -1.573688 0.274757 1.000000
3.186326 -1.619639 0.276249 1.000000
3.159655 -1.649706 0.275042 1.000000
3.104341 -1.751715 0.273515 1.000000
2.951378 -1.708121 0.261134 4.000000
2.902580 -1.722458 0.258048 6.000000
2.858016 -1.738522 0.255249 3.000000
2.927717 -1.825032 0.262710 1.000000
2.903453 -1.854237 0.261909 2.000000
2.962378 -1.937723 0.268568 1.000000
3.073589 -2.058796 0.279994 1.000000
2.826891 -2.029798 0.261686 1.000000
2.949341 -2.216974 0.276190 1.000000
2.707556 -2.081988 0.255035 1.000000
2.630379 -2.115728 0.250817 1.000000
2.510861 -2.065157 0.240958 4.000000
2.553053 -2.147178 0.246628 6.000000
2.480320 -2.132681 0.241235 8.000000
2.471878 -2.172876 0.242102 8.000000
2.470265 -2.219763 0.243693 8.000000
2.456893 -2.256813 0.244076 9.000000
2.421181 -2.273319 0.242372 8.000000
2.415092 -2.315982 0.243373 8.000000
2.393364 -2.345786 0.243018 9.000000
2.378197 -2.382317 0.243382 9.000000
2.348654 -2.404601 0.242404 8.000000
2.256860 -2.361602 0.234871 9.000000
2.186695 -2.338731 0.229426 10.000000
2.090436 -2.285162 0.221258 10.000000
2.012205 -2.248441 0.214911 9.000000
1.964651 -2.243960 0.211694 10.000000
1.852596 -2.162945 0.201526 10.000000
1.787344 -2.133369 0.196257 10.000000
1.726079 -2.106402 0.191453 12.000000
1.665654 -2.078360 0.186594 10.000000
1.603004 -2.045332 0.181415 10.000000
1.538267 -2.007236 0.175921 13.000000
1.486465 -1.984026 0.171845 14.000000
1.461829 -1.996079 0.170894 19.000000
1.419783 -1.983429 0.167885 17.000000
1.401079 -2.002887 0.167555 18.000000
1.379247 -2.017990 0.166957 24.000000
1.354495 -2.028795 0.166019 20.000000
1.345957 -2.064313 0.167039 19.000000
1.323494 -2.078861 0.166436 21.000000
1.327137 -2.135556 0.169113 18.000000
1.305220 -2.149091 0.168343 15.000000
1.286927 -2.171748 0.168394 7.000000
0.799027 1.369560 0.117765 6.000000
0.798519 1.335055 0.116019 11.000000
0.820809 1.339000 0.117616 16.000000
0.824670 1.313075 0.116644 26.000000
0.841604 1.308204 0.117495 15.000000
0.858534 1.303084 0.118349 21.000000
0.871859 1.294153 0.118875 21.000000
0.894391 1.296865 0.120496 19.000000
0.905548 1.282956 0.120596 24.000000
0.904845 1.252800 0.119154 10.000000
0.930271 1.258856 0.121171 27.000000
0.943878 1.248650 0.121602 24.000000
0.960438 1.242197 0.122470 24.000000
0.976988 1.235532 0.123293 25.000000
0.999747 1.236456 0.124950 22.000000
1.013133 1.225455 0.125388 26.000000
1.023203 1.210502 0.125432 26.000000
1.029787 1.191702 0.125077 10.000000
1.039410 1.176636 0.125114 34.000000
1.062167 1.176293 0.126742 28.000000
1.074929 1.164599 0.127130 28.000000
1.097854 1.163635 0.128770 32.000000
1.110442 1.151586 0.129211 30.000000
1.126430 1.142890 0.130007 31.000000
1.156046 1.148512 0.132475 32.000000
1.168520 1.135788 0.132924 15.000000
1.166400 1.109179 0.131692 37.000000
1.193069 1.109892 0.133722 33.000000
1.205094 1.096769 0.134071 33.000000
1.231906 1.096751 0.136115 49.000000
1.243775 1.083164 0.136519 33.000000
1.259336 1.072657 0.137286 36.000000
1.263332 1.052449 0.136862 31.000000
1.290214 1.051089 0.138878 25.000000
1.309424 1.043130 0.140068 33.000000
1.320754 1.028723 0.140427 32.000000
1.347424 1.026599 0.142514 35.000000
1.350587 1.005810 0.142037 38.000000
1.369577 0.996820 0.143240 30.000000
1.392548 0.990385 0.144818 52.000000
1.403277 0.975103 0.145185 52.000000
1.413849 0.959663 0.145499 23.000000
1.457483 0.966139 0.149214 49.000000
1.467927 0.950125 0.149535 34.000000
1.482422 0.936665 0.150337 36.000000
1.500838 0.925890 0.151515 46.000000
1.515099 0.911984 0.152268 37.000000
1.555027 0.913009 0.155602 46.000000
1.573560 0.900891 0.156795 45.000000
1.583280 0.883618 0.157073 22.000000
1.610337 0.875752 0.159136 35.000000
1.654868 0.877062 0.162939 49.000000
1.673130 0.863443 0.164095 37.000000
1.691376 0.849573 0.165253 52.000000
1.705012 0.833263 0.165978 45.000000
1.713965 0.814601 0.166269 37.000000
1.740713 0.804414 0.168308 56.000000
1.767523 0.793480 0.170354 22.000000
1.794334 0.782090 0.172405 36.000000
1.830252 0.774122 0.175281 36.000000
1.843079 0.756165 0.176025 30.000000
1.869708 0.743383 0.178032 37.000000
1.914905 0.737232 0.181809 40.000000
1.932160 0.719775 0.182944 35.000000
1.953860 0.703929 0.184588 34.000000
1.961369 0.682550 0.184843 19.000000
1.996948 0.670748 0.187760 60.000000
2.023064 0.655069 0.189731 58.000000
2.053872 0.640393 0.192217 64.000000
2.079742 0.623836 0.194263 52.000000
2.100750 0.605219 0.195800 42.000000
2.150381 0.594316 0.200088 36.000000
2.180809 0.577171 0.202459 36.000000
2.215857 0.560793 0.205421 18.000000
2.226651 0.537869 0.206079 41.000000
2.285790 0.525793 0.211151 69.000000
2.310783 0.505180 0.213161 61.000000
2.340527 0.485083 0.215625 54.000000
2.370088 0.464382 0.218093 41.000000
2.399457 0.443076 0.220491 18.000000
2.413905 0.418608 0.221541 10.000000
2.496979 0.405092 0.228978 17.000000
2.560327 0.386810 0.234467 65.000000
2.593963 0.363022 0.237413 79.000000
2.622428 0.337952 0.239751 52.000000
2.655584 0.312846 0.242623 51.000000
2.693521 0.287622 0.245869 9.000000
2.716253 0.260136 0.247844 8.000000
2.803275 0.237687 0.255619 8.000000
2.885142 0.213035 0.262946 7.000000
2.941934 0.185000 0.268015 8.000000
2.983612 0.154999 0.271729 23.000000
3.049753 0.125152 0.277709 68.000000
3.100741 0.093446 0.282335 88.000000
3.146402 0.060465 0.286414 95.000000
3.146788 0.026230 0.286510 98.000000
3.117009 -0.008024 0.283790 95.000000
3.057071 -0.041129 0.278350 10.000000
3.016592 -0.073512 0.274723 10.000000
3.030503 -0.106865 0.276083 21.000000
3.029202 -0.139947 0.276083 62.000000
3.037472 -0.173503 0.276897 95.000000
3.015457 -0.205155 0.275084 58.000000
2.963410 -0.234114 0.270461 29.000000
2.950850 -0.265469 0.269464 95.000000
2.952717 -0.298109 0.269826 90.000000
2.899777 -0.324671 0.265209 93.000000
2.881285 -0.354412 0.263763 93.000000
2.813123 -0.377211 0.257794 12.000000
2.808861 -0.407739 0.257620 10.000000
2.779652 -0.434509 0.255274 9.000000
2.764916 -0.463039 0.254199 8.000000
2.715645 -0.485223 0.249966 10.000000
2.720019 -0.516669 0.250699 10.000000
2.694723 -0.542263 0.248727 10.000000
2.693529 -0.572610 0.249009 10.000000
2.648326 -0.593100 0.245240 10.000000
2.690144 -0.633369 0.249570 35.000000
2.692784 -0.664973 0.250215 62.000000
2.656547 -0.686732 0.247267 25.000000
2.653704 -0.716953 0.247548 95.000000
2.650579 -0.747026 0.247743 64.000000
2.642310 -0.775884 0.247490 82.000000
2.590923 -0.791396 0.243213 72.000000
2.610603 -0.828659 0.245644 70.000000
2.587266 -0.852434 0.244053 24.000000
2.686313 -0.917413 0.253967 9.000000
2.812291 -0.994799 0.266614 7.000000
3.278450 -1.199709 0.311586 1.000000
3.344371 -1.265396 0.318705 1.000000
3.311903 -1.294517 0.316602 1.000000
3.251445 -1.311943 0.311738 1.000000
3.099108 -1.289667 0.297940 1.000000
3.043722 -1.305728 0.293555 2.000000
3.029314 -1.338808 0.293150 1.000000
3.282061 -1.493603 0.318716 1.000000
3.089900 -1.446490 0.301025 1.000000
3.154682 -1.519040 0.308506 1.000000
3.026357 -1.498229 0.297018 1.000000
3.072059 -1.562744 0.302729 1.000000
2.970972 -1.552390 0.293903 1.000000
3.002415 -1.610222 0.298185 1.000000
3.023944 -1.664507 0.301580 1.000000
2.948143 -1.707808 0.296515 4.000000
2.890812 -1.717060 0.292099 7.000000
2.846333 -1.733034 0.288992 6.000000
2.899505 -1.808266 0.295708 2.000000
2.942583 -1.880108 0.301532 2.000000
2.934443 -1.920381 0.302178 2.000000
2.871899 -1.924766 0.297356 1.000000
2.936981 -2.015301 0.305699 1.000000
2.731383 -1.918419 0.285846 1.000000
2.649544 -1.904653 0.278847 1.000000
2.624542 -1.930585 0.277722 2.000000
2.615228 -1.968213 0.278395 4.000000
2.562587 -1.971777 0.274312 6.000000
2.556560 -2.012028 0.275305 8.000000
2.557728 -2.058671 0.277131 9.000000
2.542796 -2.092857 0.277367 8.000000
2.515988 -2.117386 0.276242 9.000000
2.500278 -2.151379 0.276372 9.000000
2.480382 -2.181943 0.276081 9.000000
2.448996 -2.202291 0.274543 9.000000
2.450468 -2.252625 0.276635 9.000000
2.422068 -2.275918 0.275508 9.000000
2.407915 -2.312633 0.275929 8.000000
2.386014 -2.342398 0.275624 8.000000
2.354301 -2.360324 0.273884 9.000000
2.345877 -2.403778 0.275108 9.000000
2.316108 -2.425679 0.273879 9.000000
2.228275 -2.385289 0.265754 20.000000
2.151758 -2.354394 0.258789 18.000000
2.056218 -2.299715 0.249542 22.000000
1.975312 -2.258235 0.241954 19.000000
1.879407 -2.196329 0.232315 9.000000
1.820147 -2.174730 0.227215 20.000000
1.742772 -2.128876 0.219668 18.000000
1.697720 -2.120590 0.216134 22.000000
1.622366 -2.072248 0.208667 21.000000
1.563369 -2.042316 0.203216 18.000000
1.517194 -2.027318 0.199368 22.000000
1.456842 -1.991450 0.193586 24.000000
1.443787 -2.019402 0.193999 16.000000
1.396056 -1.998202 0.189822 29.000000
1.371532 -2.009232 0.188763 29.000000
1.350757 -2.023306 0.187944 31.000000
1.328716 -2.037900 0.187200 24.000000
1.330622 -2.090121 0.189970 29.000000
1.313134 -2.112999 0.189973 27.000000
1.290139 -2.127161 0.189211 22.000000
1.297383 -2.192662 0.192982 9.000000
0.777507 1.334633 0.128709 8.000000
0.794536 1.330349 0.129647 13.000000
0.808963 1.321570 0.130216 26.000000
0.823294 1.312648 0.130738 25.000000
0.842869 1.311967 0.132152 30.000000
0.848886 1.290169 0.131406 23.000000
0.873255 1.297856 0.133676 25.000000
0.887293 1.288226 0.134203 30.000000
0.898366 1.274380 0.134349 25.000000
0.903426 1.252327 0.133534 20.000000
0.925875 1.254417 0.135352 31.000000
0.939487 1.244196 0.135877 31.000000
0.952955 1.233880 0.136403 32.000000
0.975590 1.235098 0.138192 27.000000
0.998335 1.235969 0.139991 31.000000
1.005378 1.217288 0.139645 29.000000
1.021796 1.210017 0.140571 27.000000
1.028389 1.191220 0.140169 26.000000
1.047902 1.187356 0.141541 33.000000
1.064096 1.179506 0.142473 32.000000
1.080273 1.171435 0.143359 40.000000
1.085652 1.152760 0.142997 31.000000
1.111985 1.155124 0.145287 34.000000
1.131498 1.149988 0.146635 32.000000
1.147537 1.140991 0.147533 30.000000
1.149228 1.117930 0.146614 24.000000
1.164971 1.108686 0.147513 33.000000
1.180640 1.099215 0.148414 36.000000
1.203647 1.096270 0.150238 55.000000
1.219239 1.086310 0.151097 36.000000
1.238557 1.079388 0.152472 53.000000
1.254079 1.068972 0.153338 50.000000
1.272987 1.061915 0.154773 43.000000
1.292236 1.054134 0.156111 25.000000
1.315361 1.049236 0.157922 34.000000
1.318909 1.028569 0.157346 41.000000
1.341961 1.023062 0.159165 37.000000
1.357074 1.011243 0.160049 32.000000
1.359973 0.990441 0.159469 51.000000
1.378812 0.981256 0.160776 35.000000
1.405583 0.977788 0.163140 32.000000
1.440887 0.979034 0.166359 30.000000
1.447368 0.960421 0.166256 33.000000
1.457752 0.944498 0.166629 37.000000
1.489008 0.941771 0.169341 69.000000
1.494982 0.922790 0.169239 34.000000
1.500522 0.904063 0.169136 58.000000
1.527460 0.897659 0.171438 66.000000
1.567409 0.898195 0.175141 35.000000
1.585792 0.885822 0.176440 34.000000
1.604113 0.873148 0.177743 41.000000
1.644125 0.872111 0.181533 50.000000
1.666805 0.860929 0.183277 56.000000
1.685016 0.847106 0.184596 45.000000
1.694154 0.828600 0.184943 41.000000
1.712047 0.814311 0.186210 57.000000
1.734258 0.802031 0.188027 34.000000
1.765565 0.793183 0.190772 30.000000
1.783233 0.777812 0.192052 32.000000
1.819018 0.770120 0.195362 33.000000
1.841125 0.755859 0.197144 36.000000
1.858489 0.739396 0.198375 32.000000
1.875626 0.722794 0.199731 35.000000
1.930012 0.719648 0.204928 37.000000
1.947016 0.702051 0.206235 31.000000
1.968602 0.685632 0.207978 34.000000
1.985386 0.667256 0.209228 52.000000
2.020914 0.654873 0.212536 49.000000
2.042132 0.637231 0.214226 39.000000
2.063185 0.619279 0.215985 35.000000
2.088913 0.602329 0.218313 36.000000
2.124083 0.587481 0.221514 36.000000
2.164032 0.573212 0.225288 31.000000
2.199009 0.556989 0.228501 43.000000
2.204923 0.533053 0.228779 44.000000
2.263955 0.521185 0.234441 40.000000
2.308319 0.505035 0.238674 71.000000
2.318553 0.480823 0.239395 38.000000
2.367572 0.464234 0.244143 48.000000
2.392023 0.442022 0.246380 16.000000
2.367242 0.410804 0.243505 7.000000
2.459973 0.399357 0.252809 9.000000
2.513363 0.379960 0.258011 18.000000
2.571528 0.360181 0.263724 36.000000
2.614740 0.337234 0.267928 65.000000
2.642918 0.311599 0.270618 35.000000
2.670914 0.285425 0.273312 9.000000
2.708458 0.259578 0.276939 8.000000
2.790430 0.236760 0.285211 6.000000
2.906930 0.214778 0.296952 9.000000
2.958719 0.186159 0.302111 9.000000
2.970564 0.154482 0.303216 18.000000
3.041603 0.124948 0.310408 69.000000
3.097509 0.093351 0.316082 80.000000
3.162920 0.060848 0.322678 95.000000
3.123614 0.026064 0.318619 98.000000
3.083917 -0.007947 0.314655 46.000000
3.028924 -0.040795 0.309072 11.000000
3.003503 -0.073270 0.306534 9.000000
3.002489 -0.105988 0.306534 16.000000
3.026043 -0.139854 0.308979 71.000000
3.019311 -0.172559 0.308472 73.000000
2.997420 -0.204141 0.306350 50.000000
2.955355 -0.233631 0.302202 47.000000
2.942718 -0.264933 0.301097 73.000000
2.905084 -0.293518 0.297459 85.000000
2.876964 -0.322366 0.294836 54.000000
2.858512 -0.351892 0.293228 65.000000
2.824956 -0.379021 0.290102 21.000000
2.781291 -0.404076 0.285880 9.000000
2.766892 -0.432799 0.284696 9.000000
2.732560 -0.457934 0.281492 9.000000
2.707874 -0.484263 0.279301 9.000000
2.717134 -0.516499 0.280647 10.000000
2.682106 -0.540131 0.277451 9.000000
