x y z intensity
0.794067 -0.134338 -0.592804 95.000000
0.800559 -0.145792 -0.598300 105.000000
0.798833 -0.155932 -0.598054 103.000000
0.797200 -0.165950 -0.597530 103.000000
0.791382 -0.175157 -0.594204 103.000000
0.789419 -0.185156 -0.593774 105.000000
0.791282 -0.196094 -0.596235 108.000000
0.789155 -0.206081 -0.595711 103.000000
0.790646 -0.217168 -0.598289 57.000000
0.772819 -0.222666 -0.585862 103.000000
0.774139 -0.233643 -0.588318 103.000000
0.771515 -0.243439 -0.587799 103.000000
0.780362 -0.257002 -0.595997 103.000000
0.769852 -0.264254 -0.589511 100.000000
0.770785 -0.275370 -0.591735 98.000000
0.771627 -0.286522 -0.593921 100.000000
0.768343 -0.296372 -0.593333 79.000000
0.776523 -0.310559 -0.601221 100.000000
0.769282 -0.318905 -0.597614 98.000000
0.769451 -0.330299 -0.599806 98.000000
0.769522 -0.341726 -0.601929 100.000000
0.769463 -0.353215 -0.603979 98.000000
0.761910 -0.361246 -0.600160 100.000000
0.765349 -0.374494 -0.605002 100.000000
0.761331 -0.384189 -0.604013 63.000000
0.764205 -0.397750 -0.608956 100.000000
0.767191 -0.411270 -0.613623 100.000000
0.762576 -0.421086 -0.612680 103.000000
0.761454 -0.432892 -0.614577 98.000000
0.763726 -0.446792 -0.619299 100.000000
0.762295 -0.458695 -0.621074 103.000000
0.760785 -0.470621 -0.622772 100.000000
0.759128 -0.482538 -0.624459 95.000000
0.740145 -0.483238 -0.611806 95.000000
0.728092 -0.488103 -0.604880 95.000000
0.736468 -0.506706 -0.614915 98.000000
0.747543 -0.528171 -0.627932 95.000000
0.725243 -0.525580 -0.612399 98.000000
0.745869 -0.554707 -0.633705 98.000000
0.739689 -0.564388 -0.632401 88.000000
0.740341 -0.578861 -0.636429 77.000000
0.717767 -0.575528 -0.621055 40.000000
0.743479 -0.611152 -0.647579 100.000000
0.762195 -0.642187 -0.668335 93.000000
1.170869 -1.086947 -1.055915 27.000000
1.222800 -1.162449 -1.110790 20.000000
1.245474 -1.213735 -1.141118 14.000000
1.247338 -1.244640 -1.151557 10.000000
1.269348 -1.296635 -1.181011 14.000000
1.254680 -1.313549 -1.177972 16.000000
1.249535 -1.338882 -1.182607 12.000000
1.248657 -1.371127 -1.192939 19.000000
1.217596 -1.368336 -1.172992 10.000000
1.221678 -1.406811 -1.188563 10.000000
1.208692 -1.426352 -1.187804 10.000000
1.223672 -1.477703 -1.213281 10.000000
1.215301 -1.503924 -1.217602 19.000000
1.196082 -1.516776 -1.211250 21.000000
1.192384 -1.549586 -1.220733 16.000000
1.183010 -1.575742 -1.224712 18.000000
1.173343 -1.601892 -1.228640 16.000000
1.168332 -1.634888 -1.237689 13.000000
1.150543 -1.650588 -1.233512 10.000000
1.147007 -1.687252 -1.244889 9.000000
1.135784 -1.713401 -1.248372 10.000000
1.124183 -1.739523 -1.251727 10.000000
1.116844 -1.772789 -1.260106 10.000000
0.506504 0.826550 -0.570843 29.000000
0.517652 0.823257 -0.575449 35.000000
0.545117 0.845115 -0.597925 26.000000
0.549379 0.830529 -0.594904 29.000000
0.553487 0.815999 -0.591846 31.000000
0.567150 0.815554 -0.599010 19.000000
0.558517 0.783531 -0.582893 50.000000
0.564409 0.772529 -0.582217 54.000000
0.583011 0.778601 -0.594527 35.000000
0.596619 0.777499 -0.601637 58.000000
0.631384 0.802954 -0.629736 18.000000
0.664142 0.824250 -0.655365 12.000000
0.716401 0.867752 -0.699539 14.000000
0.725903 0.858169 -0.701601 9.000000
0.784581 0.906441 -0.751676 13.000000
0.870361 0.981427 -0.825708 19.000000
0.938045 1.032307 -0.881346 12.000000
0.994718 1.069688 -0.926929 16.000000
1.050236 1.102180 -0.969648 20.000000
0.703400 0.687439 -0.633702 28.000000
0.686766 0.654902 -0.613451 36.000000
0.709045 0.660297 -0.628715 62.000000
0.700560 0.637004 -0.616693 90.000000
0.713613 0.633492 -0.623716 80.000000
0.714078 0.618762 -0.619762 91.000000
0.723888 0.612182 -0.624028 98.000000
0.730504 0.602796 -0.625448 94.000000
0.727275 0.585464 -0.618584 98.000000
0.727116 0.570887 -0.614382 67.000000
0.730012 0.558907 -0.612930 95.000000
0.739481 0.551917 -0.616956 95.000000
0.755276 0.549866 -0.626770 95.000000
0.747817 0.530446 -0.616774 95.000000
0.749939 0.518579 -0.615326 100.000000
0.752311 0.506498 -0.613598 95.000000
0.747279 0.490100 -0.606445 103.000000
0.748970 0.478317 -0.604851 57.000000
0.754088 0.468771 -0.606000 98.000000
0.759107 0.459125 -0.607115 100.000000
0.764061 0.449415 -0.608165 100.000000
0.765340 0.437561 -0.606349 103.000000
0.748516 0.415771 -0.590269 100.000000
0.753086 0.406187 -0.591157 98.000000
0.753919 0.394600 -0.589168 105.000000
0.769011 0.390674 -0.598732 67.000000
0.762068 0.375491 -0.591158 89.000000
0.769971 0.367466 -0.594712 95.000000
0.773874 0.357722 -0.595601 98.000000
0.766498 0.342866 -0.587823 98.000000
0.770189 0.333138 -0.588605 95.000000
0.781335 0.326501 -0.595074 100.000000
0.769737 0.310466 -0.584226 98.000000
0.788158 0.306697 -0.596622 56.000000
0.772449 0.289518 -0.582766 100.000000
0.775470 0.279778 -0.583506 100.000000
0.778398 0.270007 -0.584184 100.000000
0.773560 0.257599 -0.579010 100.000000
0.807358 0.257715 -0.602773 98.000000
0.782887 0.239197 -0.583009 100.000000
0.781586 0.228149 -0.580566 105.000000
0.768436 0.213896 -0.569344 95.000000
0.778483 0.206320 -0.575728 95.000000
0.756973 0.190576 -0.558779 98.000000
0.755041 0.180112 -0.556306 100.000000
0.753001 0.169717 -0.553799 103.000000
0.758801 0.161051 -0.557035 103.000000
0.764531 0.152285 -0.560244 98.000000
0.766084 0.142705 -0.560684 100.000000
0.779691 0.135116 -0.569623 95.000000
0.809097 0.129825 -0.590410 98.000000
0.806441 0.119062 -0.587763 103.000000
0.807729 0.108940 -0.587978 100.000000
0.812919 0.099280 -0.591088 100.000000
0.809846 0.088637 -0.588468 100.000000
0.814892 0.078845 -0.591427 100.000000
0.811655 0.068302 -0.588714 103.000000
0.796164 0.056963 -0.577148 86.000000
0.780587 0.046030 -0.565489 85.000000
0.784987 0.036440 -0.568655 98.000000
0.789450 0.026720 -0.571557 98.000000
0.789658 0.016811 -0.571646 100.000000
0.814048 0.007115 -0.589297 100.000000
0.826229 -0.003113 -0.598092 100.000000
0.814048 -0.013280 -0.589205 100.000000
0.813894 -0.023493 -0.589082 108.000000
0.813526 -0.033707 -0.589113 103.000000
0.809174 -0.043671 -0.585938 105.000000
0.816741 -0.054341 -0.591704 98.000000
0.816094 -0.064574 -0.591519 100.000000
0.819422 -0.075177 -0.594231 103.000000
0.818461 -0.085461 -0.594169 103.000000
0.817563 -0.095714 -0.593828 103.000000
0.820439 -0.106489 -0.596598 105.000000
0.819225 -0.116792 -0.596349 103.000000
0.817917 -0.127064 -0.596038 100.000000
0.804540 -0.135286 -0.586904 95.000000
0.810872 -0.146854 -0.592558 100.000000
0.809324 -0.157014 -0.592063 103.000000
0.807527 -0.167205 -0.591753 105.000000
0.805638 -0.177334 -0.591381 100.000000
0.807614 -0.188386 -0.593859 103.000000
0.805529 -0.198534 -0.593361 103.000000
0.795504 -0.206574 -0.587019 100.000000
0.789389 -0.215458 -0.583500 90.000000
0.786904 -0.225426 -0.583071 100.000000
0.776554 -0.232991 -0.576813 100.000000
0.781721 -0.245239 -0.582058 100.000000
0.782898 -0.256353 -0.584369 98.000000
0.776201 -0.264868 -0.580832 105.000000
0.781043 -0.277353 -0.585899 103.000000
0.774237 -0.285727 -0.582273 98.000000
0.782420 -0.299949 -0.590326 81.000000
0.783062 -0.311251 -0.592325 100.000000
0.783357 -0.322711 -0.594506 103.000000
0.783523 -0.334236 -0.596648 100.000000
0.776092 -0.342484 -0.592958 100.000000
0.776096 -0.353977 -0.594998 100.000000
0.775969 -0.365501 -0.596933 103.000000
0.768066 -0.373623 -0.593379 100.000000
0.778761 -0.390642 -0.603755 93.000000
0.785582 -0.406110 -0.611216 98.000000
0.773757 -0.412245 -0.604653 98.000000
0.779974 -0.428038 -0.612213 100.000000
0.775228 -0.437992 -0.611257 103.000000
0.766817 -0.445773 -0.607378 98.000000
0.765472 -0.457635 -0.609115 98.000000
0.767537 -0.471686 -0.613624 100.000000
0.755420 -0.477015 -0.606808 80.000000
0.750278 -0.486573 -0.605588 95.000000
0.738172 -0.491472 -0.598740 100.000000
0.742858 -0.508031 -0.606041 95.000000
0.734062 -0.515017 -0.601897 95.000000
0.755269 -0.543936 -0.622993 95.000000
0.762946 -0.563320 -0.632622 98.000000
0.779915 -0.590727 -0.650682 95.000000
0.812881 -0.631445 -0.682438 58.000000
0.845062 -0.673109 -0.714013 84.000000
0.837711 -0.683977 -0.712392 87.000000
1.212538 -1.091035 -1.059517 27.000000
1.234802 -1.137817 -1.086609 21.000000
1.244053 -1.173876 -1.102643 21.000000
1.260939 -1.219453 -1.126999 10.000000
1.289922 -1.277098 -1.161548 10.000000
1.293276 -1.312147 -1.174784 17.000000
1.270690 -1.319496 -1.163276 11.000000
1.279005 -1.360949 -1.181616 21.000000
1.261980 -1.374155 -1.175242 16.000000
1.255118 -1.400237 -1.179985 11.000000
1.242396 -1.420026 -1.179315 19.000000
1.244283 -1.455207 -1.191293 9.000000
1.244588 -1.491233 -1.203586 10.000000
1.236194 -1.517587 -1.207837 17.000000
1.224861 -1.540611 -1.209352 16.000000
1.213171 -1.563564 -1.210764 20.000000
1.201264 -1.586445 -1.212072 14.000000
1.191607 -1.612688 -1.215939 15.000000
1.179153 -1.635449 -1.217028 14.000000
1.181201 -1.679087 -1.233533 9.000000
1.165430 -1.698340 -1.231860 9.000000
1.156678 -1.728149 -1.237769 10.000000
1.147548 -1.757994 -1.243530 10.000000
1.149373 -1.806039 -1.261990 10.000000
1.125412 -1.814104 -1.252304 10.000000
0.512272 0.828747 -0.562466 15.000000
0.533342 0.839793 -0.576860 18.000000
0.532860 0.818153 -0.568862 23.000000
0.558360 0.836099 -0.588544 15.000000
0.584289 0.853528 -0.608313 22.000000
0.541485 0.771726 -0.557024 16.000000
0.559780 0.778438 -0.569103 22.000000
0.568150 0.770986 -0.570975 32.000000
0.581623 0.770245 -0.577950 18.000000
0.616186 0.796374 -0.605572 10.000000
0.659355 0.831801 -0.641078 10.000000
0.700702 0.862845 -0.674161 9.000000
0.740147 0.889632 -0.704792 9.000000
0.785793 0.922038 -0.740768 9.000000
0.829519 0.950112 -0.774281 9.000000
0.995952 1.088346 -0.913088 10.000000
1.092153 1.165017 -0.992095 9.000000
1.177619 1.227548 -1.061240 10.000000
1.197206 1.217990 -1.069239 18.000000
1.135627 1.127609 -1.005389 14.000000
0.715883 0.661848 -0.619269 29.000000
0.729120 0.658299 -0.626266 32.000000
0.729806 0.643378 -0.622476 40.000000
0.746211 0.642236 -0.632131 39.000000
0.749883 0.629928 -0.630959 35.000000
0.727822 0.596060 -0.607749 93.000000
0.743666 0.594794 -0.617551 25.000000
0.733586 0.572310 -0.605270 36.000000
0.739819 0.562859 -0.606557 47.000000
0.752705 0.558325 -0.613286 65.000000
0.755436 0.546169 -0.611739 88.000000
0.761084 0.536641 -0.613168 68.000000
0.767039 0.526808 -0.614291 66.000000
0.765623 0.512472 -0.610097 73.000000
0.771322 0.502592 -0.611109 37.000000
0.766107 0.486122 -0.604044 88.000000
0.760649 0.469853 -0.596880 64.000000
0.765668 0.460175 -0.597962 60.000000
0.774206 0.452560 -0.601831 98.000000
0.779084 0.442705 -0.602820 68.000000
0.783896 0.432817 -0.603809 95.000000
0.792261 0.424788 -0.607531 95.000000
0.793257 0.412778 -0.605588 78.000000
0.771695 0.389770 -0.587015 37.000000
0.779713 0.381734 -0.590561 64.000000
0.780019 0.370157 -0.588705 63.000000
0.780190 0.358611 -0.586777 81.000000
0.784221 0.348645 -0.587380 68.000000
0.787966 0.338774 -0.588142 98.000000
0.791616 0.328809 -0.588904 95.000000
0.794980 0.318938 -0.589792 95.000000
0.794633 0.307424 -0.587589 83.000000
0.798012 0.297348 -0.588189 95.000000
0.808848 0.290143 -0.594605 98.000000
0.804140 0.277322 -0.589642 98.000000
0.815067 0.269733 -0.595753 98.000000
0.814055 0.258254 -0.593506 98.000000
0.793254 0.240880 -0.576909 100.000000
0.799628 0.232129 -0.580447 98.000000
0.782411 0.216593 -0.566573 81.000000
0.788609 0.207879 -0.570012 95.000000
0.794922 0.198944 -0.573181 100.000000
0.793012 0.188050 -0.570771 98.000000
0.799011 0.179016 -0.574036 98.000000
0.768896 0.162246 -0.551426 100.000000
0.770654 0.152637 -0.551719 100.000000
0.776199 0.143772 -0.555034 100.000000
0.810060 0.139580 -0.578225 95.000000
0.819577 0.130778 -0.584319 98.000000
0.820939 0.120525 -0.584598 100.000000
0.822209 0.110272 -0.584845 98.000000
0.823387 0.099988 -0.585000 103.000000
0.828408 0.090178 -0.588224 103.000000
0.825369 0.079452 -0.585372 103.000000
0.826143 0.069137 -0.585589 103.000000
0.794270 0.056534 -0.562630 68.000000
0.803018 0.047104 -0.568491 98.000000
0.799300 0.036906 -0.565845 100.000000
0.799719 0.026917 -0.565785 100.000000
0.840710 0.017823 -0.594777 103.000000
0.840836 0.007324 -0.594840 105.000000
0.840867 -0.003143 -0.594809 110.000000
0.824478 -0.013377 -0.583197 108.000000
0.820274 -0.023524 -0.580187 108.000000
0.819906 -0.033768 -0.580218 105.000000
0.811444 -0.043513 -0.574172 103.000000
0.831271 -0.055003 -0.588505 103.000000
0.826577 -0.065017 -0.585465 105.000000
0.829933 -0.075703 -0.588131 103.000000
0.828968 -0.086069 -0.588069 105.000000
0.824006 -0.095900 -0.584845 103.000000
0.818806 -0.105660 -0.581779 105.000000
0.821652 -0.116436 -0.584412 105.000000
0.824392 -0.127313 -0.586979 103.000000
0.823022 -0.137585 -0.586606 100.000000
0.825399 -0.148614 -0.589294 103.000000
0.823835 -0.158874 -0.588793 103.000000
0.818011 -0.168340 -0.585610 103.000000
0.820113 -0.179456 -0.588105 100.000000
0.814120 -0.188760 -0.584800 98.000000
0.812065 -0.198907 -0.584302 103.000000
0.813700 -0.210143 -0.586823 100.000000
0.807490 -0.219172 -0.583369 75.000000
0.793161 -0.225947 -0.574360 100.000000
0.790800 -0.235792 -0.573655 98.000000
0.792083 -0.246921 -0.575954 98.000000
0.789371 -0.256815 -0.575368 100.000000
0.790274 -0.268092 -0.577783 98.000000
0.791241 -0.279342 -0.579913 103.000000
0.776661 -0.284957 -0.570649 95.000000
0.796528 -0.303539 -0.587083 63.000000
0.793117 -0.313551 -0.586420 95.000000
0.793647 -0.324968 -0.588332 98.000000
0.786263 -0.333324 -0.584746 95.000000
0.790160 -0.346494 -0.589598 98.000000
0.786142 -0.356540 -0.588961 95.000000
0.782283 -0.366394 -0.588068 95.000000
0.774636 -0.374385 -0.584302 94.000000
0.788902 -0.393427 -0.597567 43.000000
0.795795 -0.408955 -0.604896 95.000000
0.794876 -0.420981 -0.606803 95.000000
0.786533 -0.429060 -0.603050 94.000000
0.785440 -0.441013 -0.604849 98.000000
0.776975 -0.448868 -0.601040 81.000000
0.775639 -0.460781 -0.602730 95.000000
0.767087 -0.468413 -0.598832 81.000000
0.765573 -0.480283 -0.600412 35.000000
0.781432 -0.503431 -0.615754 67.000000
0.782673 -0.518074 -0.620213 59.000000
0.777145 -0.527893 -0.618874 72.000000
0.795234 -0.554582 -0.636924 58.000000
0.823419 -0.588863 -0.662826 68.000000
0.857390 -0.629109 -0.694299 69.000000
0.870502 -0.655197 -0.709192 67.000000
0.876562 -0.676556 -0.718572 35.000000
1.257803 -1.097194 -1.065108 18.000000
1.258606 -1.124451 -1.073120 10.000000
1.287096 -1.177506 -1.105035 15.000000
1.279904 -1.200116 -1.107790 10.000000
1.288550 -1.236843 -1.123384 9.000000
1.305769 -1.282895 -1.146709 10.000000
1.285354 -1.293950 -1.138513 9.000000
1.288587 -1.329036 -1.151406 10.000000
1.277606 -1.348421 -1.150512 10.000000
1.268381 -1.371406 -1.152629 10.000000
1.262751 -1.396897 -1.156864 10.000000
1.255772 -1.423014 -1.161389 9.000000
1.267954 -1.471793 -1.184016 9.000000
1.249027 -1.485046 -1.177881 9.000000
1.240893 -1.511386 -1.182108 9.000000
1.237762 -1.544347 -1.191305 10.000000
1.223556 -1.563939 -1.190140 10.000000
1.214276 -1.590214 -1.194011 10.000000
1.212482 -1.626821 -1.205423 10.000000
1.205035 -1.656659 -1.211572 9.000000
1.199638 -1.690061 -1.220115 9.000000
1.186348 -1.712934 -1.220987 8.000000
1.184924 -1.753610 -1.234271 9.000000
1.170842 -1.776458 -1.234955 9.000000
1.154190 -1.795565 -1.232951 9.000000
1.144923 -1.829886 -1.241353 9.000000
0.500703 0.822545 -0.541945 24.000000
0.523233 0.838018 -0.558737 30.000000
0.525068 0.820039 -0.553369 27.000000
0.540933 0.823921 -0.562789 25.000000
0.552744 0.820036 -0.567078 33.000000
0.563904 0.816295 -0.571557 26.000000
0.585071 0.826512 -0.586035 26.000000
0.553283 0.762780 -0.547827 28.000000
0.566617 0.762393 -0.554666 26.000000
0.590484 0.775496 -0.571656 23.000000
0.635889 0.815295 -0.609009 12.000000
0.671577 0.840530 -0.636406 13.000000
0.729664 0.891561 -0.684313 16.000000
0.788970 0.941187 -0.732500 10.000000
0.841097 0.979619 -0.773168 9.000000
0.902736 1.026518 -0.821789 14.000000
0.988422 1.097392 -0.891296 14.000000
1.246155 1.320213 -1.104393 20.000000
1.266614 1.310007 -1.112522 10.000000
1.284078 1.296421 -1.118001 13.000000
1.282374 1.265140 -1.108168 10.000000
1.287186 1.239505 -1.103000 9.000000
0.729594 0.654164 -0.611338 35.000000
0.710996 0.622526 -0.591697 53.000000
0.714413 0.610724 -0.590534 73.000000
0.714825 0.595956 -0.586389 74.000000
0.721204 0.586826 -0.587766 59.000000
0.720901 0.572376 -0.583786 95.000000
0.720384 0.557996 -0.579716 27.000000
0.746628 0.564044 -0.597072 81.000000
0.765943 0.564690 -0.609348 95.000000
0.768700 0.552441 -0.607853 93.000000
0.767856 0.537764 -0.603641 98.000000
0.766533 0.523398 -0.599576 95.000000
0.768805 0.511261 -0.597903 98.000000
0.767138 0.497033 -0.593732 95.000000
0.754971 0.476045 -0.581057 38.000000
0.770713 0.473093 -0.590394 98.000000
0.772164 0.461258 -0.588744 98.000000
0.777085 0.451514 -0.589826 98.000000
0.778304 0.439651 -0.588062 103.000000
0.794049 0.435814 -0.597300 98.000000
0.798783 0.425782 -0.598227 103.000000
0.777502 0.402274 -0.579762 103.000000
0.804265 0.403649 -0.597184 98.000000
0.771054 0.375374 -0.570479 98.000000
0.775203 0.365598 -0.571202 95.000000
0.782851 0.357645 -0.574828 95.000000
0.786642 0.347853 -0.575681 98.000000
0.794187 0.339631 -0.579224 95.000000
0.797837 0.329666 -0.579985 98.000000
0.805244 0.321173 -0.583443 95.000000
0.804883 0.309575 -0.581287 95.000000
0.800507 0.296603 -0.576295 100.000000
0.807488 0.288030 -0.579850 103.000000
0.810520 0.277954 -0.580545 105.000000
0.809685 0.266458 -0.578181 103.000000
0.812514 0.256368 -0.578746 100.000000
0.815280 0.246216 -0.579281 103.000000
0.813950 0.234885 -0.576969 100.000000
0.824323 0.227006 -0.583261 100.000000
0.814836 0.213538 -0.575182 98.000000
0.813041 0.202424 -0.572889 100.000000
0.819163 0.193273 -0.576178 100.000000
0.817346 0.182104 -0.573570 100.000000
0.815108 0.171128 -0.571300 103.000000
0.812913 0.160190 -0.568809 100.000000
0.822767 0.151562 -0.574717 98.000000
0.820255 0.140644 -0.572286 100.000000
0.805553 0.127829 -0.561074 100.000000
0.810958 0.118423 -0.564182 103.000000
0.812233 0.108342 -0.564424 103.000000
0.809148 0.097798 -0.561951 105.000000
0.814328 0.088180 -0.564910 103.000000
0.806986 0.077314 -0.559503 103.000000
0.811988 0.067615 -0.562313 103.000000
0.804445 0.056943 -0.556783 100.000000
0.788613 0.046025 -0.545508 105.000000
0.797183 0.036618 -0.551397 103.000000
0.801709 0.026868 -0.554210 103.000000
0.797805 0.016844 -0.551486 100.000000
0.802036 0.006992 -0.554359 103.000000
0.806179 -0.002991 -0.557202 100.000000
0.797894 -0.012847 -0.551457 100.000000
0.793634 -0.022617 -0.548496 98.000000
0.801501 -0.032790 -0.554180 98.000000
0.792986 -0.042289 -0.548261 100.000000
0.796591 -0.052396 -0.551013 83.000000
0.800072 -0.062574 -0.553704 98.000000
0.807437 -0.073286 -0.559353 100.000000
0.806655 -0.083266 -0.559082 100.000000
0.801573 -0.092802 -0.556125 103.000000
0.804701 -0.103255 -0.558571 100.000000
0.823923 -0.116109 -0.572502 98.000000
0.818556 -0.125686 -0.569361 100.000000
0.804828 -0.133871 -0.560712 95.000000
0.827754 -0.148169 -0.577299 103.000000
0.834140 -0.160026 -0.582675 103.000000
0.832317 -0.170399 -0.582330 100.000000
0.834589 -0.181555 -0.584556 98.000000
0.832409 -0.191978 -0.584335 103.000000
0.834336 -0.203284 -0.586650 100.000000
0.840147 -0.215652 -0.591714 98.000000
0.841669 -0.227207 -0.594146 98.000000
0.811412 -0.229755 -0.573781 100.000000
0.804894 -0.238665 -0.570442 100.000000
0.802230 -0.248670 -0.569915 103.000000
0.799505 -0.258644 -0.569296 100.000000
0.800424 -0.270004 -0.571664 100.000000
0.793619 -0.278561 -0.568150 100.000000
0.794540 -0.289801 -0.570201 100.000000
0.795151 -0.301231 -0.572402 95.000000
0.807222 -0.317250 -0.582901 98.000000
0.799836 -0.325762 -0.579414 98.000000
0.800078 -0.337373 -0.581434 103.000000
0.796411 -0.347323 -0.580637 100.000000
0.788823 -0.355532 -0.577002 100.000000
0.796305 -0.370641 -0.584423 98.000000
0.792119 -0.380654 -0.583682 95.000000
0.791797 -0.392357 -0.585446 87.000000
0.787398 -0.402320 -0.584604 95.000000
0.779209 -0.410274 -0.580978 100.000000
0.782012 -0.424043 -0.585542 100.000000
0.777364 -0.433859 -0.584567 100.000000
0.776214 -0.445692 -0.586299 100.000000
0.774985 -0.457551 -0.587956 100.000000
0.770032 -0.467229 -0.586841 98.000000
0.768538 -0.479092 -0.588417 98.000000
0.791396 -0.506987 -0.609185 93.000000
0.828067 -0.544554 -0.640451 98.000000
0.877709 -0.592701 -0.682603 87.000000
0.885273 -0.613203 -0.691875 81.000000
0.881908 -0.626892 -0.693205 81.000000
0.881737 -0.643034 -0.697177 59.000000
1.347461 -1.084721 -1.090775 10.000000
1.351994 -1.115228 -1.101456 16.000000
1.352173 -1.143734 -1.109802 13.000000
1.346274 -1.166318 -1.112292 10.000000
1.356072 -1.203022 -1.127899 18.000000
1.348677 -1.226331 -1.130629 11.000000
1.335650 -1.243351 -1.127487 12.000000
1.328658 -1.265984 -1.129586 10.000000
1.323602 -1.292146 -1.134601 10.000000
1.322167 -1.320830 -1.141717 15.000000
1.304412 -1.334885 -1.136176 12.000000
1.301413 -1.364196 -1.143480 11.000000
1.298958 -1.393001 -1.150253 13.000000
1.303735 -1.432018 -1.165037 12.000000
1.285091 -1.445710 -1.159156 10.000000
1.283265 -1.478577 -1.168528 9.000000
1.258717 -1.485369 -1.157384 10.000000
1.275458 -1.541462 -1.184425 22.000000
1.250522 -1.547943 -1.173117 11.000000
1.239014 -1.570999 -1.174443 15.000000
1.240385 -1.611013 -1.188352 17.000000
1.238572 -1.647839 -1.199487 12.000000
1.228491 -1.674463 -1.203003 13.000000
1.218039 -1.700995 -1.206394 9.000000
1.209772 -1.731058 -1.212150 9.000000
1.196161 -1.753986 -1.212800 12.000000
1.178494 -1.773798 -1.211392 10.000000
1.180800 -1.822063 -1.229150 10.000000
1.173021 -1.856008 -1.236929 10.000000
1.169274 -1.897381 -1.249352 9.000000
0.502002 0.838734 -0.536403 18.000000
0.503943 0.820905 -0.531168 31.000000
0.519628 0.825327 -0.540418 27.000000
0.531323 0.821851 -0.544619 31.000000
0.535183 0.807568 -0.541721 29.000000
0.553517 0.814981 -0.553448 32.000000
0.567739 0.814574 -0.560120 32.000000
0.568783 0.796509 -0.554672 24.000000
0.559304 0.764510 -0.539212 26.000000
0.577865 0.771119 -0.550935 21.000000
0.625698 0.815158 -0.590113 15.000000
0.661219 0.840997 -0.616972 23.000000
0.710969 0.882955 -0.656519 16.000000
0.758983 0.920365 -0.693748 10.000000
0.824641 0.976444 -0.746278 12.000000
0.863427 0.998319 -0.773778 9.000000
1.279270 1.344792 -1.104785 15.000000
1.299099 1.334794 -1.113277 21.000000
1.301692 1.305760 -1.105904 15.000000
1.313001 1.285835 -1.106081 16.000000
1.267612 1.213121 -1.060159 10.000000
1.227945 1.147050 -1.018600 14.000000
0.775336 0.674282 -0.629418 38.000000
0.720782 0.612112 -0.581253 72.000000
0.724043 0.600284 -0.580051 95.000000
0.727515 0.588202 -0.578568 71.000000
0.733792 0.578970 -0.579910 83.000000
0.760219 0.585208 -0.597071 77.000000
0.769921 0.578134 -0.601029 94.000000
0.772771 0.565828 -0.599623 98.000000
0.771675 0.551318 -0.595752 95.000000
0.774219 0.539091 -0.594249 81.000000
0.780139 0.529258 -0.595372 100.000000
0.775385 0.512335 -0.588437 98.000000
0.777207 0.500382 -0.586999 93.000000
0.779180 0.488251 -0.585283 86.000000
0.777140 0.474115 -0.581067 95.000000
0.789425 0.468725 -0.587545 98.000000
0.794415 0.458813 -0.588609 103.000000
0.803005 0.450926 -0.592345 100.000000
0.804161 0.438821 -0.590605 103.000000
0.812629 0.430708 -0.594250 100.000000
0.806111 0.414723 -0.586999 103.000000
0.776882 0.387746 -0.563331 52.000000
0.784888 0.379780 -0.566814 95.000000
0.785094 0.368258 -0.565005 100.000000
0.796570 0.361993 -0.571357 95.000000
0.796790 0.350264 -0.569226 98.000000
0.808200 0.343602 -0.575500 98.000000
0.815751 0.335129 -0.578981 95.000000
0.811591 0.321875 -0.574195 100.000000
0.803399 0.307290 -0.566582 44.000000
0.810489 0.298801 -0.570122 100.000000
0.794117 0.281689 -0.556906 103.000000
0.816774 0.278586 -0.571385 100.000000
0.819870 0.268384 -0.571827 105.000000
0.826687 0.259460 -0.575193 103.000000
0.825492 0.247979 -0.572964 103.000000
0.804141 0.230854 -0.556817 105.000000
0.830735 0.227449 -0.573912 95.000000
0.816975 0.213017 -0.563380 98.000000
0.815293 0.201827 -0.560943 103.000000
0.817389 0.191748 -0.561406 100.000000
0.823448 0.182538 -0.564619 103.000000
0.817268 0.170649 -0.559424 103.000000
0.823183 0.161326 -0.562515 103.000000
0.820856 0.150376 -0.559976 103.000000
0.834664 0.142348 -0.568770 95.000000
0.815604 0.128808 -0.555163 103.000000
0.812834 0.118130 -0.552645 105.000000
0.814073 0.108100 -0.552887 103.000000
0.811134 0.097514 -0.550245 105.000000
0.820432 0.088392 -0.555953 105.000000
0.813028 0.077494 -0.550636 105.000000
0.822193 0.068109 -0.556226 105.000000
0.831131 0.058549 -0.561969 95.000000
0.806916 0.046864 -0.545254 100.000000
0.807273 0.036896 -0.545492 103.000000
0.811832 0.027066 -0.548259 105.000000
0.816184 0.017164 -0.551147 105.000000
0.816304 0.007094 -0.551207 103.000000
0.820478 -0.002991 -0.554005 103.000000
0.816274 -0.013046 -0.551117 105.000000
0.803696 -0.022764 -0.542606 103.000000
0.811622 -0.033018 -0.548229 95.000000
0.798905 -0.042378 -0.539603 103.000000
0.831499 -0.054378 -0.561847 75.000000
0.834988 -0.064944 -0.564488 100.000000
0.813509 -0.073406 -0.550515 103.000000
0.833355 -0.085564 -0.564180 103.000000
0.836427 -0.096302 -0.566849 103.000000
0.835312 -0.106648 -0.566663 103.000000
0.838213 -0.117539 -0.569205 103.000000
0.828701 -0.126620 -0.563317 100.000000
0.839600 -0.138854 -0.571307 95.000000
0.829953 -0.147721 -0.565300 100.000000
0.828250 -0.158005 -0.565021 100.000000
0.834595 -0.169884 -0.570275 103.000000
0.832687 -0.180207 -0.569868 100.000000
0.838821 -0.192325 -0.574986 103.000000
0.836737 -0.202685 -0.574481 103.000000
0.838430 -0.214075 -0.576907 100.000000
0.808006 -0.216838 -0.556909 77.000000
0.825590 -0.232511 -0.570291 103.000000
0.819018 -0.241548 -0.567022 100.000000
0.816328 -0.251683 -0.566459 100.000000
0.805638 -0.259202 -0.560313 105.000000
0.802664 -0.269238 -0.559879 103.000000
0.799752 -0.279150 -0.559167 103.000000
0.800517 -0.290517 -0.561392 98.000000
0.817012 -0.307747 -0.574323 98.000000
0.817461 -0.319409 -0.576398 98.000000
0.821688 -0.332706 -0.581176 100.000000
0.806456 -0.338043 -0.572186 100.000000
0.802789 -0.348025 -0.571357 103.000000
0.798771 -0.358103 -0.570751 98.000000
0.806354 -0.373239 -0.578005 100.000000
0.798591 -0.381394 -0.574313 100.000000
0.801838 -0.395085 -0.578977 98.000000
0.793674 -0.403193 -0.575417 100.000000
0.796655 -0.417022 -0.579964 100.000000
0.788350 -0.424953 -0.576344 100.000000
0.783669 -0.434801 -0.575369 100.000000
0.782581 -0.446639 -0.577025 98.000000
0.803189 -0.471298 -0.594821 100.000000
0.852266 -0.513945 -0.633969 100.000000
0.882636 -0.546758 -0.659481 73.000000
0.912070 -0.580586 -0.685156 84.000000
0.912976 -0.596499 -0.689013 83.000000
0.902810 -0.605677 -0.685088 91.000000
0.903038 -0.621851 -0.689075 91.000000
1.301114 -0.990874 -1.015372 29.000000
1.330522 -1.038599 -1.044657 9.000000
1.382393 -1.105825 -1.092051 15.000000
1.386224 -1.137103 -1.102928 23.000000
1.377218 -1.157190 -1.102843 16.000000
1.368089 -1.177230 -1.102617 24.000000
1.361912 -1.199982 -1.104912 16.000000
1.354769 -1.223220 -1.107570 18.000000
1.357515 -1.254683 -1.117441 18.000000
1.343408 -1.272151 -1.114739 9.000000
1.339329 -1.297778 -1.119228 10.000000
1.333997 -1.324105 -1.124073 15.000000
1.334354 -1.356525 -1.133863 16.000000
1.320226 -1.373154 -1.130348 19.000000
1.316868 -1.402604 -1.137416 14.000000
1.318923 -1.438573 -1.149435 17.000000
1.320353 -1.474787 -1.161297 19.000000
1.295720 -1.482056 -1.150298 9.000000
1.296344 -1.518405 -1.161979 16.000000
1.285317 -1.541687 -1.163398 20.000000
1.279545 -1.571688 -1.169786 17.000000
1.267944 -1.594899 -1.170984 21.000000
1.253322 -1.614679 -1.169666 15.000000
1.264794 -1.668863 -1.193012 23.000000
1.249509 -1.688613 -1.191507 17.000000
1.236478 -1.711813 -1.192297 9.000000
1.218198 -1.727724 -1.188152 10.000000
1.218282 -1.772772 -1.203914 10.000000
1.206699 -1.799453 -1.206851 10.000000
1.199522 -1.833341 -1.214582 12.000000
1.188063 -1.864237 -1.220196 10.000000
1.184453 -1.905781 -1.232422 10.000000
1.171040 -1.932429 -1.234928 10.000000
0.493892 0.818154 -0.513660 21.000000
0.511730 0.826659 -0.525118 22.000000
0.518713 0.815970 -0.524521 27.000000
0.527307 0.809189 -0.526468 21.000000
0.548630 0.820267 -0.540184 28.000000
0.557213 0.813126 -0.542141 27.000000
0.570825 0.813080 -0.548865 24.000000
0.580039 0.805355 -0.550562 19.000000
0.562632 0.762692 -0.528130 10.000000
0.615457 0.814587 -0.571396 14.000000
0.653510 0.844543 -0.600238 21.000000
0.692266 0.873633 -0.629219 18.000000
0.745452 0.918730 -0.670662 14.000000
0.813645 0.979289 -0.724676 13.000000
0.869157 1.021686 -0.766606 10.000000
0.940009 1.079137 -0.821123 9.000000
1.299603 1.389703 -1.104297 21.000000
1.314777 1.372986 -1.107318 21.000000
1.311615 1.337575 -1.095198 16.000000
1.328444 1.324196 -1.100974 24.000000
1.336806 1.301061 -1.098753 14.000000
1.301216 1.236442 -1.060762 10.000000
1.295162 1.202596 -1.048446 24.000000
1.232110 1.116664 -0.989526 26.000000
1.169881 1.035747 -0.933217 60.000000
0.727011 0.598877 -0.568127 52.000000
0.733725 0.589511 -0.569269 95.000000
0.740036 0.580280 -0.570612 61.000000
0.753030 0.576172 -0.577120 48.000000
0.776329 0.579450 -0.591400 98.000000
0.779117 0.567173 -0.590036 95.000000
0.781815 0.554878 -0.588627 98.000000
0.780820 0.540180 -0.584552 95.000000
0.793488 0.535309 -0.591167 95.000000
0.785148 0.515945 -0.581703 98.000000
0.794391 0.508287 -0.585352 95.000000
0.781698 0.487237 -0.573360 68.000000
0.798010 0.483936 -0.582227 98.000000
0.799462 0.471878 -0.580683 100.000000
0.819168 0.470357 -0.592378 103.000000
0.820508 0.458119 -0.590771 98.000000
0.817984 0.443854 -0.586423 103.000000
0.822751 0.433649 -0.587363 100.000000
0.819928 0.419528 -0.582921 98.000000
0.816954 0.405527 -0.578397 95.000000
0.794752 0.382499 -0.560418 95.000000
0.794917 0.370925 -0.558657 100.000000
0.810535 0.366166 -0.567391 100.000000
0.818259 0.357841 -0.570921 98.000000
0.814513 0.344307 -0.566112 100.000000
0.825990 0.337429 -0.572280 100.000000
0.829613 0.327174 -0.572959 95.000000
0.813489 0.309413 -0.560109 79.000000
0.816648 0.299432 -0.560899 100.000000
0.823894 0.290691 -0.564148 100.000000
0.830885 0.281915 -0.567594 105.000000
0.826061 0.268952 -0.562573 100.000000
0.828903 0.258782 -0.563204 103.000000
0.835669 0.249749 -0.566465 105.000000
0.834304 0.238282 -0.564247 103.000000
0.832852 0.226884 -0.561961 87.000000
0.831248 0.215523 -0.559608 100.000000
0.833469 0.205325 -0.560140 98.000000
0.831551 0.194114 -0.557906 100.000000
0.829644 0.182909 -0.555388 100.000000
0.827468 0.171868 -0.553022 103.000000
0.829163 0.161727 -0.553546 100.000000
0.839147 0.152994 -0.559276 95.000000
0.836706 0.141960 -0.556751 89.000000
0.834033 0.131028 -0.554347 100.000000
0.831254 0.120196 -0.551910 103.000000
0.828369 0.109436 -0.549408 103.000000
0.833676 0.099739 -0.552308 103.000000
0.834750 0.089465 -0.552431 105.000000
0.835609 0.079221 -0.552707 108.000000
0.836529 0.068947 -0.552707 103.000000
0.816378 0.057213 -0.539108 81.000000
0.829480 0.047916 -0.547450 100.000000
0.825675 0.037554 -0.544911 103.000000
0.821925 0.027294 -0.542129 103.000000
0.830482 0.017369 -0.547754 103.000000
0.826430 0.007160 -0.545032 103.000000
0.826460 -0.002991 -0.545032 105.000000
0.826400 -0.013142 -0.544971 98.000000
0.842941 -0.023734 -0.555858 100.000000
0.821715 -0.033246 -0.542099 103.000000
0.808906 -0.042657 -0.533607 98.000000
0.845906 -0.055012 -0.558269 84.000000
0.845255 -0.065389 -0.558083 103.000000
0.840259 -0.075423 -0.555334 103.000000
0.843613 -0.086142 -0.557773 100.000000
0.821838 -0.094112 -0.543914 103.000000
0.845590 -0.107360 -0.560209 103.000000
0.844376 -0.117757 -0.559960 108.000000
0.838967 -0.127494 -0.556875 100.000000
0.862329 -0.141851 -0.572951 86.000000
0.844199 -0.149521 -0.561767 100.000000
0.842478 -0.159906 -0.561485 98.000000
0.840820 -0.170197 -0.560953 100.000000
0.847128 -0.182313 -0.566016 103.000000
0.849031 -0.193699 -0.568496 100.000000
0.846936 -0.204109 -0.568020 103.000000
0.840685 -0.213456 -0.564721 100.000000
0.818036 -0.218410 -0.550679 77.000000
0.839795 -0.235276 -0.566560 103.000000
0.833167 -0.244410 -0.563331 95.000000
0.834463 -0.255906 -0.565481 100.000000
0.823704 -0.263598 -0.559415 103.000000
0.816672 -0.272453 -0.556261 103.000000
0.817732 -0.283841 -0.558252 100.000000
0.814526 -0.293962 -0.557686 98.000000
0.811446 -0.303927 -0.556869 52.000000
0.831586 -0.323098 -0.572409 100.000000
0.828028 -0.333353 -0.571697 103.000000
0.828294 -0.345163 -0.573614 103.000000
0.820458 -0.353829 -0.570306 98.000000
0.820493 -0.365639 -0.572151 100.000000
0.816366 -0.375844 -0.571436 98.000000
0.812335 -0.385854 -0.570461 95.000000
0.811839 -0.397821 -0.572356 61.000000
0.811171 -0.409817 -0.574178 103.000000
0.802892 -0.417903 -0.570625 100.000000
0.816939 -0.437860 -0.582989 100.000000
0.860371 -0.474578 -0.616533 100.000000
0.892065 -0.506148 -0.641963 103.000000
0.908582 -0.529974 -0.656669 100.000000
0.913789 -0.547722 -0.663310 95.000000
0.914855 -0.563668 -0.667515 98.000000
0.930386 -0.588575 -0.681883 58.000000
0.923826 -0.600234 -0.680658 98.000000
0.938353 -0.625986 -0.695132 95.000000
1.329545 -0.981613 -1.006474 34.000000
1.366506 -1.034318 -1.040620 23.000000
1.378967 -1.069742 -1.056295 13.000000
1.410956 -1.121557 -1.087382 18.000000
1.404815 -1.144958 -1.090353 16.000000
1.395843 -1.165198 -1.090149 21.000000
1.386620 -1.185326 -1.089931 18.000000
1.389416 -1.217117 -1.100261 15.000000
1.395764 -1.251597 -1.112553 20.000000
1.378558 -1.266515 -1.107413 10.000000
1.365216 -1.283574 -1.104227 10.000000
1.363368 -1.312927 -1.111567 13.000000
1.361054 -1.342398 -1.118789 13.000000
1.362334 -1.374570 -1.127998 20.000000
1.350165 -1.395041 -1.127433 17.000000
1.346710 -1.424749 -1.134297 18.000000
1.339904 -1.451510 -1.138608 19.000000
1.324039 -1.468557 -1.135269 10.000000
1.330984 -1.511455 -1.151787 13.000000
1.317320 -1.531741 -1.150793 13.000000
1.309109 -1.558476 -1.154575 20.000000
1.292256 -1.575115 -1.150933 19.000000
1.288812 -1.608616 -1.159549 16.000000
1.287693 -1.645685 -1.170384 19.000000
1.275308 -1.668997 -1.171381 18.000000
1.270470 -1.702809 -1.179553 15.000000
1.257455 -1.726050 -1.180311 13.000000
1.247943 -1.757014 -1.186307 9.000000
1.239243 -1.787419 -1.191638 10.000000
1.230240 -1.817703 -1.196899 11.000000
1.221660 -1.852447 -1.204861 10.000000
1.204468 -1.871789 -1.202769 10.000000
1.206540 -1.925237 -1.222366 10.000000
1.183928 -1.937065 -1.215282 9.000000
0.488386 0.822689 -0.501075 9.000000
0.496956 0.816328 -0.502987 15.000000
0.503808 0.805856 -0.502397 14.000000
0.526534 0.821635 -0.518340 25.000000
0.533316 0.810867 -0.517740 16.000000
0.539346 0.800331 -0.517258 10.000000
0.565241 0.818774 -0.535722 18.000000
0.566823 0.800419 -0.530278 10.000000
0.580421 0.800251 -0.536922 9.000000
0.607223 0.817466 -0.555503 10.000000
0.637720 0.837305 -0.576379 10.000000
0.687032 0.880920 -0.614426 10.000000
0.731913 0.916588 -0.647877 10.000000
0.797036 0.974927 -0.698423 9.000000
0.860721 1.028377 -0.746842 9.000000
0.931409 1.086960 -0.800381 9.000000
1.304882 1.419119 -1.090601 10.000000
1.317246 1.399325 -1.091241 9.000000
1.332488 1.382464 -1.094209 10.000000
1.344479 1.362311 -1.094694 12.000000
1.350037 1.336002 -1.090121 10.000000
1.361557 1.315748 -1.090433 11.000000
1.321664 1.248349 -1.051089 9.000000
1.316302 1.213838 -1.038601 11.000000
1.300108 1.171445 -1.018803 19.000000
1.270878 1.117753 -0.988374 17.000000
0.766807 0.612270 -0.580263 18.000000
0.749571 0.584232 -0.563763 33.000000
0.772909 0.587863 -0.577828 27.000000
0.775738 0.575649 -0.576576 56.000000
0.781952 0.565933 -0.577812 60.000000
0.784561 0.553677 -0.576440 62.000000
0.794106 0.546295 -0.580147 71.000000
0.796489 0.533955 -0.578696 83.000000
0.809463 0.528653 -0.584932 62.000000
0.807769 0.514097 -0.581021 90.000000
0.791620 0.490480 -0.566422 29.000000
0.807741 0.487316 -0.575363 95.000000
0.820529 0.481483 -0.581489 90.000000
0.829302 0.473457 -0.585190 87.000000
0.834360 0.463203 -0.586216 95.000000
0.828076 0.446815 -0.579343 79.000000
0.832864 0.436564 -0.580321 95.000000
0.833795 0.424316 -0.578568 95.000000
0.830772 0.410180 -0.574139 44.000000
0.800748 0.383360 -0.551202 95.000000
0.812660 0.376983 -0.557217 75.000000
0.820458 0.368742 -0.560731 91.000000
0.820645 0.356861 -0.558730 95.000000
0.832259 0.350071 -0.564839 95.000000
0.832039 0.338205 -0.562931 98.000000
0.835662 0.327983 -0.563643 95.000000
0.835230 0.316165 -0.561628 69.000000
0.826719 0.301514 -0.554246 100.000000
0.826029 0.289893 -0.552118 98.000000
0.833035 0.281138 -0.555515 98.000000
0.836145 0.270854 -0.555959 103.000000
0.830934 0.258097 -0.551211 100.000000
0.837716 0.249116 -0.554455 103.000000
0.844429 0.239973 -0.557642 103.000000
0.855144 0.231802 -0.563452 98.000000
0.833170 0.214969 -0.547727 100.000000
0.839475 0.205795 -0.550975 100.000000
0.841759 0.195441 -0.551257 100.000000
0.839676 0.184246 -0.548972 103.000000
0.845731 0.174827 -0.552070 95.000000
0.847608 0.164473 -0.552383 100.000000
0.845248 0.153305 -0.549968 100.000000
0.850924 0.143703 -0.553071 100.000000
0.844202 0.131955 -0.547830 103.000000
0.849730 0.122239 -0.550840 103.000000
0.846835 0.111294 -0.548356 105.000000
0.852189 0.101446 -0.551244 103.000000
0.853279 0.091018 -0.551369 103.000000
0.854150 0.080590 -0.551649 103.000000
0.850769 0.069818 -0.549131 103.000000
0.851574 0.059411 -0.549100 100.000000
0.835371 0.048037 -0.538371 100.000000
0.835766 0.037835 -0.538584 103.000000
0.836191 0.027632 -0.538553 103.000000
0.844810 0.017605 -0.544089 103.000000
0.840698 0.007263 -0.541412 105.000000
0.840759 -0.003021 -0.541412 100.000000
0.844902 -0.013342 -0.544058 105.000000
0.840546 -0.023560 -0.541229 100.000000
0.877988 -0.035335 -0.565585 103.000000
0.869270 -0.045610 -0.559920 100.000000
0.839325 -0.054321 -0.540894 95.000000
0.863750 -0.066512 -0.557152 100.000000
0.858838 -0.076669 -0.554197 105.000000
0.858025 -0.087148 -0.553915 103.000000
0.861141 -0.098103 -0.556492 103.000000
0.860010 -0.108633 -0.556272 103.000000
0.854646 -0.118553 -0.553321 100.000000
0.861658 -0.130228 -0.558403 100.000000
0.855955 -0.140097 -0.555517 95.000000
0.858594 -0.151264 -0.557803 100.000000
0.856888 -0.161782 -0.557487 98.000000
0.850926 -0.171405 -0.554480 100.000000
0.849040 -0.181809 -0.554071 100.000000
0.842916 -0.191249 -0.550912 98.000000
0.848929 -0.203570 -0.556003 98.000000
0.846749 -0.213898 -0.555434 98.000000
0.852475 -0.226457 -0.560386 95.000000
0.841822 -0.234619 -0.554550 95.000000
0.843286 -0.246099 -0.556689 100.000000
0.840588 -0.256414 -0.556118 100.000000
0.829740 -0.264132 -0.550174 95.000000
0.826722 -0.274348 -0.549702 100.000000
0.823799 -0.284407 -0.548979 95.000000
0.820593 -0.294560 -0.548413 100.000000
0.821291 -0.306097 -0.550475 69.000000
0.833684 -0.322315 -0.560437 98.000000
0.845913 -0.338824 -0.570339 98.000000
0.830454 -0.344319 -0.561605 95.000000
0.834533 -0.357820 -0.566054 95.000000
0.822723 -0.364731 -0.560117 95.000000
0.822671 -0.376527 -0.561849 91.000000
0.818446 -0.386699 -0.561101 91.000000
0.844734 -0.411711 -0.581332 69.000000
0.840182 -0.422131 -0.580455 62.000000
0.903580 -0.467709 -0.626748 100.000000
0.928511 -0.494859 -0.646671 95.000000
0.930596 -0.510417 -0.650768 98.000000
0.928802 -0.523911 -0.652199 95.000000
0.934235 -0.541740 -0.658790 78.000000
0.953775 -0.568710 -0.675906 95.000000
0.951350 -0.582646 -0.677152 71.000000
0.948439 -0.596752 -0.678547 28.000000
1.333116 -0.930498 -0.973639 24.000000
1.361334 -0.974524 -0.999815 25.000000
1.388778 -1.019388 -1.025751 18.000000
1.398317 -1.052091 -1.038739 16.000000
1.414214 -1.090376 -1.056751 10.000000
1.409258 -1.113192 -1.059298 9.000000
1.436786 -1.163621 -1.087490 10.000000
1.417708 -1.175853 -1.079684 10.000000
1.414349 -1.202223 -1.084907 11.000000
1.408074 -1.225283 -1.087053 10.000000
1.404046 -1.251714 -1.092013 10.000000
1.397232 -1.274872 -1.093967 10.000000
1.376699 -1.286627 -1.086305 9.000000
1.375827 -1.315473 -1.093012 9.000000
1.379897 -1.351038 -1.105099 11.000000
1.368094 -1.371564 -1.104656 10.000000
1.377254 -1.413762 -1.121353 10.000000
1.361737 -1.431150 -1.118235 13.000000
1.352010 -1.454711 -1.119961 10.000000
1.350797 -1.487966 -1.128935 10.000000
1.334618 -1.504989 -1.125559 9.000000
1.318299 -1.521871 -1.122112 8.000000
1.321606 -1.561833 -1.135580 11.000000
1.327056 -1.605527 -1.151360 10.000000
1.312594 -1.625640 -1.150067 10.000000
1.297841 -1.645678 -1.148685 10.000000
1.290977 -1.675997 -1.154399 10.000000
1.277132 -1.699938 -1.155718 10.000000
1.274571 -1.737386 -1.166008 9.000000
1.266433 -1.767775 -1.171381 8.000000
1.253951 -1.795346 -1.174702 9.000000
1.259841 -1.847638 -1.193929 9.000000
1.242792 -1.867250 -1.191865 9.000000
1.226518 -1.891022 -1.192511 9.000000
1.218504 -1.925356 -1.199644 9.000000
1.212924 -1.967934 -1.211729 9.000000
1.210567 -2.013783 -1.225528 9.000000
0.507372 0.847473 -0.506390 20.000000
0.495286 0.806843 -0.487713 11.000000
0.501921 0.796456 -0.487138 47.000000
0.507828 0.786292 -0.486643 29.000000
0.519066 0.783225 -0.490599 30.000000
0.532192 0.783953 -0.497056 51.000000
0.548559 0.787757 -0.505680 24.000000
0.569668 0.798761 -0.519161 16.000000
0.591677 0.809027 -0.532516 10.000000
0.631926 0.843881 -0.562600 10.000000
0.664994 0.867334 -0.585753 21.000000
0.721011 0.917407 -0.627766 17.000000
0.769362 0.956253 -0.663059 13.000000
0.838211 1.017700 -0.715256 17.000000
0.902834 1.070862 -0.762989 10.000000
0.971594 1.125844 -0.813308 9.000000
1.309839 1.448602 -1.076481 9.000000
1.331367 1.438350 -1.084453 10.000000
1.349960 1.424638 -1.089957 21.000000
1.353143 1.395038 -1.083234 11.000000
1.343687 1.353089 -1.066628 18.000000
1.364640 1.342133 -1.074390 17.000000
1.363534 1.309761 -1.064868 10.000000
1.362031 1.277587 -1.055284 10.000000
1.372048 1.257890 -1.055828 10.000000
1.385828 1.240453 -1.058375 11.000000
1.396272 1.220028 -1.058313 17.000000
1.369444 1.169024 -1.031358 10.000000
1.382362 1.151610 -1.033574 17.000000
0.786449 0.609323 -0.576825 10.000000
0.782564 0.591746 -0.570617 47.000000
0.778477 0.574355 -0.564341 64.000000
0.788132 0.567204 -0.568096 79.000000
0.794243 0.557419 -0.569263 98.000000
0.800285 0.547531 -0.570431 88.000000
0.799024 0.532796 -0.566449 98.000000
0.808452 0.525171 -0.570083 95.000000
0.799655 0.505890 -0.560910 90.000000
0.819561 0.505142 -0.572305 87.000000
0.821414 0.492712 -0.570702 81.000000
0.830327 0.484805 -0.574390 95.000000
0.828232 0.470212 -0.570108 95.000000
0.829458 0.457944 -0.568552 77.000000
0.830573 0.445734 -0.566953 100.000000
0.827745 0.431536 -0.562730 98.000000
0.836221 0.423290 -0.566213 95.000000
0.817731 0.401650 -0.551513 65.000000
0.825978 0.393413 -0.554886 81.000000
0.834135 0.384983 -0.558234 95.000000
0.830569 0.371196 -0.553723 95.000000
0.830519 0.359361 -0.551965 80.000000
0.826625 0.345781 -0.547334 98.000000
0.826356 0.334089 -0.545493 87.000000
0.825925 0.322429 -0.543582 95.000000
0.841347 0.316809 -0.552066 86.000000
0.840756 0.305022 -0.550058 98.000000
0.844057 0.294704 -0.550635 98.000000
0.843067 0.283095 -0.548714 100.000000
0.834046 0.268816 -0.541278 98.000000
0.832812 0.257407 -0.539245 100.000000
0.843685 0.249653 -0.545074 98.000000
0.838161 0.237044 -0.540308 98.000000
0.848897 0.228996 -0.546022 95.000000
0.851361 0.218605 -0.546432 95.000000
0.853761 0.208181 -0.546780 98.000000
0.843505 0.194954 -0.539354 98.000000
0.833216 0.181905 -0.531637 105.000000
0.860078 0.176880 -0.547917 98.000000
0.832794 0.160767 -0.529694 98.000000
0.834412 0.150665 -0.530151 95.000000
0.852750 0.143282 -0.540972 84.000000
0.850149 0.132234 -0.538475 103.000000
0.859901 0.123089 -0.544093 100.000000
0.848581 0.110993 -0.536378 98.000000
0.858166 0.101664 -0.541875 100.000000
0.855043 0.090758 -0.539343 98.000000
0.855911 0.080381 -0.539621 98.000000
0.860905 0.070318 -0.542466 98.000000
0.849042 0.058948 -0.534458 77.000000
0.845428 0.048401 -0.531891 95.000000
0.850054 0.038338 -0.534765 98.000000
0.854684 0.028141 -0.537395 98.000000
0.854900 0.017754 -0.537518 98.000000
0.880420 0.007585 -0.553516 103.000000
0.880452 -0.003142 -0.553516 103.000000
0.825364 -0.012973 -0.518861 100.000000
0.863302 -0.024062 -0.542684 103.000000
0.867190 -0.034721 -0.545345 100.000000
0.871074 -0.045452 -0.547753 103.000000
0.870540 -0.056045 -0.547659 98.000000
0.869754 -0.066638 -0.547690 103.000000
0.869031 -0.077200 -0.547470 98.000000
0.872428 -0.088156 -0.549844 100.000000
0.858757 -0.097337 -0.541719 103.000000
0.861841 -0.108293 -0.544156 103.000000
0.860621 -0.118772 -0.543906 105.000000
0.859338 -0.129220 -0.543562 105.000000
0.866174 -0.141030 -0.548707 95.000000
0.856179 -0.150146 -0.543155 103.000000
0.854615 -0.160500 -0.542686 100.000000
0.861152 -0.172553 -0.547601 98.000000
0.859226 -0.183008 -0.547222 103.000000
0.865391 -0.195395 -0.552222 100.000000
0.855025 -0.203917 -0.546432 103.000000
0.860926 -0.216411 -0.551329 100.000000
0.854394 -0.225818 -0.548279 98.000000
0.847792 -0.235092 -0.545169 98.000000
0.849285 -0.246606 -0.547295 100.000000
0.846555 -0.256953 -0.546724 100.000000
0.847851 -0.268489 -0.548714 100.000000
0.840747 -0.277551 -0.545613 98.000000
0.845851 -0.290506 -0.550122 98.000000
0.842615 -0.300856 -0.549545 98.000000
0.843279 -0.312624 -0.551550 95.000000
0.827893 -0.318303 -0.543042 98.000000
0.836292 -0.333132 -0.550134 98.000000
0.836633 -0.344933 -0.551965 100.000000
0.832718 -0.355253 -0.551350 98.000000
0.836721 -0.368825 -0.555703 98.000000
0.848136 -0.386197 -0.565358 100.000000
0.913520 -0.429356 -0.611210 98.000000
0.970340 -0.470424 -0.651687 62.000000
0.965149 -0.482344 -0.650687 95.000000
0.956072 -0.492188 -0.647071 77.000000
0.958285 -0.507923 -0.651146 98.000000
0.952765 -0.519620 -0.649988 95.000000
0.950872 -0.533340 -0.651356 95.000000
0.933705 -0.538722 -0.642667 89.000000
0.935316 -0.554480 -0.646514 95.000000
1.442094 -0.926193 -1.011276 15.000000
1.467806 -0.967705 -1.034692 17.000000
1.471447 -0.995486 -1.042762 16.000000
1.474687 -1.023496 -1.050727 13.000000
1.470552 -1.046722 -1.053547 13.000000
1.476653 -1.077573 -1.063825 17.000000
1.458044 -1.090530 -1.056354 10.000000
1.432547 -1.097921 -1.043900 9.000000
1.433697 -1.126632 -1.051793 13.000000
1.425061 -1.146952 -1.051652 10.000000
1.439610 -1.186476 -1.068832 13.000000
1.419592 -1.198982 -1.061510 10.000000
1.426645 -1.233340 -1.073477 10.000000
1.425893 -1.262819 -1.080831 14.000000
1.418304 -1.286578 -1.083148 15.000000
1.392105 -1.291980 -1.070175 8.000000
1.399922 -1.330501 -1.084585 12.000000
1.394703 -1.357137 -1.089071 10.000000
1.389012 -1.383873 -1.093451 14.000000
1.386110 -1.413759 -1.100151 11.000000
1.382799 -1.443745 -1.106727 10.000000
1.381996 -1.477094 -1.115593 14.000000
1.351140 -1.478193 -1.100312 10.000000
1.381917 -1.547484 -1.135370 9.000000
1.342083 -1.538340 -1.112762 11.000000
1.339732 -1.571806 -1.121213 10.000000
1.331323 -1.598728 -1.124761 12.000000
1.328037 -1.632476 -1.133003 15.000000
1.327056 -1.669732 -1.143385 10.000000
1.318887 -1.700956 -1.149409 13.000000
1.300718 -1.717487 -1.145463 10.000000
1.308831 -1.769247 -1.164908 9.000000
1.286182 -1.782757 -1.158853 10.000000
1.274948 -1.809692 -1.161652 9.000000
1.272142 -1.851893 -1.174047 10.000000
1.257666 -1.875198 -1.174329 9.000000
1.246258 -1.906529 -1.179565 9.000000
1.245420 -1.952160 -1.193349 10.000000
1.232872 -1.983650 -1.198265 9.000000
1.232822 -2.033545 -1.214081 9.000000
0.498740 0.848364 -0.491455 35.000000
0.503553 0.834066 -0.488750 33.000000
0.486356 0.785884 -0.465889 32.000000
0.504673 0.794470 -0.476534 29.000000
0.508659 0.780338 -0.473643 61.000000
0.524145 0.785037 -0.482253 36.000000
0.532911 0.778114 -0.483838 35.000000
0.558895 0.796856 -0.501619 25.000000
0.604081 0.840010 -0.535392 14.000000
0.628681 0.853801 -0.551112 10.000000
0.656328 0.870662 -0.569243 19.000000
0.693203 0.897109 -0.594180 20.000000
0.757551 0.957805 -0.642706 32.000000
0.834457 1.030701 -0.700882 20.000000
0.879928 1.060646 -0.731012 13.000000
0.956858 1.126924 -0.787405 18.000000
1.299901 1.461482 -1.050042 9.000000
1.345180 1.477703 -1.076878 18.000000
